-0.137937 -0.004019 0.018531
0.151623 -0.863160 0.158451
0.032028 0.869659 -0.006054
0.632778 0.038164 0.107831
0.261526 0.357924 -0.106993
0.205519 -0.384259 -0.000011
-0.232208 0.463412 -0.037942
-0.571207 0.038165 0.047250
-0.113736 -0.671999 -0.088871
0.205945 0.024878 -0.016043
-0.128117 -0.358629 0.026568
0.048634 0.282041 0.122425
0.078980 0.573004 0.009080
0.166936 -0.694153 -0.068533
0.491814 0.236322 -0.030042
-0.373116 0.216605 0.009580
-0.026847 0.313902 -0.130000
-0.093655 -0.863300 0.084943
0.077911 -0.159355 0.088838
0.010154 0.005888 -0.145747
0.026896 -0.494669 -0.010448
-0.025287 -0.856206 -0.113501
-0.124499 0.205006 0.014178
-0.031633 -0.220190 -0.089597
0.071104 0.071888 0.130530
0.135553 0.185425 -0.096467
0.179631 -0.150886 -0.072749
-0.084441 0.453699 0.074891
-0.070734 0.547623 -0.097266
0.021878 0.714893 -0.096826
0.244408 0.527103 -0.026941
-0.130375 -0.190188 0.074637
0.108260 0.431841 -0.146395
0.039983 0.735761 0.105803
0.074531 -0.807727 0.018150
-0.095214 -0.587730 0.055975
0.180191 0.389284 0.041413
-0.297475 0.317573 -0.096828
0.059463 -0.316945 0.053108
0.106852 -0.305885 -0.099428
0.159170 -0.566656 0.042942
-0.052073 -0.073184 0.127008
0.139108 -0.551421 -0.106166
-0.098101 -0.511674 -0.087661
-0.082494 0.107661 -0.095830
0.116249 -0.820986 -0.117526
0.144166 0.184527 0.084966
-0.092746 -0.075666 -0.094060
0.019464 -0.646459 -0.055308
0.183549 -0.248255 0.071665
0.365900 0.257696 -0.082847
0.545857 0.122221 0.025337
0.157915 -0.030299 0.103213
-0.127202 0.380494 -0.061915
-0.478457 0.151134 0.062307
-0.054994 0.140430 0.105443
0.059935 0.465774 0.082263
-0.061708 -0.376713 -0.084412
-0.070164 -0.749711 0.029181
-0.156249 0.540004 0.018418
0.150175 0.015042 -0.123723
-0.014895 -0.236672 0.105619
0.204004 -0.130749 0.050710
-0.035786 -0.437403 0.075755
-0.036236 0.771411 0.002854
0.101584 0.774926 0.008283
0.021965 0.173863 -0.116730
-0.055108 0.346329 0.099270
0.145124 0.297292 -0.108186
0.074546 -0.134430 -0.107327
0.164028 0.551726 -0.100462
0.007601 -0.752408 -0.088014
0.316334 0.449395 -0.060769
0.177745 0.278834 0.029268
-0.000489 0.429251 -0.128362
0.079500 0.814228 -0.091774
0.061950 0.529860 -0.125254
0.053476 -0.401606 -0.055959
0.118779 -0.705290 0.026252
-0.111530 -0.810374 -0.070405
0.633134 0.045771 0.001981
0.181750 -0.789071 -0.027217
0.135934 -0.445261 -0.102308
-0.264203 0.304748 -0.000219
-0.475959 0.149559 -0.040285
-0.023339 0.574360 0.005514
-0.134036 -0.457836 0.020890
0.191621 0.122694 -0.024981
-0.143856 -0.104485 0.027647
-0.042874 -0.330274 0.097779
0.198723 -0.290793 -0.028513
0.146097 -0.355088 0.078075
-0.062755 0.226931 -0.106117
0.143476 0.508000 0.040935
0.011022 0.604332 -0.079438
-0.125133 0.110898 0.032767
0.042748 -0.063713 0.120612
-0.114308 -0.218635 -0.042351
-0.102013 0.014334 0.104456
0.358464 0.337014 -0.134087
0.133735 -0.869794 0.055196
-0.118136 -0.664480 0.008180
0.215317 0.435538 -0.130116
0.034459 0.190369 0.129881
-0.221219 0.383469 0.023874
-0.212267 0.344953 -0.072438
-0.363000 0.253318 -0.083828
0.104592 -0.481481 0.037512
-0.076842 0.240402 0.083898
0.292705 0.367873 -0.021838
-0.088505 0.452642 -0.123786
0.150053 0.083106 0.088488
-0.115627 0.321257 0.004277
0.085762 0.695790 -0.038137
0.185748 -0.645686 0.015972
0.065506 0.664790 0.062032
0.110136 0.382506 0.092217
-0.014353 -0.589823 0.026736
-0.053595 -0.612768 -0.103491
0.131620 -0.068067 -0.130620
0.055012 0.337345 -0.135349
-0.009051 0.837763 -0.072977
-0.347946 0.311381 -0.010964
0.199257 -0.530225 -0.050527
0.087916 -0.216485 -0.093760
-0.023405 -0.136723 -0.094622
-0.005154 -0.817071 -0.006799
0.024068 -0.236598 -0.030064
-0.064514 -0.155138 0.121000
-0.070028 -0.848534 0.163106
-0.014804 -0.444795 -0.074440
-0.004856 -0.535520 -0.074785
0.169978 -0.441684 0.067258
0.428713 0.207384 -0.096273
0.149009 -0.110401 0.109179
0.106612 -0.864877 -0.027721
0.127917 0.304694 0.090794
-0.193131 0.455272 0.043416
0.088233 -0.615501 -0.080498
-0.007112 0.063145 0.133621
0.015472 0.804219 0.075886
-0.021204 0.694486 0.004417
0.062399 0.063478 -0.153030
-0.036168 -0.688761 -0.105162
-0.113037 -0.296631 0.094422
0.159471 0.380070 -0.119397
0.095084 0.589002 -0.087509
-0.126197 -0.127905 -0.044184
-0.178023 0.520236 -0.052917
0.008883 -0.705882 -0.008497
-0.032453 -0.509602 0.053268
-0.073628 0.371983 -0.117157
0.170530 -0.237565 -0.074209
-0.082654 0.035521 -0.118181
0.017670 -0.418997 0.025930
0.195277 -0.079241 -0.056472
0.379461 0.336210 -0.062509
-0.119197 -0.398779 -0.042411
0.059830 -0.243848 0.065839
0.228205 0.422645 -0.004269
0.191358 0.333447 -0.018638
-0.030643 0.763430 -0.078197
-0.287192 0.256806 -0.056093
0.151849 -0.376360 -0.082153
0.197009 0.034794 0.059554
-0.516892 0.108515 0.016900
-0.113933 -0.095504 0.095158
-0.026938 -0.835270 0.076583
0.034578 -0.307257 -0.016711
-0.270776 0.408597 -0.065535
-0.126039 -0.737222 -0.060028
-0.539604 0.088334 0.088307
-0.423989 0.240655 -0.047478
0.105818 -0.722291 -0.093821
0.034169 -0.156178 -0.052678
-0.103824 0.192899 -0.052969
0.097399 -0.401682 0.055422
0.186032 0.145920 0.041582
-0.006961 0.447593 0.094991
-0.027587 0.525879 0.056143
-0.131308 -0.267282 0.005309
0.207641 -0.177547 -0.014582
0.079002 0.272677 -0.138869
0.128719 -0.824005 0.106613
-0.047167 -0.859713 -0.040334
0.187824 -0.500520 0.037581
-0.303469 0.361698 -0.028528
-0.112064 0.264767 -0.033194
-0.103766 0.390187 0.065506
-0.002090 0.676085 0.065981
-0.128453 0.397520 0.002657
-0.030583 0.000796 0.138268
-0.033066 0.076666 -0.134190
0.460508 0.275279 -0.073247
0.039079 0.015335 0.142144
-0.414653 0.173198 -0.034861
-0.570127 0.031047 -0.018050
0.059714 -0.479277 -0.065126
-0.082273 -0.802204 -0.128508
0.082655 -0.779738 -0.072769
0.160622 -0.844451 -0.075919
0.017081 -0.086316 -0.090490
0.410466 0.301191 -0.119959
-0.061900 -0.644498 0.033102
0.191852 0.501197 -0.129534
0.104156 -0.597945 0.030245
0.142885 0.078557 -0.115076
0.593625 0.110140 0.066743
0.199884 0.393281 -0.071593
-0.120571 -0.544536 0.016772
0.059023 -0.744668 -0.005256
-0.139601 0.493776 -0.095805
-0.022539 0.831649 0.015931
0.001495 -0.375028 0.067840
0.040508 0.406567 0.098567
0.041760 -0.189570 0.040098
-0.096378 -0.425293 0.086019
0.072766 0.526676 0.050225
-0.106901 0.268807 0.036579
-0.101594 0.564277 0.001900
0.079147 0.849877 -0.041178
0.101606 0.251446 0.107205
0.053144 -0.549964 -0.005499
0.179927 -0.029914 -0.089083
-0.000044 0.317890 0.115121
0.128499 -0.192219 0.096831
0.185449 0.182861 -0.018328
-0.003650 0.679906 -0.051813
0.205328 0.471178 0.023810
0.082635 -0.548157 -0.084620
-0.019073 0.526092 -0.119966
0.521165 0.148922 -0.022663
0.273278 0.424230 -0.140814
0.010109 -0.810988 -0.064381
0.054177 0.651504 -0.062794
-0.269898 0.405645 -0.006051
0.008096 0.785905 -0.117182
0.254510 0.515863 -0.084309
-0.017955 -0.759340 -0.006138
0.198399 -0.029102 0.060377
0.182328 0.244001 -0.017905
0.177907 -0.636549 -0.072550
-0.191415 0.466251 -0.079870
-0.043525 -0.863507 0.028076
-0.098247 -0.270435 -0.064009
-0.030500 0.262065 0.111479
0.082226 -0.022448 0.130507
-0.162225 0.414484 -0.093154
0.214442 -0.101878 0.001625
-0.204407 0.344083 -0.014722
0.020198 -0.157232 0.082549
0.021578 0.134556 0.132499
0.166711 -0.717501 -0.002701
-0.103884 0.069489 0.089285
0.008215 -0.349009 -0.045318
-0.011057 0.755865 0.062108
-0.411454 0.175018 0.021803
0.568253 0.080099 -0.004825
-0.106866 -0.601178 -0.089852
-0.113640 -0.024960 -0.081817
0.102448 -0.294788 0.081136
0.202114 -0.286535 0.035636
0.163915 -0.805515 0.022886
-0.022903 0.141533 -0.111460
0.001651 -0.657766 0.018178
-0.010104 -0.784463 -0.129585
0.168371 0.279436 -0.061192
-0.056942 -0.045585 -0.123597
-0.016863 -0.115605 0.123498
0.092561 -0.033759 -0.149064
0.193329 0.068252 -0.047598
-0.094433 -0.457064 -0.081680
-0.458323 0.201496 -0.017727
0.132092 0.131917 -0.107583
0.068611 -0.083112 -0.125324
0.157344 -0.295331 0.078960
0.064527 0.747080 -0.106115
-0.131795 -0.502721 -0.046569
-0.395413 0.273259 -0.015508
-0.018233 0.396058 0.105416
-0.302141 0.254303 -0.004621
0.501266 0.189576 0.005867
0.100795 -0.869409 0.111168
0.100287 0.025882 -0.154713
0.120617 -0.652594 0.033989
0.331393 0.389769 -0.051194
0.179735 -0.438621 -0.072866
0.199007 -0.436321 0.008302
0.142422 0.581764 -0.062537
0.105074 0.160936 0.111743
0.349536 0.381051 -0.106467
0.626014 0.041555 0.055647
0.343001 0.299943 -0.050866
0.043429 0.608082 0.025772
0.267479 0.457201 -0.009758
0.441276 0.222791 -0.026566
0.334771 0.296258 -0.111197
-0.087329 0.173528 0.080867
-0.040982 0.817452 -0.036782
-0.029370 -0.272427 -0.089259
0.019147 0.554485 0.028471
-0.041286 0.005847 -0.136826
-0.119653 -0.372054 0.076257
0.055703 -0.297868 -0.063461
0.418739 0.301604 -0.056641
-0.004615 0.622815 0.006335
-0.038107 0.589498 -0.071578
-0.336825 0.222320 -0.027086
0.142331 -0.174088 -0.100066
-0.245280 0.303553 -0.048345
0.068237 -0.663617 -0.054241
0.118500 -0.870027 -0.101437
0.193222 -0.341308 -0.037578
-0.112302 -0.756842 0.000437
0.113225 0.532674 -0.128005
-0.491357 0.101543 0.064265
-0.131602 0.066360 0.008760
-0.117841 0.162290 0.041576
0.101805 -0.483104 -0.102444
0.036655 0.105015 -0.138634
0.171609 -0.848907 0.081790
0.254434 0.362021 -0.056902
-0.469578 0.126464 0.017240
0.167608 -0.083156 -0.098613
0.010764 0.485699 -0.124405
0.085500 0.637309 -0.026050
0.520835 0.211365 -0.062604
-0.113679 0.097260 -0.057860
0.200480 -0.024322 -0.043605
0.104617 -0.406283 -0.099693
0.028818 -0.280765 0.025228
0.061495 0.785628 0.079582
0.149968 -0.282495 -0.079492
-0.136615 -0.410296 0.007675
0.093634 0.708484 0.008902
0.134684 -0.751694 0.031258
0.188774 -0.328283 0.060298
0.277891 0.494059 -0.041098
0.153983 0.137086 0.077673
0.169328 -0.753130 -0.058064
0.297227 0.368352 -0.138769
0.066173 -0.364491 0.044015
0.165061 0.539296 0.010230
-0.054936 -0.481160 -0.097314
-0.060998 -0.224518 0.115070
-0.072255 -0.550143 -0.102226
0.199053 -0.622940 -0.031058
-0.060083 0.582418 -0.028933
0.039008 -0.105078 0.095582
0.008114 -0.704731 -0.079190
-0.065622 0.547422 0.029691
-0.101464 -0.719864 -0.097887
-0.111152 0.042676 -0.079896
0.074501 -0.454575 0.011778
-0.332144 0.335290 -0.056308
0.105102 0.771041 -0.039245
0.143364 -0.865589 0.008680
0.003898 -0.039275 0.133192
0.062379 0.483035 -0.133138
0.067974 0.857264 0.022351
0.138040 -0.651870 -0.093034
0.137042 0.469394 -0.144319
-0.042218 0.458296 -0.131973
0.101680 0.205943 -0.122083
0.093811 0.362089 -0.145369
-0.068437 -0.826999 0.121345
0.038695 0.858344 -0.063319
-0.137154 -0.142111 0.054586
0.127748 -0.600943 -0.100799
-0.001960 -0.607409 -0.069401
-0.077053 -0.687780 0.024215
-0.043018 -0.554486 0.046735
0.166849 -0.801663 -0.093200
0.388845 0.251667 -0.042855
-0.127467 -0.644170 -0.032590
0.021465 -0.435909 -0.017086
0.018130 0.552313 -0.111233
0.176412 0.435138 0.046799
-0.147139 0.508198 0.050712
0.005118 -0.493617 0.031631
-0.070748 -0.861351 -0.119945
0.139464 -0.246793 0.085130
-0.069256 -0.138426 -0.099133
-0.036255 0.185540 -0.108309
-0.132132 0.534685 -0.075922
0.173843 -0.395815 0.069584
0.031128 0.395793 -0.128992
0.052958 -0.695958 -0.017025
0.049382 -0.616388 -0.037750
-0.115849 -0.228270 0.095761
0.161829 -0.330695 -0.069337
0.008736 0.284962 -0.129080
0.591360 0.121303 0.020362
-0.026027 -0.280648 0.099486
0.130708 -0.065216 0.114818
-0.142590 -0.058852 0.029819
-0.118937 0.154478 -0.033414
-0.127224 -0.058927 -0.054585
-0.104700 -0.631307 0.041121
0.185043 0.565901 -0.061189
-0.068344 -0.390288 0.092471
0.186833 -0.101279 0.080526
0.198159 0.381679 -0.027946
-0.116622 0.338582 -0.074727
0.089938 -0.849507 0.011542
-0.191685 0.518044 -0.010162
-0.091319 -0.190131 0.112333
-0.134763 -0.163679 -0.018504
0.194147 -0.368220 0.040715
0.182306 0.219518 0.019611
0.587012 0.046614 0.018263
-0.118487 -0.051758 0.087005
-0.078170 -0.112678 0.118209
0.172029 -0.198015 0.088915
0.119122 0.570549 -0.010165
0.185435 -0.154418 0.083541
0.134071 -0.510406 0.054118
-0.199541 0.381461 -0.094476
0.161762 -0.828390 -0.021344
-0.073030 -0.792574 0.040345
0.021873 0.247038 0.127698
-0.056237 0.204816 0.100394
0.086870 0.724228 -0.072076
-0.152807 0.550416 -0.024476
0.199681 -0.411619 -0.034143
0.138155 -0.751815 -0.098929
-0.051050 0.097282 0.112098
-0.376804 0.194735 -0.038967
-0.085196 -0.340833 -0.075972
-0.137478 0.019118 -0.018400
0.066149 0.114898 0.129433
-0.091620 -0.759955 -0.110938
-0.487560 0.165737 0.016656
0.149929 0.389968 0.072222
0.182092 0.337422 0.023353
-0.236765 0.434528 -0.071452
0.154591 -0.129438 -0.100533
0.082758 0.351404 0.103883
-0.415655 0.221333 0.014097
0.162809 -0.611398 0.027875
0.027446 0.822337 -0.105350
-0.137663 -0.199992 0.033525
0.115683 0.210169 0.104179
0.067732 -0.259908 -0.078915
0.167000 0.046620 -0.100175
0.119926 0.108071 0.105517
-0.300499 0.326577 0.004771
0.003636 0.717457 0.074174
0.145878 0.226328 -0.091340
0.205425 -0.171784 0.027430
-0.080599 -0.274047 0.109655
-0.029961 -0.747751 -0.122657
-0.136805 -0.464934 -0.028273
-0.028277 0.238324 -0.127766
-0.080470 -0.010603 -0.121199
0.138319 -0.215962 -0.096408
-0.030936 -0.826743 -0.143144
0.054728 -0.712602 0.021777
-0.354288 0.294415 -0.085551
-0.082620 0.493635 0.061911
0.194517 -0.718526 -0.034171
0.558337 0.162107 0.029476
0.187717 0.006682 -0.070075
-0.128270 -0.327463 -0.001480
-0.053801 0.430268 0.091059
0.620519 0.080978 0.042862
-0.069078 0.489590 -0.125404
-0.069040 0.147151 -0.094432
0.167379 -0.844164 0.040553
-0.092757 -0.863254 0.043305
0.018914 -0.311076 0.060430
-0.068117 -0.651490 -0.107842
0.088596 -0.835876 -0.051236
-0.069175 -0.527123 0.063595
0.054538 -0.205840 -0.071638
0.173612 0.451073 -0.137763
0.100912 0.460548 0.079678
-0.040064 -0.189343 0.120925
0.567434 0.141184 -0.006876
-0.028392 -0.097766 -0.106945
0.094872 0.420650 0.089796
-0.021532 0.566881 -0.101686
0.204828 -0.248441 0.020520
0.001407 0.859654 -0.039866
-0.056436 0.407988 -0.126791
-0.112041 0.212399 0.052518
-0.156642 0.379561 -0.033453
0.095761 -0.867317 0.070079
-0.105176 -0.819001 -0.030977
-0.123426 -0.426314 0.055434
0.065524 0.702200 0.078344
-0.027359 0.733604 0.032080
-0.451059 0.172750 0.033353
0.128869 -0.829731 0.163231
0.138565 0.342375 0.079932
0.197608 0.113091 0.013974
0.112993 -0.151668 0.107676
0.027363 -0.234459 0.043517
0.020991 0.476823 0.082298
-0.124668 0.045196 0.064636
0.095324 -0.684794 -0.083257
0.140891 -0.869437 0.106941
0.203742 0.060322 0.003023
0.295824 0.338783 -0.049553
0.177641 0.018057 0.090611
-0.031992 -0.408749 -0.079270
-0.027582 -0.180188 -0.089202
-0.048659 0.110890 -0.116864
-0.243865 0.397190 -0.092799
0.179063 0.103108 -0.060942
0.093789 0.015690 0.130980
-0.091841 -0.862054 0.124725
