ply
format ascii 1.0
comment VCGLIB generated
element vertex 70
property float x
property float y
property float z
property float nx
property float ny
property float nz
element face 0
property list uchar int vertex_indices
end_header
-0.170379 0.176556 0.270523 0.189363 -0.132301 0.011023 
0.151283 -0.135071 -0.431799 0.178046 -0.021451 0.004362 
0.014549 -0.128986 -0.273062 -0.085852 -0.017979 0.207793 
-0.431905 -0.73317 0.452668 0.056765 0.330652 -0.060637 
0.149645 -0.07815 0.140687 -0.184421 0.026608 -0.034578 
-0.312545 -0.13339 0.062199 0.104616 -0.043137 0.038386 
-0.286228 -0.112155 0.218087 0.06368 -0.002589 0.035305 
-0.172443 0.642913 0.341969 0.03477 -0.134786 -0.047448 
-0.402076 -0.623666 -0.530696 -0.031732 -0.281817 -0.043739 
0.060542 -0.060881 -0.086247 -0.075641 0.008869 0.15212 
-0.440323 -0.920679 -0.581202 0.000951 0.002218 0.000797 
0.051812 0.026775 0.27327 -0.096764 -0.024404 0.005434 
-0.142169 -0.122428 -0.42228 0.423068 -0.01939 0.029759 
-0.123022 -0.131286 -0.252422 0.003058 -0.019436 0.260523 
-0.006878 0.434253 0.274244 0.022918 -0.199382 -0.022734 
-0.050049 -0.075474 0.124539 0.044297 0.028385 -0.041989 
0.170866 0.493568 0.281932 -0.127901 -0.220464 -0.035115 
-0.306962 -0.127312 -0.447221 0.65331 -0.040956 -0.001931 
0.194151 -0.026917 0.25916 -0.212771 0.014674 -0.003912 
-0.02046 -0.010896 0.265904 0.017879 0.021973 0.001784 
-0.36098 -0.133207 0.34393 0.021942 -0.12282 0.014904 
0.126228 0.172714 0.266508 -0.05897 -0.151286 0.00669 
-0.24211 -0.147804 0.007032 0.196637 0.002013 -0.098744 
0.312884 -0.117947 -0.269239 -0.154336 -0.008837 0.015805 
-0.143364 0.496776 0.288486 0.08887 -0.282189 -0.04514 
-0.385688 -0.335389 -0.493695 -0.054434 -0.584717 -0.087317 
-0.286588 0.508989 0.316608 0.176367 -0.274873 -0.079031 
-0.037822 0.207754 0.270342 -0.051999 -0.174415 0.002376 
-0.199112 -0.13227 -0.186431 0.124406 -0.011238 0.139643 
0.430107 -0.713251 -0.539345 -0.062967 0.533614 0.069042 
0.043028 0.617768 0.335483 -0.11997 -0.247242 -0.087178 
0.317857 0.004908 0.287851 -0.069678 -0.071472 0.001768 
0.397252 -0.497822 -0.510576 -0.032548 0.319732 0.043079 
0.025108 -0.126318 -0.411831 0.246898 -0.008575 0.035548 
-0.149379 -0.026334 0.258128 0.123665 0.006899 0.005635 
-0.462303 -0.917027 0.530659 0.07243 0.472332 -0.120422 
0.301071 0.181079 0.301648 -0.086365 -0.182032 0.027343 
-0.386123 -0.285849 0.379725 -0.017044 -0.17504 0.044584 
-0.391096 -0.127656 -0.460593 0.086692 0.011496 0.114771 
0.348415 -0.152206 0.353527 -0.01392 -0.107485 0.026689 
-0.042842 -0.046785 -0.044495 -0.017402 0.004958 0.147034 
0.201335 0.620145 0.337168 -0.21962 -0.247041 -0.090664 
-0.182188 0.318244 0.264511 0.099226 -0.319307 0.006152 
0.455079 -0.853566 0.485929 -0.035339 0.105094 -0.026901 
-0.281661 0.589853 0.327365 0.150127 -0.196117 -0.072902 
0.166084 -0.131095 -0.239293 -0.146349 -0.008762 0.14886 
0.322286 -0.109956 -0.076396 -0.032006 -0.026391 -0.243734 
-0.34315 -0.106419 -0.279564 0.155257 -0.015221 0.107031 
-0.289053 0.37864 0.310878 0.112622 -0.224924 0.00109 
0.284396 -0.117642 -0.401942 0.022917 -0.011674 0.017327 
-0.102386 0.621472 0.335482 -0.013842 -0.161644 -0.061664 
0.276635 0.37581 0.310717 -0.114293 -0.299877 0.023722 
0.020077 -0.066194 0.215445 -0.088345 0.023561 -0.005469 
0.304441 -0.084133 0.150627 -0.212268 -0.040454 0.024968 
0.455224 -0.859177 -0.563692 -0.089494 0.680911 0.094593 
0.381972 -0.400285 0.397794 0.04663 -0.367697 0.067399 
-0.169208 -0.084429 0.16239 0.128403 0.029287 -0.02482 
-0.4055 -0.425172 0.412254 0.200447 0.479506 -0.213659 
-0.33545 0.028253 0.311754 0.000686 -0.325441 0.051626 
0.009432 -0.074565 0.115391 -0.034482 0.023904 -0.022266 
-0.292457 -0.048964 0.261184 0.128363 -0.012613 0.009664 
0.219545 -0.06379 -0.030796 -0.224169 0.018708 0.087344 
0.374243 -0.183438 -0.477258 -0.008011 0.005068 0.008867 
-0.336736 -0.120501 -0.110492 0.099136 -0.05425 0.291619 
0.143458 0.359033 0.26955 -0.455963 -0.58128 0.001341 
-0.419114 -0.530905 0.448942 0.035486 0.102652 -0.043541 
0.301434 0.60323 0.336512 -0.051915 -0.112253 -0.024964 
0.416525 -0.656916 0.449055 0.025097 -0.157163 0.026072 
0.320163 0.662088 0.352295 -0.039898 -0.071058 -0.02364 
-0.315943 0.175579 0.315002 0.099547 -0.071258 -0.011592 
