ply
format ascii 1.0
comment VCGLIB generated
element vertex 70
property float x
property float y
property float z
property float nx
property float ny
property float nz
element face 0
property list uchar int vertex_indices
end_header
0.359448 -0.112791 -0.218235 0.001356 0.005925 -0.088327 
0.454733 -0.944588 -0.556154 -0.013509 0.058659 0.012478 
-0.30279 0.548521 0.310721 0.121484 -0.19062 -0.053671 
-0.382041 -0.149325 -0.465353 0.045399 0.008348 -0.002327 
-0.388271 -0.277155 0.374664 -0.071858 -0.583273 0.114746 
-0.367183 -0.106276 -0.367317 0.057907 -0.032222 -0.000366 
0.119255 -0.082894 0.156256 -0.159939 0.005867 -0.058153 
0.218427 -0.139271 -0.440621 -0.55754 -0.002444 -0.012503 
0.125249 0.041657 0.27811 -0.100811 -0.085083 0.005275 
0.012728 -0.062072 0.226461 0.001673 -0.013618 -0.012864 
0.338848 -0.12907 -0.070535 0.020689 0.021797 -0.232972 
-0.303368 0.378867 0.312517 0.013104 -0.254499 0.00188 
-0.053117 -0.073031 0.185535 -0.007174 -0.015971 -0.028394 
-0.016646 0.411475 0.271557 -0.130272 -0.253953 -0.017517 
0.117297 0.172448 0.274984 0.122434 -0.382719 0.01917 
-0.125255 0.450661 0.26906 0.332915 -0.06397 0.011662 
0.123548 0.373315 0.324512 -0.204588 -0.466618 0.026747 
0.44916 -0.988867 0.512762 -0.001824 0.015172 -0.002925 
-0.191842 -0.067593 0.003646 0.20701 0.0124 -1.7e-05 
0.404339 -0.495358 0.426397 0.024212 -0.363236 0.060129 
-0.187448 0.267232 0.259761 -0.046177 -0.456653 0.015126 
-0.028118 0.020293 0.281119 0.008445 -0.062127 0.004149 
0.177576 -0.136425 -0.148116 -0.147361 -0.004933 0.088361 
-0.392791 -0.360137 -0.501141 -0.051089 -0.535641 -0.065939 
0.29638 0.537434 0.327282 -0.034919 -0.139797 -0.009425 
0.016044 -0.126491 -0.268058 -0.161743 -0.036426 0.212636 
0.044229 -0.133747 -0.418797 -0.372972 -0.004983 -0.02052 
-0.147601 -0.122843 -0.346133 -0.107599 -0.019146 0.034571 
0.402133 -0.515064 -0.516509 0.036568 -0.367313 -0.022948 
0.272018 0.651247 0.353969 -0.006949 -0.048376 -0.018038 
-0.324884 0.1341 0.323839 -0.029568 -0.466504 0.038118 
0.318499 0.163634 0.32182 -0.026822 -0.283769 0.032695 
0.421156 -0.721313 -0.535087 0.016975 -0.154829 -0.004945 
0.389912 -0.318407 -0.496561 0.050616 -0.572107 -0.04489 
-0.337528 -0.053247 0.321423 0.03108 -0.085528 0.012971 
-0.199064 -0.127707 -0.205272 0.222144 0.00288 -0.094932 
-0.412742 -0.614243 -0.528333 -0.031108 -0.281354 -0.038712 
-0.168009 -0.071768 0.169583 0.142833 -0.006033 -0.03462 
0.015561 0.623532 0.337816 0.229771 -0.092309 -0.027894 
-0.090781 -0.1316 -0.436759 -0.247345 -0.009058 -0.013883 
0.361716 -0.106721 -0.308065 -0.000312 -4.5e-05 0.000488 
-0.04851 0.208181 0.272184 -0.020229 -0.401664 0.021014 
0.344184 -0.120067 0.326728 -0.040369 -0.091538 0.00263 
0.218942 -0.120732 -0.297067 -0.101954 -0.009674 0.135432 
-0.231687 -0.139368 -0.455575 -0.110576 -0.003218 -0.002474 
0.167493 -0.071733 0.022258 -0.140567 -7.3e-05 0.131416 
-0.100605 0.620441 0.33625 0.35489 -0.056317 -0.00944 
-0.316743 0.62722 0.331875 0.003026 -0.006177 -0.002366 
-0.031197 -0.135559 -0.155333 0.171019 0.001424 0.067933 
-0.347153 -0.112703 -0.262383 0.020765 -0.023675 -0.158824 
-0.415953 -0.487938 0.423136 -0.045065 -0.376544 0.066972 
-0.324501 -0.138747 -0.469113 -0.016936 -0.003112 0.003571 
0.280083 0.335829 0.313492 -0.095267 -0.373795 0.026859 
0.326154 -0.148567 0.14489 0.009911 0.036839 -0.410637 
0.153881 0.49024 0.328895 0.107111 -0.124551 -0.005638 
-0.035282 -0.041286 0.044128 0.049126 -0.001571 0.048058 
-0.445489 -0.900205 -0.569159 0.00049 0.001556 0.000628 
0.424817 -0.696803 0.466073 0.006978 -0.181161 0.023295 
0.335275 0.02171 0.324181 -0.045788 -0.190046 0.020708 
0.389041 -0.320214 0.393636 0.032225 -0.486448 0.083682 
-0.378701 -0.224881 -0.485853 0.035584 0.082648 0.018852 
-0.293632 -0.133302 0.121179 -0.008151 -0.017494 -0.434526 
-0.427422 -0.62407 0.462765 -0.034826 -0.242991 0.028526 
-0.331276 -0.11759 -0.109304 0.051693 -0.055316 0.026108 
0.440721 -0.845909 0.493061 -0.003399 -0.055828 0.002456 
0.162301 0.620803 0.339279 0.083723 -0.088449 -0.029751 
-0.180386 -0.008512 0.265291 0.19461 -0.025774 0.011255 
0.179585 -0.042686 0.266204 -0.187064 -0.013953 -0.003918 
0.366798 -0.138858 -0.443335 -0.13638 0.026263 0.115111 
-0.464952 -0.871521 0.493799 0.001592 0.002637 -0.001476 
