-0.161814 0.103858 0.265638 0.213065 -0.152963 0.029746
0.154963 -0.140685 -0.442794 0.094760 -0.006308 0.041270
0.011101 -0.128418 -0.276182 -0.069018 -0.019879 0.216155
-0.451244 -0.669728 0.484708 0.107275 0.289229 -0.128042
0.139482 -0.077485 0.145375 -0.174390 -0.000026 -0.035955
-0.312700 -0.151183 0.071222 0.114507 -0.042075 0.025573
-0.286808 -0.141086 0.226773 0.058427 -0.035092 0.022666
-0.267224 0.627972 0.335705 0.001961 -0.070621 -0.024367
-0.398015 -0.512645 -0.504894 -0.016321 -0.301408 -0.029943
0.055623 -0.060096 -0.083888 -0.074430 -0.013972 0.151591
-0.435179 -0.875455 -0.560864 0.001879 0.008436 0.002196
0.051209 0.008594 0.276757 -0.066264 -0.098524 0.009339
-0.152433 -0.126950 -0.433096 0.362077 -0.009116 0.059817
-0.124213 -0.131300 -0.257094 0.014070 -0.021765 0.267278
0.022062 0.389768 0.263819 -0.014590 -0.210291 -0.018137
-0.049671 -0.077762 0.131962 0.039352 0.007897 -0.046654
0.172759 0.460288 0.273811 -0.145010 -0.242268 -0.037566
-0.296932 -0.129311 -0.446758 0.569197 -0.029592 0.024673
0.187312 -0.034593 0.262252 -0.184487 -0.048440 -0.000913
-0.018795 -0.032437 0.269802 0.041794 -0.050443 0.004609
-0.377366 -0.231755 0.349665 0.039994 -0.064925 -0.001281
0.131569 0.148963 0.269526 -0.030180 -0.246140 0.019182
-0.238265 -0.147975 0.019722 0.203938 -0.000886 -0.115839
0.307384 -0.115775 -0.253915 -0.167598 -0.016533 -0.008591
-0.121072 0.416453 0.259190 0.046693 -0.257991 -0.023328
-0.386267 -0.340152 -0.492255 -0.046838 -0.524606 -0.065771
-0.302892 0.374236 0.302555 0.122878 -0.107940 -0.044853
-0.027594 0.169704 0.268801 -0.048844 -0.212429 0.004098
-0.200665 -0.132826 -0.192452 0.137040 -0.009835 0.150354
0.417698 -0.662297 -0.526806 -0.102137 0.487479 0.074688
0.093088 0.602239 0.330952 -0.254486 -0.218058 -0.073786
0.321914 -0.048244 0.303668 -0.066044 -0.076725 0.000908
0.387531 -0.460480 -0.499772 -0.059648 0.282034 0.046540
0.023242 -0.131316 -0.423701 0.182772 0.001624 0.065051
-0.146473 -0.051446 0.260813 0.141381 -0.011469 0.005019
-0.451586 -0.878968 0.505881 0.089687 0.424815 -0.122860
0.300327 0.119957 0.309255 -0.044526 -0.256519 0.051385
-0.402279 -0.347427 0.383783 0.028532 -0.087963 0.006668
-0.380013 -0.127002 -0.451892 0.090251 0.012116 0.079876
0.360077 -0.234507 0.369302 0.012366 -0.206218 0.058128
-0.043890 -0.048197 -0.042881 -0.017698 -0.024186 0.147160
0.199280 0.597789 0.331174 -0.269431 -0.251466 -0.090074
-0.171332 0.221872 0.246287 0.110325 -0.281418 0.029371
0.462930 -0.840926 0.510773 -0.015108 0.052546 -0.016210
-0.320485 0.564069 0.311782 0.079013 -0.089863 -0.026557
0.158349 -0.130591 -0.237708 -0.132445 -0.014092 0.142240
0.317001 -0.111494 -0.039652 -0.081337 -0.025522 -0.246803
-0.345548 -0.116930 -0.304517 0.171298 -0.002896 0.147528
-0.307029 0.188870 0.299797 0.076799 0.085119 0.016406
0.275182 -0.125119 -0.409803 -0.040566 0.004545 0.050605
-0.039827 0.596408 0.325855 -0.195862 -0.086651 -0.032075
0.268167 0.317933 0.310597 -0.051626 -0.414064 0.053664
0.016741 -0.072887 0.219871 -0.078189 -0.011986 -0.010617
0.301640 -0.095238 0.174721 -0.187483 -0.096572 0.023526
0.450095 -0.816936 -0.567488 -0.158923 0.650284 0.120038
0.396449 -0.460271 0.412725 0.053056 -0.331052 0.083196
-0.167005 -0.090636 0.169417 0.127797 0.005619 -0.030166
-0.421659 -0.457568 0.416411 0.181531 0.577438 -0.178739
-0.352001 -0.103938 0.314370 0.032145 -0.188329 0.034411
0.004439 -0.075831 0.121643 -0.033616 0.002205 -0.025267
-0.297495 -0.120126 0.264228 0.142754 0.013658 0.001861
0.207580 -0.060980 -0.023655 -0.217710 -0.005036 0.082200
0.378865 -0.195949 -0.474322 -0.051187 0.018118 0.025626
-0.338107 -0.136039 -0.121880 0.105884 -0.070130 0.297536
0.138192 0.337417 0.267659 -0.431818 -0.467992 -0.013712
-0.441346 -0.583410 0.456059 0.090366 0.165770 -0.080757
0.278784 0.550570 0.325743 -0.061250 -0.065370 -0.019389
0.431985 -0.688676 0.463158 0.022679 -0.119775 0.037503
0.313025 0.601977 0.329958 -0.084220 -0.042251 -0.009117
-0.335360 -0.000172 0.314480 0.072086 0.225102 -0.004904
