0.357694 -0.108769 -0.232653 -0.058319 -0.004065 0.025831
0.427786 -0.975500 -0.584753 -0.016199 0.119079 0.030771
-0.304256 0.562012 0.313203 0.155477 -0.216576 -0.054789
-0.379763 -0.138275 -0.473593 0.015965 0.002462 0.016376
-0.384749 -0.251910 0.372640 -0.073746 -0.605209 0.115686
-0.364700 -0.107147 -0.377826 0.105885 -0.016216 0.168251
0.117629 -0.079416 0.154519 -0.153589 -0.000222 -0.057993
0.187174 -0.139922 -0.449273 -0.523612 0.008094 0.019011
0.137226 0.019854 0.278321 -0.120398 -0.049755 0.001071
0.018209 -0.065078 0.229323 -0.005999 -0.012213 -0.024058
0.340269 -0.119070 -0.094579 -0.050981 0.003348 -0.076664
-0.303333 0.389663 0.311522 0.020992 -0.262887 0.015082
-0.048626 -0.076694 0.186614 -0.009699 -0.015423 -0.032336
-0.016316 0.385992 0.262657 -0.123550 -0.243431 -0.000876
0.129281 0.136616 0.271186 0.098408 -0.280277 -0.003216
-0.130438 0.441717 0.263328 0.349519 -0.070411 0.013156
0.140078 0.325944 0.323367 -0.235453 -0.426488 0.030477
0.472622 -0.975126 0.515214 -0.006528 0.015980 -0.006893
-0.191094 -0.070336 0.000398 0.211349 0.009049 0.006294
0.407814 -0.479631 0.418726 0.021272 -0.331223 0.054097
-0.186210 0.276035 0.257302 -0.048919 -0.470945 0.023362
-0.015714 0.013567 0.282947 -0.012639 -0.043638 -0.001211
0.172030 -0.131025 -0.159952 -0.150202 -0.002384 0.111219
-0.395894 -0.354383 -0.500201 -0.044448 -0.535935 -0.058316
0.303539 0.535008 0.327866 -0.017391 -0.092271 -0.009442
0.021611 -0.125967 -0.273928 -0.135533 -0.027828 0.277706
0.055150 -0.132033 -0.422792 -0.364763 0.008226 0.027113
-0.141406 -0.122749 -0.348858 -0.022430 -0.011175 0.204092
0.398716 -0.467607 -0.511595 0.011110 -0.399088 -0.039640
0.318099 0.663425 0.353175 -0.005905 -0.017305 -0.006971
-0.325547 0.157715 0.325656 -0.029399 -0.497914 0.044662
0.322818 0.137776 0.321679 -0.035834 -0.192324 0.015397
0.412346 -0.666142 -0.531047 -0.004670 -0.173976 -0.016695
0.390977 -0.301603 -0.492595 0.020213 -0.578413 -0.061977
-0.336974 -0.033004 0.324340 0.036428 -0.114497 0.016202
-0.200982 -0.130399 -0.209783 0.174806 0.007820 0.024438
-0.413121 -0.576508 -0.522366 -0.027392 -0.314093 -0.036372
-0.163839 -0.077446 0.171241 0.141098 -0.003151 -0.040270
0.060054 0.611123 0.335102 0.226858 -0.028444 -0.012322
-0.066781 -0.129295 -0.436553 -0.267696 0.000380 0.013554
0.359387 -0.106105 -0.320397 -0.038670 -0.004459 0.079991
-0.042021 0.197194 0.270507 -0.043394 -0.364528 0.016787
0.349508 -0.136596 0.322326 -0.050328 -0.011952 -0.014062
0.226365 -0.118455 -0.310612 -0.208308 -0.014866 0.245504
-0.224158 -0.138933 -0.456526 -0.121896 0.004245 0.015449
0.158882 -0.069692 0.011359 -0.130352 -0.003866 0.133492
-0.108423 0.612493 0.334583 0.411835 0.009801 0.005740
-0.223642 0.661818 0.351964 -0.000224 -0.034717 -0.013744
-0.035075 -0.133484 -0.157739 0.119528 0.002084 0.115918
-0.349355 -0.113908 -0.271573 0.053555 -0.001427 -0.050950
-0.413709 -0.506088 0.427750 -0.047808 -0.359762 0.063157
-0.334489 -0.138919 -0.470888 -0.024989 0.003731 0.017267
0.284020 0.306428 0.314291 -0.103792 -0.311751 0.017992
0.326334 -0.141442 0.138670 -0.111369 0.016250 -0.220843
0.182364 0.448802 0.326313 0.097869 -0.053377 -0.005792
-0.037996 -0.040920 0.039132 0.058029 -0.011178 0.047491
-0.442983 -0.895055 -0.561780 0.000964 0.001777 0.001213
0.429958 -0.675053 0.458942 0.003363 -0.146249 0.014763
0.340850 -0.005257 0.322167 -0.059279 -0.087086 -0.000182
0.392113 -0.310683 0.386878 0.026502 -0.418629 0.072591
-0.381959 -0.229709 -0.488761 0.013121 0.092414 0.025082
-0.295255 -0.142591 0.124126 0.044958 -0.011673 -0.234826
-0.413537 -0.670232 0.471232 -0.049330 -0.198268 0.020954
-0.333993 -0.118857 -0.117433 0.087647 -0.070877 0.259123
0.448779 -0.825853 0.487089 -0.001236 -0.074294 0.003385
0.225426 0.617895 0.339154 0.066137 -0.028402 -0.014172
-0.173715 -0.009784 0.270224 0.183583 -0.023560 0.002507
0.185221 -0.046892 0.268277 -0.195127 -0.010051 -0.010036
0.363222 -0.152870 -0.461087 -0.328907 0.038445 0.134128
-0.464692 -0.871495 0.493880 0.000888 0.001468 -0.000833
