ply
format ascii 1.0
comment VCGLIB generated
element vertex 70
property float x
property float y
property float z
property float nx
property float ny
property float nz
element face 0
property list uchar int vertex_indices
end_header
0.356315 -0.110207 -0.231529 -0.02458 -0.00074 -0.030156 
0.423289 -0.976221 -0.588429 -0.006624 0.055781 0.014031 
-0.305176 0.53345 0.307525 0.189425 -0.217028 -0.065417 
-0.38948 -0.138125 -0.46978 0.006519 0.001499 0.007797 
-0.385428 -0.258254 0.369199 -0.063077 -0.612573 0.131069 
-0.355047 -0.105738 -0.362646 0.074146 -0.018682 0.129294 
0.120029 -0.07947 0.14957 -0.159573 -0.001105 -0.049493 
0.200539 -0.138477 -0.44453 -0.561554 0.005014 0.005666 
0.12627 0.032939 0.276232 -0.092705 -0.080983 -0.000685 
0.012103 -0.068792 0.226547 -0.000802 -0.010715 -0.020205 
0.337503 -0.118224 -0.092674 -0.016066 0.002867 -0.138317 
-0.303313 0.385964 0.310604 0.045534 -0.25174 -0.004965 
-0.055789 -0.08136 0.185736 -0.006241 -0.012853 -0.028529 
-0.01988 0.398886 0.267063 -0.091528 -0.254932 -0.024833 
0.115866 0.153817 0.270846 0.127036 -0.355649 0.006332 
-0.133068 0.448598 0.267201 0.36692 -0.074364 0.005308 
0.121807 0.349731 0.323881 -0.20984 -0.49626 0.034346 
0.470088 -0.95599 0.504699 -0.010974 0.045065 -0.010009 
-0.193289 -0.071593 0.012216 0.210531 0.008379 -0.004698 
0.399325 -0.466573 0.41358 0.032746 -0.332268 0.056038 
-0.190109 0.262618 0.258442 -0.038487 -0.476913 0.020492 
-0.02854 0.010776 0.2815 0.018676 -0.051144 -0.004196 
0.180101 -0.131085 -0.156507 -0.152066 -0.011881 0.107367 
-0.395842 -0.424871 -0.507034 -0.044223 -0.456223 -0.039171 
0.300304 0.511939 0.321194 -0.001437 -0.062566 -0.005456 
0.029147 -0.125955 -0.264664 -0.148043 -0.042083 0.286645 
0.041549 -0.135012 -0.419661 -0.3781 0.008282 0.011598 
-0.137108 -0.124474 -0.338681 -0.043411 -0.015632 0.191778 
0.397289 -0.515329 -0.517519 0.01878 -0.410911 -0.055923 
0.320064 0.629603 0.338105 -0.004165 -0.012194 -0.004476 
-0.330491 0.120294 0.32535 -0.021237 -0.513396 0.050288 
0.315067 0.129139 0.31759 -0.012929 -0.235337 0.02243 
0.413409 -0.707924 -0.539527 0.001036 -0.201136 -0.031046 
0.379978 -0.319995 -0.497896 0.037151 -0.615577 -0.078056 
-0.343437 -0.06858 0.324587 0.05657 -0.088685 0.007168 
-0.194691 -0.130418 -0.191655 0.19925 0.005425 0.000224 
-0.412728 -0.641118 -0.527067 -0.028258 -0.241592 -0.020278 
-0.172904 -0.083118 0.172146 0.145875 6.7e-05 -0.040834 
0.008771 0.615768 0.3362 0.289374 -0.042417 -0.018179 
-0.055204 -0.133207 -0.432557 -0.305129 0.001863 -0.001861 
0.35745 -0.106613 -0.303294 -0.01289 -0.002205 0.02111 
-0.047576 0.200639 0.270927 -0.026727 -0.40288 0.020318 
0.34063 -0.134207 0.318347 -0.026817 -0.095929 -0.008521 
0.235819 -0.118 -0.301498 -0.192043 -0.020977 0.23074 
-0.194929 -0.143727 -0.450999 -0.174759 0.007756 0.002191 
0.16685 -0.068566 0.01298 -0.141149 -0.00901 0.133279 
-0.118003 0.621649 0.338214 0.425487 -0.026589 -0.009909 
-0.184306 0.66397 0.353761 0.00047 -0.018607 -0.007623 
-0.028088 -0.134831 -0.153064 0.125759 -0.006313 0.101436 
-0.342907 -0.115856 -0.235812 0.019338 -0.002824 -0.112932 
-0.40803 -0.480228 0.416286 -0.041161 -0.392573 0.084625 
-0.309835 -0.142805 -0.469059 -0.069821 0.006629 0.010462 
0.27285 0.310916 0.311977 -0.090157 -0.366071 0.022132 
0.322869 -0.136268 0.133283 -0.070588 0.008764 -0.268547 
0.151574 0.459965 0.325937 0.144446 -0.052542 -0.006165 
-0.035745 -0.040661 0.038727 0.049608 -0.012329 0.049071 
-0.446652 -0.892943 -0.554283 0.002764 0.005163 0.003473 
0.419656 -0.644195 0.451446 0.015661 -0.165847 0.01896 
0.332318 -0.012373 0.31641 -0.033836 -0.148803 0.012997 
0.385679 -0.310781 0.382469 0.03807 -0.428035 0.076328 
-0.382028 -0.279298 -0.492077 -0.00334 0.141696 0.026933 
-0.300231 -0.152867 0.139473 0.032986 -0.006132 -0.265981 
-0.411007 -0.673967 0.472254 -0.038664 -0.199802 0.02913 
-0.329825 -0.124018 -0.07283 0.084106 -0.076067 0.219614 
0.43926 -0.789334 0.478145 0.004372 -0.059679 0.002713 
0.164643 0.606398 0.333889 0.135733 -0.031013 -0.015158 
-0.182563 -0.020149 0.268446 0.202812 -0.01619 0.000219 
0.181095 -0.040022 0.264748 -0.185102 -0.017077 -0.008817 
0.363188 -0.142382 -0.450708 -0.285294 0.027629 0.131619 
-0.450218 -0.874703 0.501915 0.000262 0.000453 -0.000258 
