ply
format ascii 1.0
comment VCGLIB generated
element vertex 70
property float x
property float y
property float z
property float nx
property float ny
property float nz
element face 0
property list uchar int vertex_indices
end_header
-0.163727 0.164538 0.263171 0.163982 -0.150914 0.000139 
0.172468 -0.135251 -0.444038 0.115178 0.010629 0.059629 
0.025466 -0.128898 -0.283973 -0.083159 -0.000977 0.18614 
-0.447813 -0.653824 0.449728 0.059836 0.141482 -0.058652 
0.145654 -0.070059 0.141444 -0.175065 0.01372 -0.043676 
-0.308283 -0.120244 0.054658 0.118884 -0.05252 -0.002884 
-0.277942 -0.089797 0.212383 0.064277 -0.041795 0.019698 
-0.223432 0.640505 0.342638 -0.050784 -0.096633 -0.03268 
-0.389896 -0.507427 -0.517736 -0.00905 -0.17325 0.002081 
0.06189 -0.056803 -0.089631 -0.074015 0.003642 0.150032 
-0.434484 -0.869003 -0.559097 0.024938 0.193605 0.025077 
0.056456 0.031727 0.270306 -0.109863 -0.059567 -0.010503 
-0.11753 -0.128449 -0.433047 0.359333 0.01408 0.080746 
-0.113088 -0.131824 -0.263606 0.015137 -0.003412 0.241599 
-0.003628 0.385181 0.255799 -0.030481 -0.192713 -0.020477 
-0.04122 -0.063755 0.123152 0.03715 0.011247 -0.04483 
0.160073 0.411894 0.245462 -0.171896 -0.209162 -0.021296 
-0.27934 -0.132659 -0.44752 0.56399 0.004145 0.053697 
0.189118 -0.024035 0.25724 -0.208341 -0.02153 -0.026153 
-0.012071 -0.000745 0.262438 0.009607 -0.042771 -0.019647 
-0.356688 -0.087222 0.323536 -0.00322 -0.272612 0.042799 
0.130518 0.147863 0.260692 -0.067391 -0.216065 -0.010387 
-0.235063 -0.138645 0.001751 0.206142 0.010199 -0.123374 
0.322377 -0.117708 -0.291545 -0.168028 0.008538 0.047067 
-0.140369 0.448942 0.266301 0.03253 -0.229006 -0.031309 
-0.384932 -0.309351 -0.500687 -0.029581 -0.407436 -0.037974 
-0.292736 0.497128 0.308766 0.086268 -0.113311 -0.041788 
-0.03118 0.191297 0.263927 -0.081349 -0.170803 -0.006336 
-0.190716 -0.131052 -0.196232 0.128397 0.00452 0.122273 
0.431123 -0.691609 -0.538438 -0.121206 0.556461 0.119031 
0.051826 0.59185 0.324989 -0.260279 -0.151462 -0.05157 
0.320608 -0.045502 0.285666 -0.062324 -0.156408 -0.029861 
0.402095 -0.465219 -0.505116 -0.096384 0.331692 0.089568 
0.045333 -0.130336 -0.426273 0.199553 0.018629 0.086218 
-0.138579 -0.01064 0.254213 0.118058 -0.039416 -0.013317 
-0.439203 -0.844774 0.509512 0.028927 0.275436 -0.095059 
0.303905 0.093891 0.292918 -0.10427 -0.215689 0.017382 
-0.381559 -0.228593 0.352821 -0.055535 -0.395349 0.085954 
-0.391907 -0.126109 -0.46399 0.016112 -0.000578 0.003756 
0.353543 -0.202935 0.355607 0.002307 -0.25497 0.028111 
-0.039125 -0.042001 -0.050928 -0.016747 0.00271 0.149301 
0.183108 0.57468 0.318328 -0.327388 -0.203925 -0.074296 
-0.180986 0.289476 0.252733 0.084394 -0.273686 0.001318 
0.462433 -0.84376 0.506905 -0.061174 0.16893 -0.068551 
-0.286276 0.562615 0.314377 0.029209 -0.050782 -0.016148 
0.172288 -0.128364 -0.250318 -0.138042 0.000153 0.13754 
0.326342 -0.113032 -0.098434 -0.08112 -0.003649 -0.169415 
-0.342772 -0.107436 -0.289495 0.103344 -0.012828 -0.025933 
-0.294457 0.366111 0.300418 0.049137 0.022934 0.008444 
0.293965 -0.122505 -0.418964 -0.023421 0.011644 0.068031 
-0.080407 0.596558 0.325518 -0.178409 -0.074461 -0.024785 
0.273868 0.27475 0.294269 -0.118986 -0.362136 0.029243 
0.025707 -0.053534 0.213313 -0.082979 -0.008403 -0.023547 
0.302848 -0.090424 0.150295 -0.210606 -0.061021 -0.00348 
0.455735 -0.840997 -0.565296 -0.145533 0.70614 0.146155 
0.388198 -0.419636 0.400732 0.029346 -0.286571 0.054503 
-0.158533 -0.067943 0.158886 0.124958 0.004889 -0.034211 
-0.402404 -0.364644 0.378935 0.16296 0.662162 -0.124099 
-0.334646 0.049835 0.299431 -0.011554 -0.354846 0.066877 
0.014187 -0.063828 0.11434 -0.035833 0.011493 -0.024335 
-0.284864 -0.025753 0.249722 0.130759 -0.020813 0.002623 
0.216396 -0.060547 -0.03576 -0.222401 0.013736 0.090789 
0.388233 -0.171878 -0.468505 -0.08533 0.042289 0.055251 
-0.33526 -0.115271 -0.120728 0.1169 -0.07153 0.2555 
0.135198 0.304606 0.251011 -0.44169 -0.419843 0.037238 
-0.426469 -0.503597 0.406056 0.019539 -0.048483 0.007204 
0.287021 0.501702 0.307407 -0.063596 -0.251374 -0.050099 
0.426309 -0.660854 0.454058 0.002328 -0.076014 0.01074 
0.321207 0.592138 0.321528 -0.078824 -0.142101 -0.052883 
-0.317952 0.184261 0.304061 0.055702 0.169231 0.004695 
