-0.169859 0.151196 0.269700 0.198654 -0.112217 0.028773
0.181437 -0.147087 -0.448216 0.175370 -0.025006 -0.020139
0.026650 -0.131379 -0.276472 -0.081670 -0.015556 0.175940
-0.410896 -0.674177 0.472375 0.047401 0.247408 -0.077758
0.143386 -0.075425 0.140884 -0.169446 0.007585 -0.034892
-0.312933 -0.137516 0.086750 0.108185 -0.029065 0.003984
-0.288994 -0.118457 0.230548 0.053139 -0.005717 0.035692
-0.232473 0.647673 0.344676 -0.000721 -0.002188 -0.000629
-0.392769 -0.521521 -0.513405 0.078567 -0.026617 0.101478
0.060368 -0.060646 -0.084107 -0.067517 -0.004304 0.149431
-0.441879 -0.906395 -0.567258 0.083753 0.282416 0.095598
0.058044 0.012184 0.275068 -0.089596 0.003276 0.013496
-0.138404 -0.128258 -0.430435 0.459507 -0.032328 -0.011920
-0.115821 -0.132560 -0.252385 0.002533 -0.021311 0.239404
0.034936 0.417070 0.270671 -0.067730 -0.137152 -0.002642
-0.046161 -0.073665 0.129867 0.049189 0.005800 -0.048477
0.198902 0.484197 0.279500 -0.210339 -0.182799 -0.017595
-0.285256 -0.128598 -0.448713 0.649004 -0.050318 -0.027764
0.193809 -0.038889 0.258303 -0.194730 0.006779 -0.001099
-0.013546 -0.022862 0.268578 0.037070 -0.007979 0.005105
-0.365582 -0.112934 0.345573 0.036178 -0.042132 0.013354
0.142867 0.152888 0.268075 -0.034509 -0.223377 0.026021
-0.239480 -0.147717 0.023088 0.217264 -0.002570 -0.156091
0.328846 -0.129904 -0.311368 -0.108600 -0.021121 -0.016505
-0.127712 0.453927 0.271828 0.002227 -0.115219 0.000811
-0.386320 -0.332526 -0.498813 0.004989 -0.312708 0.007684
-0.302405 0.501507 0.314722 0.076370 0.075958 0.012670
-0.025968 0.187687 0.268532 -0.088080 -0.054654 0.019413
-0.190230 -0.132372 -0.178525 0.128679 -0.013608 0.096939
0.427186 -0.716630 -0.537729 -0.045536 0.530807 0.047303
0.123473 0.610338 0.331483 -0.348886 0.004956 0.002819
0.330755 -0.060000 0.302945 -0.037111 -0.135621 0.021808
0.396797 -0.429661 -0.507472 -0.014415 0.243095 0.016780
0.036805 -0.135081 -0.424321 0.280969 -0.018780 -0.007279
-0.147704 -0.032893 0.261000 0.141233 0.007056 0.002376
-0.434189 -0.870800 0.510167 0.053459 0.372796 -0.089218
0.310034 0.123966 0.307433 -0.024717 -0.368145 0.071166
-0.387309 -0.266989 0.377864 -0.005852 -0.240715 0.053414
-0.385770 -0.122562 -0.465701 0.082444 -0.003588 0.023825
0.372020 -0.278301 0.379033 0.053752 -0.389928 0.081476
-0.043926 -0.047115 -0.043026 -0.011615 -0.000245 0.150085
0.233033 0.604141 0.329298 -0.422822 -0.042770 -0.014376
-0.186211 0.280459 0.256376 0.092136 -0.186763 0.024969
0.464014 -0.855148 0.495543 -0.005696 0.017515 -0.005015
-0.300560 0.587977 0.325990 0.066493 0.047360 0.014845
0.175416 -0.133726 -0.249859 -0.120411 -0.019447 0.116650
0.330396 -0.119893 -0.116319 -0.009589 -0.050735 -0.253978
-0.335551 -0.104250 -0.267796 0.097902 -0.017269 -0.011223
-0.306067 0.360813 0.308783 0.069352 0.220269 0.029536
0.306445 -0.136417 -0.430724 0.037713 -0.023916 -0.014370
-0.025505 0.614571 0.332298 -0.207331 0.025945 0.010066
0.280661 0.334668 0.309928 -0.067387 -0.428594 0.055113
0.022940 -0.069868 0.217371 -0.076668 0.001467 -0.010931
0.308399 -0.099845 0.152699 -0.172994 -0.095149 0.045899
0.451621 -0.860349 -0.562434 -0.071349 0.675966 0.072801
0.409714 -0.521087 0.428153 0.049864 -0.318572 0.063491
-0.167701 -0.084670 0.167670 0.137624 0.009943 -0.031803
-0.404103 -0.429432 0.410205 0.165592 0.951943 -0.089570
-0.344604 0.031902 0.316185 0.034822 -0.047980 0.044951
0.008068 -0.073125 0.118212 -0.027124 0.001248 -0.026154
-0.299424 -0.053396 0.268858 0.134416 0.040280 0.002499
0.217949 -0.065668 -0.039498 -0.215047 0.005010 0.095321
0.388509 -0.182858 -0.495050 -0.005127 -0.000026 0.004100
-0.333931 -0.122209 -0.083283 0.099027 -0.051121 0.256528
0.158085 0.356221 0.268921 -0.437513 -0.094080 0.044930
-0.416197 -0.561458 0.444069 0.042218 0.104674 -0.028905
0.290430 0.564192 0.325287 -0.041380 -0.114843 -0.014852
0.441695 -0.729047 0.473160 0.019634 -0.116615 0.019855
0.311076 0.626667 0.335407 -0.040376 -0.038747 -0.013755
-0.328367 0.169945 0.315717 0.084417 0.410173 0.021815
