0.023873 0.376758 -0.127806 -0.060639 -0.033512 -0.997387
0.132501 -0.479084 0.058151 -0.486353 -0.099352 0.867659
0.085559 -0.750127 -0.066704 -0.864723 0.035426 -0.500165
-0.003145 -0.254072 -0.071494 0.721746 -0.069082 -0.687399
0.084904 0.649101 -0.017095 0.990873 -0.046884 0.060758
0.006273 0.715137 -0.091295 -0.421634 -0.575677 -0.695955
0.354293 0.375172 -0.095208 0.742038 0.668392 0.046984
-0.047035 0.214919 0.105009 -0.522179 0.04552 0.851422
0.140891 -0.869437 0.106941 0.06455 -0.996606 0.019455
0.091168 0.80711 -0.078417 0.87499 0.238993 -0.417001
0.325411 0.438176 -0.102214 0.614285 0.699179 -0.363673
0.049048 -0.528802 -0.011555 -0.829055 0.006236 0.558505
0.089816 0.49031 0.067424 0.15265 0.465537 0.870695
-0.204934 0.416264 -0.094472 -0.167117 0.222917 -0.959388
-0.116081 -0.067083 0.090528 -0.743278 0.02436 0.668257
0.070066 -0.263467 0.073661 -0.606104 -0.119147 0.785584
0.168575 -0.10943 0.098463 0.650749 0.035907 0.758325
-0.073876 -0.175702 -0.090447 -0.482447 -0.157326 -0.857379
0.0458 0.136079 -0.125793 -0.12404 0.412681 -0.901817
0.022978 -0.204384 0.061769 0.946303 -0.035837 0.321066
0.008699 0.316101 -0.127835 0.108848 0.045224 -0.993028
-0.049285 -0.02207 -0.13199 -0.246398 -0.157732 -0.955476
-0.123195 -0.544759 -0.068203 -0.802109 0.110064 -0.586548
-0.197847 0.394515 0.025993 0.228862 -0.368011 0.899856
0.033678 0.837399 0.063049 0.004494 0.574443 0.809261
0.178417 0.474276 -0.13663 0.115416 0.085472 -0.989249
0.092128 -0.105808 0.101362 -0.511369 -0.167797 0.842357
0.142191 -0.38346 -0.090343 0.558079 0.163116 -0.813554
-0.122999 -0.084089 0.08245 -0.788892 0.018508 0.61414
-0.101698 -0.101845 -0.079761 -0.709023 -0.106408 -0.696755
0.610394 0.085226 0.084968 0.00689 0.486454 0.82993
-0.000361 0.185707 -0.11751 0.047034 -0.146393 -0.987505
0.13162 -0.068067 -0.13062 0.379308 -0.273139 -0.882738
0.145073 -0.625173 -0.094311 0.339417 -0.154034 -0.926963
0.200051 -0.564546 -0.045506 0.972543 -0.040013 -0.22784
0.124064 -0.238146 0.088448 0.084804 -0.155875 0.984045
-0.076284 -0.184911 -0.08788 -0.52054 -0.097952 -0.845042
-0.131831 0.056512 -0.023729 -0.955075 0.185387 -0.229095
-0.475985 0.139307 -0.022372 0.235202 -0.891249 -0.386635
0.003805 0.7544 -0.112864 -0.438725 -0.271312 -0.853304
0.207038 0.022099 0.016066 0.999392 0.030886 0.01411
0.045041 -0.508219 -0.039971 -0.962606 -0.044539 -0.257344
0.624143 0.048852 0.026374 -0.803425 -0.530671 -0.245944
0.132128 -0.869926 -0.083356 0.030121 -0.999487 -0.003118
0.090248 -0.52398 -0.093924 -0.58147 -0.054707 -0.8117
0.215317 0.435538 -0.130116 -0.149219 -0.292762 -0.93664
-0.078598 -0.132532 -0.094951 -0.552077 -0.097666 -0.827694
0.166936 -0.694153 -0.068533 0.789961 -0.0561 -0.610204
-0.035435 -0.593198 -0.09626 0.407673 -0.011975 -0.912333
0.187065 -0.448173 0.048947 0.886768 -0.083318 0.454222
-0.089374 -0.8264 0.077377 -0.444074 0.871225 0.161708
-0.130375 -0.190188 0.074637 -0.893998 -0.033296 0.44651
-0.025491 0.753692 -0.082494 -0.821871 -0.284445 -0.488522
-0.114879 0.292292 -0.030048 -0.959888 -0.269695 0.018742
-0.012163 0.141091 -0.114756 -0.2239 0.49621 -0.836337
-0.109745 -0.060707 0.096886 -0.705673 0.029429 0.707858
0.076713 -0.425733 0.025142 -0.697524 -0.349624 0.625356
-0.142263 0.022532 0.005161 -0.987872 0.068728 -0.093911
-0.013223 0.27186 0.11627 -0.356492 0.05493 0.932019
0.187824 -0.50052 0.037581 0.886873 -0.123662 0.443398
0.141873 -0.613099 0.035749 0.158772 -0.233258 0.949477
-0.186915 0.410496 -0.096345 0.076795 0.046208 -0.994443
0.152749 0.321994 0.063631 0.721648 0.002913 0.692009
0.167055 0.54687 0.001882 0.20626 0.692463 0.690257
-0.080258 -0.167859 -0.087689 -0.57858 -0.137879 -0.803746
0.113539 -0.319153 0.079878 -0.14129 -0.088509 0.985095
0.009634 -0.481457 -0.049874 0.829433 0.043427 -0.555837
-0.114241 -0.324325 0.090908 -0.788736 -0.061085 0.605926
0.200521 -0.341803 0.03052 0.932927 -0.09331 0.346986
0.201815 -0.086624 -0.042451 0.894536 0.048164 -0.442586
-0.013416 0.569268 0.014302 -0.304845 0.600087 0.735726
-0.013657 -0.614421 0.022549 0.185352 -0.142332 0.966081
0.579133 0.105801 -0.006941 0.57534 0.081704 -0.81299
0.122992 0.226791 0.098907 0.543317 0.041309 0.838374
0.139804 -0.330607 -0.086746 0.625692 0.030063 -0.777527
0.58364 0.129814 0.039788 0.748174 0.660525 0.055574
0.081362 0.71419 -0.070717 0.716699 -0.497855 -0.487838
0.018557 0.229274 -0.126387 0.094173 -0.007283 -0.99459
0.029798 0.483377 -0.125104 -0.212537 0.132555 -0.967964
-0.025383 -0.476173 0.061477 0.413774 -0.322528 0.849507
0.0987 0.447967 0.083025 0.144361 0.228611 0.962621
0.197228 -0.237811 0.052369 0.923374 0.04103 0.379519
0.016083 -0.319394 -0.037992 0.886819 -0.021999 -0.457958
-0.294626 0.365387 -0.015017 -0.769088 0.558887 0.292124
-0.107811 -0.3218 -0.053385 -0.785118 0.052111 -0.616889
0.02674 -0.682051 -0.045723 0.995487 -0.016355 -0.065219
-0.145606 0.551629 -0.033816 -0.434878 0.868552 -0.211291
-0.461662 0.17143 -0.041411 -0.560683 0.431702 -0.706402
0.105735 0.555848 0.016559 0.414945 0.644746 0.635409
0.149451 0.191761 0.078921 0.721574 0.050996 0.690428
0.173017 -0.687032 0.014982 0.463486 -0.423265 0.777337
-0.043105 -0.444214 -0.090552 0.194042 0.182829 -0.961645
0.101972 -0.795086 0.051786 -0.293341 0.476778 0.82558
0.16653 -0.842828 0.075573 0.791163 0.611573 0.002182
-0.008815 -0.723477 -0.098002 0.584616 0.30102 -0.75245
-0.057385 0.56905 0.003309 -0.129315 0.796316 0.589701
0.119736 -0.729594 0.022398 0.427328 0.283482 0.842346
0.140416 -0.626212 0.032504 0.347228 -0.29522 0.889075
-0.024442 -0.076738 0.128913 0.027749 -0.070931 0.996795
-0.073826 0.500946 0.061099 -0.209606 0.413785 0.885321
-0.23486 0.346446 0.010076 0.377595 -0.401647 0.832377
0.575677 0.068956 0.019574 -0.860026 -0.506353 0.05851
0.034219 0.492507 0.073019 0.083474 0.508359 0.856843
-0.12998 -0.272143 0.050432 -0.978151 -0.160742 0.126559
0.136806 0.042366 -0.131708 0.641119 0.217574 -0.734005
0.101424 0.2181 -0.128035 0.326929 -0.364562 -0.870626
0.139583 -0.616655 -0.097238 0.237505 -0.13887 -0.959977
0.199374 -0.553491 -0.04947 0.952419 -0.018191 -0.299675
-0.395181 0.237927 -0.073196 -0.385313 -0.206219 -0.898733
-0.118119 0.343126 0.006969 -0.976638 -0.142031 0.16103
-0.121364 -0.481167 0.035365 -0.815924 -0.259408 0.516558
-0.238011 0.454612 -0.021114 -0.847928 0.524065 0.069921
0.231927 0.51824 -0.000631 0.559784 0.524193 0.63503
0.151177 -0.867332 0.103078 0.458505 -0.886937 0.015999
-0.060341 0.23085 0.095289 -0.557539 0.093824 0.823507
0.209472 0.547425 -0.084326 0.333878 0.78641 -0.51533
0.282212 0.339401 -0.103865 -0.63447 -0.711637 -0.292409
0.076637 0.171548 -0.119019 0.136885 0.119042 -0.982369
0.186946 -0.34728 0.059951 0.860764 -0.077665 0.502816
-0.11847 -0.628241 0.017195 -0.915602 0.021181 0.398199
0.245386 0.371959 -0.112337 -0.613729 -0.716061 -0.313244
0.008111 -0.278493 0.08404 0.692933 -0.153862 0.702827
-0.111921 0.307006 0.017294 -0.967656 -0.038675 0.246795
-0.128791 -0.395864 0.039032 -0.969619 0.136205 0.202148
0.303708 0.356602 -0.034617 0.107678 -0.494348 0.853993
0.564528 0.154372 -0.005705 0.849947 0.443712 -0.269119
0.103567 0.563152 0.010596 0.321282 0.712981 0.60627
0.204992 -0.059674 -0.031537 0.948481 0.021831 -0.315321
0.156838 0.145689 0.073989 0.701217 0.065366 0.70978
-0.220652 0.338321 -0.005098 0.480773 -0.657955 0.569094
0.043906 -0.483666 -0.03111 -0.999716 -0.00021 0.014588
0.572806 0.135376 0.050786 0.173015 0.576195 0.535325
-0.016988 0.449413 0.093187 -0.133244 0.371587 0.918094
0.037589 0.808129 0.079033 0.035603 0.353196 0.93207
0.200408 -0.54068 -0.046264 0.953014 -0.012051 -0.302468
-0.388862 0.250382 -0.078369 -0.374242 -0.155343 -0.912622
-0.08878 0.100963 -0.092412 -0.711004 0.216062 -0.667621
0.145163 0.545863 0.008475 0.271614 0.684549 0.675619
-0.137937 -0.004019 0.018531 -0.994799 -0.01848 0.028357
0.335861 0.316139 -0.044291 -0.328736 -0.37002 0.854357
0.092602 0.23908 -0.135876 0.046237 -0.177816 -0.981655
-0.5058 0.105467 0.080704 0.600549 -0.267321 0.7498
-0.115714 -0.312853 0.090244 -0.791446 -0.058789 0.605551
-0.395557 0.200628 0.015895 0.2806 0.078207 0.938296
-0.062123 -0.131464 0.122472 -0.243442 0.013467 0.969566
0.207716 0.525272 0.006151 0.287115 0.566869 0.770969
-0.085196 -0.340833 -0.075972 -0.558514 0.029905 -0.828224
0.46974 0.197197 0.001998 -0.558992 0.330926 0.713639
0.186718 -0.279937 0.068776 0.700122 0.016988 0.708403
0.104704 0.729325 -0.012662 0.690799 -0.581231 0.309631
0.100443 0.720682 0.007598 0.977351 -0.004817 0.199099
-0.043274 0.177408 -0.102645 -0.468587 -0.278295 -0.834053
0.285122 0.403523 -0.143402 -0.107184 0.1169 -0.984245
0.121115 -0.860374 0.178851 -0.098175 -0.94996 0.289352
-0.371134 0.277411 0.002874 -0.262057 0.384699 0.883951
-0.123215 -0.362795 -0.037767 -0.877284 0.075064 -0.469613
-0.031483 0.04626 0.128435 -0.195683 0.121794 0.972746
-0.142876 -0.048295 0.023306 -0.994468 0.044308 0.094928
-0.002303 -0.590024 0.019509 0.662016 -0.054671 0.746183
-0.1122 0.264474 -0.013993 -0.9999 -0.006973 0.000362
0.055115 0.557172 -0.113281 -0.137871 0.455327 -0.878974
0.447731 0.278172 -0.049828 0.428953 0.688829 0.568799
-0.113841 -0.440464 -0.059221 -0.725615 0.249435 -0.640408
-0.126713 -0.667837 -0.036114 -0.985538 -0.047788 0.15373
-0.001928 0.571113 -0.101203 -0.048606 0.537693 -0.841726
-0.222281 0.400804 -0.094787 -0.113049 0.173669 -0.977631
0.274509 0.344961 -0.102197 -0.628959 -0.685758 -0.363287
0.625344 0.064172 0.095202 0.698331 0.621021 0.318905
0.034613 -0.016282 0.135648 -0.053771 -0.331845 0.931185
0.075113 -0.646812 0.014233 -0.488135 0.396817 0.766072
0.618833 0.085408 0.052264 0.864144 0.502879 0.018439
0.47764 0.184168 -0.002076 -0.590328 -0.782757 0.191363
-0.002644 0.008992 0.141674 -0.157718 0.201752 0.965366
0.194263 -0.332002 -0.034419 0.800863 0.085522 -0.590462
-0.429269 0.159559 -0.002642 0.519398 -0.853806 0.018608
0.162052 0.055006 -0.102392 0.693559 0.257687 -0.672505
-0.534057 0.096361 0.027132 -0.323653 0.604207 -0.628127
-0.513167 0.129705 0.067698 -0.760166 0.6343 0.102856
0.241534 0.49678 -0.115796 0.469243 0.533194 -0.703433
-0.236955 0.377311 -0.097219 0.041169 0.067592 -0.99603
-0.092516 0.159401 -0.072835 -0.733983 0.181159 -0.636847
-0.204407 0.344083 -0.014722 0.52779 -0.752744 0.392261
0.120606 -0.664149 0.032387 0.099772 -0.141846 0.984436
0.192517 -0.280189 -0.042132 0.804697 -0.189227 -0.560184
-0.083003 0.101785 0.093605 -0.598567 0.201178 0.7745
0.17572 0.367015 0.041821 0.81213 -0.140142 0.565734
0.058973 0.834553 -0.088799 0.326317 0.694382 -0.6362
0.282812 0.446369 -0.130146 0.336611 0.520263 -0.782835
0.076102 0.211598 -0.127393 -0.083155 -0.369389 -0.924706
0.082668 0.845625 -0.032552 0.809094 0.572777 -0.091547
0.182274 0.006462 -0.080883 0.869545 0.068564 -0.483263
0.611503 0.093237 0.065321 0.761017 0.646631 0.05025
0.187147 0.032154 0.075579 0.802494 0.205291 0.56009
-0.026027 -0.280648 0.099486 0.333349 -0.254921 0.906585
0.051083 -0.598877 -0.015098 -0.885886 -0.052009 0.460466
0.081922 0.847345 0.000367 0.871389 0.484734 0.068199
-0.07274 -0.083204 -0.106563 -0.436671 -0.225979 -0.868071
-0.014989 -0.193995 0.113273 0.391303 -0.096354 0.914648
0.444364 0.243784 -0.106179 0.61956 -0.308575 -0.721166
-0.314366 0.347761 -0.064163 -0.631203 0.704214 -0.323925
0.01294 -0.691547 -0.071614 0.626792 0.157739 -0.761955
-0.328843 0.280342 -0.092012 -0.081095 -0.231956 -0.968912
0.171814 0.115385 -0.065718 0.792567 0.270199 -0.546421
0.011065 -0.328863 0.067675 0.753291 -0.218505 0.619837
-0.239956 0.32137 -0.071245 0.638916 -0.586645 -0.495571
0.067296 -0.31607 -0.078533 -0.763755 -0.021381 -0.644142
0.030678 0.865344 0.014655 -0.201718 0.95902 0.190661
0.046445 -0.516213 -0.016679 -0.673198 0.024669 0.687472
-0.095796 -0.249424 0.10828 -0.296952 -0.020003 0.951613
0.12921 0.485339 0.059611 0.234071 0.521062 0.820673
-0.103238 -0.245132 -0.059397 -0.796345 -0.045891 -0.601148
0.037203 0.094932 -0.141793 -0.138827 0.213244 -0.96598
0.198805 -0.640984 -0.037795 0.999703 -0.006361 -0.020688
0.064462 -0.723843 -0.027357 -0.822113 -0.218055 -0.524038
0.045419 -0.580082 -0.03061 -0.992881 -0.048395 -0.051889
0.004848 -0.593423 0.01325 0.636393 0.065196 0.767308
0.139323 -0.844321 -0.110484 0.511518 0.029267 -0.856983
-0.07003 -0.125852 0.120366 -0.25176 -0.003489 0.967515
-0.001523 0.468671 -0.127881 0.129967 0.046877 -0.990324
-0.096367 -0.847361 -0.08459 -0.983208 -0.054004 -0.162972
0.319629 0.406701 -0.037131 0.600248 0.359732 0.712997
-0.084591 0.130979 0.084143 -0.669862 0.024042 0.741965
0.205613 -0.212011 0.020864 0.989936 -0.019524 0.133207
0.138838 0.409774 0.078169 0.533544 0.080017 0.841597
-0.119788 -0.056996 -0.0671 -0.845633 -0.119114 -0.520121
0.08887 -0.470707 -0.093923 -0.564515 0.039698 -0.824341
-0.035299 -0.842106 0.117594 0.912805 0.23408 0.311538
0.063919 -0.571478 -0.06245 -0.723101 -0.107764 -0.682227
0.416151 0.283536 -0.124918 0.341263 0.21087 -0.915679
0.070445 0.831494 0.047417 0.636177 0.561846 0.525314
-0.032018 0.057773 0.12671 -0.300186 0.17521 0.934914
-0.035786 -0.437403 0.075755 0.261016 -0.21579 0.940308
-0.526307 0.088939 0.026352 0.214491 -0.132127 -0.879401
-0.038708 -0.057243 0.129694 -0.096313 -0.072687 0.992556
-0.332144 0.33529 -0.056308 -0.649776 0.749005 -0.119801
0.162906 -0.838767 0.098688 0.759645 0.648136 0.045387
0.079213 -0.238079 -0.087788 -0.5067 -0.045699 -0.860394
0.186787 -0.20576 -0.064337 0.626472 -0.087033 -0.774428
0.074617 0.501303 0.064567 0.110116 0.476293 0.870748
-0.008781 -0.436453 -0.066993 0.736597 0.046804 -0.674584
0.065153 -0.798754 -0.039932 -0.950169 -0.136734 -0.269183
-0.276261 0.268441 -0.061911 0.701131 -0.680253 -0.209516
0.143513 -0.145749 0.106282 0.219881 -0.180248 0.957925
0.042206 -0.096467 0.099661 0.466051 -0.550318 0.690171
-0.044695 -0.287901 0.103862 0.233188 -0.142119 0.961113
-0.070168 -0.863903 0.104164 -0.026518 -0.999391 0.022389
-0.128453 0.39752 0.002657 -0.948928 -0.288382 0.085143
-0.135589 -0.058153 -0.035909 -0.945329 -0.008269 -0.319907
0.045934 -0.459991 -0.045125 -0.929155 0.013771 -0.353255
0.160529 -0.834594 0.077272 0.81219 0.580604 0.033684
0.355386 0.286084 -0.119688 -0.527867 -0.541468 -0.651203
0.069541 -0.812559 -0.055337 -0.951992 -0.091083 -0.283808
0.070645 0.677204 -0.053863 0.705875 -0.275112 -0.64944
0.567673 0.088194 -0.018985 0.074606 -0.212035 -0.917504
0.113382 0.377629 -0.143681 0.256314 -0.066588 -0.962615
-0.095308 0.024816 -0.108454 -0.756763 0.137821 -0.637845
-0.257447 0.427133 -0.017932 -0.751627 0.624967 0.210845
-0.007964 -0.319934 -0.065711 0.711553 -0.087552 -0.69713
-0.294285 0.34977 -0.085664 -0.534073 0.491007 -0.687189
0.062541 -0.74016 0.033937 -0.271797 -0.366807 0.880694
-0.036932 -0.661947 -0.099745 0.757951 0.159794 -0.595509
0.177738 -0.204949 -0.0713 0.592493 -0.10484 -0.798377
0.058773 0.217687 -0.126242 -0.209013 -0.302174 -0.929202
-0.083797 0.481856 0.066291 -0.294905 0.309651 0.902557
0.102515 -0.072532 0.117686 -0.066944 -0.466186 0.876665
-0.012032 0.791781 0.060417 -0.892415 0.177262 0.413411
-0.122792 -0.750824 -0.019216 -0.955173 -0.075335 0.272612
0.12003 0.060654 -0.137369 0.508785 0.214301 -0.832723
-0.080865 -0.844308 -0.123793 -0.808009 -0.064741 -0.581625
-0.009962 -0.515114 -0.078751 0.687179 0.07985 -0.722021
-0.120262 0.038405 -0.064326 -0.875035 0.142124 -0.462122
0.321601 0.440731 -0.061743 0.823757 0.424709 0.374157
-0.097647 -0.834217 0.085238 -0.664476 0.734962 0.123628
-0.002575 0.78554 0.074292 -0.57172 0.178558 0.791126
-0.244551 0.31992 -0.003711 0.549198 -0.553562 0.624044
0.10338 -0.006132 -0.153427 0.249844 -0.001242 -0.965227
0.103147 -0.024489 -0.151286 0.164399 -0.233091 -0.95698
0.123351 0.231533 -0.11845 0.616035 -0.321202 -0.718484
0.195798 -0.427561 -0.048453 0.88768 0.099034 -0.442451
0.620899 0.078388 0.064079 0.869724 0.4906 0.050229
0.166826 0.224531 -0.061279 0.869363 -0.014138 -0.493761
0.037395 0.714913 0.096812 0.211747 -0.331041 0.911856
-0.13634 -0.163468 0.058897 -0.977525 -0.016176 0.203077
-0.019832 0.341037 0.107817 -0.430694 0.127924 0.888258
-0.552719 0.055999 0.077469 0.836471 -0.501678 0.188528
0.28525 0.470949 -0.105165 0.523463 0.650533 -0.549901
-0.336114 0.245781 0.007008 0.191452 -0.129668 0.968183
-0.122699 -0.149145 0.088215 -0.839102 0.031861 0.542503
0.321333 0.42601 -0.049859 0.736212 0.308947 0.596732
0.030715 -0.266928 0.017905 0.988253 -0.046013 0.143753
-0.069542 0.471722 0.075323 -0.232766 0.351023 0.906369
-0.126039 -0.737222 -0.060028 -0.974743 -0.031782 -0.21369
0.166775 -0.744772 0.013138 0.315833 0.818908 0.476787
0.095183 -0.837288 0.122512 -0.788479 0.591838 0.1602
0.312443 0.456903 -0.073983 0.724663 0.687901 0.020626
-0.048276 -0.250037 0.110789 0.127589 -0.123307 0.984032
-0.004451 -0.831714 -0.064021 0.19191 -0.962637 0.004176
0.145103 -0.835204 0.161527 0.465257 0.844239 0.255001
-0.08393 -0.833171 0.132486 -0.429285 0.873823 0.216749
0.199055 -0.015569 -0.047381 0.954548 0.042524 -0.29363
-0.082273 -0.802204 -0.128508 -0.718696 -0.176828 -0.671282
-0.059709 0.455172 0.083229 -0.171922 0.317302 0.932331
-0.10444 0.449189 -0.118625 -0.375653 -0.03747 -0.923613
-0.385542 0.19015 -0.030203 0.506423 -0.853594 -0.064076
-0.060494 -0.863744 0.115795 0.002323 -0.999413 0.024495
0.151194 -0.693697 -0.083929 0.640532 -0.018544 -0.767345
-0.282859 0.374028 -0.001189 -0.808825 0.25422 0.521565
-0.092066 0.100951 0.086784 -0.571561 0.191535 0.794084
0.12131 0.106453 -0.122389 0.526677 0.341037 -0.776637
-0.081513 0.270991 0.078218 -0.60271 0.051806 0.79617
-0.137164 0.0382 0.010001 -0.967866 0.24762 0.003352
-0.375803 0.273337 -0.083609 -0.326093 0.195264 -0.923335
0.149313 -0.866783 -0.044287 0.46763 -0.875647 0.087363
0.039697 0.065346 0.134168 0.154016 0.070662 0.984894
-0.071647 -0.181545 0.116814 -0.130849 -0.034243 0.989772
0.088012 0.299135 0.107571 0.383907 0.126795 0.907108
-0.057871 0.184893 -0.096313 -0.529121 -0.182419 -0.82688
0.029287 0.426954 0.095735 0.133385 0.186081 0.973053
0.121788 -0.165486 -0.108244 0.203623 -0.151805 -0.965383
0.244971 0.521503 -0.019056 0.640692 0.612612 0.459246
0.236379 0.478559 0.006083 0.585348 -0.029823 0.807498
0.171477 0.467478 -0.138059 0.162674 0.064952 -0.984186
-0.108877 -0.278323 -0.049758 -0.818596 0.00623 -0.574228
0.315041 0.306895 -0.098873 -0.684986 -0.706445 -0.157983
0.178609 -0.386459 0.06744 0.606967 -0.051667 0.790316
0.115594 0.228913 -0.123582 0.549542 -0.341184 -0.761715
-0.034859 0.561655 0.020737 -0.049743 0.801921 0.591258
-0.187635 0.352415 -0.037457 0.608478 -0.788817 -0.06087
-0.007344 0.030307 0.137313 -0.158911 0.158321 0.974504
0.501465 0.216314 -0.009313 0.313104 0.560303 0.742111
-0.087202 0.404721 0.079258 -0.626851 0.004344 0.778859
0.046739 -0.431329 -0.00753 -0.846098 -0.115582 0.510526
-0.045996 0.188029 -0.103978 -0.456095 -0.241777 -0.855994
0.097538 -0.813574 0.060573 -0.682462 0.518431 0.510655
-0.021341 0.694962 0.018574 -0.9555 -0.290559 0.033619
0.00037 -0.731951 -0.092209 0.700222 0.178162 -0.689896
0.093927 -0.865091 0.127366 -0.4889 -0.860885 0.136957
-0.137173 -0.443252 -0.019563 -0.973371 0.106078 -0.196295
-0.03922 0.172164 0.112573 -0.53837 0.108162 0.835682
0.021578 0.134556 0.132499 -0.061831 0.02465 0.997266
-0.001424 0.580288 -0.095491 -0.070821 0.56929 -0.817976
-0.136971 -0.188305 0.003483 -0.986002 -0.090831 -0.136653
-0.038003 -0.76687 0.019913 0.428603 0.75914 0.479903
-0.07098 -0.24513 0.112397 -0.053482 -0.068943 0.996024
0.167537 -0.615641 -0.083878 0.610152 -0.149817 -0.777299
0.275566 0.412334 -0.012807 0.045929 -0.139973 0.986525
-0.003732 -0.471318 -0.06603 0.754521 0.103117 -0.647247
-0.120431 0.353259 -0.067628 -0.985025 -0.098891 -0.130142
-0.034523 -0.288262 0.100573 0.340555 -0.20899 0.915866
0.162291 0.465089 -0.140054 0.232594 0.089494 -0.967512
0.010373 -0.395083 0.050201 0.851821 -0.184969 0.489377
0.140095 0.479177 0.059907 0.306932 0.458934 0.831861
-0.020717 -0.823417 0.041615 0.848312 -0.412445 0.300001
0.153521 0.555425 -0.102056 0.247146 0.654843 -0.712483
0.087667 -0.852673 -0.081469 -0.973432 0.044418 -0.169982
0.024508 -0.631036 -0.046236 0.887409 0.096388 -0.443074
0.049354 0.732617 0.091158 0.855596 0.144142 0.492137
0.186246 0.068789 0.061671 0.829315 0.167586 0.532032
0.199251 -0.590938 -0.00249 0.985599 -0.02805 0.166644
0.582772 0.05782 -0.028059 -0.170928 -0.062321 -0.867202
-0.118925 -0.775176 -0.023136 -0.971403 -0.061753 0.22558
0.083577 0.687247 0.049254 0.903462 -0.36304 0.219951
-0.091393 0.044952 -0.105663 -0.705684 0.243771 -0.665105
0.214256 -0.124516 0.004886 0.997735 -0.057223 0.022101
-0.134665 0.047982 0.032745 -0.968848 0.185326 0.150174
0.020329 0.751964 0.083784 -0.870981 0.211095 0.433218
0.373634 0.249463 -0.078363 -0.72866 -0.678831 0.084382
-0.048295 -0.126871 -0.10415 0.03146 -0.125059 -0.990054
-0.062755 0.226931 -0.106117 -0.617139 -0.266598 -0.740296
0.18337 0.501395 0.025413 0.380003 0.283831 0.878945
-0.005061 -0.098244 -0.096293 0.538709 -0.383973 -0.748902
0.184311 0.193669 0.009043 0.969423 0.231866 0.036409
0.017153 -0.264617 -0.04348 0.870896 -0.085559 -0.47815
-0.393766 0.239381 0.011194 -0.037558 0.185891 0.98123
-0.126443 0.398045 0.028272 -0.921388 -0.329888 0.194425
-0.135634 0.519669 -0.086289 -0.397764 0.495569 -0.771728
0.191021 -0.416289 0.045383 0.933484 -0.037558 0.355101
-0.053784 -0.34191 0.099168 0.201583 -0.097057 0.974475
-0.008655 -0.169445 -0.077322 0.629108 -0.05701 -0.774006
-0.078333 -0.295703 0.107216 0.036058 -0.091854 0.995003
0.12969 -0.781367 0.039915 0.164404 0.459488 0.863164
-0.019523 -0.52637 0.042764 0.505398 -0.225402 0.830161
0.052811 -0.520815 -0.005615 -0.832512 -0.0185 0.55111
0.141306 -0.089048 0.112314 0.259136 -0.028205 0.9633
0.033489 0.84716 -0.080991 -0.008898 0.876464 -0.458164
0.139038 0.11152 0.092822 0.670022 0.089609 0.736176
-0.094978 0.184203 -0.066284 -0.728594 0.112823 -0.675231
-0.290161 0.347453 0.003608 -0.442342 0.236203 0.860361
0.018532 0.658842 0.064811 -0.219017 -0.965863 0.12905
-0.061138 -0.191751 0.120287 -0.242557 -0.083202 0.963133
0.005164 0.82423 -0.098962 -0.351773 0.624 -0.693308
-0.128125 -0.359322 -0.018237 -0.993141 0.032617 -0.102246
0.436656 0.233431 -0.107602 0.499657 -0.353594 -0.784567
0.618735 0.052094 0.049174 -0.774084 -0.628872 -0.024342
-0.060529 0.019387 0.123089 -0.310087 0.312094 0.895663
-0.123701 -0.406011 -0.036151 -0.813186 -0.019923 -0.580342
-0.100487 -0.090885 -0.082804 -0.706827 -0.133397 -0.694449
0.207059 0.006222 0.025756 0.99775 0.016506 0.057592
0.143675 0.529045 -0.124438 0.212246 0.518888 -0.827406
0.084899 -0.600008 0.023332 -0.744318 -0.094429 0.660661
0.074138 -0.385324 -0.07934 -0.669926 -0.06421 -0.739584
0.187064 0.421969 0.039574 0.678428 -0.051705 0.732336
0.005196 -0.323468 0.074957 0.646849 -0.201144 0.735495
-0.108992 0.369113 0.051756 -0.810311 -0.273516 0.517407
-0.12749 -0.240025 -0.015737 -0.926973 -0.011726 -0.374577
0.08651 0.023156 0.130087 0.307776 0.22376 0.923762
0.013318 -0.764041 -0.081515 0.838242 0.113425 -0.531397
-0.118936 0.378084 -0.086815 -0.85297 -0.209041 -0.474155
-0.081148 0.568367 -0.001386 -0.16336 0.854743 0.489534
-0.067552 -0.095681 -0.106267 -0.354662 -0.17279 -0.916883
-0.079365 -0.863637 0.077979 -0.051301 -0.998623 0.002045
-0.128681 -0.573277 -0.015208 -0.969988 -0.083693 0.227768
0.182906 -0.110909 -0.074098 0.786345 -0.081491 -0.611896
0.039686 0.074598 -0.146886 -0.185401 0.27312 -0.942724
0.435257 0.274296 -0.117625 0.576309 0.197188 -0.790249
0.181814 0.239085 0.022795 0.989926 -0.013276 0.139153
-0.29338 0.32724 -0.095499 -0.162585 0.221578 -0.958706
-0.106598 0.565697 -0.047584 -0.361473 0.890546 -0.275168
0.19359 -0.131349 0.071687 0.865296 -0.016703 0.499269
-0.352304 0.256218 -0.083883 0.101521 -0.298314 -0.948561
0.198942 -0.065853 0.062682 0.868127 0.067108 0.491279
0.196554 -0.487292 0.01116 0.94835 0.043236 0.309598
0.053144 -0.549964 -0.005499 -0.814058 -0.002293 0.579869
0.029269 -0.218456 0.037081 0.975547 -0.033587 0.216615
0.138789 0.292988 -0.115296 0.767043 -0.067358 -0.637983
0.171591 -0.199145 -0.077074 0.627465 -0.099152 -0.771927
-0.264305 0.420018 -0.0252 -0.76708 0.632191 0.095793
-0.128339 -0.65064 -0.051265 -0.999285 -0.017696 0.024487
-0.114494 -0.367256 0.084883 -0.777045 -0.006068 0.626973
-0.260639 0.328192 -0.092095 0.381518 -0.304491 -0.86936
0.380961 0.319298 -0.128002 0.40424 0.229844 -0.877147
0.179552 0.227203 -0.032142 0.911595 0.006683 -0.410695
-0.002873 -0.540865 0.027709 0.647428 -0.15592 0.744562
0.199212 -0.612267 -0.038231 0.998285 -0.036114 -0.042465
-0.039005 0.306631 0.102453 -0.5281 0.130352 0.837825
-0.027587 0.525879 0.056143 -0.147609 0.539879 0.828215
0.312081 0.399905 -0.028848 0.576801 0.248868 0.776158
0.064907 -0.536898 -0.067332 -0.765906 -0.060723 -0.639989
-0.093931 -0.470787 -0.084143 -0.555001 0.113419 -0.824007
0.084354 0.224852 -0.132665 -0.022548 -0.380788 -0.922905
0.27338 0.380357 -0.023419 -0.359764 -0.241381 0.901101
-0.120457 -0.664295 -0.007087 -0.977033 -0.156245 0.144268
-0.060225 -0.632249 0.035074 0.379478 -0.231728 0.89562
-0.050864 0.022573 0.126026 -0.430011 0.267861 0.858622
0.163623 -0.652387 -0.078928 0.573345 -0.203591 -0.792939
-0.230591 0.442314 -0.070056 -0.577419 0.556337 -0.597411
0.145724 -0.760123 -0.09606 0.554252 0.222244 -0.795114
0.163662 -0.599007 0.033985 0.416832 -0.401699 0.81414
0.150158 0.268865 0.070323 0.759476 0.08344 0.644894
0.124704 -0.842821 0.179914 -0.177981 0.42785 0.882407
0.028707 -0.308457 0.00893 0.998625 -0.047452 0.016142
0.114975 -0.173334 0.101454 -0.135782 -0.329499 0.931383
0.059709 0.598069 -0.085305 0.11981 0.652878 -0.747204
-0.02475 -0.03054 0.132763 -0.047268 0.149122 0.986112
-0.214636 0.368734 0.01449 0.171021 -0.479707 0.859591
-0.036352 0.755687 -0.051601 -0.964284 -0.162329 -0.20111
0.126609 -0.278682 0.083311 0.019365 -0.061824 0.997747
-0.335184 0.330356 -0.018621 -0.609438 0.731455 0.267363
-0.079209 -0.446054 0.082327 0.081174 -0.149466 0.984501
0.18665 0.400892 0.036092 0.816825 -0.168196 0.549225
0.086997 -0.852255 -0.051859 -0.970962 -0.035157 0.191078
-0.006473 -0.217495 0.105314 0.507326 -0.131716 0.850475
0.075672 -0.588554 -0.071602 -0.694795 -0.095631 -0.712629
-0.052563 0.465756 -0.131041 -0.080465 0.078151 -0.992916
-0.041048 0.46295 0.08442 -0.187845 0.438603 0.869035
0.112993 -0.151668 0.107676 -0.293363 -0.28203 0.898368
-0.046991 -0.833862 0.129193 0.443614 0.82482 0.308464
0.189828 -0.473294 0.03458 0.957738 -0.051352 0.278325
0.138989 0.100939 0.094551 0.657292 0.162178 0.733969
0.157407 0.425523 0.063269 0.720169 0.075477 0.689028
0.008883 -0.379764 0.057443 0.832313 -0.113344 0.541248
0.096987 0.75706 -0.072798 0.941508 -0.106538 -0.301899
-0.330505 0.308442 0.000234 -0.365574 0.225473 0.90093
0.201823 -0.168463 0.040745 0.94508 -0.116024 0.299078
0.003525 0.580209 0.018911 -0.468653 0.218731 0.852965
0.048955 0.478668 0.078532 0.119547 0.501106 0.855528
0.101805 -0.483104 -0.102444 -0.393088 0.015719 -0.919086
0.137608 -0.346047 -0.089098 0.587498 0.046619 -0.804753
0.050158 -0.474996 -0.00907 -0.875282 -0.033073 0.478825
0.127265 -0.326788 0.080454 -0.028161 -0.071947 0.996437
-0.022539 0.831649 0.015931 -0.720763 0.282282 0.629825
-0.072147 -0.193896 0.116374 -0.319647 -0.06236 0.944033
0.19073 -0.391749 0.047706 0.93289 -0.027111 0.358396
0.073188 0.020935 -0.160046 0.021273 -0.151857 -0.986515
-0.10031 -0.022145 -0.10089 -0.730872 -0.108046 -0.672968
-0.125679 0.022163 0.071276 -0.837382 0.211704 0.502181
0.074622 -0.760617 -0.049716 -0.860219 0.216227 -0.461105
-0.116222 0.566149 -0.016053 -0.198985 0.978055 0.05174
0.053977 0.182242 -0.116835 -0.17889 0.189798 -0.963885
-0.020569 0.018537 0.136794 -0.183299 0.130928 0.97412
0.163689 -0.845572 -0.050395 0.99001 -0.079613 -0.054128
0.075609 0.251028 -0.136586 -0.146148 -0.10604 -0.982545
0.024559 0.784095 0.085606 -0.124128 0.433447 0.889946
-0.109608 -0.855018 0.07061 -0.778862 -0.612044 0.046611
0.142422 0.581764 -0.062537 0.255351 0.95446 -0.091948
0.128719 -0.824005 0.106613 0.108549 0.986225 0.102583
0.195103 0.128707 -0.017246 0.802227 0.13853 -0.575976
-0.385244 0.282923 -0.015104 -0.658331 0.671128 0.340361
-0.044513 0.130209 0.111811 -0.473741 -0.032241 0.87957
0.177568 0.194701 -0.038035 0.92815 0.026852 -0.370994
0.158125 -0.164599 0.097715 0.245844 -0.144869 0.956929
-0.038993 0.765304 -0.014745 -0.980196 -0.108341 0.155286
0.139115 -0.509714 -0.106519 0.241152 0.001413 -0.968852
0.163017 -0.761604 -0.076031 0.809099 0.396373 -0.426952
0.177466 0.009507 -0.089005 0.82861 0.050889 -0.5567
0.047233 0.693985 0.088944 0.312317 -0.096947 0.942116
-0.026619 0.183204 -0.111129 -0.316026 -0.251455 -0.914476
-0.079861 0.51272 -0.113646 -0.286526 0.399056 -0.870316
0.263773 0.357163 -0.046995 -0.619949 -0.662999 0.414339
0.041418 -0.323397 -0.040985 -0.875462 -0.0248 -0.482449
0.122288 0.588744 -0.072078 0.365516 0.88227 -0.279029
-0.029937 0.841192 -0.002019 -0.675804 0.713753 0.169583
0.136293 -0.568252 0.042991 -0.052339 -0.197313 0.977716
-0.022079 0.725277 -0.061491 -0.861131 -0.415902 -0.289874
0.145124 0.297292 -0.108186 0.782479 -0.096811 -0.614976
0.201411 -0.220666 0.038226 0.952656 0.02773 0.302666
-0.105193 0.393057 -0.105655 -0.545821 -0.235332 -0.803271
0.113789 -0.520556 -0.106432 -0.266666 -0.006758 -0.960823
0.025741 0.865174 -0.033402 -0.16779 0.968484 -0.180128
0.039767 -0.291479 0.009381 -0.947883 2e-05 0.314535
-0.081514 -0.415686 0.089361 0.044613 -0.20156 0.977562
-0.140459 0.450002 -0.100271 -0.481021 -0.034246 -0.87493
-0.081166 -0.857638 0.150648 -0.37993 -0.681944 0.542709
-0.127935 0.162096 -0.005693 -0.991898 -0.020194 -0.108116
-0.14061 -0.147497 0.043139 -0.950555 -0.044844 0.307154
0.119942 -0.454353 -0.104961 -0.045403 0.071541 -0.993954
-0.318238 0.29603 0.004994 -0.152892 0.072565 0.984939
-0.127035 -0.074768 0.076576 -0.833556 0.020239 0.551847
-0.298277 0.361063 -0.067496 -0.691841 0.654012 -0.3044
-0.427799 0.196371 -0.053394 -0.35543 0.052301 -0.930053
-0.042093 -0.695076 -0.110292 0.349324 0.281179 -0.892732
-0.464611 0.185316 -0.029323 -0.679322 0.514651 -0.504162
0.158102 0.106843 0.079251 0.39833 0.169502 0.898221
0.197789 -0.424353 0.019871 0.969675 -0.077264 0.231173
-0.026246 0.016182 -0.142031 -0.181714 -0.384751 -0.90178
0.045993 -0.037361 -0.138319 -0.304233 -0.415154 -0.857133
0.451625 0.266308 -0.039195 0.102391 0.59473 0.794978
0.109745 -0.507532 0.039277 -0.611405 -0.067516 0.788139
0.177701 0.126488 -0.04958 0.852457 0.232215 -0.465637
0.178272 0.170485 -0.040288 0.902475 0.103278 -0.417199
0.58827 0.050152 -0.014242 0.818087 -0.476467 -0.127463
0.044296 0.863111 0.029944 0.098912 0.963057 0.239833
0.406445 0.290697 -0.126274 0.269093 0.231225 -0.932693
0.193436 0.14089 0.028909 0.869651 0.053518 0.489028
0.161589 -0.622119 0.024655 0.380438 -0.097556 0.90552
-0.192107 0.505376 0.022361 -0.653481 0.596555 0.465055
-0.411087 0.258103 -0.035748 -0.813682 0.580643 -0.006256
0.040039 0.021345 -0.157352 -0.162101 -0.330566 -0.920733
-0.059749 -0.601258 -0.10368 0.113059 0.034968 -0.991702
0.122375 -0.064849 -0.134537 0.237639 -0.28489 -0.927916
-0.018153 -0.190495 -0.083806 0.580066 -0.007441 -0.814447
-0.097641 -0.057425 0.107127 -0.571501 0.020925 0.81902
0.1134 0.34348 0.094898 0.428671 0.10265 0.893925
0.135495 -0.265266 -0.091245 0.468469 -0.086527 -0.877626
0.215432 0.403425 -0.068214 -0.904952 -0.414153 0.037569
0.177936 -0.540727 -0.081694 0.697843 -0.036048 -0.71534
0.179634 0.178848 0.043333 0.84871 0.082894 0.522204
0.618528 0.085861 0.028303 0.869602 0.490936 -0.046759
-0.195304 0.431007 -0.09258 -0.159178 0.277577 -0.947217
0.167848 0.319284 -0.083062 0.80766 -0.271659 -0.522628
-0.006452 0.109493 -0.12969 -0.159975 0.344242 -0.925026
-0.10835 0.543394 0.030847 -0.033867 0.720233 0.69277
0.203261 0.028014 -0.02795 0.948725 0.091298 -0.298141
-0.040982 0.817452 -0.036782 -0.984063 -0.150402 -0.029358
0.137368 -0.283438 0.082651 0.053058 -0.048514 0.997324
0.205365 -0.272046 -0.007234 0.999351 0.017208 -0.03036
0.006144 -0.507912 -0.057216 0.779584 0.050507 -0.623555
-0.015661 -0.831958 -0.096914 0.336729 -0.938543 -0.033041
0.557304 0.094568 0.014532 -0.761564 -0.646886 0.026198
0.46704 0.188534 -0.038715 -0.482483 -0.869872 -0.060344
-0.111511 0.293578 0.016515 -0.983271 -0.060217 0.170703
0.172437 0.309338 -0.069776 0.840138 -0.291987 -0.456138
0.087765 0.609055 -0.013636 0.872483 0.212344 0.423624
0.083356 -0.859584 0.086993 -0.905541 -0.399392 -0.043575
0.020654 0.486991 0.077333 0.064796 0.55293 0.829417
0.078968 -0.082586 -0.128128 -0.190867 -0.416526 -0.888681
0.122633 -0.494865 -0.107681 -0.078739 0.036244 -0.993655
0.417466 0.294382 -0.119765 0.471558 0.458838 -0.751402
0.053218 -0.71753 0.009077 -0.997608 -0.046503 0.042978
0.14966 -0.810921 0.045437 0.599075 0.520565 0.607345
0.157328 -0.860414 -0.035394 0.579814 -0.779841 0.159468
-0.216512 0.453054 -0.072338 -0.485253 0.567269 -0.664728
-0.045378 -0.26092 0.108506 0.204953 -0.220478 0.953472
0.145146 -0.851012 -0.106199 0.714917 -0.025195 -0.696436
0.000525 0.344209 -0.127945 0.11188 0.004725 -0.993639
0.20542 -0.270083 0.014008 0.999766 0.00225 0.019563
0.186163 -0.246849 -0.060193 0.718236 -0.124762 -0.684218
0.153267 -0.439463 -0.093524 0.503726 0.204212 -0.838725
-0.111995 0.543079 -0.07829 -0.397059 0.663316 -0.633431
0.314934 0.395247 -0.143504 0.181238 0.088788 -0.971613
0.176624 -0.694781 0.008412 0.425194 -0.493843 0.757905
0.036904 -0.315273 -0.030699 -0.964864 -0.008138 -0.260488
0.12424 -0.825077 0.134689 0.037517 0.996568 0.055331
0.147551 -0.18216 -0.096971 0.498349 -0.060354 -0.864539
0.010154 0.005888 -0.145747 -0.15356 -0.212669 -0.964344
0.165374 -0.627299 -0.083067 0.533012 -0.154802 -0.831424
-0.106231 -0.403056 0.087394 -0.608122 -0.221251 0.737088
-0.077162 -0.419521 -0.079437 -0.414438 0.271544 -0.866208
0.476895 0.182913 -0.013312 -0.594813 -0.799451 0.078211
0.045393 -0.270653 -0.048482 -0.831147 0.019064 -0.555166
-0.399563 0.180414 -0.022259 0.487029 -0.867398 -0.089083
-0.023374 0.704138 0.028685 -0.912823 -0.361291 0.188285
-0.091818 -0.053438 -0.101978 -0.632431 -0.229235 -0.739817
-0.064532 -0.863643 0.018972 -0.006111 -0.999856 -0.014786
-0.051851 -0.142172 0.122945 -0.065909 -0.118265 0.990331
-0.09714 -0.412323 -0.065384 -0.55866 0.107106 -0.819449
0.160622 -0.844451 -0.075919 0.977399 -0.032001 -0.205425
0.107877 -0.434376 -0.101992 -0.267547 0.041547 -0.961909
0.155613 -0.579215 0.04164 0.089317 -0.12451 0.987695
0.184252 0.020218 0.083372 0.758351 0.152921 0.630328
0.20466 -0.339725 0.017052 0.980352 -0.073285 0.175628
0.038119 -0.265242 0.009226 -0.140133 -0.061584 0.899009
-0.10451 0.172548 0.06329 -0.803123 -0.028621 0.593739
0.197887 0.370382 -0.0305 0.996933 -0.036555 0.063202
0.070777 -0.802225 -0.056895 -0.893904 0.068039 -0.441191
0.014683 0.80722 -0.113195 -0.183426 0.335973 -0.917177
0.182328 0.244001 -0.017905 0.992707 -0.007882 -0.110978
0.081138 0.659972 0.009357 0.941663 -0.17197 0.270227
0.165138 0.087144 -0.088189 0.765264 0.206791 -0.608639
-0.050004 0.506039 -0.122523 -0.118966 0.294962 -0.947674
0.179156 -0.583233 0.030325 0.596242 -0.2977 0.745345
-0.045521 0.452804 0.087527 -0.193665 0.318442 0.926899
0.062167 -0.686242 0.024924 -0.636113 0.287271 0.7047
0.129939 -0.052821 0.11525 0.317169 -0.044783 0.946353
-0.00225 -0.409039 -0.058211 0.640156 0.093827 -0.758404
0.089199 0.429125 0.088862 0.094604 0.182612 0.978552
0.139017 0.269011 -0.112011 0.795385 -0.112239 -0.594877
0.019887 0.105218 0.135106 -0.015516 0.150608 0.987097
0.196583 -0.466598 0.010561 0.967023 -0.04315 0.249223
0.557645 0.162417 -0.005014 0.74223 0.660976 -0.10528
0.022545 -0.712363 -0.035905 0.942495 -0.13547 0.301539
0.154454 -0.187197 -0.091622 0.610346 -0.057198 -0.789904
-0.12815 0.504678 -0.097488 -0.383207 0.320884 -0.865329
-0.11988 -0.78281 -0.05893 -0.992088 -0.04555 -0.104842
0.098223 0.747749 0.020448 0.981575 -0.046609 0.178652
-0.02516 0.717802 0.039867 -0.942677 -0.16272 0.283651
-0.289659 0.254197 -0.046824 0.668508 -0.74353 -0.007906
0.120367 0.517686 0.041551 0.264979 0.621621 0.735418
0.068519 0.216702 0.12432 0.342404 0.09699 0.934502
0.037811 -0.081452 0.111916 0.078242 -0.55046 0.828148
0.239061 0.379465 -0.114022 -0.698372 -0.575665 -0.408451
-0.457059 0.193972 -0.032167 -0.747797 0.348089 -0.558755
-0.140166 -0.178825 0.016608 -0.957697 -0.282857 -0.031559
-0.134581 -0.411583 -0.014745 -0.958384 0.083125 -0.269854
0.164449 0.212844 0.058262 0.73954 0.065503 0.669724
0.025909 0.342003 -0.126395 -0.068449 -0.043638 -0.995383
0.522314 0.147067 -0.010841 -0.718257 -0.69545 -0.006904
-0.129095 -0.283958 0.002675 -0.995954 -0.065141 -0.054528
-0.008921 0.701944 -0.063198 -0.704181 -0.512661 -0.489318
0.00358 -0.583586 0.014301 0.68803 -0.033817 0.723548
-0.102606 -0.103522 0.106874 -0.591841 0.084622 0.800311
-0.044882 0.493456 0.070299 -0.22979 0.503368 0.831913
-0.113933 -0.036305 -0.079921 -0.824618 -0.077151 -0.560336
0.177819 -0.414674 -0.069616 0.684563 0.069289 -0.725181
0.17684 0.304948 -0.055652 0.894138 -0.272358 -0.355308
-0.005007 0.662187 0.021082 -0.704553 -0.591428 0.389318
0.105261 0.782726 -0.036624 0.999528 0.013537 -0.021896
0.04169 -0.370968 -0.03506 -0.924055 -0.061636 -0.36893
0.024037 0.839191 0.060829 -0.212563 0.599995 0.769168
-0.102878 0.297876 0.050401 -0.893696 0.197866 0.394482
0.072706 -0.173637 0.084994 -0.535603 -0.043395 0.843262
-0.056741 -0.020155 0.127256 -0.286002 -0.171575 0.916807
0.041109 -0.096478 -0.103619 -0.535891 -0.468577 -0.700135
-0.004403 0.110868 0.130471 -0.222827 0.204225 0.951256
0.177505 -0.01346 0.084388 0.708592 0.086419 0.692589
0.124883 -0.521484 -0.108119 -0.040507 -0.00446 -0.998957
-0.049736 -0.678743 0.020955 0.080472 -0.285075 0.953188
0.022247 -0.47844 0.007434 0.906344 -0.107159 0.407985
-0.193011 0.360724 -0.074179 0.561342 -0.662548 -0.493498
-0.127716 -0.636368 -0.026514 -0.986464 -0.112795 0.107492
-0.128612 -0.551139 -0.004377 -0.942697 -0.145931 0.297266
-0.004441 0.406861 -0.129042 0.063731 0.003419 -0.997924
0.060176 -0.259966 -0.069461 -0.803667 -0.001212 -0.594809
-0.022607 -0.702542 0.027511 0.001418 0.096033 0.983369
0.129955 -0.045483 -0.138175 0.359639 -0.291817 -0.882613
-0.106739 -0.849651 -0.008869 -0.807491 -0.436225 -0.308693
-0.122804 -0.582475 0.001487 -0.927666 -0.038402 0.369475
-0.120166 -0.075139 0.086014 -0.782343 0.018616 0.622516
-0.370439 0.303752 -0.036966 -0.662219 0.743866 0.083775
-0.071764 0.13651 -0.096268 -0.502315 0.24446 -0.826276
0.530216 0.143727 -0.027933 -0.095678 -0.591146 -0.7434
0.093487 -0.866849 -0.07517 -0.693609 -0.719076 -0.025526
0.190397 0.127827 0.035228 0.86892 0.028487 0.493408
0.076434 -0.615183 0.009609 -0.767213 -0.215126 0.603705
-0.212118 0.494441 -0.011088 -0.744052 0.664302 0.06054
0.202146 0.40263 -0.095885 0.900263 -0.398274 -0.155587
-0.061476 0.018277 -0.133871 -0.348244 -0.289494 -0.88563
0.046278 0.815583 -0.109024 0.1706 0.610029 -0.773397
0.125886 0.283812 -0.12724 0.600384 -0.048577 -0.798089
-0.004834 -0.336845 0.080145 0.632676 -0.070632 0.769092
-0.021397 0.817793 -0.088345 -0.503709 0.560017 -0.645837
0.07409 -0.785064 -0.059495 -0.874488 0.159725 -0.457028
-0.12296 -0.488658 -0.058766 -0.795539 0.080439 -0.600512
-0.119522 -0.578153 0.009606 -0.908017 -0.046539 0.414585
0.078385 -0.44131 -0.082705 -0.689053 0.038449 -0.723623
0.197795 0.368061 -0.066195 0.970369 -0.186343 -0.125718
-0.059187 -0.86278 -0.077786 0.009084 -0.998525 0.052389
-0.006805 0.804452 0.061911 -0.606449 0.437629 0.657509
-0.114543 -0.60594 0.021407 -0.90106 0.042945 0.428416
-0.054347 -0.188867 -0.095346 -0.074448 -0.092191 -0.991962
-0.053752 0.194779 0.102424 -0.485444 0.012861 0.873993
0.127706 -0.152837 -0.108924 0.278775 -0.203619 -0.937042
-0.271588 0.272033 -0.042205 0.725619 -0.685068 0.048994
-0.118102 -0.614934 0.015974 -0.901062 0.08182 0.425458
-0.002044 0.375049 0.107556 -0.111162 0.184452 0.975241
0.104533 0.291327 0.10395 0.303712 0.080586 0.946794
0.027822 0.756666 -0.119866 -0.045186 -0.201208 -0.974792
-0.011612 -0.578124 -0.07969 0.685161 -0.063359 -0.725609
0.053773 -0.625667 -0.044382 -0.869422 -0.114129 -0.476144
-0.134351 -0.093201 -0.036617 -0.897094 -0.055999 -0.429623
-0.469716 0.171634 -0.03503 -0.590824 0.464331 -0.657911
-0.037521 0.772707 -0.007739 -0.986049 0.07837 0.143107
0.111206 -0.356003 -0.100864 0.068741 0.046998 -0.991108
0.086245 0.841079 -0.022435 0.809694 0.580013 -0.002582
-0.084798 -0.330126 -0.075887 -0.592838 0.018484 -0.804463
0.151368 0.578958 -0.053284 0.585379 0.795535 0.031991
0.063962 -0.438989 -0.067698 -0.750012 0.024587 -0.660947
0.143181 -0.480779 0.062793 -0.391811 -0.147403 0.906159
-0.090748 -0.533439 -0.094721 -0.458579 0.095984 -0.880171
-0.143532 0.529193 -0.07382 -0.453567 0.616416 -0.642198
-0.057619 -0.806416 0.062772 -0.022117 0.524111 0.83745
0.031051 0.279064 -0.127412 -0.052621 -0.039616 -0.997631
-0.108236 0.014878 -0.091106 -0.836586 0.014921 -0.547554
-0.558632 0.063082 0.074167 -0.905608 0.353862 0.218102
-0.060586 -0.324892 0.103002 0.19315 -0.119287 0.97316
0.196665 -0.520541 0.012377 0.950109 -0.020114 0.310789
0.166126 -0.49627 0.061474 0.344212 -0.192851 0.911377
-0.029803 -0.85184 -0.016719 0.59549 -0.783014 -0.178651
0.084546 0.706861 0.059693 0.830318 -0.136281 0.538779
0.377705 0.343566 -0.069895 0.620147 0.653406 0.432404
0.296813 0.478635 -0.067497 0.740297 0.662946 0.013667
0.329036 0.437902 -0.081517 0.794773 0.590356 0.110691
0.054712 0.859168 0.034864 0.349907 0.753244 0.556371
0.046812 -0.007168 0.138297 0.067364 -0.425604 0.901066
-0.031131 -0.038577 -0.131079 -0.063006 -0.346283 -0.935913
0.196688 -0.626695 -0.001024 0.968585 -0.089519 0.228121
0.028436 -0.241418 0.036908 0.982226 -0.014096 0.186431
0.416221 0.304567 -0.112689 0.550683 0.543575 -0.632525
0.043823 -0.396573 -0.00442 -0.974585 -0.115303 0.178856
0.162239 -0.062279 -0.107901 0.709621 -0.116056 -0.693944
0.026559 -0.370439 -0.002581 0.996916 -0.021592 -0.0554
-0.0856 -0.707597 0.019009 -0.011413 -0.397025 0.914814
0.083438 -0.453531 0.020005 -0.664253 -0.147156 0.731957
0.194998 -0.553287 -0.060041 0.834381 -0.013287 -0.55097
-0.122946 -0.380001 0.058501 -0.983651 -0.025738 0.176039
-0.1334 -0.219213 -0.00242 -0.956255 -0.068255 -0.278907
0.071034 -0.107438 0.082872 -0.663206 -0.090701 0.732783
0.220682 0.41993 -0.00983 -0.158689 -0.821869 0.524927
-0.12573 -0.287808 0.067173 -0.988859 -0.0424 0.132905
0.201388 -0.580911 -0.013775 0.984645 -0.090754 0.143111
-0.033454 0.829427 0.004926 -0.857221 0.146706 0.460714
0.085706 0.26138 -0.138753 -0.029717 -0.088217 -0.995531
-0.09761 -0.305789 0.104995 -0.268773 -0.068812 0.952273
0.161001 -0.193939 -0.085996 0.617893 -0.084948 -0.781564
-0.03988 -0.721674 -0.116122 0.465311 0.22354 -0.855899
-0.030929 0.424218 -0.130086 0.000711 -0.038245 -0.999144
0.109586 0.256948 0.104261 0.365954 0.052253 0.928972
0.142192 -0.826646 -0.110726 0.453033 -0.14831 -0.874589
0.382627 0.337769 -0.117073 0.654913 0.519507 -0.548602
-0.120893 -0.247521 0.087224 -0.883367 -0.034404 0.467045
0.037598 0.789833 -0.120221 0.07533 0.123998 -0.985752
0.025249 -0.008481 0.143298 0.139748 -0.544657 0.80486
0.411798 0.315601 -0.105863 0.666745 0.639218 -0.366914
0.109302 -0.734079 0.028479 0.319506 0.14636 0.935138
-0.136615 -0.410296 0.007675 -0.995194 0.08369 0.048467
0.136422 -0.868905 0.032637 0.073722 -0.994151 -0.066352
0.169859 -0.848551 0.111012 0.781221 0.61306 0.095102
0.594262 0.056952 0.010579 0.983797 -0.138942 -0.026092
0.03636 0.195707 -0.112986 0.053094 -0.254344 -0.95802
0.074708 -0.822101 0.004944 -0.541965 -0.798826 0.130369
0.147296 0.062614 -0.115051 0.694343 0.17434 -0.698191
0.153075 -0.034351 -0.124126 0.70455 -0.108867 -0.700615
0.012584 -0.588586 0.007192 0.560011 0.038177 0.825927
-0.037096 0.797771 -0.040032 -0.997061 -0.029948 -0.062052
0.05709 -0.4435 -0.060101 -0.757891 0.037785 -0.651096
0.083834 0.101108 0.124548 0.458304 0.00751 0.887809
0.580185 0.069209 0.041562 -0.802601 -0.41281 0.411179
-0.126512 -0.330979 -0.02055 -0.977381 0.003709 -0.203939
-0.284853 0.393938 -0.01497 -0.815995 0.384844 0.354582
0.628242 0.063507 0.019601 0.822622 0.495405 -0.226022
0.079379 -0.738479 -0.053467 -0.904107 -0.010854 -0.425936
-0.090041 -0.316132 0.105631 -0.105857 -0.04785 0.991511
-0.109053 -0.304407 -0.050438 -0.802767 0.034286 -0.595265
0.610708 0.08579 0.007559 0.300013 0.226141 -0.919392
0.026436 -0.313229 -0.015472 0.924334 -0.01375 -0.379701
0.019664 -0.18762 -0.041952 0.920666 0.058581 -0.378916
0.00065 -0.162357 -0.067988 0.768777 -0.018195 -0.639116
-0.070691 -0.301654 -0.086429 -0.504181 -0.087668 -0.85557
0.062781 -0.787351 0.018183 -0.663816 -0.616371 0.408648
0.090188 0.559997 -0.11564 0.011627 0.592998 -0.803747
-0.102868 0.256204 0.056453 -0.906515 0.08113 0.403962
0.067462 0.861281 -0.029529 0.450448 0.867181 -0.137915
0.066028 0.434819 -0.137975 -0.291357 0.009013 -0.95588
0.224334 0.452363 -0.133747 -0.030004 -0.000776 -0.997889
0.401304 0.244969 -0.036993 -0.423426 -0.336415 0.828322
0.057483 0.032893 -0.16005 -0.07364 0.078171 -0.993046
0.094865 -0.746515 -0.081793 -0.801568 -0.069944 -0.593112
0.143052 -0.400455 0.072982 -0.178314 -0.137991 0.972672
0.358464 0.337014 -0.134087 0.30539 0.067993 -0.949048
-0.055108 0.346329 0.09927 -0.471478 -0.100348 0.874188
0.078472 -0.64941 -0.068053 -0.713479 -0.090042 -0.69479
-0.108846 -0.461045 0.06829 -0.805478 -0.195126 0.559342
0.138645 -0.192974 0.095989 0.046447 -0.151054 0.986855
0.098572 -0.626027 0.029771 -0.662092 -0.254514 0.700706
0.169621 -0.368199 -0.067071 0.621195 0.223401 -0.750528
0.601027 0.087739 0.00396 0.439572 0.108829 -0.885728
0.083839 -0.851193 0.094127 -0.946396 0.313462 0.021791
-0.539285 0.096219 0.037646 -0.634292 0.753477 -0.170462
0.191378 0.012062 0.074838 0.84699 -0.016305 0.512176
-0.109211 -0.115975 0.102006 -0.685244 0.042684 0.726704
0.056982 -0.336919 0.044532 -0.716327 -0.18657 0.671826
0.162765 -0.848287 -0.028617 0.927511 -0.364669 0.052884
-0.127054 -0.600942 -0.012004 -0.979287 0.034547 0.194373
0.001869 -0.233792 0.096974 0.566056 -0.134042 0.812844
0.097502 0.093406 -0.140007 0.361579 0.365842 -0.856085
-0.032039 -0.862957 0.08402 0.342552 -0.933372 0.046114
-0.113204 0.244394 -0.01678 -0.963877 0.245246 -0.007716
0.201436 -0.316046 -0.020247 0.897479 -0.012037 -0.439961
0.195856 -0.615943 0.005628 0.923646 -0.161242 0.334521
0.063141 0.250253 0.122464 0.251008 0.060843 0.966014
-0.038107 0.589498 -0.071578 -0.339909 0.881934 -0.290908
-0.402496 0.182273 0.018193 0.620379 -0.500855 0.495298
0.084318 -0.849964 0.084002 -0.937929 0.320165 0.010549
0.154788 -0.066523 -0.114252 0.679258 -0.143822 -0.719412
0.068611 -0.083112 -0.125324 -0.272965 -0.437402 -0.856302
-0.111077 0.535775 0.038086 -0.035742 0.647013 0.760796
0.15827 -0.69432 0.017688 0.302268 -0.472047 0.826693
0.191369 0.095697 0.032232 0.990063 0.016052 0.122809
0.165331 -0.185614 -0.08312 0.62593 -0.05213 -0.778043
0.150145 -0.533513 0.053482 -0.074695 -0.278608 0.954517
0.13127 0.280915 0.090222 0.635811 0.040751 0.770227
0.043429 0.608082 0.025772 0.199707 -0.113289 0.968894
0.069018 -0.56152 0.010533 -0.64468 0.014573 0.764129
0.035016 -0.327625 -0.01589 -0.997087 -0.041421 -0.062004
0.192977 -0.610232 0.012968 0.766574 -0.142931 0.613693
0.105333 -0.311718 0.079208 -0.238194 -0.119987 0.959782
-0.279849 0.263515 -0.051705 0.70532 -0.706951 -0.036441
0.061011 -0.500214 -0.066655 -0.738622 -0.025677 -0.673473
0.045358 -0.245097 0.044156 -0.912959 -0.057627 0.372139
0.205754 -0.087578 0.050135 0.922175 -0.042962 0.378671
0.100053 -0.154329 -0.111174 -0.092232 -0.228391 -0.967672
0.139464 -0.246793 0.08513 0.115812 -0.134982 0.983484
-0.412801 0.239655 0.007368 -0.390497 0.507815 0.76506
-0.112126 0.273583 -0.045953 -0.998065 -0.055195 -0.02756
0.086269 -0.827947 -0.029545 -0.766569 -0.609726 -0.001973
0.131677 -0.447251 0.062222 -0.574147 -0.212591 0.788787
0.064094 0.60702 -0.07655 0.205508 0.644317 -0.7357
-0.081465 0.555744 0.017686 -0.050221 0.767295 0.639241
-0.04431 0.421795 0.096219 -0.209865 0.237051 0.947653
0.173435 0.464474 0.043186 0.576308 0.190771 0.793533
0.048334 0.536955 0.043617 4.6e-05 0.744075 0.66695
