0.086245 0.841079 -0.022435 0.809694 0.580013 -0.002582
-0.108849 0.34035 0.03524 -0.886784 -0.225184 0.402874
-0.061263 -0.440269 -0.090411 -0.092363 0.258438 -0.960835
-0.085391 -0.622199 -0.10382 -0.268562 0.084425 -0.958768
-0.111619 0.439684 0.062841 -0.163926 0.019417 0.986114
-0.02019 -0.834579 0.003773 0.865138 -0.442381 0.072404
0.197751 -0.367178 0.03067 0.952013 -0.076178 0.296172
0.026038 -0.308808 0.04364 0.962831 -0.05839 0.240733
0.195574 -0.218037 -0.054965 0.727508 -0.036976 -0.683887
0.399662 0.305973 -0.049215 0.31818 0.502888 0.798439
0.039117 -0.223298 0.014391 -0.278315 -0.28535 0.895902
-0.002772 0.486274 -0.126743 0.157583 0.120729 -0.978828
-0.030113 -0.607759 -0.093475 0.506157 -0.001671 -0.861724
-0.309831 0.325597 0.002489 -0.260196 0.25777 0.927419
-0.562534 0.052542 -0.004689 -0.413731 0.454019 -0.595604
0.201116 -0.569629 -0.006948 0.963532 -0.081501 0.252846
-0.105871 0.280091 0.044266 -0.98304 -0.004485 0.180219
-0.197847 0.394515 0.025993 0.228862 -0.368011 0.899856
-0.025289 -0.857404 0.030175 0.746921 -0.646432 -0.093184
0.44354 0.23503 -0.020448 -0.390232 0.109784 0.886345
-0.077756 -0.721836 0.011855 -0.025202 -0.170724 0.950318
0.471466 0.258396 -0.077674 0.792886 0.549163 -0.25386
-0.028674 0.747087 0.028645 -0.985718 -0.047108 0.160504
-0.080662 0.353308 -0.110872 -0.530789 -0.09487 -0.840922
0.127041 -0.406842 -0.100926 0.267788 0.070662 -0.958144
-0.098236 0.03258 -0.101963 -0.737642 0.205338 -0.643164
-0.082123 -0.863445 0.044425 -0.03146 -0.999402 -0.008074
-0.057152 -0.036263 -0.127101 -0.265407 -0.287891 -0.918827
-0.123757 -0.488376 0.02811 -0.810628 -0.243554 0.532254
0.198119 0.361722 -0.04887 0.989983 -0.130112 -0.029321
0.157207 0.361232 -0.113764 0.579169 -0.297819 -0.758537
-0.079209 -0.446054 0.082327 0.081174 -0.149466 0.984501
0.141056 0.561142 -0.101262 0.297929 0.679368 -0.670346
0.204992 -0.059674 -0.031537 0.948481 0.021831 -0.315321
0.007747 0.816843 -0.106376 -0.317246 0.579746 -0.747358
0.174371 0.201635 -0.04622 0.914871 0.019722 -0.403048
0.172245 -0.809819 -0.01124 0.937239 -0.263228 0.176056
0.064462 -0.723843 -0.027357 -0.822113 -0.218055 -0.524038
0.044001 -0.451802 -0.035168 -0.990537 -0.003881 -0.111804
-0.129172 -0.280656 0.042838 -0.988024 -0.139606 0.0602
0.436656 0.233431 -0.107602 0.499657 -0.353594 -0.784567
0.54543 0.180058 0.001937 0.832126 0.533495 0.119673
0.151686 0.455142 -0.142868 0.186132 -0.007366 -0.981701
-0.128382 0.440219 -0.106211 -0.496937 -0.15764 -0.850585
-0.035299 -0.842106 0.117594 0.912805 0.23408 0.311538
0.073849 0.573858 -0.104691 -0.056975 0.634022 -0.770517
0.056687 -0.358366 -0.061397 -0.79663 -0.051242 -0.602219
0.163676 -0.838306 0.048172 0.831524 0.5534 0.016321
-0.119629 -0.690412 -0.080435 -0.776294 -0.124266 -0.614309
0.443205 0.198854 -0.063796 -0.519583 -0.847453 0.054828
0.104579 0.359977 0.096493 0.28645 0.09015 0.95176
-0.026447 -0.481665 -0.089095 0.512944 0.116361 -0.846695
-0.011418 0.218537 0.122114 -0.429576 0.145395 0.890019
0.440289 0.251429 -0.027118 -0.06752 0.460965 0.879519
0.058136 -0.107457 0.076238 -0.013799 -0.566437 0.699581
-0.087817 -0.818887 0.053415 -0.625074 0.73059 0.242482
0.169586 -0.81851 -0.030035 0.785233 -0.617429 0.039205
0.147551 -0.18216 -0.096971 0.498349 -0.060354 -0.864539
0.560769 0.100953 0.047261 -0.840453 -0.354669 0.401316
0.444268 0.276526 -0.107222 0.727521 0.298834 -0.612397
0.071288 -0.425477 -0.075335 -0.705932 0.009781 -0.708034
-0.076332 0.048443 0.10897 -0.521069 0.065584 0.850471
0.152662 -0.199005 -0.091484 0.731375 -0.111626 -0.635146
0.02328 -0.208383 -0.032941 0.499422 -0.036435 -0.838832
0.303708 0.356602 -0.034617 0.107678 -0.494348 0.853993
0.150498 -0.805835 -0.11057 0.578689 0.122831 -0.796159
0.098072 0.810048 -0.003427 0.960907 0.257153 0.085881
-0.116953 -0.104545 0.092928 -0.786851 0.086244 0.610321
-0.103063 -0.761458 0.005795 -0.580579 -0.50435 0.59026
0.018914 -0.311076 0.06043 0.896852 -0.085933 0.433817
0.091544 0.441692 0.085686 0.160232 0.278019 0.946835
-0.076454 0.287864 -0.108904 -0.638375 -0.05169 -0.767886
0.085814 -0.587655 -0.081729 -0.659283 -0.113793 -0.743151
-0.042476 -0.304536 -0.090445 0.141093 -0.088228 -0.98107
0.017017 0.514493 -0.122581 0.003215 0.114303 -0.992762
0.126357 -0.869945 0.075982 -0.007282 -0.999928 0.006864
0.150658 0.538379 -0.117666 0.279693 0.57194 -0.769116
0.329036 0.437902 -0.081517 0.794773 0.590356 0.110691
0.189859 0.05207 0.064356 0.767861 0.253008 0.587899
-0.037832 0.404944 -0.129316 -0.078536 -0.029723 -0.996223
0.372116 0.348826 -0.119833 0.648487 0.487528 -0.582994
0.045358 -0.245097 0.044156 -0.912959 -0.057627 0.372139
0.149968 0.44119 0.067764 0.601079 0.14409 0.784016
0.063775 -0.282941 -0.074573 -0.79234 0.009998 -0.609877
0.026607 0.592352 -0.090333 -0.066726 0.591832 -0.803259
0.04204 0.448712 -0.129242 -0.26214 0.037894 -0.959828
0.302611 0.462781 -0.049991 0.785832 0.499858 0.345025
0.035518 0.783168 0.086229 0.012251 0.394987 0.91643
-0.141404 -0.041333 0.030461 -0.964702 0.144036 0.212941
0.248973 0.364697 -0.092624 -0.689432 -0.723568 -0.030863
-0.184608 0.437946 -0.091917 -0.129595 0.234977 -0.96297
-0.120571 -0.544536 0.016772 -0.88109 -0.10453 0.460996
0.108346 -0.799223 -0.114428 -0.44096 0.300727 -0.837615
0.054621 0.262898 -0.131233 -0.36624 -0.09593 -0.925329
0.118974 -0.780561 0.040229 0.076343 0.673379 0.728709
-0.258166 0.430263 -0.039714 -0.742596 0.664472 -0.072253
-0.488974 0.160138 -0.023607 -0.781739 0.538065 -0.307056
0.162697 0.565745 -0.083255 0.332353 0.805912 -0.48557
0.068387 0.155773 0.127756 0.263787 0.031388 0.960765
-0.105778 -0.586729 0.041585 -0.93562 0.031209 0.350495
-0.042346 0.295302 0.102477 -0.546421 0.125141 0.828009
-0.096019 0.572737 -0.038978 -0.377908 0.902429 -0.122304
-0.113284 0.506598 -0.103731 -0.440084 0.355371 -0.814959
0.18518 -0.234607 0.072187 0.654285 -0.162757 0.735038
-0.060603 -0.550888 0.055123 0.386796 -0.203578 0.898901
0.056234 -0.344461 -0.062208 -0.7991 -0.070458 -0.597042
0.175373 0.229051 -0.043143 0.932559 0.009867 -0.360282
-0.021265 -0.703689 -0.099846 0.587735 0.214411 -0.779779
-0.113841 -0.440464 -0.059221 -0.725615 0.249435 -0.640408
-0.036863 -0.459732 -0.091047 0.35057 0.121993 -0.927228
0.053127 0.016643 0.140322 0.117354 0.228998 0.96616
-0.303469 0.361698 -0.028528 -0.691203 0.690869 0.199576
-0.138675 -0.083531 -0.023888 -0.952526 -0.010231 -0.304114
0.052038 -0.054972 0.12419 0.054423 -0.481619 0.874236
0.146416 0.087416 -0.108492 0.68594 0.224197 -0.691966
-0.060013 0.097123 0.106998 -0.498157 0.133487 0.845512
-0.556381 0.06979 0.012132 -0.901511 0.407346 -0.102231
0.624178 0.06305 0.008939 0.283513 -0.261559 -0.89748
0.032415 -0.016401 -0.143992 -0.189853 -0.335548 -0.921998
-0.51668 0.079498 0.046138 0.620846 -0.763881 -0.166252
-0.108675 -0.698182 -0.090487 -0.70201 -0.060138 -0.708925
0.062891 -0.48453 0.005562 -0.552046 0.041402 0.832672
0.321333 0.42601 -0.049859 0.736212 0.308947 0.596732
-0.081514 -0.415686 0.089361 0.044613 -0.20156 0.977562
0.028061 -0.330452 0.017447 0.997886 -0.036037 0.048799
0.205007 0.000526 -0.024382 0.969388 0.095924 -0.214542
-0.137173 -0.443252 -0.019563 -0.973371 0.106078 -0.196295
-0.023022 -0.849379 -0.082488 0.940757 -0.31603 0.085858
0.172136 0.138861 0.059807 0.740978 0.128643 0.658578
0.064771 -0.594802 0.003388 -0.681438 -0.191229 0.705612
0.044282 -0.406834 -0.040118 -0.974813 -0.016715 -0.209013
-0.119984 0.346959 -0.005485 -0.991973 -0.099176 0.069603
-0.036227 -0.750885 0.004736 0.554644 -0.210042 0.785045
-0.228934 0.461556 0.001107 -0.838063 0.452717 0.302292
0.155474 -0.351884 0.076271 0.235621 -0.052576 0.970146
0.138477 0.373309 -0.131504 0.594772 -0.165578 -0.786531
0.261526 0.357924 -0.106993 -0.582023 -0.732337 -0.347837
-0.130013 -0.599546 -0.037274 -0.996734 -0.061472 0.038589
-0.006936 -0.691376 0.020804 0.645 -0.140416 0.739741
0.381529 0.301401 -0.13039 0.143396 0.018184 -0.982344
-4.4e-05 0.31789 0.115121 -0.225263 0.163535 0.958903
-0.078811 -0.459772 0.080478 0.139529 -0.123508 0.980881
0.18393 -0.004505 -0.079123 0.886485 0.07157 -0.456295
-0.106507 -0.260413 -0.053629 -0.822324 -0.025956 -0.568357
0.059257 0.224749 0.126332 0.259128 0.108117 0.953685
0.020787 -0.392271 -0.024381 0.949732 -0.040569 -0.307966
0.113435 -0.462433 -0.104709 -0.176939 0.063564 -0.979554
-0.084567 0.238637 0.078159 -0.628377 0.079185 0.773443
-0.136805 -0.464934 -0.028273 -0.970284 0.060423 -0.231226
0.161829 -0.330695 -0.069337 0.650824 0.004421 -0.758829
-0.062821 -0.441224 0.081137 0.156171 -0.190891 0.969011
0.17137 -0.772004 -0.072292 0.752061 0.500512 -0.42726
-0.06948 -0.577178 0.052592 0.406918 -0.229036 0.883777
0.062541 -0.74016 0.033937 -0.271797 -0.366807 0.880694
-0.142001 -0.068459 -0.013787 -0.968083 0.020162 -0.242904
0.101536 0.021609 0.128401 0.264268 0.260953 0.927509
0.529835 0.202662 -0.000987 -0.119978 0.935763 0.32288
-0.06229 -0.856193 0.153709 0.266029 -0.753235 0.582258
0.303649 0.415116 -0.023375 0.588438 0.121981 0.798293
-0.011457 -0.145158 0.118734 0.482875 -0.160654 0.858247
0.049234 -0.583924 -0.016536 -0.904251 -0.095459 0.416027
-0.043885 -0.408347 0.084322 0.256791 -0.198606 0.945683
-0.02559 0.541288 -0.11409 -0.123716 0.313863 -0.940388
0.087479 -0.360981 -0.093903 -0.50368 -0.054713 -0.861999
-0.024539 -0.259109 0.104867 0.257742 -0.17774 0.94911
0.010118 -0.80436 -0.053816 0.960382 -0.236901 0.139011
-0.026765 0.468065 -0.130458 0.086394 0.080868 -0.992839
-0.171869 0.407182 -0.093873 0.228955 -0.167206 -0.958136
0.641795 0.035787 0.006304 0.913786 -0.101509 -0.255894
0.10109 0.065601 0.118253 0.431878 0.131936 0.890891
-0.01127 0.456969 0.090878 -0.07299 0.342946 0.9356
0.039906 -0.367067 -0.008571 -0.956959 -0.161783 0.240432
0.213857 -0.116295 -0.012751 0.990043 0.001064 -0.131225
0.519531 0.170551 -0.042648 0.275642 -0.371169 -0.879914
-0.043227 -0.825262 -0.146125 0.087852 -0.276538 -0.956226
0.007845 0.82041 0.063834 -0.495281 0.464799 0.733628
0.231927 0.51824 -0.000631 0.559784 0.524193 0.63503
-0.022316 0.025444 -0.145995 -0.163002 -0.13883 -0.968373
-0.126364 -0.496443 0.020112 -0.845973 -0.200057 0.492734
0.162239 -0.062279 -0.107901 0.709621 -0.116056 -0.693944
-0.034117 -0.447992 -0.088522 0.364489 0.111835 -0.923154
0.042476 0.725777 0.098404 0.702855 -0.280489 0.640522
-0.071008 0.407129 0.091525 -0.455908 0.089886 0.883531
0.205227 -0.258616 0.017758 0.998701 0.016653 0.044483
0.112521 0.486776 0.063633 0.266631 0.535034 0.799506
0.104331 0.771608 -0.002998 0.984245 -0.04351 0.155444
-0.121638 -0.307294 0.076456 -0.969763 -0.089065 0.224624
0.135809 -0.628873 -0.096582 0.182527 -0.114371 -0.973458
0.084719 0.601958 -0.005483 0.76595 0.207484 0.603349
-0.020853 -0.837717 -0.046133 0.87923 -0.47338 0.006013
0.170991 0.221169 -0.052762 0.880369 -0.019651 -0.473812
0.15346 -0.330198 -0.076183 0.631793 0.010768 -0.775054
0.184311 0.193669 0.009043 0.969423 0.231866 0.036409
0.205717 -0.316069 0.011375 0.996141 -0.004046 0.070134
0.105579 -0.558219 0.036154 -0.39928 -0.068242 0.914137
0.143405 -0.005498 -0.133191 0.652896 0.100877 -0.750197
-0.012432 -0.389816 0.07671 0.569101 -0.218962 0.792533
0.070904 -0.573911 -0.069102 -0.695229 -0.12437 -0.707774
0.188409 -0.759682 -0.000897 0.927495 -0.247033 0.273377
-0.047226 -0.741083 0.022218 0.45072 -0.593665 0.662386
0.639846 0.045916 0.029783 0.896756 0.437969 -0.021655
0.016973 -0.186197 0.085109 0.896696 -0.060083 0.433671
-0.449002 0.176517 -0.048689 -0.520429 0.377776 -0.763607
-0.0127 0.622052 -0.013596 -0.945379 0.147527 0.280605
-0.129548 0.039878 0.057023 -0.886889 0.230381 0.399491
-0.320782 0.34707 -0.043843 -0.689305 0.722987 -0.028736
0.176631 0.230618 0.040204 0.900549 0.042149 0.429885
-0.045004 0.333637 0.100069 -0.305509 -0.148795 0.936475
0.171462 -0.43409 -0.079167 0.649837 0.17413 -0.739226
-0.0257 0.470238 0.08422 -0.134863 0.39638 0.907241
0.043906 -0.483666 -0.03111 -0.999716 -0.00021 0.014588
-0.056942 -0.045585 -0.123597 -0.224139 -0.338065 -0.913366
-0.108923 -0.796514 -0.00464 -0.841009 -0.309597 0.432992
0.009037 -0.670292 0.008147 0.780793 -0.230987 0.578782
0.001847 -0.438475 -0.055397 0.758098 0.040383 -0.650757
-0.111995 0.543079 -0.07829 -0.397059 0.663316 -0.633431
-0.216664 0.463976 -0.061758 -0.6494 0.517431 -0.512204
0.181486 -0.041686 -0.085607 0.850297 -0.090553 -0.517215
-0.127833 0.100313 0.024357 -0.984968 -0.036489 0.164842
0.01211 -0.132 -0.0575 0.783223 -0.203672 -0.586198
0.075374 -0.655588 0.018592 -0.61168 0.31995 0.723089
-0.421716 0.244611 -0.012905 -0.703169 0.699978 0.11321
-0.347643 0.289022 0.001767 -0.04876 0.287468 0.954501
0.189981 0.075561 -0.053345 0.886119 0.12737 -0.444221
-0.550583 0.06289 0.016098 0.857011 -0.412228 -0.302917
0.090544 0.576991 -0.102284 0.138573 0.670491 -0.728463
-0.087042 -0.8633 0.093151 -0.021798 -0.999733 0.00086
-0.24528 0.303553 -0.048345 0.779054 -0.616491 -0.108399
0.185043 0.565901 -0.061189 0.31038 0.931797 -0.140378
0.063737 -0.801004 -0.028769 -0.92235 -0.366374 -0.099916
0.578673 0.105537 0.064803 -0.345843 0.149932 0.915355
0.139745 0.194801 -0.092535 0.68674 -0.016181 -0.726365
-0.258256 0.315831 0.002408 0.376046 -0.380168 0.839799
0.11995 0.192491 -0.106388 0.487874 -0.146277 -0.858218
0.197989 -0.328358 0.039307 0.920553 -0.06868 0.384442
-0.300071 0.364074 -0.05595 -0.691143 0.675351 -0.251991
0.054452 0.843274 0.051935 0.49513 0.565955 0.658356
-0.058457 -0.528764 -0.101673 0.023385 0.063818 -0.996129
-0.366077 0.204783 0.001353 0.502393 -0.682134 0.508231
0.188422 0.061907 -0.0602 0.869185 0.153302 -0.468016
0.161833 -0.836023 -0.060367 0.99563 0.076211 -0.053076
0.206617 0.484376 -0.132163 0.17156 0.208465 -0.962741
0.169594 -0.813443 -0.002569 0.929522 -0.315736 0.173831
-0.014804 -0.444795 -0.07444 0.733745 0.054201 -0.677183
0.030852 0.251416 0.12755 0.011093 0.036737 0.999186
0.020546 -0.722088 -0.031818 0.957674 -0.044305 0.283121
0.11191 0.370984 0.092677 0.396441 0.089743 0.912557
0.120684 -0.770342 0.030585 -0.102685 0.754856 0.642206
0.092151 -0.737363 -0.079184 -0.841794 -0.072152 -0.534516
-0.136041 0.48023 0.061576 -0.120854 0.111141 0.981966
0.096777 -0.857955 0.013158 -0.759663 -0.634511 -0.136704
0.18151 -0.144007 0.087171 0.636126 -0.012046 0.771128
-0.085743 -0.257057 0.110726 -0.158019 -0.040989 0.986504
0.019553 -0.751787 -0.062153 0.982228 -0.100723 -0.152065
0.119546 -0.867713 0.01346 -0.051704 -0.993023 -0.096618
-0.116622 0.338582 -0.074727 -0.878083 -0.207602 -0.427669
0.09421 -0.70888 0.035894 0.160747 -0.029435 0.985446
-0.357864 0.210317 -0.002151 0.55983 -0.790879 0.247093
0.593625 0.11014 0.066743 0.178484 0.578356 0.789678
0.046975 -0.466948 -0.013928 -0.866629 -0.074085 0.493363
0.020759 -0.606788 0.001274 0.748013 0.023228 0.660138
-0.138035 -0.189893 0.027702 -0.99601 -0.064893 0.041565
-0.060336 -0.426201 0.083943 0.184373 -0.23963 0.953003
-0.094702 -0.554563 0.059473 -0.717303 -0.108604 0.680979
0.165461 -0.025991 0.097244 0.638342 0.023467 0.768973
0.105333 -0.311718 0.079208 -0.238194 -0.119987 0.959782
0.114019 0.360059 0.092848 0.411808 0.080894 0.90665
0.109992 -0.01435 -0.151016 0.289484 -0.078168 -0.951788
-0.026935 0.25253 0.112452 -0.277288 0.011763 0.960681
0.057481 -0.702168 0.023468 -0.86767 0.199659 0.454944
0.015094 -0.775188 -0.080912 0.906545 0.049572 -0.410958
-0.014345 0.24087 0.117739 -0.456876 0.095461 0.883507
-0.376804 0.194735 -0.038967 0.498024 -0.843246 -0.188896
0.143846 0.235328 -0.096668 0.808968 -0.17771 -0.559646
0.132004 -0.73205 0.017537 0.416422 0.355224 0.819598
0.009221 -0.053074 -0.122708 0.082312 -0.604158 -0.792394
0.021809 -0.457929 0.012597 0.899251 -0.029787 0.435342
0.123682 -0.866498 -3e-05 -0.020606 -0.997735 -0.05316
0.192989 -0.231253 0.061901 0.898806 -0.022084 0.435614
0.20012 -0.438656 -0.020322 0.998118 -0.048394 -0.026609
-0.094308 0.145068 -0.075093 -0.6962 0.203699 -0.688254
0.126736 -0.725758 -0.097482 0.145287 0.170077 -0.969907
0.205768 -0.299256 0.009408 0.999247 0.005861 0.028963
0.095567 -0.6331 -0.084765 -0.618192 -0.035152 -0.785134
0.32036 0.44854 -0.084583 0.713071 0.697194 -0.056847
0.173435 0.464474 0.043186 0.576308 0.190771 0.793533
0.005678 0.438442 -0.127439 0.099146 0.000237 -0.994841
0.413177 0.217922 -0.067911 -0.643429 -0.756584 0.111054
0.189271 -0.031105 0.073524 0.77491 0.025525 0.631161
0.158418 -0.72078 0.001871 0.546945 -0.176092 0.808575
0.121111 -0.86995 0.067099 -0.004018 -0.999968 0.000345
-0.083931 0.118237 -0.091101 -0.647236 0.180791 -0.739712
0.045243 -0.344625 -0.045386 -0.871732 -0.079583 -0.483238
-0.222618 0.374714 0.018881 0.097695 -0.418803 0.900676
0.345276 0.382985 -0.08512 0.837335 0.478463 0.260689
-0.176497 0.461805 -0.087386 -0.308988 0.272243 -0.91007
0.226415 0.390182 -0.051374 -0.693459 -0.671212 0.256401
-0.133948 0.057823 0.023708 -0.92811 0.317161 0.16071
-0.128874 0.111948 -0.014258 -0.980258 -0.030804 -0.189711
-0.005154 -0.817071 -0.006799 0.968154 -0.019303 0.239059
0.195908 0.00191 -0.052537 0.962506 0.098927 -0.244964
-0.098296 0.081377 0.086266 -0.400552 0.487916 0.773468
-0.021117 -0.474853 -0.084556 0.691329 0.096119 -0.716107
-0.077027 -0.861911 -0.065368 -0.043771 -0.997748 0.048327
-0.040665 -0.041159 -0.129188 -0.138441 -0.362375 -0.919536
0.139631 -0.593188 0.03922 -0.203218 -0.207175 0.956484
0.16419 -0.839386 0.06683 0.79762 0.603085 0.008469
-0.119344 0.135941 -0.039584 -0.862089 0.12558 -0.488448
-0.039504 0.264408 0.107692 -0.503704 0.060409 0.86101
0.046389 0.174469 -0.117696 -0.107284 0.272918 -0.954724
-0.505371 0.141172 0.064322 -0.654138 0.702878 0.25289
0.612721 0.091072 0.074706 0.734993 0.672519 0.079104
0.122501 -0.086186 -0.127672 0.199799 -0.257854 -0.944139
-0.122451 0.002355 0.083806 -0.799879 -0.144246 0.558149
-0.034689 0.787908 0.007549 -0.983951 0.051017 0.170352
-0.183638 0.458008 0.044933 -0.119678 -0.042035 0.988522
0.089496 -0.861895 -0.083591 -0.858434 -0.442857 -0.14602
0.227649 0.386015 -0.074967 -0.715768 -0.698185 0.011425
-0.025208 -0.454752 0.068448 0.393064 -0.290348 0.869581
0.067225 -0.809672 -0.039434 -0.981724 -0.146035 -0.111515
-0.237011 0.337581 0.006359 0.488731 -0.5342 0.688646
-0.106156 -0.813748 -0.020903 -0.899017 -0.352622 0.211938
-0.133814 -0.197214 0.065015 -0.946868 -0.067744 0.30701
-0.054826 -0.011773 -0.131567 -0.249956 -0.082099 -0.964735
0.558218 0.139521 -0.013776 0.607707 0.122268 -0.783747
-0.024504 -0.12477 0.124881 0.14515 -0.064559 0.985524
0.141943 0.340321 -0.119885 0.662977 -0.173535 -0.727925
0.171189 -0.812944 -0.080219 0.810848 -0.501578 -0.25519
0.171388 0.385629 0.050483 0.738716 -0.061328 0.670553
0.194294 -0.286334 0.055364 0.906289 -0.064454 0.416849
-0.093175 0.222981 -0.070541 -0.735786 -0.346916 -0.581032
0.17015 -0.606312 -0.083485 0.613233 -0.113254 -0.781685
0.050914 -0.341198 0.03672 -0.729807 -0.216165 0.644106
0.116695 -0.607868 -0.09835 -0.264603 -0.097982 -0.958686
-0.040496 -0.862732 -0.090123 0.105726 -0.99239 0.045885
0.060996 -0.290557 0.058807 -0.737112 -0.125636 0.663922
-0.089627 -0.860629 -0.094867 -0.222731 -0.971686 -0.062657
0.411842 0.239022 -0.036409 -0.313997 -0.564248 0.745809
0.134979 0.300193 0.085746 0.734479 0.047427 0.676959
0.165382 -0.844911 0.127985 0.858158 0.494932 0.110406
-0.134024 0.032348 -0.031144 -0.955964 0.144218 -0.255204
-0.109083 0.560143 0.006731 -0.143771 0.863794 0.481121
0.173292 -0.141591 0.093444 0.597488 -0.080458 0.797319
-0.105792 0.24926 0.050203 -0.945037 0.138171 0.289645
-0.011502 0.635586 -0.009522 -0.986691 0.006432 0.147325
-0.05282 -0.862041 -0.016502 0.112866 -0.989457 -0.072519
0.147261 0.403266 0.074118 0.579051 0.032673 0.814418
0.254716 0.487707 -0.113927 0.473044 0.53993 -0.696151
0.546604 0.194526 -0.02836 0.967461 -0.232494 0.069082
0.14241 -0.20166 0.094132 0.02968 -0.151152 0.982693
-0.142333 0.396904 -0.026662 0.758267 -0.650856 0.021992
0.130003 0.110669 -0.115054 0.564697 0.300896 -0.766308
-0.360449 0.217433 -0.063048 0.374302 -0.710968 -0.592441
0.04025 -0.182871 -0.052776 -0.905148 -0.205258 -0.371431
-0.128728 0.083259 -0.003096 -0.999242 0.023641 -0.006981
0.068667 0.664406 -0.052292 0.690865 -0.043815 -0.719521
-0.060094 -0.686301 -0.112185 0.010816 0.214743 -0.971417
-0.124409 -0.554747 -0.068766 -0.817618 0.12418 -0.56082
-0.127783 -0.287195 -0.010867 -0.988453 -0.009534 -0.142987
0.254474 0.521364 -0.072822 0.670305 0.711786 -0.197721
0.001495 -0.375028 0.06784 0.765386 -0.162986 0.62212
0.065147 -0.70992 -0.03625 -0.801212 -0.283559 -0.526349
-0.040013 0.495408 -0.12716 -0.047594 0.238662 -0.968224
0.291121 0.329401 -0.089853 -0.663176 -0.746229 -0.026182
0.12969 -0.781367 0.039915 0.164404 0.459488 0.863164
0.19849 0.381601 -0.0732 0.992817 -0.094102 -0.060949
0.201219 -0.13905 0.05522 0.908043 -0.079239 0.411027
-0.027877 -0.307056 0.095839 0.309163 -0.091474 0.944935
0.027408 -0.646479 -0.030536 0.999572 -0.013806 -0.007664
0.057341 0.293813 -0.134656 -0.347207 -0.047838 -0.936226
0.206191 0.043324 0.01378 0.995314 0.0858 0.032162
-0.328202 0.326206 -0.081416 -0.422003 0.651542 -0.626612
0.076102 0.211598 -0.127393 -0.083155 -0.369389 -0.924706
-0.090621 0.090713 -0.093211 -0.717015 0.186699 -0.671332
-0.342308 0.280021 0.00358 -0.011738 0.19275 0.98056
-0.033965 0.4211 0.098024 -0.144252 0.229991 0.962158
0.152295 -0.253473 -0.082496 0.501706 -0.111888 -0.857708
0.067145 0.37694 -0.141039 -0.400018 -0.005517 -0.914863
0.245609 0.368143 -0.069649 -0.700339 -0.710467 0.058795
0.164652 -0.863458 0.086293 0.146352 -0.986176 0.000524
0.218685 0.458277 0.017941 0.25561 -0.018354 0.965847
0.0987 0.447967 0.083025 0.144361 0.228611 0.962621
0.195856 0.131894 0.025141 0.873894 0.005307 0.483936
0.047133 -0.321071 -0.051131 -0.850692 -0.016495 -0.525254
0.003525 0.580209 0.018911 -0.468653 0.218731 0.852965
-0.11153 -0.810374 -0.070405 -0.888889 -0.430185 -0.109884
-0.136068 -0.230406 0.028298 -0.999014 -0.041648 -0.000731
-0.011698 0.566443 -0.103066 -0.085434 0.549972 -0.828364
-0.123344 -0.116453 0.083886 -0.837589 0.032524 0.544503
-0.237519 0.456416 -0.031525 -0.836687 0.544867 -0.044314
0.074968 0.627418 0.007807 0.814577 -0.120724 0.565847
-0.427711 0.23629 -0.005024 -0.694388 0.640084 0.287519
-0.315986 0.342058 -0.072801 -0.580201 0.676196 -0.444867
-0.091802 0.511734 -0.110293 -0.310966 0.42358 -0.848789
-0.160374 0.401487 -0.086111 0.592154 -0.54668 -0.588944
-0.023871 0.156008 0.121039 -0.3706 -0.003163 0.928649
0.032674 0.462471 0.087449 0.142434 0.348276 0.924511
0.266824 0.469314 -0.009059 0.655024 0.064359 0.7499
-0.200962 0.342272 -0.038898 0.643834 -0.763866 -0.022646
0.062173 0.693027 -0.07104 0.524037 -0.530111 -0.664741
0.043282 -0.306856 0.025051 -0.986322 -0.019761 0.153172
0.262986 0.379059 -0.028154 -0.393149 -0.458437 0.790044
0.051386 0.835634 0.05877 0.420331 0.524441 0.73633
-0.193131 0.455272 0.043416 -0.355758 0.162544 0.915435
0.089923 0.275805 0.109885 0.394849 0.107925 0.912336
-0.113667 -0.383723 0.085132 -0.728483 -0.089501 0.677772
0.062674 -0.727588 0.03574 -0.358452 -0.053479 0.928691
0.19073 -0.391749 0.047706 0.93289 -0.027111 0.358396
-0.019837 -0.371386 -0.070644 0.668211 -0.081716 -0.738779
-0.061903 0.030674 0.11954 -0.342332 0.297746 0.890196
0.082717 0.813851 0.039684 0.866938 0.324568 0.374857
0.046795 -0.497662 -0.046089 -0.884281 -0.053615 -0.457476
-0.046229 -0.415402 -0.084537 0.145065 0.268733 -0.951371
-0.030975 0.031058 -0.144737 -0.148432 0.076653 -0.985114
0.021284 0.539397 -0.116793 -0.064004 0.394372 -0.916473
0.174168 0.191563 -0.047414 0.911174 0.043115 -0.408521
-0.131552 -0.447551 0.03043 -0.909306 -0.125352 0.396325
-0.139817 -0.138179 0.046157 -0.948586 -0.014275 0.315815
0.163937 -0.545104 0.048971 0.24762 -0.310323 0.917377
0.037811 -0.081452 0.111916 0.078242 -0.55046 0.828148
-0.084497 -0.632935 -0.104789 -0.235438 0.069771 -0.96799
-0.034984 0.116194 -0.120812 -0.287296 0.336399 -0.895513
0.086971 0.549134 0.032376 0.074103 0.784915 0.600054
0.078774 0.047511 -0.157274 0.133572 0.292193 -0.945472
-0.12786 0.187136 -0.003071 -0.987677 0.077363 -0.112341
-0.002188 -0.775911 -0.013078 0.769911 0.159639 0.610937
0.082655 -0.779738 -0.072769 -0.838871 0.235048 -0.490487
0.165297 -0.501067 -0.094867 0.605283 -0.010402 -0.793785
0.022671 -0.146295 -0.032847 0.740523 -0.234989 -0.489601
-0.092066 0.100951 0.086784 -0.571561 0.191535 0.794084
-0.214399 0.333132 -0.038117 0.565072 -0.823714 -0.018474
0.085897 -0.795722 0.04082 -0.68957 0.21578 0.688942
-0.031209 -0.55982 -0.095572 0.397771 -0.026328 -0.917078
0.049586 0.835889 -0.091191 0.20797 0.676627 -0.704301
0.123828 -0.80122 0.054655 0.219039 0.676809 0.700341
-0.112787 0.173204 0.050231 -0.854047 -0.004788 0.518345
0.039077 0.22982 0.128276 0.028926 0.042897 0.998627
-0.069249 0.31251 -0.115069 -0.53336 -0.010261 -0.845588
0.196017 0.388311 -0.00092 0.967846 -0.120215 0.219146
-0.12391 0.060521 -0.049247 -0.917792 0.121647 -0.376833
-0.10038 -0.574056 -0.092629 -0.523389 0.041246 -0.851077
-0.228147 0.435404 -0.076954 -0.470628 0.502585 -0.725185
0.034365 0.684467 0.089982 0.027365 0.099879 0.977287
-0.113109 -0.792955 -0.080377 -0.93842 -0.102791 -0.318291
0.11563 0.315221 -0.135743 0.456745 -0.060439 -0.886176
0.220776 0.504453 0.013155 0.225034 0.320789 0.912372
0.280959 0.372771 -0.137881 -0.215509 -0.508817 -0.828454
-0.100518 0.200333 0.069438 -0.693176 -0.011309 0.719621
0.406119 0.276232 -0.03862 0.041435 0.299698 0.952793
0.156522 0.216019 0.067617 0.77764 0.081035 0.62345
-0.425458 0.16395 0.024953 0.522039 -0.79486 0.295983
-0.084658 0.503221 -0.116184 -0.298077 0.338052 -0.891213
0.034532 -0.31567 -0.009577 -0.998679 -0.032973 0.002815
0.108659 -0.100324 0.111923 -0.424205 -0.06179 0.901607
0.28699 0.478254 -0.093939 0.596459 0.677848 -0.428135
-0.106551 -0.851081 0.103574 -0.966179 0.053399 0.215766
-0.475985 0.139307 -0.022372 0.235202 -0.891249 -0.386635
-0.063299 0.240299 0.09252 -0.542739 0.081522 0.835254
-0.128712 -0.467885 0.028539 -0.884063 -0.203017 0.420397
0.056992 0.690474 0.084151 0.49817 -0.001463 0.861454
0.085679 -0.686233 -0.074319 -0.755948 -0.005915 -0.654184
0.0443 -0.544757 -0.026764 -0.993768 -0.007885 0.019296
-0.160407 0.468802 -0.091595 -0.374563 0.157768 -0.913431
0.387123 0.336719 -0.071889 0.577487 0.697333 0.415215
0.036174 -0.301646 0.003619 -0.820889 -0.051563 0.513095
0.039875 0.750748 0.096037 0.512777 0.409943 0.72581
0.194147 -0.36822 0.040715 0.932171 -0.062014 0.356499
-0.067444 -0.863468 0.125498 -0.003986 -0.999068 0.038397
0.064081 -0.778736 -0.035319 -0.91419 0.096933 -0.392175
0.145717 -0.193873 -0.096801 0.479073 -0.109885 -0.870047
-0.272432 0.290127 -0.081576 0.573435 -0.522219 -0.629552
-0.046951 0.383729 0.102733 -0.36237 0.123509 0.92353
-0.141909 -0.165705 0.030205 -0.974435 -0.13506 0.170888
0.19173 -0.649162 -0.056236 0.746701 -0.207626 -0.630378
0.019732 0.509139 0.065125 0.092515 0.497087 0.861453
-0.115492 -0.172943 -0.048529 -0.814564 -0.137916 -0.563025
0.139259 -0.058415 0.112509 0.315148 -0.006282 0.948544
0.366953 0.292866 -0.040249 -0.276237 -0.03815 0.946878
0.633188 0.023 0.058562 -0.409104 -0.905143 0.004873
-0.125064 -0.12795 0.081882 -0.827533 0.030109 0.560224
0.120957 0.307731 -0.132009 0.584349 -0.045051 -0.810245
-0.013811 0.814072 0.043479 -0.833201 0.331275 0.43867
-0.095789 0.054439 -0.096968 -0.728989 0.195196 -0.655973
0.089215 0.098515 -0.140618 0.253526 0.396948 -0.879847
-0.040276 -0.392999 -0.080019 0.25492 -0.031592 -0.964958
0.163965 0.482293 0.045954 0.57582 0.320786 0.751537
-0.010494 -0.687428 -0.086154 0.65349 0.210402 -0.727064
0.029004 0.867082 0.004076 -0.382421 0.890275 0.239843
-0.046497 0.364713 -0.126592 -0.266229 -0.034919 -0.962729
-0.095308 0.024816 -0.108454 -0.756763 0.137821 -0.637845
0.051726 -0.183863 -0.074528 -0.818563 -0.180159 -0.543849
0.220405 0.491324 0.016629 0.270069 0.165901 0.947514
-0.146881 0.498084 -0.090668 -0.458234 0.293504 -0.838246
0.142169 -0.864979 -0.004666 0.186641 -0.980038 -0.041909
-0.089467 0.135959 -0.082493 -0.682934 0.185419 -0.706053
-0.00025 -0.711081 0.00381 0.804228 -0.207929 0.556587
0.074113 -0.794254 -0.062445 -0.910978 0.10736 -0.395847
0.013236 0.074248 -0.143057 -0.158565 0.226359 -0.960729
0.043907 -0.107745 0.087699 0.568846 -0.623319 0.53394
0.053375 0.666022 0.087663 0.499013 -0.464271 0.67211
0.174975 0.166724 -0.049057 0.927665 0.048397 -0.35934
-0.100487 -0.090885 -0.082804 -0.706827 -0.133397 -0.694449
0.115885 0.100298 -0.128924 0.508951 0.286701 -0.811001
-0.039262 0.775006 -0.036081 -0.989121 0.110513 -0.076349
-0.007964 -0.319934 -0.065711 0.711553 -0.087552 -0.69713
0.12036 0.046482 0.112259 0.167672 0.218395 0.943916
0.16587 -0.663362 -0.074522 0.604505 -0.188434 -0.773198
-0.011691 0.433143 -0.129449 0.079289 -0.011827 -0.996654
0.017284 -0.77936 -0.048554 0.965601 -0.181285 0.163515
-0.092192 -0.177021 -0.076408 -0.693359 -0.078524 -0.716159
-0.114738 -0.802911 -0.042816 -0.884203 -0.457238 0.061316
0.597706 0.066386 0.0205 0.71883 -0.588338 0.018906
-0.028959 0.80908 -0.082948 -0.871625 0.157777 -0.455979
0.048113 -0.135364 -0.0864 -0.649966 -0.302722 -0.694521
-0.074619 -0.437901 -0.087284 -0.311916 0.310993 -0.889215
0.204699 -0.36799 -0.022703 0.983647 0.036231 -0.173226
-0.071035 -0.056532 0.122094 -0.364707 -0.03724 0.929517
-0.395548 0.222869 -0.069188 -0.32669 -0.233377 -0.913449
0.013654 -0.445009 0.029581 0.827746 -0.049754 0.558783
0.191997 -0.523142 0.02484 0.919807 -0.042997 0.388642
0.122288 0.588744 -0.072078 0.365516 0.88227 -0.279029
0.197132 -0.438193 0.017752 0.971469 -0.097733 0.213599
0.214442 -0.101878 0.001625 0.999337 0.005886 -0.031009
0.188137 -0.484457 0.03923 0.929006 -0.002752 0.369289
-0.130963 -0.566032 -0.021188 -0.952443 -0.13017 0.272122
-0.022079 0.725277 -0.061491 -0.861131 -0.415902 -0.289874
0.037589 0.808129 0.079033 0.035603 0.353196 0.93207
0.321616 0.373253 -0.037204 0.657871 -0.132281 0.728071
-0.561869 0.063904 0.041763 -0.793657 0.602495 0.006822
0.086147 -0.672896 0.032755 -0.344988 0.217896 0.911394
-0.012928 -0.257063 0.100492 0.444643 -0.210731 0.870501
0.014594 -0.456959 -0.038674 0.83193 0.075887 -0.549582
0.166247 -0.256205 0.080345 0.334563 -0.094287 0.934131
0.177393 -0.02506 0.086485 0.691848 0.057534 0.719448
-0.457573 0.159502 -0.043178 -0.035388 -0.697344 -0.658068
-0.091253 -0.776849 -0.114362 -0.757211 0.163633 -0.632017
-0.035803 0.796187 -0.006416 -0.995978 -0.002222 0.087987
-0.028287 -0.240262 -0.088879 0.340283 0.020918 -0.937277
0.198857 -0.563738 0.001824 0.959111 0.004118 0.282585
0.173458 -0.456105 -0.082795 0.654324 0.16896 -0.736799
0.095307 0.406777 0.092088 0.169443 0.210602 0.96227
0.095265 -0.773733 0.028348 -0.261598 0.756113 0.574347
-0.009338 -0.304978 -0.06933 0.704353 -0.129944 -0.697597
0.197644 -0.635882 -0.008707 0.982557 -0.07007 0.166627
0.105905 -0.712453 0.030991 0.534606 -0.188638 0.822989
0.079379 -0.738479 -0.053467 -0.904107 -0.010854 -0.425936
0.026771 0.392056 0.104316 0.054051 0.222482 0.972595
0.522939 0.189846 -0.050337 0.149106 -0.493265 -0.851541
0.101972 -0.795086 0.051786 -0.293341 0.476778 0.82558
0.312846 0.387927 -0.026266 0.548976 0.073137 0.821995
0.520525 0.167177 0.020706 -0.296205 0.214673 0.916179
-0.105323 -0.011547 -0.095612 -0.836104 -0.032216 -0.547245
-0.127095 -0.330183 0.031238 -0.992433 -0.014556 0.121881
-0.274692 0.346884 -0.096356 -0.189965 0.063398 -0.975764
0.199465 -0.60904 -0.019281 0.997591 -0.061595 0.028278
0.145146 -0.851012 -0.106199 0.714917 -0.025195 -0.696436
-0.021361 0.846348 0.005756 -0.779771 0.547406 0.257182
-0.127166 -0.298459 0.049419 -0.989773 -0.107246 0.085616
0.192132 -0.356635 -0.044642 0.690038 0.267726 -0.667351
0.629199 0.039524 0.03652 -0.856056 -0.50836 -0.078948
0.190215 0.1757 0.004032 0.980578 0.189835 -0.002858
-0.081638 -0.519154 -0.096903 -0.295264 0.090866 -0.948838
-0.093249 -0.046822 0.110019 -0.601623 -0.035707 0.797615
-0.152059 0.549062 0.003317 -0.412509 0.873906 0.239429
-0.117191 0.477856 0.061236 -0.033288 0.042061 0.998233
0.627277 0.039426 0.069104 -0.826284 -0.562254 -0.032344
0.026861 -0.671987 -0.043725 0.994794 0.00499 -0.076304
0.139067 0.127086 0.091659 0.666568 0.02203 0.745087
0.155327 0.50736 -0.131539 0.198844 0.369592 -0.906457
0.023877 0.765692 -0.121196 -0.072494 -0.050631 -0.995851
-0.122771 -0.093692 0.0832 -0.80807 0.034664 0.587433
0.079804 0.592565 0.002652 0.723762 0.114275 0.677874
-0.5058 0.105467 0.080704 0.600549 -0.267321 0.7498
0.162906 -0.838767 0.098688 0.759645 0.648136 0.045387
0.074138 -0.385324 -0.07934 -0.669926 -0.06421 -0.739584
-0.252991 0.294724 -0.029141 0.709611 -0.672231 0.208613
0.200515 0.403335 -0.01511 0.961026 -0.236126 0.134163
0.379461 0.33621 -0.062509 0.550762 0.603429 0.576628
-0.137656 -0.479342 0.000252 -0.963658 -0.047791 0.259105
0.006462 -0.181987 0.100559 0.681643 -0.084089 0.722224
0.143806 0.060316 0.100955 0.698943 0.213156 0.679376
0.259129 0.365092 -0.042713 -0.647501 -0.595964 0.470692
0.070754 -0.23904 -0.082241 -0.646526 -0.04292 -0.76102
0.581377 0.058647 0.029224 -0.891634 -0.426684 0.127588
-0.546431 0.062787 0.027877 0.591031 -0.781199 -0.198686
0.167902 -0.073773 0.096619 0.613671 0.053372 0.786596
0.064256 0.403784 -0.138865 -0.353922 0.04667 -0.932598
-0.337964 0.227802 -0.058798 0.504385 -0.712454 -0.484161
0.42433 0.245485 -0.11924 0.299516 -0.372091 -0.874353
0.03656 0.479328 0.079719 0.104761 0.462186 0.878332
0.052811 -0.520815 -0.005615 -0.832512 -0.0185 0.55111
-0.000974 -0.170623 0.107511 0.610221 -0.111153 0.78424
-0.047152 0.268274 0.102006 -0.627375 0.054539 0.775818
0.016558 -0.760277 -0.035692 0.909813 -0.231864 0.316667
0.244971 0.521503 -0.019056 0.640692 0.612612 0.459246
0.145498 -0.844627 0.17881 0.430396 0.48315 0.730824
0.128645 -0.86654 -0.020632 0.023644 -0.994379 0.088211
-0.06973 -0.072243 -0.111491 -0.366171 -0.252518 -0.894689
-0.279825 0.365155 0.005786 -0.671789 0.179929 0.713466
-0.065756 -0.847841 -0.136704 -0.392422 -0.317244 -0.858265
-0.022804 -0.06236 0.130449 0.021162 -0.102465 0.994158
-0.019777 0.044739 0.131569 -0.330846 0.137388 0.930623
0.048955 0.478668 0.078532 0.119547 0.501106 0.855528
-0.111338 -0.182638 -0.05281 -0.817491 -0.091359 -0.56811
-0.227653 0.471404 -0.019734 -0.784717 0.616745 0.042594
0.057003 0.410036 -0.136415 -0.290351 0.038941 -0.956081
-0.010879 -0.366529 -0.0623 0.714342 -0.093618 -0.693301
0.073447 0.324531 0.110815 0.321523 0.126654 0.937387
-0.018837 -0.60238 -0.085449 0.690235 -0.015479 -0.723381
0.161448 -0.855453 -0.002757 0.763339 -0.571579 -0.164904
0.024884 -0.369171 0.022282 0.963544 -0.112017 0.233979
0.201436 -0.316046 -0.020247 0.897479 -0.012037 -0.439961
-0.144334 -0.105719 0.005244 -0.999275 -0.003739 -0.031664
0.111916 0.266839 0.102655 0.413699 0.050746 0.907255
0.077551 -0.0829 0.104779 -0.114302 -0.760511 0.636826
0.193048 -0.211852 0.062841 0.947836 -0.035588 0.314216
0.091754 -0.446593 0.029816 -0.658017 -0.285133 0.696753
-0.129812 -0.132161 0.073181 -0.877434 0.043507 0.47767
-0.011244 0.204178 0.124702 -0.530071 0.137614 0.836194
0.00807 -0.617767 -0.06041 0.706558 0.091178 -0.701672
0.161544 0.481958 -0.137784 0.17403 0.192785 -0.964369
-0.098171 0.305634 0.055256 -0.871009 0.191555 0.451151
0.380847 0.242619 -0.070901 -0.727909 -0.67032 0.142588
-0.056712 -0.863251 -0.102522 -0.010655 -0.999724 -0.012781
0.184901 0.370655 0.026942 0.894746 -0.168138 0.412775
0.174533 -0.521676 0.049782 0.563809 -0.196748 0.799563
0.297648 0.328972 -0.06006 -0.509197 -0.702323 0.497196
0.197131 0.381412 -0.084817 0.949073 -0.233053 -0.207539
0.10844 0.278488 0.103522 0.352791 0.042845 0.934474
0.090688 -0.780573 -0.08552 -0.781362 0.311149 -0.537562
-0.073187 -0.723629 -0.120932 -0.327305 0.230487 -0.910586
0.170427 0.566395 -0.028863 0.230104 0.91597 0.294683
0.640244 0.044356 0.017835 0.887976 0.455365 -0.054053
0.056829 -0.10458 -0.1073 -0.431662 -0.469283 -0.76853
0.326452 0.301176 -0.10793 -0.568382 -0.705082 -0.415294
-0.063234 -0.86279 -0.111645 -0.039435 -0.995378 -0.075345
-0.482078 0.160274 0.05003 -0.205514 0.803951 0.509682
0.041777 0.629871 -0.068017 0.032298 0.331934 -0.937887
-0.051433 -0.648277 0.028351 0.296652 -0.164117 0.93962
0.166125 0.213488 -0.062164 0.869378 -0.006716 -0.493941
-0.125675 -0.693793 -0.03685 -0.938824 0.031647 0.336224
0.020611 0.01641 0.142142 0.009961 0.120467 0.992327
0.074149 -0.729635 0.034562 0.004851 -0.200951 0.96957
0.042748 -0.063713 0.120612 0.008848 -0.385539 0.919703
-0.005197 0.671907 -0.044914 -0.769491 -0.269179 -0.578473
-0.128309 0.394815 -0.06268 -0.963728 -0.206655 -0.080995
0.190222 0.170556 -0.011288 0.962567 0.209458 -0.147897
0.208129 -0.060035 0.041048 0.938091 0.083817 0.335076
-0.001511 0.58755 0.013273 -0.590384 0.217154 0.776723
0.014865 -0.348809 -0.037916 0.783774 -0.038736 -0.61675
0.111137 -0.864835 -0.005563 -0.299892 -0.944546 -0.07268
0.030324 0.738298 0.102695 -0.331721 0.31827 0.862968
0.095792 -0.30437 -0.097809 -0.279765 0.012875 -0.955937
-0.07247 -0.223245 0.114239 -0.145441 -0.079406 0.985697
0.02498 -0.394344 0.003975 0.973521 -0.173698 0.096553
-0.100389 -0.710196 0.012789 -0.49521 -0.528825 0.682381
-0.052607 -0.315052 -0.089983 -0.070397 -0.061715 -0.993453
0.190901 -0.428492 0.043897 0.941157 -0.066045 0.328118
0.155664 0.504518 0.038397 0.291501 0.527398 0.796829
-0.040196 0.74585 -0.02975 -0.991682 -0.018482 -0.088411
-0.090941 -0.653645 0.039696 -0.046676 -0.267626 0.956962
0.20301 0.051328 0.030948 0.951774 0.238192 0.192666
0.005368 -0.388401 -0.049048 0.659932 0.098292 -0.744376
0.053436 -0.705237 -0.012301 -0.973452 -0.150427 -0.166797
-0.564455 0.055823 0.036318 -0.96249 0.259563 0.00221
0.102218 0.03239 0.124439 0.472845 0.33328 0.812464
0.135279 0.507151 -0.135999 0.116709 0.266508 -0.955298
-0.10822 -0.722529 -0.088705 -0.818706 -0.058354 -0.57024
0.065483 -0.571342 0.007958 -0.628642 -0.027951 0.776833
0.175101 0.301432 0.038196 0.949014 0.013599 0.314345
0.090927 -0.162524 0.095994 -0.479561 -0.064264 0.870662
-0.035018 -0.777359 0.033075 0.410154 0.669996 0.603064
0.186476 0.433489 0.040616 0.554622 0.019343 0.829522
0.026243 0.08767 -0.141789 -0.162282 0.246869 -0.955252
-0.03504 0.83697 -0.009426 -0.779917 0.613182 0.104391
-0.29085 0.278868 -0.003681 0.630767 -0.364216 0.62035
0.010797 0.516639 0.062097 0.140315 0.533923 0.833173
-0.11847 -0.628241 0.017195 -0.915602 0.021181 0.398199
0.063058 -0.088385 0.097701 0.116774 -0.802921 0.576963
-0.405582 0.195054 0.020047 0.208476 0.231916 0.947685
-0.539285 0.096219 0.037646 -0.634292 0.753477 -0.170462
-0.145606 0.551629 -0.033816 -0.434878 0.868552 -0.211291
-0.081082 -0.648627 0.039596 0.30591 -0.271481 0.909075
0.171497 0.069472 0.081636 0.734288 0.21044 0.645032
0.176363 0.269658 -0.039524 0.929883 -0.049447 -0.36363
-0.119653 -0.372054 0.076257 -0.938603 -0.01786 0.339778
0.197431 0.083218 0.010991 0.950603 0.286226 0.11424
-0.037775 0.125328 -0.11621 -0.343167 0.425284 -0.836512
-0.089085 0.356752 0.071641 -0.750209 -0.107956 0.650284
0.180736 0.537293 -0.108599 0.256245 0.631897 -0.73056
0.036352 -0.232682 0.01448 0.499311 -0.201288 0.639699
0.187797 -0.721214 -0.040496 0.700885 -0.189593 -0.683911
-0.304833 0.244018 -0.053244 0.527399 -0.813123 -0.244717
0.185869 -0.328173 -0.044074 0.745006 0.025794 -0.666513
0.093611 0.819421 0.005075 0.806416 0.554003 0.202615
0.072342 0.321562 -0.141631 -0.302326 -0.061302 -0.94739
-0.326725 0.318165 -0.088259 -0.343519 0.472986 -0.807307
0.62861 0.048276 0.015195 -0.850807 -0.383643 -0.330941
0.066158 0.559675 0.020217 0.213861 0.402477 0.879669
0.253772 0.422489 -0.011039 0.095743 -0.273158 0.950239
0.155787 -0.863387 -0.05565 0.546219 -0.837353 0.013291
0.190067 -0.004704 -0.068127 0.892664 0.087708 -0.439343
0.083182 0.739497 0.060974 0.6862 0.108749 0.716474
-0.127755 -0.481867 -0.050661 -0.839927 0.07326 -0.537341
-0.054625 0.336636 0.098417 -0.409666 -0.12448 0.903392
0.039444 -0.25519 0.009968 -0.383115 -0.037466 0.836024
-0.005121 -0.001594 -0.142467 -0.162829 -0.156444 -0.973789
-0.128205 -0.329662 0.017538 -0.99915 -0.010291 0.033254
-0.088975 0.264041 0.072415 -0.687006 0.030113 0.725133
0.195627 0.097484 -0.003313 0.985869 0.025924 0.065349
0.086142 -0.859786 -0.074087 -0.853626 -0.470252 -0.077451
0.204091 -0.501744 -0.023103 0.978478 0.178118 -0.0912
-0.290161 0.347453 0.003608 -0.442342 0.236203 0.860361
-0.100571 -0.525693 -0.088191 -0.557917 0.110601 -0.82202
-0.550984 0.08341 0.038799 -0.822614 0.563661 -0.022833
0.179927 -0.029914 -0.089083 0.823535 -0.036047 -0.565037
-0.065356 -0.170504 0.120057 -0.240354 -0.074055 0.966152
-0.012356 0.79026 -0.105555 -0.641139 0.103254 -0.754861
-0.136859 -0.076519 -0.031048 -0.961906 -0.011097 -0.27306
0.016706 -0.420067 -0.034061 0.888504 -0.024468 -0.444102
-0.057983 -0.163955 0.121845 -0.145875 0.008066 0.988517
-0.112929 -0.80353 -0.03023 -0.891419 -0.423961 0.151873
-0.040763 0.001167 0.136126 -0.268685 0.398462 0.874251
-0.125567 0.371491 -0.012883 -0.953533 -0.288785 0.066445
-0.125051 -0.35538 0.054041 -0.982469 0.065302 0.174038
0.152425 -0.362833 0.076076 0.178062 -0.08094 0.979825
-0.115233 0.413749 -0.105741 -0.561725 -0.309431 -0.765835
-0.12833 0.56014 -0.034207 -0.438849 0.865358 -0.221578
-0.114425 0.148472 0.048839 -0.837969 0.076059 0.538655
0.085873 -0.3954 -0.089565 -0.62047 -0.040329 -0.7829
0.017273 -0.458575 0.023195 0.884596 -0.048042 0.463617
0.148493 -0.749211 -0.091176 0.696508 0.154593 -0.700224
-0.292804 0.362641 -0.075331 -0.737358 0.498063 -0.44042
0.182344 0.397868 -0.118032 0.300605 -0.510675 -0.804057
-0.113396 -0.279832 0.095218 -0.726831 -0.051373 0.6845
-0.232685 0.424641 -0.081444 -0.43924 0.504256 -0.74312
0.005975 0.72689 0.073103 -0.504873 0.148891 0.846187
0.057839 0.626175 -0.066581 0.302261 0.361488 -0.878201
0.020536 0.852637 0.047703 -0.221272 0.687981 0.687037
0.020343 -0.323113 0.053803 0.909793 -0.12481 0.395338
-0.050985 0.052075 -0.133594 -0.434363 0.289288 -0.850927
0.017809 -0.527841 0.009113 0.865203 -0.106533 0.480621
0.202612 -0.419536 -0.015657 0.980805 -0.162047 -0.105714
0.063777 -0.15487 -0.094573 -0.597061 -0.205439 -0.769461
0.097531 -0.806394 -0.107425 -0.771927 0.112641 -0.623749
0.177701 0.126488 -0.04958 0.852457 0.232215 -0.465637
-0.126212 0.447481 0.061382 -0.06934 -0.017847 0.994713
0.090567 -0.839899 0.105711 -0.872847 0.47383 0.114922
0.147762 0.1225 -0.095339 0.635736 0.217161 -0.735893
0.246607 0.428149 -0.007247 0.457714 -0.354839 0.812663
0.202245 -0.048139 0.053056 0.888602 0.041699 0.45603
-0.109303 -0.380705 -0.057126 -0.710106 -0.026587 -0.703342
-0.098298 0.274845 -0.087177 -0.756555 -0.068343 -0.649971
0.021145 0.836307 -0.091368 -0.159037 0.715193 -0.679902
0.068999 -0.820848 -0.035824 -0.760673 -0.586086 -0.059834
0.049764 0.594334 -0.089469 0.041899 0.608478 -0.792146
0.305243 0.394284 -0.144737 0.069682 0.033472 -0.992731
0.102395 0.771479 -0.057785 0.942188 -0.062992 -0.320523
0.093668 0.247071 0.111264 0.341657 0.080326 0.936269
-0.118857 0.095022 -0.048714 -0.871415 0.184106 -0.450481
0.198572 -0.477168 -0.048047 0.981611 0.020733 -0.175195
0.276432 0.46861 -0.01708 0.684762 0.159946 0.710914
0.00528 -0.389175 0.06032 0.777857 -0.174876 0.602337
-0.008794 0.855569 -0.024497 -0.48818 0.868942 -0.068557
-0.243334 0.30949 -0.017269 0.714836 -0.641908 0.273124
0.114947 -0.658018 -0.093336 -0.380863 -0.044945 -0.923251
0.143343 -0.714232 -0.089064 0.529262 0.05339 -0.84307
-0.081154 -0.232109 -0.083199 -0.576691 -0.034157 -0.815363
0.146951 -0.524592 0.055667 -0.200313 -0.276869 0.936766
0.199376 0.070858 0.024256 0.97135 0.209609 0.105907
0.365264 0.302771 -0.041747 -0.028361 0.095207 0.969908
-0.0453 0.563884 0.015328 -0.19988 0.807428 0.552403
0.225427 0.507005 -0.118714 0.395702 0.488794 -0.775934
-0.022172 -0.849455 -0.106837 0.989661 -0.081324 -0.093813
-0.043695 0.576698 -0.087572 -0.394284 0.661283 -0.635537
0.187116 0.327587 -0.051056 0.856976 -0.357078 -0.371543
-0.461015 0.197278 -0.00193 -0.78315 0.609649 0.106843
0.202325 -0.265712 0.038669 0.956576 -0.048755 0.28711
0.147805 -0.559629 -0.102919 0.407809 -0.070126 -0.90944
-0.122707 -0.643899 -0.003352 -0.977352 -0.139379 0.154788
0.083102 -0.434047 0.027485 -0.672909 -0.354409 0.648768
0.072112 -0.413357 -0.076104 -0.702145 -0.013106 -0.711854
0.119786 -0.416552 0.06355 -0.372063 -0.198646 0.904752
-0.116435 0.104353 -0.049771 -0.842556 0.13026 -0.517957
-0.128082 -0.228033 0.07548 -0.916418 -0.066631 0.392477
0.276548 0.386122 -0.141814 -0.271706 -0.174757 -0.937304
0.154159 -0.823838 0.062409 0.670932 0.72003 0.169118
-0.101698 -0.101845 -0.079761 -0.709023 -0.106408 -0.696755
0.135495 -0.265266 -0.091245 0.468469 -0.086527 -0.877626
-0.00484 0.801597 -0.107862 -0.470822 0.291062 -0.830198
-0.0064 -0.755172 -0.012091 0.462148 -0.382003 0.783915
0.173755 -0.532439 0.047818 0.537982 -0.215445 0.813519
0.116865 -0.22008 -0.101789 0.015764 -0.081201 -0.995108
-0.134305 -0.494274 -0.040794 -0.920444 0.051979 -0.376893
-0.150492 0.394322 0.002493 0.659313 -0.670512 0.336496
-0.117527 -0.780955 -0.071757 -0.94232 -0.052773 -0.325663
0.20758 -0.149997 0.022825 0.983335 -0.162516 0.071427
0.46704 0.188534 -0.038715 -0.482483 -0.869872 -0.060344
0.102543 -0.532254 0.0353 -0.471914 0.023045 0.881118
0.117492 -0.126343 -0.118689 0.098015 -0.202587 -0.973022
-0.026726 0.149997 -0.105856 -0.235081 0.281099 -0.921286
0.131572 -0.097013 -0.122461 0.306546 -0.216037 -0.924851
-0.102912 -0.120725 -0.075653 -0.709261 -0.096787 -0.696033
0.09848 -0.3611 -0.099313 -0.317098 -0.018 -0.941582
-0.049218 -0.220928 0.115925 0.082402 -0.225512 0.969318
0.029245 -0.301729 -0.005129 0.989993 -0.091778 -0.088609
0.00064 -0.809706 -0.114691 0.873495 -0.170934 -0.437075
0.000108 0.039072 0.137125 -0.172983 0.076119 0.98189
0.158234 -0.305493 -0.072085 0.607487 -0.006564 -0.794068
-0.039995 -0.371988 -0.082963 0.335795 -0.177811 -0.923992
0.155613 -0.579215 0.04164 0.089317 -0.12451 0.987695
0.186103 -0.087827 0.081244 0.714637 0.030081 0.698744
-0.117813 0.022446 -0.073533 -0.865436 0.082757 -0.493146
0.195405 -0.377253 0.035497 0.945041 -0.048605 0.323162
-0.058207 -0.208581 -0.092244 -0.135181 -0.06493 -0.985479
-0.570355 0.028389 0.057912 -0.158307 -0.882704 0.149873
0.19359 -0.131349 0.071687 0.865296 -0.016703 0.499269
-0.023353 0.740928 0.048536 -0.824803 0.031166 0.563557
0.179656 -0.302228 0.07317 0.396262 -0.03383 0.917262
-0.107197 0.05275 -0.082315 -0.804088 0.184378 -0.561881
-0.07098 -0.24513 0.112397 -0.053482 -0.068943 0.996024
-0.005061 -0.098244 -0.096293 0.538709 -0.383973 -0.748902
0.197887 0.05917 -0.038337 0.959562 0.077922 -0.269251
0.509828 0.220599 -0.038099 0.472364 0.851985 0.179635
-0.002724 0.860174 -0.016395 -0.562471 0.818318 -0.012786
0.076359 0.006277 0.137849 0.250692 0.051496 0.961261
-0.047008 -0.843481 0.142288 0.822288 0.303571 0.47426
0.197847 0.479403 -0.134219 0.112089 0.107568 -0.986634
0.105421 -0.43917 0.04562 -0.613838 -0.382867 0.690285
-0.264305 0.420018 -0.0252 -0.76708 0.632191 0.095793
-0.116134 0.217705 -0.02881 -0.918834 -0.11941 -0.373272
0.17206 -0.656542 -0.071767 0.58643 -0.222459 -0.77873
0.548282 0.112258 0.003972 -0.948945 -0.3143 0.022893
-0.066654 -0.861407 -0.046922 0.013565 -0.999776 0.007666
0.210883 -0.093664 -0.020216 0.934129 0.072186 -0.34955
-0.152695 0.432436 0.044567 -0.506551 -0.492244 0.703801
0.180075 -0.693502 -0.050483 0.716652 -0.128235 -0.683806
0.264493 0.491492 -0.102638 0.565573 0.563605 -0.601601
0.109691 -0.855501 0.172394 -0.678125 0.276843 0.65028
-0.013286 0.673884 0.018072 -0.803295 -0.584089 0.059738
0.040576 0.822798 -0.10437 0.09626 0.643025 -0.759037
-0.021934 -0.814693 0.053376 0.905221 -0.011255 0.365483
-0.019734 -0.383612 0.082131 0.397059 -0.210162 0.892472
-0.118384 0.050661 -0.06368 -0.848364 0.150604 -0.506223
0.598202 0.104088 0.008588 0.686497 0.349873 -0.614906
0.134601 -0.499755 0.056177 -0.44935 -0.139432 0.880833
-0.222281 0.400804 -0.094787 -0.113049 0.173669 -0.977631
-0.136615 -0.410296 0.007675 -0.995194 0.08369 0.048467
0.358496 0.295631 -0.127336 -0.310473 -0.369662 -0.871749
-0.12887 -0.259869 0.065612 -0.955924 -0.124466 0.261574
0.006014 0.067537 -0.14339 -0.142872 0.206548 -0.967727
0.142022 0.20518 0.085809 0.717351 0.05985 0.694052
