0.205007 0.000526 -0.024382 0.969388 0.095924 -0.214542
0.0818 0.849488 -0.019676 0.845713 0.532678 -0.010022
-0.10337 -0.827957 -0.004657 -0.97989 0.189362 0.047151
-0.105701 0.549739 -0.075071 -0.442977 0.680288 -0.582868
0.123327 -0.081087 0.115258 0.083057 -0.102813 0.986708
-0.0453 0.563884 0.015328 -0.19988 0.807428 0.552403
0.525413 0.187143 0.023299 -0.109029 -0.243031 0.923295
0.085472 -0.826879 -0.049251 -0.524998 -0.849082 -0.046222
0.109494 -0.84387 0.16885 -0.811388 0.1877 0.553279
0.102448 -0.294788 0.081136 -0.185288 -0.122517 0.97367
0.632885 0.060215 0.032226 0.823299 0.565734 -0.034346
0.356033 0.37214 -0.116438 0.778692 0.591968 -0.198171
-0.145973 0.552787 -0.004429 -0.491669 0.84872 0.130594
0.082964 -0.349897 0.062978 -0.500439 -0.324935 0.800987
-0.016869 0.791121 0.050764 -0.854921 0.186124 0.476533
-0.201096 0.506662 -0.007466 -0.762688 0.641995 0.076476
-0.021532 0.566881 -0.101686 -0.121552 0.587473 -0.799797
-0.102651 0.382725 -0.104864 -0.542286 -0.221899 -0.807837
0.015094 -0.775188 -0.080912 0.906545 0.049572 -0.410958
-0.056114 -0.298603 0.104981 0.167055 -0.10999 0.97957
0.08991 -0.382904 -0.093277 -0.536377 -0.092747 -0.837468
0.008732 -0.644024 0.014644 0.688278 -0.126726 0.712289
-0.125064 -0.12795 0.081882 -0.827533 0.030109 0.560224
-0.092141 -0.736178 0.00318 -0.620372 0.239035 0.729845
-0.12833 0.56014 -0.034207 -0.438849 0.865358 -0.221578
-0.094308 0.145068 -0.075093 -0.6962 0.203699 -0.688254
-0.235231 0.456638 -0.010297 -0.80731 0.546289 0.216327
0.004126 0.415474 -0.12833 0.062523 0.024505 -0.997544
0.071288 -0.756219 -0.040836 -0.855932 0.238294 -0.456483
0.223002 0.538512 -0.088249 0.376778 0.735633 -0.562396
0.177159 -0.654445 0.020103 0.485644 -0.043077 0.872497
0.0083 -0.633086 0.015993 0.668562 0.007509 0.739345
-0.025208 -0.454752 0.068448 0.393064 -0.290348 0.869581
0.032002 0.658853 0.077038 -0.008532 -0.981867 0.186135
0.103389 0.485605 -0.143005 -0.104815 0.270789 -0.955676
-0.000299 -0.488135 0.038551 0.66647 -0.226691 0.709915
-0.055718 -0.863839 0.027446 0.002268 -0.999835 -0.016413
0.199846 -0.603811 -0.03226 0.997331 -0.063062 -0.031614
0.042331 0.610066 -0.078175 0.045651 0.709194 -0.668976
-0.021708 0.563907 0.017742 -0.058363 0.74928 0.65071
0.14612 -0.741441 0.018591 0.307268 0.769038 0.559658
0.166646 0.286488 -0.068516 0.894714 -0.174875 -0.410517
0.197137 -0.731012 -0.016565 0.994081 -0.070043 0.040854
-0.092475 -0.826645 0.068053 -0.576205 0.792169 0.152966
0.027193 -0.656801 -0.02922 0.9966 -0.03226 0.041397
0.166023 0.06419 0.088978 0.496407 0.227798 0.81947
-0.291792 0.255826 -0.065047 0.52592 -0.785861 -0.307576
0.143324 -0.276946 -0.084877 0.575721 -0.096831 -0.8118
0.181432 -0.207204 0.081717 0.596658 -0.148598 0.785067
0.164894 -0.824311 -0.069531 0.771708 -0.634847 -0.036228
0.074603 0.732459 -0.092481 0.632445 -0.39963 -0.660089
0.512317 0.203532 -0.001904 0.069148 0.906269 0.403325
0.178446 -0.635549 0.019324 0.36937 0.02549 0.927443
-0.089627 -0.860629 -0.094867 -0.222731 -0.971686 -0.062657
0.178515 -0.436523 0.063772 0.551999 -0.042163 0.830262
-0.0619 -0.644498 0.033102 0.357516 -0.221159 0.907104
0.529835 0.202662 -0.000987 -0.119978 0.935763 0.32288
-0.370668 0.238397 -0.078698 -0.024032 -0.334862 -0.940063
-0.130375 -0.190188 0.074637 -0.893998 -0.033296 0.44651
0.46957 0.255021 -0.031808 0.342502 0.673068 0.628405
0.173892 -0.813854 -0.055943 0.867301 -0.476296 -0.010696
0.115553 -0.804652 -0.118776 -0.21803 0.167168 -0.956494
-0.37323 0.2905 -0.075196 -0.536442 0.585702 -0.599765
0.168734 -0.064643 -0.100046 0.780216 -0.08055 -0.62028
-0.001634 -0.799704 -0.12123 0.862981 0.014482 -0.49651
0.049237 0.255425 0.125902 0.196654 0.087187 0.975165
-0.114281 0.370977 0.043294 -0.857267 -0.310712 0.405461
0.185869 -0.328173 -0.044074 0.745006 0.025794 -0.666513
-0.048545 -0.591744 0.039061 0.481402 -0.291019 0.826746
0.109586 0.256948 0.104261 0.365954 0.052253 0.928972
0.139017 0.269011 -0.112011 0.795385 -0.112239 -0.594877
-0.116912 0.553536 -0.060556 -0.415523 0.762805 -0.494641
0.012863 -0.715786 -0.015595 0.771152 -0.05487 0.632394
0.174937 0.33563 -0.081928 0.784681 -0.338802 -0.518172
-0.128426 0.087833 -0.016087 -0.997468 0.02522 -0.057682
0.191358 0.333447 -0.018638 0.987895 -0.146296 0.029272
-0.092178 -0.121104 -0.085195 -0.650302 -0.0905 -0.753928
0.054277 -0.728162 0.014827 -0.983539 -0.153348 0.079231
0.010137 0.394329 -0.12827 0.030459 -0.002487 -0.999456
0.21076 -0.022783 -0.00713 0.959021 0.047784 -0.27777
-0.036006 -0.047295 0.130889 -0.108321 -0.140236 0.983809
0.072635 -0.705056 0.034585 -0.160564 0.165781 0.970725
-0.108046 0.252341 0.038933 -0.955759 0.169627 0.235449
0.147022 0.393258 -0.130549 0.498351 -0.24818 -0.829772
0.018532 0.658842 0.064811 -0.219017 -0.965863 0.12905
-0.023272 -0.853322 0.020893 0.799993 -0.585078 -0.103762
0.123979 -0.167624 0.103391 0.045885 -0.321403 0.944489
0.181202 0.360377 0.031163 0.879398 -0.155164 0.450032
0.143766 0.037167 0.108983 0.591452 0.23111 0.770693
-0.001847 0.69451 -0.065161 -0.657428 -0.516563 -0.54798
0.09819 -0.63571 0.027217 -0.617608 0.149064 0.756729
-0.183701 0.388166 0.019337 0.29266 -0.476637 0.827514
-0.333829 0.331595 -0.06543 -0.581526 0.764563 -0.256675
-0.031241 0.305182 0.109492 -0.548632 0.117338 0.825216
0.003259 -0.281886 -0.058931 0.77418 -0.119107 -0.621561
-0.072562 -0.368775 0.098125 0.134223 -0.184785 0.973497
-0.084081 -0.862879 0.000333 -0.063509 -0.997158 -0.035316
0.157328 -0.860414 -0.035394 0.579814 -0.779841 0.159468
0.02498 -0.394344 0.003975 0.973521 -0.173698 0.096553
0.40741 0.252534 -0.033281 -0.257046 -0.012413 0.956343
-0.10296 -0.826479 -0.069468 -0.963569 -0.185525 -0.14011
-0.376804 0.194735 -0.038967 0.498024 -0.843246 -0.188896
-0.044849 -0.731451 -0.120161 0.330763 0.223984 -0.913087
0.134246 0.48741 -0.141769 0.139551 0.304303 -0.939756
-0.394687 0.2024 -0.061518 -0.077088 -0.575021 -0.807441
0.044266 -0.254516 0.039724 -0.961162 -0.034837 0.259501
0.140028 -0.869321 0.116654 0.054708 -0.998026 0.026632
0.05291 0.274958 -0.131912 -0.375469 -0.075008 -0.922721
-0.03504 0.83697 -0.009426 -0.779917 0.613182 0.104391
-0.0409 -0.834109 0.12113 0.626332 0.685417 0.36366
-0.020987 0.174034 0.122611 -0.449152 0.008766 0.89295
0.10489 0.471649 -0.145134 -0.058354 0.106489 -0.992391
-0.025365 -0.449331 -0.084655 0.524163 0.082452 -0.842941
0.249714 0.392097 -0.132624 -0.439791 -0.279041 -0.852977
0.193167 -0.170615 0.070412 0.931594 -0.00102 0.362771
-0.071896 -0.208452 -0.088915 -0.39117 -0.021733 -0.916608
-0.108588 0.096617 -0.067323 -0.827472 0.148156 -0.541175
0.09163 -0.724429 -0.080101 -0.805752 -0.073484 -0.584539
-0.119766 -0.55917 0.014635 -0.889925 -0.138358 0.434393
0.202898 0.403381 -0.073161 0.924442 -0.379451 0.019221
-0.10139 -0.031585 -0.098552 -0.74048 -0.085576 -0.666142
-0.091841 -0.862054 0.124725 -0.26415 -0.949922 0.123774
0.156089 -0.260268 0.082327 0.158392 -0.076586 0.984349
0.010919 0.007517 0.143107 -0.017964 0.135951 0.990017
0.177246 -0.382366 -0.065562 0.683901 0.221076 -0.689004
-0.11855 0.216657 0.026729 -0.94331 0.236033 0.228491
0.171591 -0.199145 -0.077074 0.627465 -0.099152 -0.771927
0.01011 0.384097 0.106478 0.002775 0.205569 0.978245
-0.127165 -0.379363 0.035508 -0.988539 0.047254 0.133931
0.021598 -0.366912 0.032859 0.929982 -0.160029 0.330395
-0.071698 -0.860972 0.14681 -0.005486 -0.973478 0.225315
0.091961 0.719463 0.037957 0.980026 0.019138 0.195344
0.022452 0.700593 0.089705 -0.445748 -0.195338 0.861836
-0.191871 0.370662 0.010902 0.371081 -0.613663 0.694391
-0.115428 0.395196 -0.097785 -0.689212 -0.248479 -0.6781
0.072683 0.131326 -0.128653 0.066633 0.330491 -0.940594
-0.012342 0.768482 0.061094 -0.842162 -0.083466 0.526843
0.0967 0.811616 -0.06016 0.918076 0.347377 -0.184173
-0.284586 0.400808 -0.057618 -0.512551 0.842564 -0.151526
0.358496 0.295631 -0.127336 -0.310473 -0.369662 -0.871749
-0.000684 0.686139 -0.059154 -0.6934 -0.426199 -0.579793
0.067915 -0.772318 -0.042391 -0.894017 0.164011 -0.414789
0.172931 -0.326673 -0.058483 0.729462 0.003974 -0.683873
0.197644 -0.635882 -0.008707 0.982557 -0.07007 0.166627
0.019949 0.280649 -0.127573 0.082425 -0.019892 -0.995375
0.115696 0.341688 -0.138315 0.424731 -0.120752 -0.897185
0.163942 -0.139977 -0.08979 0.666533 -0.166442 -0.726442
0.137911 0.320399 0.080759 0.755617 0.036636 0.65295
0.007828 0.194969 0.129713 -0.066747 0.047116 0.996647
-0.284853 0.393938 -0.01497 -0.815995 0.384844 0.354582
0.310935 0.314723 -0.06636 -0.577403 -0.673188 0.461275
0.55043 0.168816 -0.01335 0.868335 0.323064 -0.275416
0.25367 0.376972 -0.127566 -0.469287 -0.544835 -0.687952
0.202499 0.06121 0.014328 0.948473 0.298751 0.100266
-0.036844 0.789984 -0.046157 -0.995444 0.026986 -0.089616
-0.128615 -0.362483 -0.008979 -0.999282 0.007854 -0.030555
-0.10654 -0.684041 0.021651 -0.679152 -0.322152 0.658655
0.18864 -0.538201 0.029634 0.88104 -0.080544 0.464423
0.195798 -0.427561 -0.048453 0.88768 0.099034 -0.442451
-0.064612 -0.861912 -0.027233 0.028147 -0.998173 -0.050581
0.200385 0.061669 0.02942 0.966151 0.215865 0.139147
-0.056712 -0.863251 -0.102522 -0.010655 -0.999724 -0.012781
-0.315986 0.342058 -0.072801 -0.580201 0.676196 -0.444867
0.202146 0.40263 -0.095885 0.900263 -0.398274 -0.155587
0.160829 -0.3186 0.076318 0.251805 -0.041003 0.966828
0.094872 -0.482294 0.029658 -0.615177 0.014114 0.788028
-0.119984 0.346959 -0.005485 -0.991973 -0.099176 0.069603
0.099803 -0.172183 -0.106765 -0.193212 -0.196182 -0.960843
-0.131973 0.065927 -0.001944 -0.887657 0.444513 -0.019037
0.144953 0.071274 0.095911 0.741587 0.210319 0.635031
0.089922 0.460166 0.081251 0.124593 0.286522 0.949396
-0.023281 -0.847158 -0.069066 0.815893 -0.566274 0.063998
-0.014251 0.471358 -0.129032 0.095146 0.060678 -0.99359
-0.018998 -0.053436 0.131105 0.030957 -0.141156 0.987284
0.059709 0.598069 -0.085305 0.11981 0.652878 -0.747204
0.308092 0.313285 -0.094802 -0.701321 -0.709917 -0.05187
0.205622 -0.077632 0.051634 0.908253 0.013131 0.413348
0.027102 0.102384 -0.138153 -0.162068 0.293896 -0.941585
0.121502 0.083891 -0.130176 0.554649 0.255915 -0.791266
-0.036647 -0.104569 -0.106949 0.160072 -0.243576 -0.955317
0.14878 -0.229904 0.087679 0.113111 -0.230592 0.966199
-0.449447 0.211838 -0.00418 -0.733794 0.620364 0.260545
0.064478 0.39121 0.100135 0.165928 0.257169 0.951281
0.049021 0.476009 -0.129355 -0.258598 0.084404 -0.959485
0.078968 -0.082586 -0.128128 -0.190867 -0.416526 -0.888681
0.174826 0.055275 0.082426 0.731568 0.255844 0.630226
0.12109 -0.825784 0.146592 -0.021325 0.990769 0.093694
0.075639 0.492416 0.06823 0.130033 0.464822 0.875658
-0.000207 -0.352 0.074364 0.722402 -0.081375 0.686659
-0.127095 -0.330183 0.031238 -0.992433 -0.014556 0.121881
-0.004856 -0.53552 -0.074785 0.79121 0.032944 -0.610533
0.062541 -0.74016 0.033937 -0.271797 -0.366807 0.880694
-0.030877 0.383463 -0.129129 -0.047559 -0.023607 -0.998563
-0.07797 0.580544 -0.041046 -0.453337 0.880568 -0.095781
0.198615 -0.43069 -0.039579 0.979774 0.039339 -0.191265
-0.001431 0.70195 -0.072596 -0.637215 -0.5322 -0.557024
-0.007148 -0.632244 0.023018 0.149437 0.150328 0.975111
-0.098101 -0.511674 -0.087661 -0.558018 0.11726 -0.82004
0.166365 -0.177264 0.092941 0.37633 -0.173817 0.908275
-0.123528 0.005413 -0.063597 -0.891832 0.073335 -0.445871
0.15885 -0.104328 0.104327 0.487381 0.016206 0.869308
-0.127761 0.547946 0.023594 -0.156738 0.81965 0.545561
-0.495044 0.117398 0.072672 0.713066 -0.124266 0.689186
0.172466 -0.803794 -0.083214 0.887449 -0.184579 -0.408374
-0.006081 -0.831413 -0.045092 0.152184 -0.972794 0.038237
0.072766 0.526676 0.050225 0.120676 0.524077 0.842666
-0.123757 -0.488376 0.02811 -0.810628 -0.243554 0.532254
0.01767 -0.418997 0.02593 0.945162 -0.073152 0.311852
0.191852 0.501197 -0.129534 0.080243 0.327224 -0.939963
0.003141 -0.092778 -0.091975 0.658098 -0.396813 -0.632126
-0.118136 -0.66448 0.00818 -0.96395 -0.186091 0.189633
0.092449 -0.443877 -0.094268 -0.55261 0.053016 -0.831658
0.401304 0.244969 -0.036993 -0.423426 -0.336415 0.828322
0.611503 0.093237 0.065321 0.761017 0.646631 0.05025
-0.478049 0.165788 -0.031376 -0.612758 0.524403 -0.59105
-0.371285 0.300933 -0.025995 -0.629356 0.746326 0.207146
0.58827 0.050152 -0.014242 0.818087 -0.476467 -0.127463
0.067126 -0.813485 -0.027781 -0.975283 -0.195649 -0.029531
-0.335854 0.291643 -0.092479 -0.208216 0.018037 -0.974906
0.627479 0.06482 0.080868 0.861041 0.490175 0.114901
0.129997 -0.867905 0.015024 0.051531 -0.993209 -0.095855
-0.105607 -0.41087 -0.058029 -0.688144 0.051805 -0.719662
-0.325533 0.28172 0.004809 -0.12609 0.08749 0.987671
-0.001022 -0.047132 0.130595 0.130633 -0.30045 0.944428
-0.08262 0.493635 0.061911 -0.259014 0.418612 0.869195
0.136859 -0.861764 0.173757 0.062356 -0.966272 0.247895
0.05257 0.302964 0.119824 0.17515 0.127938 0.975086
-0.051989 -0.604003 0.037067 0.538755 -0.244894 0.771039
-0.12842 -0.29338 -0.003518 -0.996922 -0.016818 -0.069349
0.139583 -0.616655 -0.097238 0.237505 -0.13887 -0.959977
0.113769 -0.111173 0.113456 -0.266293 -0.017086 0.937783
0.140741 -0.768652 0.029293 -0.024728 0.760782 0.616835
-0.031909 -0.86175 0.024691 0.361879 -0.924931 -0.084459
-0.328347 0.239899 0.003495 0.291038 -0.36932 0.869766
0.053186 0.660135 0.070509 0.233731 -0.961346 0.136473
-0.14013 0.007005 0.018659 -0.955992 -0.286461 -0.033263
-0.108545 -0.44961 0.071842 -0.759773 -0.140335 0.634429
0.090896 0.11563 -0.132066 0.220151 0.468796 -0.853181
0.016409 -0.33028 0.059817 0.843468 -0.200523 0.494524
0.109587 0.003325 -0.150781 0.379039 0.070328 -0.92155
-0.009526 -0.748303 -0.005388 0.282338 -0.748296 0.597813
0.191378 0.012062 0.074838 0.84699 -0.016305 0.512176
-0.115742 -0.571006 0.018991 -0.885065 -0.087159 0.456145
-0.241927 0.414944 0.019189 -0.60545 0.267542 0.748451
0.100312 0.334886 -0.143734 0.205813 -0.08568 -0.973062
0.207641 -0.177547 -0.014582 0.999722 -0.000441 -0.02268
0.574722 0.12309 -0.005221 0.560107 0.266429 -0.782647
-0.070024 -0.68848 -0.111867 -0.184207 0.19885 -0.962078
0.159114 0.470954 0.053271 0.600589 0.246275 0.758046
-0.003681 -0.54992 -0.073398 0.779704 -0.017461 -0.625838
-0.063203 -0.799862 0.05312 -0.175243 0.821198 0.530506
-0.034991 -0.759528 -0.129941 0.275164 0.423981 -0.85872
-0.014345 0.24087 0.117739 -0.456876 0.095461 0.883507
0.203431 -0.409439 0.004035 0.939869 -0.213972 0.250896
-0.131308 -0.267282 0.005309 -0.976831 -0.160544 -0.133263
0.106272 -0.734403 -0.094501 -0.462811 -0.029812 -0.884893
0.145146 -0.851012 -0.106199 0.714917 -0.025195 -0.696436
-0.497645 0.095001 0.056408 0.436411 -0.865069 0.133567
-0.07116 -0.428044 0.085474 0.141697 -0.253005 0.955789
0.126043 0.201475 -0.104756 0.558481 -0.20588 -0.801815
-0.055404 0.002484 0.130259 -0.232793 0.367299 0.895494
-0.072504 -0.801959 0.051564 -0.425506 0.768693 0.462342
0.167031 -0.355076 0.073384 0.223795 -0.04585 0.973402
0.089211 0.168819 0.118513 0.421051 0.052406 0.903155
-0.127134 -0.704066 -0.040948 -0.979547 0.027789 0.186669
0.069905 0.595605 0.012389 0.625856 0.007995 0.779631
-0.060603 -0.550888 0.055123 0.386796 -0.203578 0.898901
0.124416 0.211583 -0.109193 0.621696 -0.301782 -0.721886
-0.111053 0.238913 0.03953 -0.942973 0.232013 0.2378
0.021878 0.714893 -0.096826 -0.172445 -0.600387 -0.779565
0.234286 0.381392 -0.105776 -0.715573 -0.660682 -0.211677
0.265911 0.431016 -0.139739 -0.020462 0.202442 -0.97716
-0.01195 -0.816511 0.020167 0.962302 -0.069405 0.187652
0.099878 -0.345105 0.072689 -0.350731 -0.225011 0.907052
0.170665 0.234577 -0.053392 0.883628 0.020151 -0.467683
-0.062123 -0.131464 0.122472 -0.243442 0.013467 0.969566
0.080282 -0.702992 -0.065005 -0.845025 -0.095674 -0.524666
-0.109238 -0.470446 0.06375 -0.778875 -0.295463 0.552326
0.0259 0.279447 0.124969 -0.007179 0.192803 0.980323
-0.120302 -0.78449 -0.04121 -0.995683 -0.070517 0.026627
0.319629 0.406701 -0.037131 0.600248 0.359732 0.712997
0.039127 0.819664 0.073527 0.074174 0.498203 0.863543
0.012253 -0.36869 0.053984 0.846852 -0.137301 0.513427
-0.09303 -0.133105 -0.083406 -0.665008 -0.090394 -0.741304
-0.051106 0.326071 0.097701 -0.326063 -0.085484 0.938685
0.587409 0.124624 0.010492 0.771041 0.584533 -0.176825
-0.04503 0.238265 -0.122198 -0.541378 -0.15333 -0.826074
0.23376 0.448311 0.008564 0.614773 -0.076359 0.776689
0.029788 0.507444 -0.123741 -0.108066 0.052787 -0.992102
0.437031 0.263979 -0.117363 0.59755 -0.001949 -0.794563
-0.075537 0.116679 -0.098329 -0.612646 0.228545 -0.75616
0.20785 -0.126989 0.04174 0.943555 -0.068458 0.322037
0.554559 0.109572 -0.022645 -0.109303 0.378317 -0.899878
0.007349 -0.682101 0.004571 0.781881 -0.286909 0.552861
-0.059875 0.045344 0.115827 -0.39262 0.214763 0.890352
-0.005374 -0.709017 0.012348 0.771478 -0.259598 0.577329
0.144071 -0.715635 0.011562 0.399689 -0.240855 0.873367
0.018994 -0.728666 -0.068076 0.930287 0.022187 -0.361007
0.050893 -0.118125 -0.095875 -0.483077 -0.363084 -0.794164
0.10354 -0.566808 -0.098171 -0.511148 -0.14704 -0.846135
0.20423 -0.344649 -0.017898 0.958116 0.090788 -0.251929
0.087333 -0.599439 -0.081349 -0.659385 -0.081233 -0.747279
-0.083185 -0.09675 -0.096752 -0.544399 -0.177173 -0.81822
0.180332 -0.762408 -0.043393 0.768948 0.342546 -0.524924
-0.071665 -0.614041 -0.105022 -0.047412 0.065465 -0.995923
-0.199412 0.472756 -0.070813 -0.594034 0.437737 -0.673208
-0.070304 0.025609 0.118341 -0.384783 0.36477 0.845615
-0.548325 0.086569 0.068217 -0.876133 0.474538 0.071696
0.224334 0.452363 -0.133747 -0.030004 -0.000776 -0.997889
0.1828 0.229552 -0.004318 0.999853 0.006862 -0.002696
-0.127539 0.179081 -0.009313 -0.976691 0.046145 -0.192627
0.185571 0.302377 0.003123 0.976883 -0.119651 0.173896
-0.026765 0.468065 -0.130458 0.086394 0.080868 -0.992839
0.064436 -0.46795 0.005216 -0.479782 0.057316 0.875369
-0.044802 -0.4905 0.063595 0.331366 -0.286772 0.898404
0.040012 0.565884 -0.106587 -0.10772 0.432195 -0.894362
0.192485 0.563126 -0.053245 0.551342 0.821239 -0.034377
-0.009794 -0.181939 -0.077634 0.617371 -0.013003 -0.786482
0.176323 0.08403 -0.072825 0.81472 0.201612 -0.54294
0.028355 -0.181725 0.044771 0.945819 -0.118534 0.294793
-0.111807 0.263333 0.011316 -0.996975 0.039276 0.060052
0.058725 0.533035 0.047464 0.026476 0.645951 0.759116
0.083021 0.13169 -0.127437 0.152621 0.323452 -0.933152
-0.012809 0.048951 -0.144382 -0.146359 0.20787 -0.966978
-0.064514 -0.155138 0.121 -0.112716 -0.050248 0.991577
0.159662 0.155322 0.070589 0.709172 0.059772 0.702482
-0.04001 0.550775 0.033332 -0.201067 0.7017 0.683244
0.066993 0.196219 -0.119716 -0.200212 -0.220843 -0.949649
-0.539285 0.096219 0.037646 -0.634292 0.753477 -0.170462
-0.112977 0.159036 0.049913 -0.838558 0.033748 0.541215
0.180191 0.389284 0.041413 0.773303 -0.152634 0.613198
-0.051203 0.395186 0.09913 -0.317433 0.130869 0.937839
0.112521 0.486776 0.063633 0.266631 0.535034 0.799506
-0.131563 -0.576334 -0.028737 -0.968538 -0.138301 0.204316
-0.117527 -0.780955 -0.071757 -0.94232 -0.052773 -0.325663
0.073447 0.324531 0.110815 0.321523 0.126654 0.937387
-0.023639 0.604422 -0.030102 -0.709748 0.654473 0.243868
0.295698 0.412419 -0.141884 0.077168 0.296363 -0.948076
-0.183168 0.361724 -0.061775 0.628512 -0.720534 -0.292285
0.201218 -0.160406 0.046349 0.942477 -0.160305 0.289729
0.095706 -0.75897 0.016192 -0.371579 -0.211318 0.856215
0.003661 -0.760675 -0.094038 0.798745 0.148931 -0.579312
0.193 -0.084702 0.073212 0.699362 0.021163 0.710315
0.179312 0.073669 -0.071885 0.817567 0.193455 -0.542072
-0.129821 -0.604912 -0.047131 -0.998818 -0.043611 -0.016881
0.063853 0.356064 -0.139063 -0.392695 -0.02071 -0.918902
-0.082686 -0.660912 0.036315 0.215942 -0.298362 0.92312
0.125232 0.238105 0.096906 0.54539 0.042072 0.837007
-0.012735 0.553101 0.029556 0.148845 0.807607 0.560457
-0.004555 -0.024175 0.132906 -0.062884 -0.121224 0.987884
-0.047906 0.337833 -0.125397 -0.317664 -0.016376 -0.947871
0.166885 -0.862984 0.060116 0.251032 -0.956986 -0.026712
0.142185 0.431641 -0.142583 0.253718 -0.166488 -0.952602
0.197228 -0.237811 0.052369 0.923374 0.04103 0.379519
0.121539 -0.022445 0.120385 0.353424 -0.016766 0.935193
0.166971 0.161603 -0.06439 0.841609 0.018937 -0.538109
0.100845 0.725462 -0.000753 0.989592 0.017348 0.108471
0.144788 -0.26232 -0.085803 0.533301 -0.105971 -0.83911
0.095139 -0.42964 0.041739 -0.616014 -0.379112 0.690345
0.15164 -0.126882 0.106795 0.340023 -0.102924 0.933244
0.203503 -0.01975 -0.034455 0.938411 0.043504 -0.341155
0.100624 0.792354 0.006095 0.916076 0.193807 0.346153
0.140453 -0.068744 0.11232 0.328391 0.022211 0.944147
0.010028 0.627426 0.022185 -0.582233 -0.187719 0.786901
-0.025491 0.753692 -0.082494 -0.821871 -0.284445 -0.488522
-0.463642 0.13245 0.01109 0.596312 -0.797114 -0.0262
0.182328 0.244001 -0.017905 0.992707 -0.007882 -0.110978
0.411906 0.308885 -0.060213 0.499348 0.680414 0.532109
-0.29338 0.32724 -0.095499 -0.162585 0.221578 -0.958706
0.017536 0.319208 0.119477 -0.158142 0.170631 0.970088
-0.071976 -0.855952 0.156869 -0.077674 -0.715187 0.671867
0.041972 0.619473 -0.072764 0.027526 0.470607 -0.880695
0.185435 -0.154418 0.083541 0.700245 -0.018395 0.711094
0.203571 -0.291946 -0.018069 0.940685 -0.046065 -0.324175
0.029904 -0.164345 0.049746 0.898319 -0.269722 0.341762
0.018068 -0.551235 0.003236 0.886935 -0.054467 0.437158
0.056007 -0.562463 -0.053923 -0.802914 -0.063852 -0.591973
0.060704 0.854787 -0.059541 0.37436 0.820052 -0.427434
-0.206946 0.451561 0.036085 -0.554694 0.270568 0.786184
-0.081423 0.19172 0.086085 -0.627533 0.011594 0.77826
-0.022882 0.4053 0.104247 -0.075622 0.164527 0.983097
-0.136859 -0.076519 -0.031048 -0.961906 -0.011097 -0.27306
0.020337 -0.336135 -0.028331 0.908678 -0.019636 -0.416944
-0.000522 0.337727 0.112824 -0.038208 0.055773 0.997252
-0.131785 -0.215808 0.067856 -0.930726 -0.048832 0.361969
-0.032075 0.768779 0.021503 -0.918891 -0.034183 0.378053
-0.035761 0.372782 -0.128612 -0.095333 -0.025694 -0.994207
0.060394 -0.149522 0.075956 -0.64122 0.050442 0.765546
0.064771 -0.594802 0.003388 -0.681438 -0.191229 0.705612
0.172362 -0.741388 0.004278 0.332377 0.741261 0.5806
-0.093655 -0.8633 0.084943 -0.027543 -0.999611 0.002776
-0.029043 -0.109968 -0.103846 0.275506 -0.240032 -0.928682
-0.041518 -0.651743 0.025122 0.194185 -0.109721 0.973987
0.519709 0.156398 0.020481 -0.491706 -0.372153 0.760029
0.301224 0.320416 -0.099513 -0.695203 -0.709929 -0.104082
0.104433 0.417147 0.089089 0.182141 0.174405 0.965505
-0.006378 0.068111 -0.141307 -0.162293 0.229573 -0.959531
0.192977 -0.610232 0.012968 0.766574 -0.142931 0.613693
0.12131 0.106453 -0.122389 0.526677 0.341037 -0.776637
0.066997 0.313551 -0.139143 -0.333635 -0.066938 -0.939592
0.248077 0.413082 -0.014113 0.026714 -0.355587 0.931173
0.173566 -0.341962 0.07242 0.232203 -0.043108 0.96415
0.172653 0.026087 0.093162 0.626244 0.15184 0.763334
0.083644 0.538082 -0.126846 -0.095745 0.380347 -0.916325
0.105598 0.196253 0.110069 0.50582 0.031829 0.859702
0.162302 0.096536 -0.088195 0.756962 0.257862 -0.598851
-0.08878 0.100963 -0.092412 -0.711004 0.216062 -0.667621
-0.278493 0.375059 -0.086329 -0.635907 0.290146 -0.713749
-0.114256 -0.255417 -0.040345 -0.890556 -0.013641 -0.454229
0.097914 -0.857404 -0.10897 -0.761842 -0.053561 -0.637556
0.544448 0.138851 -0.022261 0.237225 -0.229844 -0.841487
-0.414653 0.173198 -0.034861 0.584588 -0.773608 -0.239674
-0.036168 -0.688761 -0.105162 0.450248 0.269162 -0.851182
0.027381 -0.638527 -0.021158 0.99435 -0.029829 0.077074
-0.020768 0.769971 -0.094953 -0.759996 -0.146431 -0.632743
-0.124039 -0.161009 -0.038506 -0.818974 -0.171558 -0.547122
-0.111794 0.217977 -0.03883 -0.900134 -0.150544 -0.406874
-0.385114 0.202779 -0.062625 0.080252 -0.688594 -0.696371
-0.204781 0.465489 0.032376 -0.577269 0.265456 0.771157
0.243167 0.526398 -0.083786 0.606848 0.643784 -0.464531
-0.089899 -0.197488 -0.077281 -0.689981 -0.025768 -0.72333
-0.082637 0.505612 0.057194 -0.157219 0.398859 0.902063
0.130138 -0.826935 0.1508 0.190079 0.968876 0.136583
0.114399 -0.589912 -0.099615 -0.335805 -0.149051 -0.926997
0.526919 0.199292 0.008619 -0.019922 0.940303 0.333323
-0.066216 -0.832066 0.144547 0.016399 0.926412 0.330308
-0.042218 0.458296 -0.131973 -0.019217 0.038629 -0.99763
0.005368 -0.388401 -0.049048 0.659932 0.098292 -0.744376
-0.088747 0.084503 0.088916 -0.476327 0.362262 0.777743
0.149969 0.126719 0.081871 0.657656 0.034042 0.751759
-0.067408 0.116206 -0.104215 -0.515309 0.274933 -0.81052
0.053476 -0.401606 -0.055959 -0.764761 -0.013528 -0.644114
0.004693 0.695535 0.077035 -0.71942 0.020559 0.690305
-0.120497 -0.772781 -0.0361 -0.992195 -0.094973 0.063102
-0.102693 0.42214 0.065351 -0.429403 0.079717 0.895046
0.034915 -0.31142 -3e-05 -0.955405 -0.059548 0.28844
0.416221 0.304567 -0.112689 0.550683 0.543575 -0.632525
-0.118564 -0.420664 -0.044166 -0.779893 0.23203 -0.576773
-0.098156 -0.111084 -0.081634 -0.664473 -0.111138 -0.737363
0.034169 -0.156178 -0.052678 -0.918622 -0.206511 -0.336619
-0.133527 -0.414186 0.029258 -0.960037 0.078328 0.265543
-0.095544 -0.659891 -0.101335 -0.502162 -0.021293 -0.864298
0.047768 0.644112 -0.064384 0.155658 0.109205 -0.972803
0.002811 -0.644728 -0.068503 0.605668 0.112183 -0.787162
-0.429866 0.229301 0.002818 -0.629988 0.577843 0.504003
-0.041714 -0.864034 0.063119 0.05064 -0.998572 -0.002296
0.192077 0.085458 0.034659 0.949002 0.260099 0.170932
-0.03922 0.172164 0.112573 -0.53837 0.108162 0.835682
-0.048276 -0.250037 0.110789 0.127589 -0.123307 0.984032
0.099779 0.300883 0.104593 0.262474 0.087286 0.960786
-0.051773 -0.380656 -0.084144 0.118669 -0.14851 -0.977724
-0.139319 -0.111971 -0.019943 -0.923929 -0.063421 -0.375782
-0.015644 -0.809007 0.029019 0.871188 0.348319 0.345685
0.142285 0.478571 -0.142736 0.157133 0.187188 -0.966732
0.043916 0.752664 -0.117418 0.355801 -0.336708 -0.865786
-0.306658 0.245221 -0.011171 0.6363 -0.710337 0.29271
-0.120728 0.364376 -0.074512 -0.957571 -0.159835 -0.227804
-0.085743 -0.257057 0.110726 -0.158019 -0.040989 0.986504
0.090849 -0.552042 -0.091225 -0.659869 -0.118571 -0.741785
0.041601 0.458416 0.087548 0.1353 0.314514 0.937982
-0.021599 -0.841337 0.02826 0.990748 0.041066 0.058273
-0.092562 -0.272327 0.108175 -0.212429 -0.056746 0.975449
0.110776 -0.448883 0.045974 -0.654331 -0.217248 0.719401
0.057231 -0.127071 0.069785 -0.748891 0.208939 0.62215
0.031468 0.37184 0.107977 0.0476 0.199027 0.977979
-0.089301 0.050814 0.101328 -0.463654 0.179164 0.866388
0.072973 -0.626723 -0.066473 -0.660213 -0.098563 -0.744535
-0.026619 0.183204 -0.111129 -0.316026 -0.251455 -0.914476
0.405601 0.235474 -0.043562 -0.457061 -0.652214 0.600815
0.088596 -0.835876 -0.051236 -0.999104 0.018507 -0.000412
0.059535 -0.617201 -0.054202 -0.77028 -0.0597 -0.634587
-0.42774 0.185309 -0.053878 -0.105148 -0.029574 -0.956332
0.162095 -0.685497 0.020675 0.322455 -0.355931 0.875701
-0.081969 -0.103904 0.116284 -0.426134 0.009471 0.902782
0.135495 -0.265266 -0.091245 0.468469 -0.086527 -0.877626
-0.134036 -0.457836 0.02089 -0.93116 -0.128013 0.331977
-0.032572 -0.862095 -0.095718 0.263815 -0.957222 0.067027
0.153362 -0.615264 -0.092205 0.477093 -0.164124 -0.863364
0.574421 0.071009 -0.004181 -0.869863 -0.4609 -0.127332
0.458004 0.262542 -0.0962 0.733682 0.239402 -0.633552
0.3833 0.239578 -0.083289 -0.649323 -0.756205 -0.047912
-0.029374 0.737713 0.020011 -0.986061 -0.074593 0.146249
0.133791 -0.763487 0.024594 0.010295 0.492333 0.855793
0.372116 0.348826 -0.119833 0.648487 0.487528 -0.582994
0.025909 0.342003 -0.126395 -0.068449 -0.043638 -0.995383
0.065889 -0.62215 -0.060449 -0.70114 -0.081343 -0.707524
-0.363138 0.292508 -0.081149 -0.477253 0.409655 -0.775933
0.041195 0.65407 0.050654 0.134221 -0.871988 0.420998
0.177466 0.009507 -0.089005 0.82861 0.050889 -0.5567
0.202069 -0.000737 -0.034613 0.915935 0.118764 -0.376008
0.039405 -0.194732 0.028347 -0.660748 -0.208742 0.598734
-0.30324 0.296187 0.005969 0.03612 -0.039699 0.996081
-0.260456 0.286906 -0.059995 0.738148 -0.579775 -0.342214
0.039697 0.065346 0.134168 0.154016 0.070662 0.984894
0.094865 -0.746515 -0.081793 -0.801568 -0.069944 -0.593112
-0.125282 -0.712187 -0.032343 -0.859804 0.102785 0.483725
-0.020739 -0.135969 0.123348 0.22286 -0.060311 0.971274
0.121698 -0.013377 -0.146718 0.414071 0.009482 -0.907548
-0.094007 -0.385011 0.096067 -0.07248 -0.183869 0.979104
0.025597 -0.454265 0.0015 0.983479 0.020534 0.149224
0.187116 0.327587 -0.051056 0.856976 -0.357078 -0.371543
0.120942 0.333719 -0.134531 0.510272 -0.125163 -0.848641
-0.12908 -0.49274 -0.049953 -0.849912 0.070577 -0.521835
0.039814 0.740127 -0.113391 0.118434 -0.391908 -0.910657
0.267325 0.38458 -0.138482 -0.385024 -0.256122 -0.884509
0.331792 0.422524 -0.062364 0.770958 0.461695 0.438304
0.1177 -0.399523 -0.102358 0.017272 0.038648 -0.997525
-0.128339 -0.213854 0.07687 -0.908552 -0.040582 0.414988
-0.127169 0.071905 -0.033799 -0.962453 0.130012 -0.225291
0.019145 0.350303 -0.126668 0.003819 -0.039996 -0.99776
0.183298 0.351395 0.023577 0.915428 -0.101361 0.388151
-0.447848 0.216469 -0.027291 -0.742681 0.653167 -0.095283
-0.07868 0.045126 -0.118648 -0.667657 0.258699 -0.697989
-0.022767 -0.84324 0.062084 0.97819 0.162716 0.08991
0.012366 -0.134318 0.102709 0.72658 -0.17933 0.662133
0.086045 -0.816556 0.042996 -0.870464 -0.131919 0.420372
-0.061263 -0.440269 -0.090411 -0.092363 0.258438 -0.960835
-0.048237 0.286912 0.099234 -0.579894 0.08192 0.810097
0.240576 0.499363 0.001249 0.651174 0.280998 0.702218
0.520726 0.161102 -0.038074 0.049835 -0.455104 -0.781132
0.184428 0.170685 0.036092 0.890416 0.153448 0.425594
-0.069424 -0.832697 -0.138387 -0.579757 -0.098733 -0.799934
0.137042 0.469394 -0.144319 0.102226 0.076203 -0.991558
0.119259 -0.137448 -0.115189 0.175587 -0.303498 -0.933643
0.144166 0.184527 0.084966 0.715543 0.031403 0.697835
0.208334 -0.04011 0.036903 0.952979 0.030094 0.30139
-0.036863 -0.459732 -0.091047 0.35057 0.121993 -0.927228
-0.124737 -0.368083 0.052833 -0.976441 -0.082256 0.199173
0.0208 -0.300327 0.058314 0.908418 -0.080962 0.409922
-0.072624 0.0781 -0.113853 -0.573609 0.269501 -0.77256
0.177076 0.28327 -0.041427 0.933453 -0.140752 -0.32939
0.093634 0.708484 0.008902 0.704842 -0.698439 0.065613
0.024945 -0.196523 0.056444 0.95982 0.009093 0.279503
0.132228 -0.544027 -0.108511 0.106252 -0.035842 -0.991722
-0.039479 0.736438 -0.023183 -0.996133 -0.086006 0.004398
0.207157 0.014436 0.003306 0.999561 0.018096 -0.021799
0.146416 0.087416 -0.108492 0.68594 0.224197 -0.691966
0.099052 -0.82675 0.093788 -0.53349 0.814163 0.191901
-0.151689 0.410644 0.028318 0.101502 -0.757079 0.631618
0.401888 0.286171 -0.041421 0.13267 0.317259 0.938162
0.110025 -0.379826 0.066569 -0.418907 -0.203996 0.884315
-0.240874 0.435318 0.007248 -0.735295 0.505686 0.450927
0.009211 -0.773476 -0.026943 0.833714 -0.055193 0.546721
0.20637 -0.035365 -0.025156 0.975235 0.010219 -0.219076
0.039514 0.167328 0.130651 0.063479 0.059143 0.996205
0.200192 -0.59611 -0.012016 0.992084 -0.08126 0.092127
0.052518 -0.671211 -0.024676 -0.969184 -0.075299 -0.218904
-0.012212 0.088178 0.128479 -0.371187 -0.03958 0.925679
-0.137943 0.004953 -0.007495 -0.990299 -0.086053 -0.088596
0.199594 -0.112056 0.061415 0.894428 -0.023744 0.446523
0.203628 0.042296 0.037018 0.954503 0.188506 0.229068
-0.070748 -0.861351 -0.119945 -0.142172 -0.966367 -0.199976
-0.101406 -0.434051 -0.070494 -0.652431 0.272452 -0.706709
-0.139024 -0.174737 0.00167 -0.948124 -0.215828 -0.226629
0.024782 0.744108 -0.11494 -0.096576 -0.440606 -0.890664
-0.134589 -0.005614 0.050213 -0.941464 -0.107863 0.27609
0.088679 -0.835874 -0.040335 -0.998483 -0.045076 0.000311
-0.023353 0.740928 0.048536 -0.824803 0.031166 0.563557
0.198765 -0.129438 -0.052651 0.854372 0.00893 -0.518848
-0.109303 -0.380705 -0.057126 -0.710106 -0.026587 -0.703342
0.415543 0.220251 -0.110383 -0.046387 -0.593238 -0.777951
0.123651 -0.380432 -0.09993 0.340551 0.090121 -0.935613
0.12932 0.560798 -0.1064 0.244391 0.659806 -0.710362
-0.093244 0.008441 0.111843 -0.517835 0.240191 0.820877
0.336117 0.346977 -0.137365 0.061005 -0.061189 -0.99455
0.056345 -0.635564 -0.045916 -0.830463 -0.14478 -0.537425
0.02643 0.070934 -0.145581 -0.146345 0.223231 -0.963367
0.150498 -0.805835 -0.11057 0.578689 0.122831 -0.796159
0.131547 0.346371 0.086197 0.467994 0.026965 0.882794
0.035921 -0.045158 0.129049 -0.198928 -0.380789 0.887399
-0.009925 -0.829949 -0.008419 0.441941 -0.884368 0.139497
0.190901 -0.428492 0.043897 0.941157 -0.066045 0.328118
-0.008281 -0.738024 -0.103115 0.64154 0.238139 -0.727706
0.003201 0.660854 0.041908 -0.42187 -0.897063 0.069215
0.410645 0.264088 -0.03477 -0.084775 0.262484 0.955732
-0.045774 0.513895 0.059923 -0.168845 0.512752 0.84151
0.18272 0.113224 -0.048207 0.840229 0.300339 -0.450194
0.020991 0.476823 0.082298 0.058218 0.411982 0.909038
0.194755 0.030591 -0.054819 0.912807 0.026129 -0.407287
0.112397 0.190529 0.106416 0.492389 0.028284 0.86981
0.615818 0.065699 0.013653 -0.425629 -0.559744 -0.637057
0.350557 0.364188 -0.130888 0.547386 0.326737 -0.759688
-0.016464 -0.423379 0.070963 0.554337 -0.210474 0.803559
0.188422 0.061907 -0.0602 0.869185 0.153302 -0.468016
-0.081724 0.541852 -0.096423 -0.353713 0.555487 -0.751369
-0.130487 0.11001 0.004701 -0.993734 -0.088571 0.023414
-0.165472 0.388299 0.009646 0.411858 -0.710627 0.569855
-0.021516 0.130772 0.122562 -0.418475 0.007849 0.907297
0.339244 0.362017 -0.049289 0.583005 0.409014 0.699727
-0.09335 0.327853 0.059826 -0.871515 -0.03163 0.486582
0.511478 0.217694 -0.064646 0.452981 0.304981 -0.749528
0.04176 -0.18957 0.040098 -0.977671 -0.061328 0.200689
0.094555 0.807146 0.019617 0.889536 0.186589 0.386764
0.164567 0.434058 0.053838 0.6272 0.109669 0.769984
0.082746 0.764849 0.056356 0.664841 -0.054267 0.741421
-0.113667 -0.383723 0.085132 -0.728483 -0.089501 0.677772
-0.009836 -0.335056 -0.06577 0.712812 -0.081083 -0.696621
-0.081542 0.532005 -0.10281 -0.335062 0.403663 -0.847081
-0.130997 -0.048801 -0.046669 -0.909114 -0.048052 -0.413538
0.089978 0.69909 -0.024502 0.963586 -0.233363 -0.068627
-0.041335 -0.030408 -0.132299 -0.169743 -0.214441 -0.961055
0.053357 0.547074 -0.118682 -0.1543 0.450829 -0.876316
0.495366 0.170235 -0.039586 -0.454162 -0.853373 -0.217615
0.075061 -0.631023 0.006833 -0.526485 0.322295 0.771457
-0.106795 0.52727 0.044555 -0.016804 0.577041 0.816269
-0.126409 -0.721891 -0.034157 -0.968008 0.03685 0.236546
-0.138804 -0.01781 -0.000593 -0.992894 0.091941 -0.04693
-0.025298 -0.159115 -0.089714 0.456014 -0.14107 -0.877257
-0.218408 0.369054 -0.094659 0.205934 -0.24793 -0.943072
-0.280772 0.355724 -0.092062 -0.510336 0.247403 -0.818989
0.15284 -0.451626 0.069274 -0.08698 -0.123105 0.981656
0.37042 0.320591 -0.047455 0.296251 0.403919 0.865382
0.055264 -0.139816 -0.09159 -0.661817 -0.224713 -0.714723
-0.116692 0.233412 0.01029 -0.910965 0.386055 0.140033
-0.155165 0.473122 0.057108 -0.277177 0.025401 0.958923
-0.131243 -0.059835 -0.045197 -0.888661 -0.036974 -0.456417
-0.416015 0.24736 -0.003361 -0.614974 0.662536 0.399028
-0.292475 0.37611 -0.036595 -0.898734 0.407189 0.056084
0.008663 0.556298 0.027286 -0.073739 0.429575 0.891661
0.052765 0.819084 0.069793 0.365269 0.537187 0.758261
0.102176 0.378445 0.095826 0.264038 0.091921 0.958851
0.023834 -0.140591 0.085094 0.869784 -0.187419 0.449108
0.084504 0.682077 0.017267 0.885594 -0.420557 0.168959
0.066104 0.648149 0.026444 0.662091 -0.343497 0.665458
0.039686 0.074598 -0.146886 -0.185401 0.27312 -0.942724
-0.279553 0.404082 -0.030337 -0.66489 0.739349 0.088194
0.204768 -0.534009 -0.033087 0.983921 0.011353 -0.176348
-0.01137 0.344156 0.111296 -0.28986 0.071206 0.943326
0.056733 0.453097 0.08714 0.115145 0.326073 0.938073
0.380953 0.255085 -0.048573 -0.668163 -0.505223 0.543259
-0.083001 -0.820608 0.067298 -0.381827 0.867806 0.29706
-0.111998 0.278904 -0.056044 -0.991617 -0.07493 -0.097658
0.029761 0.803876 -0.115969 -0.046988 0.304984 -0.950245
-0.113679 0.09726 -0.05786 -0.872902 0.179154 -0.453276
0.045321 -0.032669 0.131881 0.185881 -0.161242 0.967564
-0.008921 0.701944 -0.063198 -0.704181 -0.512661 -0.489318
-0.112573 -0.764129 -0.082925 -0.866234 -0.02473 -0.498866
0.132759 0.009337 -0.138725 0.548671 0.107239 -0.828383
0.099616 -0.138325 0.10276 -0.561146 -0.053838 0.825844
0.374969 0.260275 -0.112442 -0.59157 -0.600491 -0.536223
0.029731 0.798013 0.08142 -0.051153 0.230118 0.970248
-0.078254 -0.863266 0.125542 -0.033941 -0.998643 0.036079
0.041111 0.598831 -0.086326 -0.001174 0.617316 -0.786369
0.092459 0.549912 -0.121263 0.008169 0.447059 -0.893254
0.117636 0.202535 -0.111141 0.52995 -0.30768 -0.789818
0.103772 -0.05051 0.123241 0.201197 -0.234758 0.946528
0.119673 0.120276 0.104492 0.491568 0.036458 0.869373
-0.426548 0.171791 0.031054 0.418008 0.179749 0.878226
-0.097776 0.147964 0.069897 -0.713345 0.055458 0.698342
0.082312 0.128247 0.123405 0.409234 0.050325 0.908474
0.301522 0.453875 -0.039724 0.761634 0.359476 0.537076
0.169663 -0.848718 0.029021 0.939636 0.251965 -0.171604
0.113134 -0.868336 -0.039942 -0.048494 -0.992296 0.110421
0.18058 -0.793792 -0.056648 0.899388 -0.379558 -0.049168
-0.172631 0.497249 0.044718 -0.495519 0.336446 0.799739
-0.079902 -0.55842 0.0612 0.440788 -0.175386 0.879474
0.076171 0.452221 -0.141621 -0.350849 0.038362 -0.934745
-0.352752 0.263586 0.007152 0.057178 0.182724 0.98147
0.168087 -0.861191 0.037908 0.413054 -0.887286 -0.114049
-0.190058 0.471386 0.041756 -0.503957 0.124459 0.838111
0.182156 0.050418 0.075644 0.775173 0.253534 0.578383
0.134189 -0.276395 -0.091156 0.475197 -0.06273 -0.876154
-0.067132 0.051323 0.112761 -0.292751 0.081736 0.949573
0.62539 0.04596 0.106096 -0.466371 -0.39689 0.695742
0.018994 0.637602 0.031757 -0.454038 -0.390883 0.794349
0.151618 0.377824 0.070264 0.671055 -0.041423 0.740178
0.120684 -0.770342 0.030585 -0.102685 0.754856 0.642206
-0.55805 0.060068 0.001749 0.023523 0.151302 -0.755309
0.194579 0.523828 -0.116307 0.180557 0.641141 -0.745827
-0.053391 -0.432332 -0.089123 -0.005153 0.229124 -0.972433
-0.026316 0.706289 0.019004 -0.911471 -0.388954 0.118714
0.072847 -0.775766 -0.0534 -0.866028 0.194886 -0.459933
-0.105472 0.359375 0.052645 -0.831499 -0.259845 0.490377
-0.079055 0.240577 -0.096757 -0.662095 -0.313759 -0.680304
0.428046 0.283599 -0.044806 0.280068 0.545442 0.789116
0.205636 -0.234469 0.002413 0.99862 -0.048898 0.014278
0.126554 -0.580144 0.039424 -0.217462 -0.234326 0.947118
-0.115424 -0.326481 -0.043013 -0.851341 0.0766 -0.504999
-0.11847 -0.628241 0.017195 -0.915602 0.021181 0.398199
-0.093454 0.225968 0.073341 -0.608672 0.128748 0.782802
0.335079 0.389303 -0.061569 0.892061 -0.155219 0.386432
0.618117 0.08283 0.078726 0.873816 0.469491 0.113525
0.189763 0.110203 0.04107 0.924846 0.115114 0.35278
0.097502 0.093406 -0.140007 0.361579 0.365842 -0.856085
-0.015661 -0.831958 -0.096914 0.336729 -0.938543 -0.033041
0.195856 -0.615943 0.005628 0.923646 -0.161242 0.334521
0.148251 -0.58617 0.041733 -0.004964 -0.122932 0.992005
-0.12749 -0.240025 -0.015737 -0.926973 -0.011726 -0.374577
0.017433 -0.719423 -0.071151 0.883645 0.058245 -0.457121
0.073816 0.769051 -0.10493 0.609574 -0.048297 -0.788392
0.596874 0.073466 0.064505 -0.716059 -0.623734 0.261176
-0.074599 -0.526082 -0.099397 -0.228157 0.113627 -0.966164
0.156165 -0.571434 -0.09723 0.490271 -0.072411 -0.868464
-0.035298 -0.564749 0.040754 0.416583 -0.219824 0.881968
-0.559759 0.046771 0.002936 0.964851 -0.16326 -0.178648
0.46974 0.197197 0.001998 -0.558992 0.330926 0.713639
0.200089 0.444435 0.030127 0.640462 0.049887 0.765246
-0.45356 0.167339 -0.049298 -0.426274 -0.094089 -0.804812
-0.092033 -0.839774 0.133073 -0.687214 0.681305 0.247009
-0.126469 -0.41681 0.051556 -0.924235 -0.058792 0.375468
-0.352078 0.228676 -0.070549 0.339816 -0.593724 -0.72849
0.205547 -0.404095 -0.007413 0.992277 -0.112025 -0.003015
0.08153 -0.639535 0.01523 -0.593305 0.330533 0.725285
0.139871 0.38986 0.078877 0.512287 0.041673 0.857754
-0.132342 -0.01619 0.058525 -0.898961 0.118413 0.42159
0.089321 -0.845326 0.115044 -0.874964 0.457006 0.152345
0.109708 0.081927 0.110545 0.549363 0.106279 0.823283
0.062741 -0.682404 -0.04279 -0.811605 -0.119969 -0.571527
0.040219 0.145665 -0.120349 -0.149071 0.308584 -0.933403
-0.044118 0.139997 0.112156 -0.484085 0.014402 0.873757
0.032898 0.052659 -0.151677 -0.15235 0.234287 -0.960045
0.117201 -0.333361 -0.099069 0.274997 0.039462 -0.960629
0.034689 -0.026409 0.133605 -0.186702 -0.220563 0.939909
-0.125866 -0.3169 0.046277 -0.988734 -0.065644 0.133092
0.095084 0.589002 -0.087509 0.169971 0.771837 -0.612453
-0.0204 -0.547663 -0.089577 0.578207 -0.006643 -0.814597
0.521165 0.148922 -0.022663 -0.709848 -0.699269 -0.076934
0.063707 -0.739497 -0.022761 -0.860483 0.011105 -0.505434
0.143846 0.235328 -0.096668 0.808968 -0.17771 -0.559646
0.109536 -0.104652 -0.123652 0.024966 -0.312455 -0.948183
0.117577 0.147599 0.105024 0.519202 0.0308 0.854082
-0.137154 -0.142111 0.054586 -0.971483 0.002346 0.236855
0.254664 0.522569 -0.048171 0.706584 0.707123 0.02483
0.064413 0.049622 -0.156934 -0.065787 0.309374 -0.947099
-0.080821 -0.050756 -0.111325 -0.559532 -0.262436 -0.785366
0.088443 -0.030744 0.129349 0.113133 -0.063363 0.991328
0.194137 0.411194 0.017782 0.891875 -0.293592 0.305451
-0.123805 0.074712 -0.043935 -0.927999 0.119241 -0.351303
0.071065 0.021216 0.137163 0.219206 0.145584 0.962846
-0.080413 0.056294 -0.112757 -0.690036 0.207032 -0.692908
-0.018918 0.234655 -0.12831 -0.081768 -0.108866 -0.990263
0.187534 -0.426724 -0.060617 0.788299 0.119872 -0.602916
0.097504 -0.721439 -0.087502 -0.697357 0.017043 -0.707874
-0.411777 0.172681 -0.014827 0.611915 -0.788194 -0.034506
-0.037552 0.821386 -0.002617 -0.913638 -0.140957 0.353752
-0.193117 0.354647 -0.065162 0.602475 -0.689391 -0.397533
-0.278225 0.299512 -0.091304 0.400242 -0.384568 -0.827977
-0.006748 0.018968 0.139387 -0.175597 0.164553 0.970437
0.080382 0.446115 0.086224 0.124275 0.299574 0.945646
0.153895 0.249069 -0.084074 0.861855 -0.074752 -0.499848
0.119056 -0.824524 0.124983 -0.078563 0.994119 0.028226
-0.027102 -0.841616 0.088997 0.964325 0.163006 0.174552
0.079719 0.787796 -0.099184 0.687536 0.079661 -0.721334
0.410466 0.301191 -0.119959 0.482697 0.462662 -0.742451
-0.013477 0.010702 0.139029 -0.206118 0.194023 0.958295
-0.115243 -0.208261 0.09756 -0.706174 -0.018346 0.707554
-0.155775 0.383648 -0.047936 0.558654 -0.808624 -0.161764
-0.128373 0.171263 -0.001979 -0.996783 -0.002173 -0.061017
0.0477 -0.491493 -0.014165 -0.948792 0.000772 0.302022
0.545857 0.122221 0.025337 -0.819095 -0.546739 0.168209
0.06244 -0.620513 -0.002019 -0.391785 0.164028 0.881759
0.080862 -0.373253 -0.086686 -0.665457 -0.075012 -0.742333
-0.025798 -0.313681 -0.082685 0.543943 -0.108242 -0.829903
-0.016297 -0.054832 -0.123542 0.0151 -0.452758 -0.891345
0.113225 0.532674 -0.128005 0.068971 0.328365 -0.938725
-0.130173 -0.229728 -0.008821 -0.92821 -0.048139 -0.368594
-0.325949 0.271146 -0.089216 -0.01909 -0.372554 -0.926193
0.164028 0.551726 -0.100462 0.31106 0.718079 -0.621861
-0.120291 -0.384067 -0.0433 -0.841506 -0.040318 -0.537374
0.085559 -0.750127 -0.066704 -0.864723 0.035426 -0.500165
0.386111 0.255688 -0.118468 -0.517158 -0.520907 -0.672584
0.198712 -0.405354 0.022482 0.955745 -0.06552 0.286286
-0.243334 0.30949 -0.017269 0.714836 -0.641908 0.273124
-0.159763 0.383051 -0.058266 0.709609 -0.655371 -0.257743
-0.062718 0.212104 0.096511 -0.468047 0.093793 0.878313
-0.022163 -0.329666 0.09126 0.392322 -0.113257 0.911933
0.015984 0.494885 -0.123121 0.032452 0.051755 -0.997208
-0.039186 0.122556 0.114116 -0.466235 0.025965 0.882916
0.189948 0.560586 -0.069465 0.395789 0.845547 -0.32667
-0.229554 0.433599 0.022514 -0.716683 0.294277 0.629835
-0.419001 0.166488 -0.012355 0.596266 -0.799438 -0.031389
0.201116 -0.569629 -0.006948 0.963532 -0.081501 0.252846
0.145042 0.507987 -0.134079 0.210585 0.368546 -0.903083
0.178584 0.157514 0.049245 0.776277 0.133695 0.615231
0.096622 0.501329 0.059793 0.227681 0.478568 0.847294
-0.172639 0.363714 -0.033828 0.672815 -0.737078 -0.029601
0.088351 0.745956 -0.084682 0.784096 -0.262383 -0.556819
0.057232 -0.027636 0.131523 0.053844 -0.167295 0.982927
0.026079 -0.497646 -0.000613 0.952343 -0.009799 0.294562
-0.126765 0.175664 0.02328 -0.952607 -0.015992 0.300152
0.586083 0.086839 0.058209 -0.277549 -0.50875 0.775068
0.099602 -0.061181 -0.138858 0.034881 -0.33345 -0.940923
-0.058744 0.003458 -0.131744 -0.271297 -0.08574 -0.958491
-0.012928 -0.030476 0.133426 -0.053797 0.112403 0.992068
0.087911 -0.497563 -0.093169 -0.593661 -0.022831 -0.803209
0.314339 0.307735 -0.076782 -0.675413 -0.71849 0.14529
0.119006 0.216999 -0.115936 0.583771 -0.335971 -0.738381
0.027839 -0.322548 -0.009074 0.9823 -0.006604 -0.164636
-0.042068 -0.599684 0.033326 0.432049 -0.21015 0.876752
0.127748 -0.600943 -0.100799 -0.051465 -0.163094 -0.978131
-0.07759 0.2163 0.086468 -0.572822 0.138552 0.807765
-0.145699 0.393302 -0.01537 0.750259 -0.651602 0.109254
-0.137628 -0.185142 0.037613 -0.99189 -0.064838 0.092454
0.177728 0.29694 0.02984 0.945135 0.029966 0.324886
-0.114435 -0.560289 -0.081629 -0.674866 0.09046 -0.730337
-0.10846 -0.391657 0.08855 -0.62017 -0.167383 0.758887
0.16961 -0.025797 -0.105759 0.826221 -0.02861 -0.560426
0.215317 0.435538 -0.130116 -0.149219 -0.292762 -0.93664
-0.305734 0.354784 -0.06465 -0.630228 0.712037 -0.308214
0.150401 0.1568 0.079774 0.706535 0.040966 0.706444
0.182697 -0.473409 0.053117 0.875865 -0.107694 0.468195
0.097343 -0.042414 -0.145714 0.051177 -0.319764 -0.945229
-0.121729 -0.649486 -0.080288 -0.808751 0.006882 -0.587541
-0.126713 -0.667837 -0.036114 -0.985538 -0.047788 0.15373
0.10273 -0.091129 0.109446 -0.498674 -0.194692 0.842698
0.165461 -0.025991 0.097244 0.638342 0.023467 0.768973
0.062311 0.474689 0.078844 0.099932 0.392213 0.913088
0.214081 -0.1048 -0.00813 0.995052 0.03117 -0.090082
0.319249 0.41302 -0.13552 0.330826 0.513845 -0.789519
-0.073643 -0.517924 0.06783 0.4007 -0.258378 0.877724
0.11408 0.488788 -0.142699 -0.015286 0.289672 -0.954317
-0.352481 0.222283 0.005281 0.364819 -0.460401 0.792665
0.30297 0.467608 -0.069241 0.80202 0.592216 0.023865
-0.021699 -0.145709 -0.090498 0.528092 -0.224359 -0.817381
0.425406 0.264288 -0.123855 0.400572 -0.046314 -0.910618
-0.225166 0.461513 0.010287 -0.811654 0.408514 0.416154
-0.023243 0.834799 -0.062667 -0.526624 0.743243 -0.41248
0.06001 -0.447391 0.002696 -0.529073 -0.060361 0.843576
0.177 0.542068 0.002875 0.248899 0.653512 0.714395
-0.150673 0.49749 0.05383 -0.249144 0.315936 0.914747
-0.040763 0.068999 -0.134199 -0.369413 0.252601 -0.891631
-0.554246 0.060339 0.085981 0.191314 -0.489365 0.762522
-0.072512 -0.136668 0.119796 -0.299255 0.043353 0.952632
-0.118848 -0.262658 -0.032444 -0.827851 0.003763 -0.560436
0.225187 0.395285 -0.110376 -0.744371 -0.542393 -0.386266
0.203336 -0.251756 0.034693 0.976016 0.042939 0.210479
0.213692 -0.126048 -0.010335 0.992323 -0.067721 -0.093905
0.171477 0.467478 -0.138059 0.162674 0.064952 -0.984186
0.005314 -0.691627 0.002428 0.827142 -0.233186 0.508563
0.051092 0.50473 0.064359 0.062061 0.478784 0.875322
0.159809 -0.22619 0.086699 0.182988 -0.251193 0.950105
0.059417 0.861839 0.024649 0.335867 0.900256 0.240314
-0.100683 -0.529822 0.053226 -0.85004 -0.024612 0.525362
0.01594 0.074342 0.136362 0.202724 0.058439 0.977369
-0.137139 -0.021619 -0.022712 -0.993148 0.052124 -0.102191
0.368877 0.339224 -0.056684 0.515357 0.548866 0.655245
-0.129273 0.012411 -0.048286 -0.937241 0.04456 -0.344884
0.042023 -0.311991 0.014755 -0.971093 -0.023565 0.237122
0.178174 0.489199 0.031408 0.537204 0.350043 0.763944
0.159715 -0.188022 0.093565 0.260008 -0.102731 0.95982
0.074704 0.260865 0.118527 0.377189 0.057824 0.922099
0.212776 -0.13716 -0.008434 0.975222 -0.193726 -0.064851
0.076434 -0.536771 -0.079758 -0.712629 -0.07129 -0.697882
-0.034413 -0.087725 -0.111233 0.098819 -0.28233 -0.95314
0.189985 -0.242859 0.065467 0.788171 -0.045336 0.60705
-0.108218 0.063161 -0.077701 -0.826217 0.123671 -0.54933
0.047136 0.6492 0.042262 0.305399 -0.622326 0.715085
0.113539 -0.319153 0.079878 -0.14129 -0.088509 0.985095
-0.126809 -0.747776 -0.051257 -0.982054 -0.144176 -0.093997
0.506792 0.206171 -0.061884 0.163263 -0.411588 -0.896333
0.087913 0.62728 -0.025569 0.962681 0.20773 0.103434
-0.114159 -0.412843 -0.047765 -0.784789 0.070356 -0.613922
0.114975 -0.173334 0.101454 -0.135782 -0.329499 0.931383
