0.384277 0.342666 -0.079271 0.706197 0.593483 0.363778
0.140057 0.308839 0.079166 0.732184 0.051739 0.679116
-0.072767 0.566912 0.003374 -0.119898 0.827052 0.547535
0.099085 0.71296 0.000216 0.831888 -0.504596 0.002384
0.032002 0.658853 0.077038 -0.008532 -0.981867 0.186135
-0.125731 -0.231535 -0.019904 -0.899133 -0.036539 -0.434123
0.026717 0.859559 -0.060307 -0.091852 0.875127 -0.470163
-0.094702 -0.554563 0.059473 -0.717303 -0.108604 0.680979
0.149313 -0.866783 -0.044287 0.46763 -0.875647 0.087363
0.052083 -0.537677 -0.007052 -0.82368 -0.00491 0.566301
0.135812 0.305419 -0.119958 0.715371 -0.067254 -0.693844
0.173435 0.464474 0.043186 0.576308 0.190771 0.793533
-0.096074 -0.407459 0.090764 -0.179823 -0.240557 0.942593
-0.135905 -0.193249 0.05631 -0.987601 -0.044245 0.140451
-0.130106 -0.589841 -0.029676 -0.985969 -0.097114 0.129951
0.174168 0.191563 -0.047414 0.911174 0.043115 -0.408521
0.008456 -0.14306 0.105034 0.691338 -0.147366 0.704178
0.018682 0.375566 0.107915 0.077389 0.235247 0.968655
0.3683 0.257683 -0.071836 -0.729487 -0.645921 0.222735
-0.046998 0.197528 -0.106501 -0.51555 -0.303356 -0.800404
0.014147 0.262693 0.12623 -0.140387 0.099684 0.981659
0.17321 -0.698874 -0.059111 0.814929 -0.071662 -0.574758
0.19036 0.086004 -0.049599 0.87749 0.169726 -0.442029
0.086323 0.682122 -0.021466 0.842556 -0.419735 -0.327311
0.177738 -0.204949 -0.0713 0.592493 -0.10484 -0.798377
0.054472 -0.236644 0.061877 -0.7642 -0.164167 0.62366
0.425313 0.210931 -0.061356 -0.493575 -0.836467 0.237073
0.26519 0.367994 -0.032878 -0.551106 -0.490982 0.673033
-0.011242 0.122005 0.127171 -0.343827 0.043905 0.931015
0.172029 -0.198015 0.088915 0.381977 -0.11627 0.916143
-0.518337 0.082631 0.034565 0.511523 -0.709861 -0.452759
0.198913 0.40509 -0.003333 0.958356 -0.205548 0.195025
0.180726 0.285719 0.020917 0.962122 -0.021484 0.267897
0.182432 0.227216 0.01123 0.998733 0.013592 0.045834
-0.010837 0.374827 -0.129135 0.026144 -0.017464 -0.999409
-0.069249 0.31251 -0.115069 -0.53336 -0.010261 -0.845588
0.399756 0.330111 -0.096803 0.700664 0.706172 -0.075722
0.275958 0.454993 -0.12677 0.316648 0.560074 -0.764029
0.205804 -0.028964 0.044751 0.930427 0.019945 0.36223
0.168734 -0.064643 -0.100046 0.780216 -0.08055 -0.62028
0.114279 0.497823 -0.139188 -0.030886 0.325499 -0.942994
-0.094899 -0.116153 0.112046 -0.363387 0.058836 0.928643
-0.096914 0.477361 0.064016 -0.213253 0.169668 0.959733
0.080883 -0.261016 0.080001 -0.399901 -0.133568 0.90333
-0.038756 0.816598 -0.011558 -0.920328 -0.333669 0.183774
0.16428 -0.81878 0.014624 0.867789 -0.453647 0.194664
0.46356 0.226731 -0.012685 -0.260746 0.28314 0.916599
-0.044802 -0.4905 0.063595 0.331366 -0.286772 0.898404
-0.125731 0.403776 0.040063 -0.811618 -0.49575 0.297298
0.103181 0.791101 -0.054439 0.947179 0.153802 -0.266405
0.027107 -0.13343 -0.051998 -0.938326 -0.25484 -0.232969
0.062173 0.693027 -0.07104 0.524037 -0.530111 -0.664741
0.137005 -0.742641 0.025542 0.247847 0.692716 0.666396
0.183646 -0.739783 -0.037938 0.607384 -0.196158 -0.76803
0.109437 -0.229247 -0.09997 -0.184717 -0.064355 -0.980533
0.087688 0.200908 0.117939 0.443115 0.058446 0.893207
0.093299 -0.419815 0.045093 -0.628483 -0.361557 0.688538
-0.036552 0.786894 -0.010475 -0.993343 0.063005 0.094929
-0.19197 0.480807 -0.071518 -0.549508 0.454428 -0.700183
0.137177 -0.156917 -0.104868 0.418118 -0.136121 -0.894354
-0.132313 -0.403666 0.028714 -0.962525 0.138218 0.229997
-0.125562 -0.386882 0.047124 -0.967896 0.102183 0.221908
-0.107434 0.278478 0.032722 -0.985977 -0.007947 0.16435
0.611343 0.094198 0.044654 0.773815 0.633345 0.00637
-0.00484 0.801597 -0.107862 -0.470822 0.291062 -0.830198
-0.277353 0.345596 0.008911 -0.312627 -0.044153 0.941634
-0.206946 0.451561 0.036085 -0.554694 0.270568 0.786184
-0.28546 0.401408 -0.047218 -0.553206 0.832348 -0.008509
0.139836 -0.860353 -0.108832 0.615011 -0.461828 -0.626672
0.111465 -0.28969 0.082426 -0.054626 -0.074345 0.995533
-0.012072 0.665444 -0.007248 -0.985952 -0.107132 0.003977
-0.137164 0.0382 0.010001 -0.967866 0.24762 0.003352
0.185827 -0.110756 0.081934 0.727381 0.022698 0.685851
0.301224 0.320416 -0.099513 -0.695203 -0.709929 -0.104082
-0.187012 0.357035 -0.013634 0.523351 -0.778975 0.338778
-0.019777 0.044739 0.131569 -0.330846 0.137388 0.930623
0.200132 -0.411034 0.014851 0.961743 -0.106916 0.250178
0.211535 0.412928 -0.051608 -0.458375 -0.797533 0.107016
0.134973 0.202146 -0.097835 0.672668 -0.134597 -0.725433
-0.132467 -0.151375 0.069887 -0.87221 0.039702 0.486772
-0.205953 0.426193 -0.091447 -0.234923 0.29069 -0.927446
0.07481 0.104367 0.128384 0.330515 0.05576 0.939415
0.637609 0.050428 0.05483 0.867149 0.494064 0.028704
0.195742 -0.477583 -0.057385 0.876685 0.032407 -0.473514
0.055264 -0.139816 -0.09159 -0.661817 -0.224713 -0.714723
-0.249681 0.324835 -0.083664 0.59125 -0.49427 -0.636635
0.19312 -0.44697 0.02867 0.96175 -0.099126 0.253962
0.131575 -0.866138 -0.00849 0.065052 -0.996899 -0.022855
0.051879 0.802176 -0.114311 0.276503 0.285333 -0.915255
-0.052159 0.231392 -0.115721 -0.581184 -0.23321 -0.779604
0.028756 -0.251055 0.034344 0.98139 -0.031635 0.188206
0.099878 -0.345105 0.072689 -0.350731 -0.225011 0.907052
0.478614 0.21995 -0.073539 0.264479 -0.295877 -0.916122
-0.378818 0.193048 -0.021166 0.478495 -0.877262 -0.003186
0.163662 -0.599007 0.033985 0.416832 -0.401699 0.81414
0.169945 -0.854025 0.127715 0.895115 0.176381 0.185734
0.148592 -0.364879 -0.082418 0.590159 0.12203 -0.797683
0.522263 0.147529 0.001646 -0.727121 -0.684897 0.043467
-0.087874 -0.015895 0.112305 -0.555989 -0.244063 0.792047
0.205068 -0.356551 0.0056 0.987458 -0.050171 0.134833
-0.515116 0.123292 0.083722 -0.380425 0.64089 0.534228
0.169586 -0.81851 -0.030035 0.785233 -0.617429 0.039205
-0.082358 -0.863482 0.05518 -0.036709 -0.999247 -0.001984
0.187329 0.388738 -0.108595 0.471946 -0.561713 -0.67845
0.179214 -0.593691 0.026114 0.555434 -0.330273 0.762931
-0.125594 -0.35576 -0.030679 -0.963644 0.079637 -0.25332
-0.00225 -0.409039 -0.058211 0.640156 0.093827 -0.758404
0.628745 0.064638 0.070803 0.851477 0.513729 0.077838
-0.491165 0.160616 -0.008794 -0.789094 0.610451 -0.062566
0.064783 -0.449723 -0.068963 -0.741717 0.024802 -0.670249
-0.010629 -0.831767 -0.083977 0.160615 -0.978628 -0.021352
0.483978 0.179624 0.005501 -0.689339 -0.666678 0.260032
0.436316 0.221873 -0.035808 -0.657044 -0.372672 0.639169
0.067915 -0.772318 -0.042391 -0.894017 0.164011 -0.414789
0.145146 -0.851012 -0.106199 0.714917 -0.025195 -0.696436
0.027312 0.22472 -0.125557 0.043509 -0.067265 -0.996352
-0.002333 -0.056645 0.1287 0.132212 -0.158414 0.978019
0.000288 -0.74194 -0.005278 0.546352 -0.490832 0.676771
0.357526 0.272519 -0.064975 -0.693315 -0.67928 0.234534
-0.088934 0.435675 0.074492 -0.621665 0.11372 0.774831
0.166318 -0.524395 -0.093133 0.655581 -0.036781 -0.754148
0.197524 0.137057 -0.012314 0.825206 0.098903 -0.543099
0.108202 0.561338 -0.11263 0.188513 0.588276 -0.785399
-0.12146 -0.395491 0.066925 -0.957306 -0.030051 0.275227
-0.123451 0.377696 -0.076129 -0.906571 -0.27508 -0.313957
-0.070516 0.420013 0.090249 -0.367801 0.145212 0.916854
-0.294285 0.34977 -0.085664 -0.534073 0.491007 -0.687189
-0.035272 -0.817861 -0.147416 0.163843 -0.241645 -0.950221
-0.068437 -0.826999 0.121345 -0.144544 0.980681 0.126113
0.500572 0.179425 -0.051033 0.032065 -0.459641 -0.886777
0.198179 0.07008 0.03493 0.952187 0.232672 0.187377
0.165297 -0.501067 -0.094867 0.605283 -0.010402 -0.793785
0.187434 0.390007 0.029843 0.88442 -0.22468 0.408772
0.052688 -0.700655 0.006622 -0.99301 0.01986 0.11055
-0.238561 0.391412 0.023096 -0.330543 -0.163054 0.927201
-0.194825 0.347694 -0.031607 0.593841 -0.803581 0.031954
0.055116 0.177452 0.128744 0.091402 0.031624 0.995243
-0.147139 0.508198 0.050712 -0.20928 0.37747 0.901863
0.168371 0.279436 -0.061192 0.905736 -0.14859 -0.396334
-0.010189 -0.487684 0.047618 0.600301 -0.248558 0.759018
0.187065 -0.448173 0.048947 0.886768 -0.083318 0.454222
-0.128373 0.171263 -0.001979 -0.996783 -0.002173 -0.061017
-0.009384 -0.458235 -0.070057 0.73056 0.115423 -0.672826
-0.129294 -0.605741 -0.029289 -0.996723 -0.026564 0.074554
0.003315 0.632364 0.016478 -0.725485 -0.188583 0.660641
-0.036844 0.789984 -0.046157 -0.995444 0.026986 -0.089616
0.145294 0.013109 0.113114 0.437362 0.141884 0.886262
0.096777 -0.857955 0.013158 -0.759663 -0.634511 -0.136704
0.058117 -0.691358 -0.032058 -0.868628 -0.148843 -0.472353
-0.128669 -0.458073 0.032737 -0.89509 -0.177924 0.407172
0.001847 -0.438475 -0.055397 0.758098 0.040383 -0.650757
0.005975 0.72689 0.073103 -0.504873 0.148891 0.846187
0.116804 -0.141386 0.112211 -0.112532 -0.155626 0.976801
-0.042316 -0.641358 -0.100792 0.436457 0.054065 -0.897371
0.020611 0.01641 0.142142 0.009961 0.120467 0.992327
-0.122482 -0.614865 -0.07757 -0.762473 0.063375 -0.64256
0.165138 0.087144 -0.088189 0.765264 0.206791 -0.608639
0.17725 -0.094218 0.090061 0.682703 0.030161 0.729935
0.14106 -0.325099 0.080039 0.10015 -0.062952 0.992799
0.12245 -0.07057 0.117013 0.295449 -0.125443 0.945559
0.189861 -0.546987 0.02589 0.883259 -0.060693 0.458368
-0.159534 0.448132 0.050611 -0.429117 -0.402372 0.80586
0.18807 -0.168761 0.080367 0.759925 -0.045102 0.641614
0.045243 -0.344625 -0.045386 -0.871732 -0.079583 -0.483238
0.109877 0.169844 0.108769 0.543182 0.058469 0.836379
-0.129933 -0.266309 -0.004166 -0.979901 -0.090178 -0.174282
0.027765 0.676546 -0.069981 -0.132355 -0.458286 -0.870514
-0.004834 -0.336845 0.080145 0.632676 -0.070632 0.769092
0.125232 0.238105 0.096906 0.54539 0.042072 0.837007
0.4976 0.167444 -0.005264 -0.645253 -0.760473 0.061052
-0.196742 0.489143 0.030745 -0.691753 0.295254 0.658068
0.175951 -0.745509 -0.04566 0.848819 -0.052627 -0.519712
0.197529 -0.018432 0.060567 0.863048 0.093484 0.493864
0.059371 -0.706732 -0.02836 -0.869897 -0.234353 -0.431505
-0.04001 0.550775 0.033332 -0.201067 0.7017 0.683244
0.012325 -0.425698 0.035042 0.851148 -0.147254 0.503483
-0.024739 -0.407848 0.078556 0.439541 -0.198989 0.873746
-0.205705 0.374557 0.016932 0.116493 -0.531839 0.838687
-0.426282 0.240459 -0.03755 -0.742598 0.662359 -0.092932
-0.009794 -0.181939 -0.077634 0.617371 -0.013003 -0.786482
0.037305 -0.358523 -0.017533 -0.992873 -0.089098 0.016635
0.187064 0.421969 0.039574 0.678428 -0.051705 0.732336
0.175011 -0.011937 -0.096175 0.829675 0.05559 -0.553809
-0.125282 -0.712187 -0.032343 -0.859804 0.102785 0.483725
0.241534 0.49678 -0.115796 0.469243 0.533194 -0.703433
0.171751 -0.599757 0.028582 0.515148 -0.40336 0.755092
-0.29338 0.32724 -0.095499 -0.162585 0.221578 -0.958706
-0.169642 0.530458 0.017634 -0.610319 0.681755 0.402393
-0.109347 -0.717108 -0.00789 -0.839582 -0.352947 0.410351
0.620649 0.050275 0.037397 -0.835001 -0.543941 -0.05787
-0.497096 0.106859 0.074212 0.636585 -0.179674 0.729083
0.01233 -0.611785 0.009948 0.636222 0.088396 0.764544
0.288121 0.475551 -0.034051 0.759683 0.445881 0.468314
0.066277 0.303911 -0.138177 -0.297875 -0.06834 -0.95118
0.001831 -0.195469 0.102776 0.615997 -0.10081 0.781229
0.157344 -0.295331 0.07896 0.241427 -0.09539 0.965649
-0.395181 0.237927 -0.073196 -0.385313 -0.206219 -0.898733
0.118779 -0.70529 0.026252 0.366685 -0.292636 0.881545
0.08221 -0.825946 -0.038542 -0.442346 -0.890456 -0.022225
0.004848 -0.593423 0.01325 0.636393 0.065196 0.767308
0.122576 0.158062 -0.106404 0.446716 0.150384 -0.881886
-0.049273 0.361727 0.10302 -0.369397 -0.037154 0.925747
0.201674 -0.587399 -0.021578 0.995869 -0.077451 0.002958
0.086672 0.687756 0.025825 0.877463 -0.476073 0.033148
0.15988 0.369558 0.06199 0.69064 -0.062982 0.719955
0.029668 -0.229539 0.032897 0.97611 -0.045992 0.211405
-0.297475 0.317573 -0.096828 -0.104429 0.131167 -0.983781
0.071034 -0.107438 0.082872 -0.663206 -0.090701 0.732783
-0.044743 -0.864123 0.077669 0.037941 -0.998966 0.01084
0.161137 -0.833765 -0.073441 0.97432 -0.104279 -0.084735
-0.097813 -0.849888 -0.056756 -0.920705 -0.38045 0.035026
0.102643 0.527304 -0.129772 0.007374 0.302641 -0.950747
-0.00196 -0.607409 -0.069401 0.696218 0.023893 -0.717303
0.060996 -0.290557 0.058807 -0.737112 -0.125636 0.663922
-0.033454 0.829427 0.004926 -0.857221 0.146706 0.460714
-0.143437 -0.048333 0.006702 -0.999499 0.024978 -0.002214
-0.376671 0.297539 -0.055571 -0.702364 0.70059 -0.118213
-0.023368 0.196537 0.119808 -0.486962 0.119748 0.864936
0.090376 -0.635014 0.020448 -0.674092 0.133468 0.705338
0.051368 -0.501207 -0.007676 -0.87636 -0.007482 0.481167
-0.201399 0.392861 -0.096903 0.000813 -0.082321 -0.995409
0.164751 -0.775205 0.027086 0.446219 -0.023672 0.86896
-0.076882 -0.142581 -0.094549 -0.463854 -0.127165 -0.875078
0.141056 0.561142 -0.101262 0.297929 0.679368 -0.670346
-0.083301 -0.792366 0.028483 -0.683947 0.464377 0.561983
-0.028271 0.600692 -0.048659 -0.692152 0.714914 -0.054774
0.087936 -0.856777 0.053996 -0.816391 -0.565516 -0.115528
-0.00906 0.269849 -0.130956 0.055031 -0.05005 -0.996765
-0.138675 -0.083531 -0.023888 -0.952526 -0.010231 -0.304114
0.045191 -0.196715 -0.05851 -0.869185 -0.154231 -0.454678
0.080904 0.471609 -0.141115 -0.358265 0.200358 -0.910418
-0.387712 0.248262 0.009446 -0.092252 0.240714 0.963658
0.42433 0.245485 -0.11924 0.299516 -0.372091 -0.874353
-0.09528 0.507367 0.055358 -0.009471 0.381502 0.923697
-0.487866 0.132463 -0.015023 0.259961 -0.845954 -0.463634
0.041111 0.598831 -0.086326 -0.001174 0.617316 -0.786369
0.40422 0.316937 -0.062646 0.526624 0.675289 0.51607
0.165046 -0.852092 0.005603 0.9681 -0.162363 -0.165212
-0.029619 -0.339758 0.092603 0.297203 -0.09662 0.946517
-0.014802 0.699553 0.055224 -0.746382 -0.334232 0.572975
0.022662 -0.172986 0.068494 0.931924 -0.154456 0.32597
0.490609 0.172382 -0.019237 -0.650948 -0.757731 0.007871
0.027822 0.756666 -0.119866 -0.045186 -0.201208 -0.974792
0.095324 -0.684794 -0.083257 -0.644279 0.027692 -0.76394
0.05581 0.157194 -0.12068 -0.073717 0.067651 -0.994675
-0.136428 -0.521528 -0.032018 -0.996077 -0.003946 -0.068175
-0.189922 0.450922 -0.087072 -0.277771 0.351934 -0.893765
0.104156 -0.597945 0.030245 -0.197951 -0.040949 0.974891
-0.035651 -0.863616 0.071175 0.186808 -0.972333 0.010379
0.104403 -0.837181 0.157235 -0.765302 0.452512 0.44757
-0.113656 0.371233 -0.091067 -0.683704 -0.232855 -0.691056
-0.399563 0.180414 -0.022259 0.487029 -0.867398 -0.089083
0.097338 -0.816077 -0.107921 -0.732015 0.002199 -0.676251
-0.048545 -0.591744 0.039061 0.481402 -0.291019 0.826746
-0.300071 0.364074 -0.05595 -0.691143 0.675351 -0.251991
0.040219 0.145665 -0.120349 -0.149071 0.308584 -0.933403
-0.047226 -0.741083 0.022218 0.45072 -0.593665 0.662386
0.060723 -0.668588 -0.042804 -0.824521 -0.188329 -0.527179
-0.089507 -0.828816 0.091637 -0.553859 0.823882 0.114079
0.01475 0.654679 0.038984 -0.586057 -0.673136 0.446697
0.070226 -0.647854 -0.059821 -0.716966 -0.134636 -0.683961
0.040542 -0.380582 -0.030736 -0.963498 -0.104785 -0.236835
0.444364 0.243784 -0.106179 0.61956 -0.308575 -0.721166
-0.136175 -0.429834 0.016928 -0.986504 -0.012746 0.161321
0.016289 -0.788357 -0.058182 0.896094 -0.418252 0.080111
0.157227 0.075062 0.08807 0.225264 0.296358 0.925288
0.183239 0.115766 0.050927 0.851017 0.192334 0.486897
-0.027359 0.733604 0.03208 -0.987961 -0.051665 0.143331
0.07709 0.051354 0.129904 0.37553 0.12464 0.914182
-0.558471 0.066782 0.064469 -0.905694 0.400898 0.107587
0.22449 0.475745 -0.131117 0.191854 0.241976 -0.950222
0.190215 0.1757 0.004032 0.980578 0.189835 -0.002858
0.000196 -0.101197 0.121289 0.363608 -0.165344 0.916658
0.165215 0.122142 -0.073506 0.805248 0.201251 -0.554417
-0.388261 0.280162 -0.069907 -0.652313 0.608585 -0.450396
-0.063895 -0.654239 0.03118 0.363374 -0.272989 0.890716
0.018514 -0.439599 -0.030185 0.930318 0.029552 -0.36411
0.189983 0.150161 0.033537 0.871335 0.157256 0.463732
-0.011715 -0.601574 0.024452 0.280521 -0.128029 0.949929
0.181921 0.288895 -0.029423 0.963977 -0.155649 -0.211397
-0.112416 -0.126493 0.099486 -0.692277 0.041219 0.719895
-0.068965 0.436106 -0.127491 -0.207331 -0.135527 -0.968353
0.161491 -0.287815 -0.070575 0.580381 -0.096443 -0.808253
0.153521 0.555425 -0.102056 0.247146 0.654843 -0.712483
-0.101445 0.141551 -0.068713 -0.756464 0.199345 -0.622174
0.170991 0.221169 -0.052762 0.880369 -0.019651 -0.473812
0.16114 -0.536257 0.051999 0.192484 -0.283372 0.934493
0.059257 0.224749 0.126332 0.259128 0.108117 0.953685
-0.077552 0.008544 -0.123847 -0.573574 -0.040004 -0.817585
0.063141 0.250253 0.122464 0.251008 0.060843 0.966014
0.051204 0.603907 -0.081868 0.100009 0.690904 -0.692399
-0.287015 0.399963 -0.037533 -0.626246 0.770132 0.117701
0.104083 -0.703296 0.034094 0.351157 -0.120587 0.918895
0.277138 0.455977 -0.014377 0.57964 0.147663 0.798706
-0.080787 0.466552 0.072932 -0.407125 0.277249 0.868547
0.145717 -0.193873 -0.096801 0.479073 -0.109885 -0.870047
-0.003577 0.554769 -0.110179 0.021291 0.495508 -0.867627
-0.096036 -0.039435 -0.102563 -0.668438 -0.166729 -0.724544
-0.378493 0.210973 -0.066927 0.198809 -0.533207 -0.807128
-0.298803 0.316067 0.006377 -0.150021 0.038224 0.986643
0.590628 0.10478 0.002582 0.544434 0.195539 -0.814417
-0.039585 0.040455 0.127583 -0.338944 0.163776 0.923265
0.190135 -0.47625 -0.066741 0.842351 0.048048 -0.535827
-0.005724 -0.797396 -0.009104 0.867851 0.011109 0.492957
0.28793 0.482726 -0.044435 0.760623 0.564434 0.320258
0.158188 -0.719076 -0.077248 0.711272 -0.019394 -0.701778
0.028642 0.528045 0.053141 0.083438 0.58354 0.803654
0.140494 -0.135152 0.108874 0.29463 -0.202373 0.932308
-0.229554 0.433599 0.022514 -0.716683 0.294277 0.629835
0.052219 -0.596298 -0.046411 -0.826075 -0.022243 -0.561102
-0.487871 0.105388 0.023909 0.773202 -0.609939 -0.159881
0.069063 0.627295 0.015668 0.659853 -0.246957 0.705892
-0.060056 0.358403 -0.121233 -0.365642 -0.044186 -0.929656
-0.021204 0.694486 0.004417 -0.945309 -0.319656 -0.027407
-0.088975 0.264041 0.072415 -0.687006 0.030113 0.725133
0.101906 0.800527 -0.048641 0.877043 0.430638 -0.192591
0.038657 -0.318923 0.00579 -0.89331 -0.074696 0.434975
0.197544 -0.672163 -0.014224 0.976858 0.041666 0.20789
0.271321 0.398243 -0.016027 -0.163994 -0.426253 0.889475
-0.560689 0.064863 0.055287 -0.813184 0.551101 0.119828
-0.071191 0.563361 -0.084089 -0.405409 0.628669 -0.660495
-0.380476 0.235811 -0.077109 -0.154154 -0.304069 -0.938354
-0.112509 0.275123 -0.031327 -0.997904 -0.060979 -0.010099
0.199101 0.393003 -0.028231 0.985849 -0.150742 0.022502
0.075068 0.057622 -0.154552 0.057332 0.247084 -0.965051
0.051619 -0.674224 -0.012403 -0.998836 -0.033689 -0.022064
-0.097555 0.30571 -0.090896 -0.724475 -0.115998 -0.678404
0.022714 -0.637542 -0.003576 0.864667 -0.118081 0.487054
0.003977 -0.803523 -0.106894 0.936173 -0.097888 -0.333811
0.191328 0.060232 0.058163 0.795496 0.3232 0.510663
-0.00792 0.579608 0.011466 -0.537529 0.309699 0.782818
0.058582 -0.38126 0.028427 -0.700936 -0.332845 0.629418
-0.29938 0.277952 -0.088704 0.272182 -0.385226 -0.878734
0.140059 0.405255 -0.137271 0.380212 -0.180047 -0.907134
0.205365 -0.272046 -0.007234 0.999351 0.017208 -0.03036
0.143097 -0.078805 -0.120532 0.547935 -0.212298 -0.807477
-0.008128 0.664463 -0.037675 -0.857202 -0.172505 -0.472681
0.195405 -0.377253 0.035497 0.945041 -0.048605 0.323162
0.107513 -0.213166 -0.101038 -0.199472 -0.113371 -0.970912
0.042751 -0.261558 0.027349 -0.991479 -0.018016 0.128443
-0.118936 0.378084 -0.086815 -0.85297 -0.209041 -0.474155
0.019438 -0.688707 -0.018509 0.874871 -0.175679 0.451044
0.097728 0.224082 0.111736 0.367661 0.090025 0.923498
-0.097386 0.045701 0.098649 -0.367 0.186236 0.911058
-0.103076 0.241691 -0.070637 -0.784695 -0.331394 -0.522266
0.036458 -0.006864 0.140353 0.282914 -0.549852 0.778695
-0.093656 -0.065999 0.110195 -0.544132 0.045844 0.837687
-0.232339 0.415289 -0.087495 -0.33038 0.437772 -0.834862
0.308576 0.360525 -0.137756 -0.176728 -0.29779 -0.937267
0.078166 -0.804879 -0.075058 -0.884121 0.103012 -0.455622
-0.070572 0.125973 -0.099705 -0.541613 0.198087 -0.816484
0.443995 0.292959 -0.078913 0.663234 0.746589 0.027196
0.10794 0.230893 -0.129159 0.448547 -0.296672 -0.839617
-0.022767 -0.84324 0.062084 0.97819 0.162716 0.08991
-0.013557 0.559973 0.021826 -0.017017 0.705447 0.701498
-0.124519 0.501187 0.057599 -0.060985 0.309807 0.947231
-0.412801 0.239655 0.007368 -0.390497 0.507815 0.76506
-0.001697 0.019745 -0.148719 -0.183692 -0.431189 -0.876213
-0.005766 -0.247716 0.098828 0.484426 -0.205521 0.849461
-0.067552 -0.095681 -0.106267 -0.354662 -0.17279 -0.916883
0.085705 -0.139678 -0.111507 -0.336478 -0.208622 -0.917886
-0.050124 -0.391381 -0.082436 0.157647 -0.094097 -0.97821
-0.040386 0.822525 -0.047394 -0.919256 0.107788 -0.268477
0.203959 -0.543791 -0.035653 0.96652 -0.027113 -0.249112
0.187092 -0.103027 -0.069042 0.812597 -0.053892 -0.580096
-0.489428 0.163331 0.004755 -0.776628 0.629589 -0.019252
-0.047216 -0.558977 -0.101419 0.323245 0.000436 -0.94565
0.183072 -0.485947 0.04974 0.864128 -0.092106 0.489503
-0.08878 0.100963 -0.092412 -0.711004 0.216062 -0.667621
-0.050577 -0.706358 0.014127 -0.285125 0.034803 0.953983
-0.000625 0.40489 0.104016 0.106082 0.137081 0.984431
0.051434 0.231567 -0.127901 -0.181588 -0.13249 -0.973185
-0.127272 -0.737146 -0.037888 -0.993559 -0.017418 0.105012
0.091601 -0.850247 0.0014 -0.805842 -0.562645 -0.066964
0.145591 0.370184 0.074853 0.640645 -0.030984 0.766873
-0.103478 -0.860482 0.023718 -0.564604 -0.807482 -0.05555
-0.401081 0.253368 -0.070549 -0.680352 0.120934 -0.714309
0.156995 -0.8229 0.044632 0.868021 0.426177 0.191883
0.053466 -0.039497 0.130373 0.053537 -0.20125 0.976638
0.119717 -0.865664 0.14906 -0.07196 -0.986651 0.145792
0.117857 -0.681962 -0.094316 -0.130932 0.045503 -0.989302
-0.052846 -0.331193 0.10019 0.257836 -0.137745 0.955471
-0.079297 0.493316 -0.121122 -0.261784 0.268512 -0.926905
0.029018 0.663503 -0.065962 -0.123204 -0.17528 -0.971666
-0.126558 0.385121 0.006992 -0.966628 -0.206568 0.135905
0.087479 -0.484585 -0.093215 -0.59168 -0.004398 -0.804779
0.415821 0.228605 -0.04184 -0.43054 -0.49379 0.727139
0.144953 0.071274 0.095911 0.741587 0.210319 0.635031
0.126809 -0.84483 -0.117132 0.338345 0.14072 -0.923374
-0.118944 -0.337606 -0.039461 -0.857966 0.100645 -0.502987
0.030678 0.865344 0.014655 -0.201718 0.95902 0.190661
0.020754 0.40767 0.10045 0.140421 0.276612 0.950008
-0.056547 0.386627 0.098266 -0.346904 0.072288 0.934263
-0.200962 0.342272 -0.038898 0.643834 -0.763866 -0.022646
0.027942 -0.274534 0.032824 0.990368 -0.035449 0.133268
0.046445 -0.516213 -0.016679 -0.673198 0.024669 0.687472
-0.119557 -0.025505 -0.072486 -0.849065 -0.032357 -0.526563
-0.125829 -0.334717 0.040771 -0.992056 -9.7e-05 0.124931
-0.032039 -0.862957 0.08402 0.342552 -0.933372 0.046114
-0.095214 -0.58773 0.055975 -0.428852 -0.090779 0.892748
-0.078958 -0.076857 0.11831 -0.450659 -0.027738 0.89075
0.161004 -0.447073 -0.090652 0.570241 0.204504 -0.795182
-0.054936 -0.48116 -0.097314 0.044565 0.111714 -0.992554
0.09134 0.006698 -0.155867 0.278848 -0.057277 -0.957566
0.615776 0.055912 0.09012 -0.864769 -0.480088 0.114247
-0.083019 -0.372641 -0.077262 -0.47269 -0.034939 -0.880083
0.045934 -0.459991 -0.045125 -0.929155 0.013771 -0.353255
0.006695 -0.571781 0.011966 0.657999 -0.089764 0.745783
0.002067 0.753743 0.069325 -0.25473 -0.028101 0.964959
0.021809 -0.457929 0.012597 0.899251 -0.029787 0.435342
-0.31993 0.285864 -0.093888 -0.03579 -0.208142 -0.976946
0.063657 0.365798 -0.139215 -0.385463 -0.019582 -0.922074
-0.131998 -0.181079 0.071953 -0.853663 -0.064639 0.515509
0.173612 0.451073 -0.137763 0.189637 -0.061136 -0.979496
0.009678 0.136842 0.131089 -0.122541 0.03328 0.991762
0.156899 0.014316 -0.116871 0.666894 0.060197 -0.741483
-0.143341 -0.134594 -0.001911 -0.983686 -0.044513 -0.164754
0.454839 0.280366 -0.089567 0.772626 0.543022 -0.293828
0.021231 -0.731976 -0.0358 0.970619 -0.059892 0.231251
0.103433 -0.860441 -0.009411 -0.565202 -0.81245 -0.066739
-0.118378 -0.736205 -0.072133 -0.754081 -0.036543 -0.655239
0.139051 0.290896 0.081585 0.74118 0.047215 0.66963
-0.104074 0.269813 0.051923 -0.954193 -0.004757 0.288595
0.028913 -0.290486 0.021148 0.993477 -0.040733 0.102229
-0.07426 -0.628432 -0.105707 -0.077333 0.075504 -0.992896
-0.324734 0.233565 -0.004051 0.567657 -0.693499 0.420469
-0.010494 -0.687428 -0.086154 0.65349 0.210402 -0.727064
0.178446 -0.635549 0.019324 0.36937 0.02549 0.927443
0.082086 -0.776642 0.028296 -0.143423 0.860248 0.483541
0.262056 0.395395 -0.019123 -0.172599 -0.449069 0.87417
-0.090585 -0.077246 0.112202 -0.487495 0.031175 0.872111
0.096693 -0.868006 0.083472 -0.404918 -0.903642 -0.017372
-0.100389 -0.710196 0.012789 -0.49521 -0.528825 0.682381
0.147842 -0.06317 -0.121416 0.629927 -0.197778 -0.750806
-0.133269 0.504978 0.05513 -0.151678 0.397934 0.904055
0.429222 0.254591 -0.120797 0.414289 -0.231967 -0.877054
-0.083241 0.528194 0.044483 -0.055228 0.58349 0.809879
0.033872 0.864128 0.023692 -0.048134 0.98573 0.15292
-0.017764 -0.043162 0.132859 -0.026933 -0.213499 0.975637
0.085304 -0.351101 -0.092997 -0.599166 -0.043335 -0.798869
-0.127646 -0.348265 0.026338 -0.996166 0.0352 0.076631
0.074803 -0.55953 -0.0757 -0.726727 -0.104029 -0.678646
-0.134289 -0.250129 0.048953 -0.983992 -0.084308 0.147075
0.186833 -0.101279 0.080526 0.721907 0.011671 0.691879
0.029071 0.560248 -0.107841 -0.087126 0.445593 -0.888704
-0.02132 -0.2686 -0.085532 0.624586 -0.060697 -0.778354
0.202121 0.040859 -0.026691 0.972156 0.083348 -0.218719
-0.129478 -0.471979 -0.046482 -0.837231 0.068082 -0.542377
0.031085 0.569692 0.026484 0.052027 -0.014504 0.997964
-0.08512 0.337179 -0.105904 -0.58331 -0.087704 -0.807456
0.075672 -0.588554 -0.071602 -0.694795 -0.095631 -0.712629
0.193985 0.515839 -0.122171 0.116209 0.546963 -0.828969
-0.339242 0.3201 -0.010057 -0.600223 0.52408 0.597216
0.184564 0.193287 -0.004842 0.965627 0.244494 -0.034594
0.061181 -0.51829 0.004676 -0.687232 -0.031173 0.725315
0.216553 0.552505 -0.045831 0.52902 0.832968 0.07783
0.184032 0.514257 -0.124365 0.129121 0.51553 -0.84649
-0.126745 -0.679842 -0.070022 -0.961536 -0.036959 -0.270346
-0.06931 0.079628 0.105061 -0.454105 0.345161 0.814068
-0.112435 -0.147058 0.101484 -0.679478 0.038233 0.732314
0.161762 -0.82839 -0.021344 0.957928 -0.271027 0.03086
0.075347 0.14315 -0.124476 0.088109 0.336548 -0.934814
-0.030485 -0.768535 0.01298 0.531211 0.764215 0.358177
-0.013334 0.853279 0.006438 -0.537061 0.825099 0.153067
-0.164866 0.539053 0.008437 -0.631547 0.722558 0.275145
-0.139419 -0.469151 -0.009144 -0.992821 0.05568 0.072527
-0.052986 -0.449153 -0.093015 0.063047 0.201093 -0.975356
-0.186915 0.410496 -0.096345 0.076795 0.046208 -0.994443
-0.129851 -0.246719 -0.008548 -0.948646 -0.017986 -0.314285
-0.08057 -0.568105 -0.101425 -0.246737 0.047587 -0.967269
0.265341 0.475209 -0.116239 0.453091 0.553546 -0.69832
0.156569 0.301648 -0.092551 0.788126 -0.19391 -0.582497
0.232192 0.536244 -0.022242 0.615844 0.695356 0.364484
-0.020202 -0.088623 -0.107838 0.297722 -0.38992 -0.869111
-0.167034 0.519464 0.035171 -0.513233 0.596656 0.614202
-0.078048 -0.854454 -0.125169 -0.63205 -0.488394 -0.599072
0.387094 0.238039 -0.092071 -0.640431 -0.742372 -0.187857
0.136422 -0.868905 0.032637 0.073722 -0.994151 -0.066352
0.395659 0.236121 -0.108806 -0.758069 -0.510996 -0.39605
0.149376 0.204784 0.077896 0.725431 0.070755 0.684459
0.175177 -0.859614 0.077893 0.912912 -0.360451 -0.006477
-0.119914 0.521524 -0.09259 -0.373355 0.535739 -0.756594
-0.371134 0.277411 0.002874 -0.262057 0.384699 0.883951
-0.026827 0.558006 0.026394 0.057771 0.827266 0.555274
0.186397 -0.573963 0.026707 0.726916 -0.185001 0.659601
-0.050853 -0.53493 -0.101496 0.194074 0.060756 -0.978919
-0.109214 -0.136525 -0.065661 -0.764687 -0.117015 -0.633254
0.238761 0.452755 -0.13394 0.00919 0.14794 -0.987683
0.044249 0.763506 0.084029 0.711643 0.067864 0.682842
0.207329 -0.002074 -0.008364 0.984123 0.136176 -0.105639
0.095567 -0.6331 -0.084765 -0.618192 -0.035152 -0.785134
-0.136448 0.03854 0.028985 -0.979273 0.188218 0.070154
0.192991 -0.683257 -0.040202 0.789342 -0.154584 -0.592064
0.107877 -0.434376 -0.101992 -0.267547 0.041547 -0.961909
-0.076334 -0.828844 -0.130847 -0.78723 -0.011028 -0.615573
0.077794 0.82407 -0.085155 0.640486 0.533483 -0.551725
-0.068095 -0.230225 -0.090249 -0.303848 -0.006574 -0.948902
0.310405 0.439086 -0.118373 0.491035 0.639553 -0.591214
-0.082123 -0.137967 0.116428 -0.307024 0.006532 0.950735
-0.163197 0.424747 -0.09472 0.075527 -0.04168 -0.994894
0.177339 -0.237405 0.077748 0.512538 -0.18741 0.835893
0.199091 -0.177871 0.048291 0.967462 -0.051322 0.247557
-0.007848 -0.831758 -0.073798 0.043882 -0.998669 -0.01043
0.055237 0.745107 -0.110622 0.406493 -0.299854 -0.861179
0.185435 -0.154418 0.083541 0.700245 -0.018395 0.711094
0.196085 -0.572613 0.011389 0.926483 -0.004364 0.369997
0.182947 -0.782087 -0.051952 0.988511 0.003759 -0.104747
0.150324 0.189672 -0.082481 0.742875 0.06049 -0.666096
0.198644 -0.671849 -0.02585 0.994306 -0.021511 -0.043897
0.33743 0.289698 -0.104354 -0.501991 -0.751886 -0.418724
0.159114 0.470954 0.053271 0.600589 0.246275 0.758046
0.091278 -0.83556 0.094999 -0.873937 0.468658 0.089668
-0.103211 -0.647158 -0.096774 -0.544264 0.036169 -0.837506
0.127822 -0.824217 -0.11605 0.239816 -0.071512 -0.955394
0.336722 0.403223 -0.052633 0.740318 0.128949 0.591608
0.130724 0.074872 0.10503 0.212153 0.218311 0.94768
-0.128466 0.393187 -0.052555 -0.970422 -0.163581 -0.010384
-0.120431 0.353259 -0.067628 -0.985025 -0.098891 -0.130142
-0.327447 0.233311 -0.058761 0.361449 -0.825883 -0.422456
0.199869 -0.447517 -0.013201 0.99948 -0.014534 0.018843
0.037326 0.002414 0.143581 0.079024 -0.078132 0.982347
-0.009925 -0.829949 -0.008419 0.441941 -0.884368 0.139497
0.062891 -0.48453 0.005562 -0.552046 0.041402 0.832672
0.045447 0.85936 0.038891 0.300834 0.78544 0.540055
0.107667 0.10521 -0.131139 0.437576 0.380285 -0.812313
-0.089487 0.194561 -0.070885 -0.763066 0.067247 -0.642442
-0.127458 0.377869 -0.046167 -0.982656 -0.172867 -0.001507
-0.237842 0.449773 -0.003604 -0.753434 0.587432 0.29429
0.101203 0.726982 -0.02373 0.922372 -0.345675 -0.10146
0.079719 0.787796 -0.099184 0.687536 0.079661 -0.721334
0.012755 -0.118458 -0.063374 0.665622 -0.384617 -0.633942
0.114609 -0.869787 0.052894 -0.004137 -0.999642 -0.024199
-0.122701 0.436167 0.061012 -0.10718 -0.085752 0.988684
0.176634 0.240695 -0.038432 0.9333 0.017006 -0.358104
0.151238 -0.075375 -0.115655 0.659556 -0.162797 -0.733495
-0.000466 0.502727 -0.124155 0.108487 0.096827 -0.988271
0.0448 -0.268835 0.03928 -0.949453 -0.054378 0.305706
-0.12256 -0.625098 -0.07848 -0.775229 0.048462 -0.628674
0.135513 0.086218 -0.118764 0.639282 0.235116 -0.731575
0.011506 -0.162451 0.097373 0.804205 -0.12115 0.579774
0.450436 0.28285 -0.059293 0.58073 0.727806 0.336995
0.061792 0.134414 -0.127685 -0.026989 0.347013 -0.937212
-0.129273 0.012411 -0.048286 -0.937241 0.04456 -0.344884
-0.261059 0.35094 0.014985 -0.250289 -0.323698 0.910486
0.146644 -0.644095 -0.090638 0.425144 -0.144569 -0.893127
0.269433 0.50415 -0.081083 0.652373 0.654634 -0.378383
-0.052119 -0.505924 0.062012 0.385406 -0.25327 0.887217
-0.287759 0.361214 -0.083605 -0.645439 0.424343 -0.630854
0.017399 -0.74416 -0.071761 0.914784 -0.022552 -0.397659
0.056991 0.712617 -0.090274 0.353926 -0.585405 -0.727675
-0.108652 -0.420957 -0.056841 -0.720973 0.22576 -0.6534
0.183017 -0.505738 0.044642 0.83269 -0.141163 0.534405
-0.112901 0.296058 0.007062 -0.988953 -0.098099 0.109225
-0.366739 0.201077 -0.028602 0.641536 -0.766157 -0.032067
0.103473 0.516217 -0.134639 -0.037984 0.353261 -0.93298
-0.045072 -0.049899 -0.124346 -0.15987 -0.417133 -0.89251
-0.376738 0.240537 0.010675 0.053109 0.054783 0.997023
0.200051 -0.564546 -0.045506 0.972543 -0.040013 -0.22784
-0.327234 0.297355 -0.09405 -0.142622 0.006802 -0.98936
-0.142263 0.022532 0.005161 -0.987872 0.068728 -0.093911
0.244971 0.521503 -0.019056 0.640692 0.612612 0.459246
-0.055456 -0.362511 0.096797 0.197827 -0.19149 0.960779
-0.029301 -0.668198 0.024088 -0.206486 -0.022208 0.972996
-0.114281 0.370977 0.043294 -0.857267 -0.310712 0.405461
0.165108 0.004225 -0.108857 0.821307 0.104191 -0.559541
-0.026422 -0.859698 0.07578 0.807814 -0.559754 0.055699
0.11561 -0.757261 0.02175 -0.170835 -0.265878 0.932807
-0.131889 -0.226185 0.065601 -0.936314 -0.089622 0.33926
0.034745 0.048389 0.13561 0.105178 0.063926 0.992349
0.098826 -0.575625 -0.093773 -0.582224 -0.128618 -0.802751
-0.031688 0.750031 -0.064317 -0.885241 -0.360492 -0.293704
0.075934 0.74369 -0.096836 0.643923 -0.325801 -0.690831
0.11874 0.081698 0.105277 0.34909 0.085302 0.926953
0.015833 0.611702 -0.074296 -0.145597 0.604995 -0.780322
-0.516892 0.108515 0.0169 -0.42315 -0.453694 -0.761824
0.108659 -0.100324 0.111923 -0.424205 -0.06179 0.901607
0.200515 0.403335 -0.01511 0.961026 -0.236126 0.134163
0.161749 -0.78746 0.020919 0.520915 -0.490462 0.667892
-0.038045 -0.205951 -0.09171 0.211101 -0.069936 -0.973706
-0.026896 -0.581078 0.032168 0.377516 -0.296158 0.877282
0.20812 -0.055507 -0.018038 0.969355 0.041723 -0.241059
-0.030624 0.132336 -0.114963 -0.278269 0.474815 -0.834806
-0.014857 -0.62199 -0.081843 0.677192 0.009944 -0.735725
0.077302 0.68181 0.062111 0.846608 -0.397755 0.349352
-0.134305 -0.494274 -0.040794 -0.920444 0.051979 -0.376893
-0.051637 0.219603 -0.112288 -0.577729 -0.283345 -0.765174
-0.07474 0.487788 0.066872 -0.243496 0.379795 0.889958
-0.002141 -0.594269 -0.069322 0.722023 0.00323 -0.691809
0.033489 0.84716 -0.080991 -0.008898 0.876464 -0.458164
0.103099 0.35897 -0.144738 0.154649 -0.05768 -0.98389
-0.02898 -0.650562 0.023903 0.015784 0.009921 0.997698
-0.460461 0.164916 0.042413 0.167495 0.629202 0.755443
0.140786 -0.06905 -0.124887 0.586829 -0.250073 -0.770079
-0.142001 -0.068459 -0.013787 -0.968083 0.020162 -0.242904
-0.000522 0.337727 0.112824 -0.038208 0.055773 0.997252
0.027035 -0.358629 0.009994 0.997991 -0.045059 0.032381
0.64467 0.023963 0.06229 0.8796 -0.437024 0.059053
-0.069902 -0.379831 0.095547 0.164827 -0.228638 0.95914
0.515096 0.200134 -0.057381 0.120297 -0.482401 -0.865313
0.059712 -0.380385 -0.064046 -0.771473 -0.030218 -0.635442
0.047836 -0.526143 -0.043281 -0.879725 -0.062398 -0.471242
-0.059676 -0.295389 -0.09026 -0.207885 -0.087226 -0.971926
0.133802 0.251732 0.089668 0.663747 0.041743 0.746169
0.025909 0.342003 -0.126395 -0.068449 -0.043638 -0.995383
0.198082 -0.189007 0.050494 0.958644 -0.044499 0.279599
-0.106561 0.29908 0.037619 -0.972158 0.060626 0.223182
0.525413 0.187143 0.023299 -0.109029 -0.243031 0.923295
-0.089931 0.301922 0.069883 -0.787946 0.055262 0.61078
0.196584 -0.72458 -0.026868 0.978547 -0.072184 -0.17062
-0.111993 0.250778 -0.044228 -0.997552 0.041769 -0.049628
0.012158 -0.068174 0.122618 0.361498 -0.188605 0.912302
0.01522 0.272625 0.125065 -0.112672 0.11244 0.98648
0.295778 0.427649 -0.135317 0.271055 0.432752 -0.856766
-0.118499 -0.302007 0.087171 -0.867812 -0.039336 0.486965
-0.080791 -0.861423 -0.105329 -0.18155 -0.973861 -0.110433
0.447731 0.278172 -0.049828 0.428953 0.688829 0.568799
0.155575 0.273301 0.062546 0.797984 0.053391 0.599662
0.022247 -0.47844 0.007434 0.906344 -0.107159 0.407985
0.065153 -0.798754 -0.039932 -0.950169 -0.136734 -0.269183
0.087507 0.748559 0.054859 0.835332 0.089919 0.537396
0.02525 0.261966 0.127086 -0.018013 0.074778 0.996592
-0.036197 0.470697 -0.130873 0.028584 0.114576 -0.992761
0.138799 0.168376 -0.095132 0.606904 0.074976 -0.789703
0.172362 -0.741388 0.004278 0.332377 0.741261 0.5806
0.198409 0.372021 -0.043338 0.999509 -0.0156 0.02527
-0.120841 0.166922 -0.02625 -0.889093 0.055945 -0.451241
0.135279 0.507151 -0.135999 0.116709 0.266508 -0.955298
0.04396 -0.462744 -0.033901 -0.995281 -0.004254 -0.063816
-0.0064 -0.755172 -0.012091 0.462148 -0.382003 0.783915
-0.104639 0.233116 -0.061363 -0.789389 -0.374397 -0.485979
0.083535 -0.625349 -0.075498 -0.654646 -0.080849 -0.751357
-0.138018 -0.152885 0.051595 -0.972624 -0.028193 0.226293
0.319733 0.31336 -0.058447 -0.537972 -0.647866 0.538911
0.09431 -0.426936 -0.094985 -0.525954 0.014098 -0.849674
-0.148737 0.451155 0.056306 -0.333319 -0.265265 0.902286
0.211404 0.557402 -0.05475 0.46213 0.879379 -0.055536
0.009053 0.863064 0.014999 -0.177646 0.980451 0.060823
-0.231065 0.327332 -0.009357 0.600692 -0.662895 0.443969
0.055707 -0.152901 -0.088633 -0.663539 -0.193235 -0.722398
0.182717 -0.700121 0.00155 0.39629 -0.529069 0.745661
0.105579 -0.558219 0.036154 -0.39928 -0.068242 0.914137
0.059299 0.731165 0.078646 0.532484 0.341777 0.768187
0.114227 0.507504 -0.136815 -0.003992 0.207538 -0.977866
0.2607 0.516237 -0.066611 0.702055 0.707164 -0.071863
0.053307 -0.680965 -0.025201 -0.951135 -0.076868 -0.279925
0.179395 0.029479 0.086582 0.681733 0.239958 0.689456
0.038315 -0.269058 -0.036564 -0.860294 -0.003463 -0.508085
0.026064 -0.651682 -0.046074 0.965939 0.054223 -0.2438
-0.125005 0.098585 0.035511 -0.934869 -0.001253 0.354174
-0.015271 0.554758 -0.109599 -0.092716 0.499117 -0.861313
0.08561 0.817179 -0.081703 0.723624 0.440131 -0.527145
0.177159 -0.654445 0.020103 0.485644 -0.043077 0.872497
0.053375 0.666022 0.087663 0.499013 -0.464271 0.67211
-0.031532 -0.195764 0.118876 0.180889 -0.142422 0.972999
-0.041998 0.28452 -0.12749 -0.323757 -0.025456 -0.942035
0.197165 0.381202 -0.013504 0.986657 -0.113933 0.111457
0.079406 -0.753781 -0.055688 -0.862625 0.161545 -0.474061
0.324086 0.416789 -0.047799 0.670423 0.398156 0.62199
-0.128085 0.38924 -0.004644 -0.993259 -0.098448 0.038343
0.183163 -0.179913 0.083593 0.67212 -0.088322 0.734008
-0.130013 -0.599546 -0.037274 -0.996734 -0.061472 0.038589
0.204776 0.002624 0.043088 0.961283 -0.059308 0.24868
0.546604 0.194526 -0.02836 0.967461 -0.232494 0.069082
-0.0101 -0.328301 0.084891 0.562303 -0.094554 0.821452
-0.373116 0.216605 0.00958 0.273021 -0.154241 0.944469
0.053357 -0.673061 0.009291 -0.916856 0.000191 0.36065
-0.204905 0.442886 0.03971 -0.457131 0.124857 0.869
0.144682 -0.825866 0.097062 0.293647 0.94107 0.150767
-0.005061 -0.098244 -0.096293 0.538709 -0.383973 -0.748902
-0.045702 0.202803 0.106162 -0.483429 0.01937 0.874736
-0.108236 0.014878 -0.091106 -0.836586 0.014921 -0.547554
-0.004356 0.608822 -0.069747 -0.433075 0.64842 -0.624928
0.352154 0.297704 -0.045344 -0.4228 -0.375698 0.809602
0.092742 -0.713163 -0.081802 -0.747963 0.015415 -0.661732
0.158659 0.282009 0.058723 0.735139 0.014415 0.677204
0.138259 0.026056 0.113792 0.396146 0.14871 0.904797
-0.088635 -0.126562 0.114629 -0.310939 0.024183 0.949976
0.564528 0.154372 -0.005705 0.849947 0.443712 -0.269119
0.040576 0.822798 -0.10437 0.09626 0.643025 -0.759037
0.132158 -0.435092 -0.102306 0.240605 0.107227 -0.964185
0.08603 -0.017109 -0.154456 0.036277 -0.23446 -0.971165
0.213615 -0.133213 0.000821 0.99087 -0.124503 -0.000488
0.445356 0.202762 -0.096469 0.848514 -0.287607 -0.38474
-0.020823 -0.346619 0.08886 0.381557 -0.092341 0.916965
0.002177 0.853716 -0.057102 -0.376653 0.849669 -0.364459
0.182531 0.091748 -0.061156 0.825013 0.209936 -0.523583
0.022553 -0.435797 0.007933 0.963984 0.149216 0.215205
-0.155165 0.473122 0.057108 -0.277177 0.025401 0.958923
-0.276766 0.274094 -0.070765 0.622292 -0.556481 -0.549734
0.003239 -0.785456 -0.10689 0.87018 0.198581 -0.444107
0.086145 -0.289535 0.076886 -0.390437 -0.215584 0.89491
0.134746 0.547481 -0.115904 0.264762 0.549159 -0.790755
0.118796 -0.053774 0.11913 0.285336 -0.083608 0.953654
0.032141 -0.138628 -0.06286 -0.858515 -0.345056 -0.378786
0.083771 0.782136 0.059481 0.766457 0.149337 0.605514
0.061963 -0.296712 -0.072277 -0.799297 -0.009026 -0.600726
0.098486 -0.695644 0.035724 0.131058 -0.000181 0.988267
0.229232 0.513093 -0.111498 0.458643 0.578778 -0.673368
0.173292 -0.141591 0.093444 0.597488 -0.080458 0.797319
-0.461615 0.186685 0.017833 -0.321054 0.716587 0.599285
-0.08825 0.283732 0.072311 -0.660198 0.019258 0.749868
-0.013208 -0.488054 -0.078804 0.694328 0.096355 -0.713155
0.064229 -0.115441 -0.106167 -0.471863 -0.319488 -0.814546
0.011533 0.337765 -0.126836 0.088329 0.003916 -0.995823
0.111137 -0.864835 -0.005563 -0.299892 -0.944546 -0.07268
0.054001 -0.484759 -0.058796 -0.796947 -0.000964 -0.602757
-0.141404 -0.041333 0.030461 -0.964702 0.144036 0.212941
-0.382521 0.192103 -0.011438 0.472119 -0.880106 0.040914
0.008769 -0.465865 -0.049737 0.821349 0.066438 -0.564749
0.142192 -0.826646 -0.110726 0.453033 -0.14831 -0.874589
-0.183701 0.388166 0.019337 0.29266 -0.476637 0.827514
-0.056114 -0.298603 0.104981 0.167055 -0.10999 0.97957
0.083274 -0.824261 -0.071547 -0.57946 -0.804097 -0.115957
0.203261 0.028014 -0.02795 0.948725 0.091298 -0.298141
0.165842 -0.705234 0.006983 0.39825 -0.571181 0.71656
0.178483 -0.498992 -0.082466 0.719847 0.002969 -0.694038
-0.118319 0.318333 -0.058409 -0.952667 -0.168896 -0.239084
0.148144 0.467093 -0.143216 0.165698 0.071069 -0.983364
-0.001431 0.70195 -0.072596 -0.637215 -0.5322 -0.557024
-0.016833 -0.095891 0.126653 0.13277 -0.128498 0.98265
-0.178023 0.520236 -0.052917 -0.629152 0.619118 -0.46873
0.105102 0.771041 -0.039245 0.998403 -0.037861 -0.036478
-0.062381 -0.728338 -0.123795 0.009981 0.203442 -0.978482
-0.307164 0.261561 -0.082724 0.22051 -0.558816 -0.793002
-0.019523 -0.52637 0.042764 0.505398 -0.225402 0.830161
-0.238472 0.45173 -0.046329 -0.763219 0.602625 -0.228024
-0.434746 0.231416 -0.02475 -0.738302 0.674065 -4e-05
0.151335 -0.831651 -0.103633 0.633633 -0.229483 -0.736588
-0.138263 -0.157447 -0.010582 -0.937409 -0.12044 -0.325783
0.174533 -0.521676 0.049782 0.563809 -0.196748 0.799563
-0.078333 -0.295703 0.107216 0.036058 -0.091854 0.995003
0.151333 -0.044672 -0.123574 0.685834 -0.201926 -0.698293
0.145073 -0.625173 -0.094311 0.339417 -0.154034 -0.926963
-0.146227 0.438273 0.052149 -0.502133 -0.381112 0.774563
-0.050187 -0.86321 -0.09253 0.020041 -0.999354 0.020966
0.166119 0.417209 0.055275 0.599131 0.071635 0.794881
-0.169892 0.370735 -0.052413 0.675674 -0.691787 -0.25337
-0.148947 0.545626 -0.045481 -0.502251 0.754578 -0.422003
0.082655 -0.779738 -0.072769 -0.838871 0.235048 -0.490487
0.171926 0.129042 0.062586 0.705724 0.213081 0.675655
0.110937 -0.627818 -0.093939 -0.444754 -0.086763 -0.889952
-0.053344 0.531941 0.046105 -0.200849 0.612149 0.764791
-0.09187 -0.788519 -0.116689 -0.791027 0.130072 -0.597757
0.034689 -0.026409 0.133605 -0.186702 -0.220563 0.939909
-0.061471 -0.159483 -0.09766 -0.13325 -0.156581 -0.976533
0.034225 -0.286412 0.0027 -0.29001 -0.486708 0.485328
-0.074328 -0.234912 0.112851 -0.103076 -0.086357 0.99045
0.013853 0.840095 -0.085058 -0.243036 0.72217 -0.64601
-0.060246 -0.567149 0.051266 0.346393 -0.185119 0.9195
-0.087927 -0.776275 0.012862 -0.540218 0.036028 0.80882
0.181628 0.295685 -0.036633 0.936546 -0.21894 -0.270213
-0.287192 0.256806 -0.056093 0.66319 -0.739829 -0.096824
0.073131 0.263002 -0.137399 -0.174009 -0.081166 -0.980555
0.061931 -0.250615 -0.071862 -0.782484 -0.010206 -0.62238
-0.404397 0.258845 -0.002953 -0.590612 0.657182 0.456636
0.102515 -0.072532 0.117686 -0.066944 -0.466186 0.876665
0.170443 -0.50796 -0.090171 0.676787 -0.019955 -0.735694
0.634708 0.044059 0.097189 0.930293 0.250762 0.229614
0.030347 0.350901 -0.127622 -0.135092 -0.051721 -0.988952
-0.23241 0.396838 -0.09445 -0.084722 0.190439 -0.977735
-0.04201 -0.306659 0.099703 0.276382 -0.115386 0.952772
0.143513 -0.145749 0.106282 0.219881 -0.180248 0.957925
-0.059709 0.455172 0.083229 -0.171922 0.317302 0.932331
-0.091253 -0.776849 -0.114362 -0.757211 0.163633 -0.632017
0.125946 -0.835294 -0.117909 0.188236 0.013325 -0.980931
-0.001733 0.308462 0.116373 -0.307089 0.180621 0.932229
0.04722 -0.181298 0.060881 -0.861857 -0.043644 0.503742
0.187156 -0.770125 -0.021292 0.954699 -0.288836 -0.033701
0.079601 -0.792459 -0.07322 -0.841597 0.22424 -0.489729
0.568799 0.151166 0.014968 0.740751 0.67146 -0.011365
-0.045966 -0.357258 0.095533 0.258557 -0.184498 0.947444
-0.077085 0.393038 -0.118643 -0.331103 -0.128134 -0.93442
0.187488 -0.212534 0.074982 0.774276 -0.136885 0.61774
-0.309831 0.325597 0.002489 -0.260196 0.25777 0.927419
0.320022 0.447686 -0.069642 0.743009 0.641738 0.177656
-0.015416 0.450614 -0.130013 0.111944 0.010803 -0.993473
-0.007416 0.495099 -0.126285 0.121277 0.14204 -0.982075
0.335448 0.326666 -0.041279 -0.083811 -0.1473 0.974862
0.132307 0.450482 -0.145651 0.116621 -0.001472 -0.992771
-0.12887 -0.259869 0.065612 -0.955924 -0.124466 0.261574
0.064343 -0.793496 0.009028 -0.776361 -0.521888 0.335766
0.026436 -0.313229 -0.015472 0.924334 -0.01375 -0.379701
0.534841 0.187313 0.020597 0.590085 -0.066665 0.725184
-0.13932 -0.074059 -0.021984 -0.949522 0.006457 -0.312413
0.20653 -0.001725 0.033079 0.986288 0.050729 0.141228
-0.050621 -0.863964 0.036234 0.008918 -0.999752 -0.017176
-0.057013 0.544699 0.034714 -0.188116 0.64892 0.734577
0.047133 -0.321071 -0.051131 -0.850692 -0.016495 -0.525254
-0.124232 -0.468 -0.053651 -0.797045 0.102933 -0.594871
0.171979 -0.043825 0.091949 0.690366 0.017241 0.723249
-0.143505 -0.158016 0.017844 -0.997103 -0.064535 0.017234
-0.131447 0.054032 0.040508 -0.911099 0.309346 0.271422
0.158752 0.571934 -0.076079 0.352237 0.823092 -0.431963
0.168674 -0.857157 0.137326 0.90396 -0.150035 0.215538
-0.075807 0.127716 0.091852 -0.647944 -0.014014 0.7613
0.123373 -0.824425 0.116136 0.007295 0.996873 0.041451
0.177492 -0.499533 0.05313 0.659134 -0.188294 0.723528
0.185567 0.565798 -0.040913 0.319193 0.931489 0.153784
0.21864 0.534678 -0.006895 0.363605 0.674192 0.642305
-0.105898 0.269938 -0.075754 -0.876622 -0.090679 -0.468075
-0.027347 0.34653 0.10516 -0.159092 -0.033276 0.983591
0.059511 -0.778919 -0.012721 -0.997663 -0.003515 -0.060283
0.411842 0.239022 -0.036409 -0.313997 -0.564248 0.745809
0.105361 0.78025 -0.021313 0.999869 -4e-05 0.006775
-0.151298 0.390723 -0.053552 0.719973 -0.662146 -0.207331
-0.06996 0.478411 -0.127956 -0.180204 0.141714 -0.971894
0.048996 0.705457 -0.086944 0.242312 -0.639539 -0.728355
-0.1045 0.007969 -0.096983 -0.844032 0.009891 -0.536199
0.154341 0.31354 -0.099246 0.778458 -0.164061 -0.605328
0.484604 0.186123 -0.053572 -0.113516 -0.457688 -0.866236
0.197154 -0.49068 -0.055479 0.924778 0.01147 -0.372552
0.177936 -0.784563 -0.07134 0.866866 0.169356 -0.435475
-0.112 0.436007 -0.113693 -0.416912 -0.166515 -0.892879
0.173481 -0.227268 0.081782 0.404153 -0.210484 0.887439
0.040012 0.565884 -0.106587 -0.10772 0.432195 -0.894362
0.198925 -0.630879 -0.037444 0.999787 -0.011239 -0.01519
0.060581 -0.200994 -0.079273 -0.712144 -0.204176 -0.671458
-0.123962 -0.306196 -0.026945 -0.878655 0.049973 -0.470131
0.102218 0.03239 0.124439 0.472845 0.33328 0.812464
-0.08202 0.094855 -0.100487 -0.649874 0.208444 -0.730765
0.178272 0.170485 -0.040288 0.902475 0.103278 -0.417199
-0.39352 0.260748 -0.075604 -0.639291 0.109285 -0.743094
-0.134822 -0.53683 -0.042689 -0.95019 0.001378 -0.277172
0.086997 -0.852255 -0.051859 -0.970962 -0.035157 0.191078
0.139017 0.269011 -0.112011 0.795385 -0.112239 -0.594877
0.057483 0.032893 -0.16005 -0.07364 0.078171 -0.993046
0.150994 -0.239561 0.084878 0.129569 -0.185264 0.973248
0.1228 -0.677661 0.030521 0.115599 -0.07931 0.989173
0.394612 0.231333 -0.094257 -0.650847 -0.732169 -0.158551
0.552548 0.1034 0.024015 -0.922212 -0.36336 0.122016
-0.060353 0.3622 0.096825 -0.497336 -0.083544 0.861498
-0.081514 -0.415686 0.089361 0.044613 -0.20156 0.977562
0.134174 -0.809743 0.059782 0.386711 0.726271 0.562489
-0.10278 0.444747 0.064295 -0.324139 0.018078 0.943056
-0.06351 -0.007642 -0.129949 -0.25392 -0.078596 -0.962301
0.194446 0.082248 -0.040921 0.911987 0.165679 -0.36799
0.006917 -0.429617 0.042669 0.798196 -0.156814 0.581569
-0.090995 0.486822 -0.119429 -0.319119 0.227249 -0.919512
0.094064 0.554702 0.023467 0.256946 0.697824 0.665883
-0.028641 -0.504082 -0.092855 0.548863 0.065826 -0.830935
0.164733 -0.142734 0.098342 0.478137 -0.124653 0.868563
0.028703 0.868301 -0.02417 -0.250642 0.948864 -0.174697
-0.02559 0.541288 -0.11409 -0.123716 0.313863 -0.940388
0.180874 -0.550372 -0.078368 0.72705 -0.03478 -0.68555
0.07682 -0.594233 0.015424 -0.725803 -0.132021 0.675009
0.179063 0.103108 -0.060942 0.795769 0.282374 -0.535238
0.154007 -0.480022 -0.099927 0.441291 0.087803 -0.892994
-0.036756 -0.58254 -0.097177 0.388275 -0.026696 -0.920606
0.101584 0.774926 0.008283 0.940977 -0.030953 0.328181
0.075399 -0.205489 0.084698 -0.530383 -0.116918 0.838414
0.565837 0.119563 0.053481 -0.48479 0.175212 0.849619
0.060989 -0.789528 -0.027975 -0.981138 -0.026643 -0.170638
