0.009892 -0.79393 -0.039461 0.896134 -0.305652 0.32098
0.085322 0.630832 -0.034673 0.882429 0.362761 -0.283785
0.013462 0.176016 0.130365 -0.044702 0.018238 0.99852
0.027745 0.307641 0.121413 0.014773 0.096195 0.994392
-0.060613 0.57173 -0.082086 -0.434052 0.659607 -0.611422
-0.058594 -0.179958 -0.095278 -0.14852 -0.104632 -0.978159
0.33743 0.289698 -0.104354 -0.501991 -0.751886 -0.418724
0.326719 0.295096 -0.094549 -0.680177 -0.720588 -0.1175
0.119942 -0.454353 -0.104961 -0.045403 0.071541 -0.993954
0.099146 -0.275161 -0.09815 -0.245781 0.031214 -0.96635
0.075784 -0.399309 0.038067 -0.676644 -0.325134 0.660352
0.182247 0.453974 0.040261 0.492165 0.17948 0.851598
0.046246 -0.354262 -0.04596 -0.899151 -0.042731 -0.420694
0.198796 -0.227747 -0.049761 0.821995 -0.117012 -0.550566
0.021173 -0.542793 -0.004104 0.937628 -0.095831 0.330691
-0.089057 -0.301185 -0.072694 -0.675121 -0.037922 -0.736093
-0.113667 -0.383723 0.085132 -0.728483 -0.089501 0.677772
-0.115073 -0.66559 0.017452 -0.892103 -0.209513 0.391109
0.161148 0.022672 -0.111743 0.71862 0.047298 -0.693781
0.484153 0.242612 -0.072978 0.638438 0.481253 -0.580527
0.243878 0.509996 -0.102367 0.519772 0.602307 -0.605719
0.161141 -0.817516 0.02589 0.926038 -0.155058 0.315839
0.052212 -0.694877 -0.002797 -0.998639 -0.01665 0.028608
-0.02267 -0.679889 -0.094292 0.571302 0.223758 -0.789098
0.194859 -0.638036 0.000866 0.934452 -0.117832 0.334581
-0.040908 0.485261 0.075177 -0.164154 0.439679 0.882796
0.060381 -0.603539 -0.002986 -0.713704 -0.120825 0.687403
0.038208 -0.338239 0.000841 -0.868223 -0.162688 0.463675
-0.374776 0.203802 -0.059974 0.447624 -0.691477 -0.562759
0.097859 -0.868539 -0.090598 -0.446356 -0.869598 -0.07294
0.437559 0.201385 -0.102188 -0.160346 -0.961642 -0.121405
0.041022 0.398225 -0.130859 -0.323336 0.026475 -0.942331
-0.360854 0.2584 0.008759 0.056543 0.13525 0.988678
-0.011832 0.576041 -0.097215 -0.114005 0.556649 -0.822526
0.440687 0.269989 -0.038787 0.193093 0.559076 0.804639
0.063681 -0.528283 0.006541 -0.653869 -0.031466 0.754315
0.011593 -0.801633 -0.068747 0.975996 -0.19744 0.003175
0.396617 0.284284 -0.128823 0.082919 0.004006 -0.991053
0.147308 -0.738634 -0.090069 0.703929 0.178008 -0.679613
0.157353 0.042322 -0.112529 0.705653 0.210064 -0.675186
0.605658 0.100892 0.039835 0.835292 0.547533 0.003513
-0.069902 -0.379831 0.095547 0.164827 -0.228638 0.95914
0.070645 0.677204 -0.053863 0.705875 -0.275112 -0.64944
0.339244 0.362017 -0.049289 0.583005 0.409014 0.699727
0.153466 -0.346993 -0.07646 0.640904 0.037464 -0.766328
0.139977 0.002379 0.116165 0.456454 -0.147627 0.865698
0.191823 0.470304 -0.135282 0.114176 0.022108 -0.993019
-0.487871 0.105388 0.023909 0.773202 -0.609939 -0.159881
0.060319 -0.401956 -0.063818 -0.748023 -0.027644 -0.663072
-0.007848 -0.831758 -0.073798 0.043882 -0.998669 -0.01043
-0.065262 -0.574631 -0.103491 -0.014275 0.02205 -0.998761
0.347075 0.382926 -0.09573 0.900768 0.408874 0.105868
-0.126667 -0.532589 0.008771 -0.892089 -0.126361 0.430179
0.085472 -0.826879 -0.049251 -0.524998 -0.849082 -0.046222
-0.080646 -0.403568 0.091665 0.10843 -0.210888 0.969879
-0.128669 0.396111 -0.014559 -0.936353 -0.311247 0.008005
-0.012021 -0.393385 -0.063705 0.636652 0.103695 -0.763801
-0.041087 -0.340146 0.0964 0.257527 -0.100256 0.960748
0.145146 -0.851012 -0.106199 0.714917 -0.025195 -0.696436
-0.095577 -0.064208 -0.095216 -0.669562 -0.225574 -0.707585
-0.216751 0.450888 0.02883 -0.666745 0.264359 0.695781
-0.071443 0.231708 0.088478 -0.547548 0.068098 0.832961
0.018864 -0.630812 0.003695 0.802151 -0.045824 0.593067
0.021699 -0.300541 -0.02365 0.936041 -0.025379 -0.350664
0.141788 0.354026 0.077548 0.696682 -0.04747 0.715111
-0.113211 0.072413 -0.068196 -0.8573 0.145515 -0.492213
-0.021063 -0.073344 -0.115369 0.168925 -0.44014 -0.881151
-0.099939 -0.741683 -0.001076 -0.630085 0.464618 0.609456
-0.111946 0.280002 0.00361 -0.998009 -0.030885 0.04946
-0.045329 -0.19893 0.119987 0.076226 -0.141523 0.986816
0.204371 0.406911 -0.059181 0.715991 -0.624836 0.048463
0.59854 0.08444 0.077186 -0.816926 -0.073681 0.550905
-0.135365 -0.138591 -0.024509 -0.916247 -0.103682 -0.38401
0.147114 0.313058 -0.108229 0.765955 -0.115344 -0.632337
0.185827 -0.110756 0.081934 0.727381 0.022698 0.685851
0.321601 0.440731 -0.061743 0.823757 0.424709 0.374157
-0.120826 -0.497777 0.02816 -0.81019 -0.241753 0.533923
0.001926 0.621381 0.013545 -0.729854 -0.053191 0.68097
0.119666 -0.869486 0.041222 -0.009846 -0.999436 -0.031202
-0.028404 0.770053 0.030364 -0.914485 0.046567 0.397003
-0.34382 0.239035 0.007724 0.260884 -0.180339 0.947852
0.034194 -0.286474 -0.025478 -0.950807 -0.115555 -0.270654
0.05983 -0.243848 0.065839 -0.732229 -0.140601 0.666098
0.023669 -0.161087 0.072005 0.868247 -0.238652 0.434394
0.081519 -0.812649 -0.084086 -0.89869 0.063784 -0.426012
-0.095367 0.542102 0.032653 -0.020845 0.712329 0.7009
0.106899 0.183601 -0.111548 0.364498 -0.100298 -0.921084
-0.01181 0.354151 0.110022 -0.374593 0.168602 0.905184
-0.56346 0.060016 0.025379 -0.926243 0.36326 -0.026764
0.114513 -0.044841 0.121178 0.282137 -0.100809 0.953536
0.355057 0.341003 -0.049531 0.428405 0.334167 0.837784
-0.062419 -0.597601 0.043745 0.424554 -0.238519 0.873287
0.149947 -0.1007 0.108844 0.487794 -0.012872 0.87276
0.098951 -0.768314 0.021214 -0.249396 0.804134 0.537685
0.010243 -0.806733 -0.082985 0.978306 -0.150955 -0.124836
-0.047995 -0.613833 0.033681 0.394063 -0.129885 0.909817
0.177568 0.194701 -0.038035 0.92815 0.026852 -0.370994
0.197887 0.370382 -0.0305 0.996933 -0.036555 0.063202
0.076324 0.761347 0.063098 0.704222 0.034819 0.688453
-0.191114 0.398883 -0.096827 0.117645 -0.075087 -0.987572
-0.11864 -0.095826 -0.060328 -0.772412 -0.118441 -0.623186
-0.136428 -0.521528 -0.032018 -0.996077 -0.003946 -0.068175
0.41751 0.245286 -0.030697 -0.310949 -0.186136 0.890909
0.014223 0.52667 -0.120529 -0.007869 0.217974 -0.974871
0.099922 0.052612 -0.150466 0.400186 0.225991 -0.885451
0.186412 -0.767125 -0.032284 0.943847 -0.078205 -0.281234
-0.048951 0.263087 -0.122906 -0.502699 -0.091259 -0.859514
0.2064 -0.222703 -0.003239 0.99863 -0.050555 0.005364
0.489134 0.194083 -0.058471 -0.107403 -0.461129 -0.878424
-0.311451 0.271591 -0.08889 0.112224 -0.399941 -0.90709
0.632311 0.024392 0.049055 -0.895663 -0.434347 -0.008128
0.199053 -0.62294 -0.031058 0.999721 -0.021117 -0.004374
-0.172909 0.433097 -0.094049 -0.066846 0.126539 -0.989105
0.010161 -0.695432 -0.006511 0.776309 -0.237531 0.583637
0.152171 -0.835552 0.14074 0.602884 0.78482 0.1351
0.119033 0.239313 -0.125366 0.606508 -0.281798 -0.739988
-0.125746 -0.375357 0.044562 -0.985608 -0.034907 0.162619
0.084899 -0.600008 0.023332 -0.744318 -0.094429 0.660661
0.168516 -0.86306 0.0718 0.295482 -0.944 -0.011117
-0.070427 -0.863618 0.115511 -0.01874 -0.999689 0.015968
0.161001 -0.193939 -0.085996 0.617893 -0.084948 -0.781564
0.010125 -0.529017 -0.053239 0.863493 0.05676 -0.501103
0.150158 0.268865 0.070323 0.759476 0.08344 0.644894
-0.104596 -0.660472 -0.095871 -0.553422 -0.016608 -0.832348
0.069211 0.730348 0.07372 0.518027 0.193166 0.8289
0.160516 -0.154213 -0.089566 0.633464 -0.122715 -0.763712
-0.120288 0.344382 -0.062965 -0.994024 -0.059925 -0.087826
0.20812 -0.055507 -0.018038 0.969355 0.041723 -0.241059
0.044354 -0.472324 -0.02306 -0.980778 -0.022246 0.17678
0.128689 -0.869383 -0.100344 0.108759 -0.981569 -0.142926
0.200605 0.53395 0.001605 0.253395 0.63743 0.727264
-0.138911 0.540776 -0.064216 -0.429106 0.735503 -0.522983
0.33382 0.288231 -0.093413 -0.670683 -0.725095 -0.147822
-0.25217 0.399374 -0.088507 -0.329659 0.489986 -0.804635
-0.091231 0.532546 0.04109 -0.013268 0.591674 0.805678
0.089908 0.538002 0.040486 0.301733 0.502666 0.806143
0.017959 0.692088 -0.076896 -0.271402 -0.60813 -0.740242
-0.176599 0.399648 0.023129 0.152294 -0.411687 0.895185
0.42433 0.245485 -0.11924 0.299516 -0.372091 -0.874353
-0.100834 0.122072 -0.07355 -0.75836 0.101551 -0.643135
0.052133 -0.093255 -0.112511 -0.444351 -0.440281 -0.769275
-0.007371 0.053271 0.135461 -0.289095 0.109563 0.949724
0.171953 -0.802051 -0.004583 0.938431 -0.209427 0.239829
0.026306 -0.568706 -0.022114 0.981058 0.071407 -0.13385
0.135124 -0.706113 -0.093094 0.429323 0.029471 -0.902009
-0.045859 0.322808 -0.126075 -0.331464 0.016472 -0.941388
0.059878 0.056448 0.131655 0.035868 0.145645 0.98659
0.012755 -0.118458 -0.063374 0.665622 -0.384617 -0.633942
-0.025298 -0.159115 -0.089714 0.456014 -0.14107 -0.877257
-0.073826 0.500946 0.061099 -0.209606 0.413785 0.885321
-0.031001 0.376564 0.106095 -0.047646 0.060079 0.997019
-0.086957 0.399943 -0.115716 -0.386605 -0.183308 -0.90346
0.335652 0.306611 -0.050665 -0.543665 -0.563941 0.620328
0.017026 -0.165675 -0.044824 0.877014 0.028092 -0.470764
0.053878 -0.585225 -0.048885 -0.806199 -0.025461 -0.590089
-0.109083 0.560143 0.006731 -0.143771 0.863794 0.481121
0.056375 -0.717288 -0.014134 -0.93667 -0.181164 -0.298006
-0.113966 -0.561954 0.024343 -0.886584 -0.117521 0.447229
-0.093454 0.225968 0.073341 -0.608672 0.128748 0.782802
-0.040064 -0.189343 0.120925 0.107262 -0.122268 0.986522
-0.092475 -0.826645 0.068053 -0.576205 0.792169 0.152966
0.185571 0.302377 0.003123 0.976883 -0.119651 0.173896
-0.44259 0.194187 0.017715 -0.232677 0.503413 0.82776
0.063593 -0.03808 0.13042 0.033917 -0.176254 0.983305
0.10606 -0.636204 0.033221 -0.470609 0.057867 0.869753
0.072132 -0.602053 0.007848 -0.763447 -0.189016 0.617576
0.119367 0.426522 0.083352 0.257973 0.177477 0.949019
0.065677 -0.642641 0.008796 -0.239173 0.379812 0.890493
-0.442571 0.20307 -0.043649 -0.602866 0.106374 -0.790657
-0.475985 0.139307 -0.022372 0.235202 -0.891249 -0.386635
0.165103 0.321519 0.052318 0.729763 0.033585 0.680768
0.150452 0.046888 -0.117952 0.678453 0.275152 -0.681083
0.180982 0.208287 0.034465 0.972524 0.059604 0.219198
-0.114241 -0.324325 0.090908 -0.788736 -0.061085 0.605926
-0.238719 0.440486 -0.063569 -0.624033 0.569911 -0.53153
0.077689 0.237589 0.119345 0.420951 0.080393 0.90275
0.123206 -0.150933 0.109035 0.090542 -0.342128 0.925128
0.095174 0.744596 -0.072387 0.922731 -0.217644 -0.299949
0.030329 0.60094 -0.084124 -0.069373 0.593849 -0.801537
0.053504 -0.064987 0.11926 0.041685 -0.459316 0.884904
-0.127641 -0.322504 -0.014705 -0.99066 -0.002259 -0.132886
0.194521 -0.561838 0.01471 0.920064 0.019278 0.390677
0.006102 -0.812207 -0.096119 0.917085 -0.277161 -0.281242
0.132527 -0.494361 -0.107976 0.113034 0.042616 -0.992168
0.067653 -0.744829 -0.030177 -0.862075 0.091935 -0.496357
0.166378 0.151868 0.06402 0.711138 0.080228 0.698414
0.623369 0.075375 0.028943 0.864786 0.497516 -0.06522
-0.013176 0.612387 -0.010164 -0.884035 0.237851 0.396733
0.201622 0.559001 -0.045687 0.257759 0.958617 0.041492
0.115676 -0.869827 -0.060314 0.011166 -0.998688 0.048942
0.198494 -0.103878 -0.051277 0.882657 0.037676 -0.467623
0.012158 -0.068174 0.122618 0.361498 -0.188605 0.912302
-0.199811 0.344484 -0.023579 0.638372 -0.747234 0.180427
0.165903 -0.68166 -0.071062 0.725001 -0.110283 -0.678531
-0.039005 0.306631 0.102453 -0.5281 0.130352 0.837825
0.009151 0.261183 -0.12824 0.13536 -0.047687 -0.98961
0.082334 0.666885 -0.029262 0.979515 0.01882 -0.191321
0.144301 -0.665914 -0.088927 0.460451 -0.060185 -0.884063
0.090383 0.805076 0.03008 0.920985 0.157898 0.352987
-0.128026 0.182541 0.015444 -0.991913 0.046513 0.111881
0.592919 0.11739 0.007383 0.235163 0.832153 -0.430366
-0.373116 0.216605 0.00958 0.273021 -0.154241 0.944469
0.182906 -0.110909 -0.074098 0.786345 -0.081491 -0.611896
0.161749 -0.78746 0.020919 0.520915 -0.490462 0.667892
0.19 0.319326 -0.018556 0.993436 -0.109149 0.012706
-0.124499 0.205006 0.014178 -0.901084 0.388825 0.178123
-0.105921 -0.280863 0.102427 -0.621137 -0.036397 0.774445
0.106612 -0.864877 -0.027721 -0.345482 -0.900821 0.242288
0.073688 -0.140217 0.085941 -0.595639 0.032011 0.802553
0.065675 0.71183 0.079473 0.580378 -0.025585 0.810182
-0.109475 -0.855772 0.045601 -0.751708 -0.656365 -0.012427
-0.117675 0.005615 -0.074943 -0.850155 0.033082 -0.524974
0.205624 -0.113399 0.04841 0.921916 -0.024591 0.385675
-0.135892 -0.530157 -0.016343 -0.985488 -0.065603 0.149716
-0.255966 0.316069 -0.083596 0.595628 -0.424602 -0.679287
0.190684 -0.128471 -0.063242 0.752905 -0.01706 -0.657531
0.123068 -0.447842 0.056122 -0.565208 -0.223194 0.791554
0.014214 -0.339765 0.05959 0.8033 -0.154687 0.573849
0.113662 -0.868238 0.021111 -0.076862 -0.990133 -0.11178
0.220987 0.464351 -0.133585 0.059397 0.064973 -0.994959
-0.100077 0.464474 0.064281 -0.270981 0.078749 0.95795
0.64467 0.023963 0.06229 0.8796 -0.437024 0.059053
0.201674 -0.587399 -0.021578 0.995869 -0.077451 0.002958
0.313589 0.349639 -0.037344 -0.022661 -0.265519 0.962348
-0.126896 0.529208 -0.083508 -0.357518 0.599036 -0.715216
0.416151 0.283536 -0.124918 0.341263 0.21087 -0.915679
0.198173 -0.373687 -0.041792 0.902323 0.049811 -0.425902
0.18776 0.311165 -0.002132 0.97127 -0.157104 0.171723
-0.058004 -0.21495 0.117435 -0.094418 -0.114848 0.983645
0.031244 0.82569 0.068947 -0.074723 0.523881 0.846937
0.13502 -0.472665 -0.105777 0.165815 0.100554 -0.97893
0.135849 -0.802418 0.049854 0.429343 0.574776 0.691804
0.141424 0.242753 -0.102837 0.786135 -0.154494 -0.597991
0.133262 -0.826319 0.141038 0.235313 0.965877 0.087421
-0.512839 0.129875 0.014799 -0.85126 0.473552 -0.135522
-0.138807 0.003924 0.008536 -0.980381 -0.174953 -0.037665
0.038208 -0.256167 -0.035961 -0.802995 0.014819 -0.592307
-0.102154 -0.839889 0.09241 -0.71158 0.68869 0.131501
0.082597 0.320161 0.107341 0.349075 0.108473 0.927898
-0.201973 0.403005 -0.096861 -0.085328 0.065853 -0.992388
-0.370439 0.303752 -0.036966 -0.662219 0.743866 0.083775
0.457399 0.274293 -0.054384 0.592236 0.71772 0.363624
0.021784 -0.744558 -0.0516 0.98035 -0.173592 -0.044073
-0.102929 -0.848383 -0.021 -0.814775 -0.507588 -0.209561
0.02579 0.159362 -0.117682 -0.101903 -0.049248 -0.99285
-0.020569 0.018537 0.136794 -0.183299 0.130928 0.97412
0.097135 -0.73174 0.032679 0.317108 -0.238011 0.899296
-0.12998 -0.272143 0.050432 -0.978151 -0.160742 0.126559
-0.046463 -0.087354 -0.111729 -0.017319 -0.230561 -0.972572
-0.090041 -0.316132 0.105631 -0.105857 -0.04785 0.991511
0.115926 0.160305 0.105737 0.524581 0.02883 0.850099
0.007071 -0.464825 0.03624 0.753763 -0.090399 0.650301
0.102218 0.03239 0.124439 0.472845 0.33328 0.812464
-0.093553 0.032624 0.103708 -0.419492 0.258944 0.869983
0.552548 0.1034 0.024015 -0.922212 -0.36336 0.122016
0.078582 0.466102 0.080749 0.106273 0.342279 0.931188
0.236379 0.478559 0.006083 0.585348 -0.029823 0.807498
0.182369 0.264682 -0.019336 0.990682 -0.002465 -0.126205
-0.11125 0.135451 0.056128 -0.808901 0.076129 0.581267
0.229943 0.526781 -0.005748 0.504433 0.590363 0.622604
0.075454 -0.818816 0.017143 -0.857745 -0.391683 0.300634
-0.090479 -0.522342 -0.093483 -0.511948 0.109602 -0.851963
0.060307 -0.354199 0.042227 -0.708864 -0.267527 0.65252
0.025467 -0.020526 0.132002 -0.23314 -0.484362 0.814817
-0.163595 0.396582 0.018031 0.314687 -0.657741 0.677268
-0.127035 -0.074768 0.076576 -0.833556 0.020239 0.551847
0.082222 -0.712831 -0.06646 -0.893886 -0.092327 -0.437082
0.06244 -0.620513 -0.002019 -0.391785 0.164028 0.881759
-0.124504 -0.328561 0.050311 -0.981982 -0.022903 0.186634
-0.143532 0.529193 -0.07382 -0.453567 0.616416 -0.642198
0.209338 0.458341 -0.133876 0.032918 -0.044524 -0.997497
0.025255 -0.184526 0.055347 0.959346 -0.058343 0.270346
0.068188 0.107639 -0.13907 0.033557 0.460295 -0.886335
0.085916 0.320307 -0.143799 -0.036556 -0.068656 -0.996952
-0.513367 0.130464 0.056679 -0.789299 0.607183 0.035484
0.05437 0.329432 0.114563 0.205354 0.187192 0.960264
-0.109044 -0.84138 0.004716 -0.840766 0.53198 -0.072996
0.200381 0.495828 0.020369 0.305748 0.2412 0.920735
0.153766 0.460323 0.060581 0.59848 0.22678 0.767375
-0.336825 0.22232 -0.027086 0.489255 -0.865704 0.000172
-0.23486 0.346446 0.010076 0.377595 -0.401647 0.832377
-0.078555 -0.361347 -0.079929 -0.444812 -0.019547 -0.895322
0.049382 -0.616388 -0.03775 -0.926118 -0.123409 -0.341237
-0.14061 -0.147497 0.043139 -0.950555 -0.044844 0.307154
-0.018987 0.164218 0.123282 -0.442801 -0.014764 0.894722
-0.004615 0.622815 0.006335 -0.776865 -0.001235 0.628554
0.183239 0.115766 0.050927 0.851017 0.192334 0.486897
0.181289 0.315063 -0.053978 0.869443 -0.321435 -0.374351
0.164748 0.553785 -0.005341 0.200335 0.733757 0.649153
0.061826 -0.581136 0.003582 -0.704486 -0.113693 0.699768
0.152669 0.096149 0.083251 0.388363 0.224604 0.881435
0.175563 -0.346664 -0.056641 0.709264 0.094444 -0.697709
0.07048 -0.76502 0.012068 0.352356 0.137792 0.906027
-0.447848 0.216469 -0.027291 -0.742681 0.653167 -0.095283
0.188223 -0.044895 0.075397 0.767027 0.029182 0.640894
-0.059534 -0.280958 0.107189 0.128749 -0.114454 0.984799
-0.050447 0.355808 -0.124898 -0.343045 -0.031346 -0.938744
-0.066409 0.354197 0.092551 -0.398061 -0.099412 0.901938
0.05257 0.302964 0.119824 0.17515 0.127938 0.975086
-0.003718 0.722019 -0.089439 -0.540011 -0.551059 -0.632067
-0.042808 0.354736 0.104643 -0.218802 -0.106188 0.964958
0.163693 -0.840918 -0.019559 0.981435 0.187244 -0.006261
0.067015 -0.093518 0.089131 -0.101313 -0.732691 0.640563
0.101805 -0.483104 -0.102444 -0.393088 0.015719 -0.919086
0.009474 0.502566 -0.123223 0.064909 0.017149 -0.997258
-0.125012 -0.103345 0.080541 -0.805951 0.039715 0.590586
-0.123309 0.098729 -0.035807 -0.927834 0.132457 -0.347581
-0.112836 -0.075611 0.094382 -0.72935 0.034556 0.683128
0.025467 -0.299467 0.047996 0.94853 -0.035511 0.306831
-0.276681 0.386694 -0.083227 -0.564808 0.38648 -0.72283
0.142022 0.20518 0.085809 0.717351 0.05985 0.694052
0.042824 0.247928 -0.126976 -0.201386 -0.024374 -0.977547
-0.034951 0.80695 0.002187 -0.97601 0.004784 0.202835
-0.134449 -0.560913 -0.03156 -0.986013 -0.107759 0.115355
0.154074 -0.092006 0.106685 0.485229 0.002862 0.873919
-0.163924 0.446425 -0.093492 -0.231142 0.137379 -0.962944
-0.432377 0.212433 -0.049296 -0.52057 0.10037 -0.847556
0.01627 -0.222228 -0.050572 0.866274 -0.016774 -0.497505
0.067785 -0.747227 0.027496 0.026025 -0.540076 0.791382
0.612868 0.059574 0.05429 -0.756854 -0.647525 -0.066421
0.189861 -0.546987 0.02589 0.883259 -0.060693 0.458368
-0.125394 -0.118546 -0.04774 -0.817821 -0.100582 -0.563457
-0.11222 -0.844829 0.028655 -0.932421 0.275206 -0.01899
-0.105132 -0.778257 -0.096203 -0.843526 0.061505 -0.533334
0.051346 -0.388125 0.017275 -0.692802 -0.35201 0.627344
-0.081154 -0.232109 -0.083199 -0.576691 -0.034157 -0.815363
0.124628 0.092775 0.103998 0.292191 -0.020374 0.95516
0.013458 0.0294 0.139927 -0.020633 0.174666 0.983313
-0.548536 0.087073 0.057219 -0.851924 0.522061 0.025837
0.543984 0.179128 0.012417 0.778975 0.586639 0.20778
-0.03604 -0.398001 0.084323 0.287446 -0.22562 0.930797
0.201471 -0.276468 0.039017 0.952031 -0.05374 0.301169
0.180047 0.310361 0.02158 0.900995 0.013732 0.427352
0.150545 0.248909 0.072096 0.775372 0.061399 0.628248
-0.080258 -0.167859 -0.087689 -0.57858 -0.137879 -0.803746
-0.112573 -0.764129 -0.082925 -0.866234 -0.02473 -0.498866
-0.175381 0.523236 0.021511 -0.648927 0.600471 0.403511
-0.092141 -0.736178 0.00318 -0.620372 0.239035 0.729845
-0.096798 0.396997 -0.111557 -0.387359 -0.192082 -0.899925
0.183159 0.479106 0.032866 0.477908 0.310694 0.82092
0.004582 -0.314075 0.078132 0.543457 -0.255301 0.79912
-0.13861 -0.062006 0.046459 -0.967729 0.042516 0.248163
0.105421 -0.43917 0.04562 -0.613838 -0.382867 0.690285
-0.001351 0.457797 -0.128275 0.12586 0.034697 -0.991382
-0.032409 -0.20552 0.117184 0.231829 -0.235536 0.943757
0.16793 0.572627 -0.050707 0.382118 0.894588 0.080621
0.04423 -0.533546 -0.030732 -0.995262 -0.011927 -0.082385
0.108659 -0.100324 0.111923 -0.424205 -0.06179 0.901607
0.073549 -0.470644 -0.079138 -0.710503 0.036756 -0.702718
0.451625 0.266308 -0.039195 0.102391 0.59473 0.794978
-0.128253 0.387575 -0.044508 -0.998062 -0.057395 0.00121
0.196584 -0.72458 -0.026868 0.978547 -0.072184 -0.17062
0.045896 0.555733 0.026532 0.122467 0.396109 0.904943
0.012366 -0.134318 0.102709 0.72658 -0.17933 0.662133
-0.13336 -0.189965 -0.011671 -0.922482 -0.128519 -0.36007
-0.013334 0.853279 0.006438 -0.537061 0.825099 0.153067
0.024097 -0.15541 -0.028521 -0.117851 -0.238249 -0.843319
0.302484 0.320615 -0.069246 -0.655125 -0.700333 0.265036
0.202504 -0.232388 0.035226 0.965358 0.01153 0.260079
-0.088975 0.264041 0.072415 -0.687006 0.030113 0.725133
-0.120316 0.33667 -0.027538 -0.999421 -0.017149 0.026921
0.14254 -0.260061 0.08368 0.061533 -0.066313 0.99575
-0.453546 0.203278 0.004606 -0.708541 0.578565 0.393964
-0.048295 -0.126871 -0.10415 0.03146 -0.125059 -0.990054
-0.097161 0.260445 -0.086292 -0.748076 -0.170087 -0.639765
-0.134751 -0.550076 -0.024717 -0.967173 -0.155699 0.176631
-0.125526 0.076486 0.039977 -0.939197 0.200102 0.27822
0.167493 -0.781704 -0.086558 0.735331 0.336341 -0.587318
0.173612 0.451073 -0.137763 0.189637 -0.061136 -0.979496
-0.016086 -0.004532 -0.139799 -0.178963 -0.14126 -0.973061
0.194661 -0.51126 0.018505 0.93695 -0.019514 0.348777
0.027104 -0.662307 -0.039734 0.996832 0.004299 -0.057393
0.107886 -0.494709 0.039167 -0.590316 -0.066246 0.804272
0.075068 0.057622 -0.154552 0.057332 0.247084 -0.965051
-0.022903 0.141533 -0.11146 -0.231412 0.514414 -0.823461
-0.015867 0.080776 -0.136113 -0.15527 0.216243 -0.963908
-0.108524 0.22175 -0.047097 -0.833 -0.259411 -0.487456
0.08891 -0.083758 -0.129397 -0.138744 -0.392042 -0.90851
0.197644 -0.635882 -0.008707 0.982557 -0.07007 0.166627
0.067594 -0.388093 0.034884 -0.690358 -0.328067 0.644402
0.568253 0.080099 -0.004825 -0.868229 -0.477779 -0.053046
0.042019 -0.268811 0.019785 -0.985247 -0.027214 0.160273
0.004403 -0.53039 -0.061892 0.807695 0.044879 -0.587842
-0.138624 -0.439704 -0.007757 -0.995079 0.0768 -0.058574
-0.123417 0.485172 0.060891 0.038722 0.122536 0.991274
-0.011953 -0.8273 -0.122509 0.597241 -0.68937 -0.397824
0.207653 -0.144689 -0.031072 0.969488 -0.084807 -0.225805
-0.132132 0.534685 -0.075922 -0.378729 0.669781 -0.637875
-0.122759 -0.625983 0.004316 -0.955897 -0.040063 0.287751
-0.122171 -0.6885 -0.026211 -0.969659 -0.093827 0.205423
-0.04508 -0.693008 0.017069 -0.18516 -0.176146 0.965677
-0.03564 -0.417598 -0.082516 0.29679 0.251579 -0.919442
-0.460988 0.194963 0.008584 -0.692523 0.61701 0.338431
0.166247 -0.256205 0.080345 0.334563 -0.094287 0.934131
-0.128413 0.426404 -0.101661 -0.599465 -0.389551 -0.697991
0.073224 -0.195781 0.084564 -0.555719 -0.063859 0.82863
0.412403 0.258822 -0.127 0.094893 -0.17696 -0.974511
0.152581 0.51433 0.033197 0.220167 0.743879 0.593787
-0.102215 0.431791 -0.117331 -0.411932 -0.108531 -0.903768
-0.079727 0.116352 0.088809 -0.613927 0.196406 0.7615
-0.120778 0.049806 0.072397 -0.929974 0.089523 0.34434
0.343719 0.371656 -0.132564 0.56826 0.289167 -0.769402
-0.136175 -0.429834 0.016928 -0.986504 -0.012746 0.161321
0.519709 0.156398 0.020481 -0.491706 -0.372153 0.760029
-0.01441 -0.082146 0.127859 0.123182 -0.07233 0.989024
0.143029 -0.542183 -0.105242 0.33939 -0.020712 -0.938877
-0.08815 -0.787609 0.019399 -0.634174 0.551463 0.505639
-0.127251 0.141427 -0.016698 -0.97523 0.096366 -0.188497
-0.062534 -0.320643 -0.087776 -0.267069 -0.045306 -0.962606
0.100312 0.334886 -0.143734 0.205813 -0.08568 -0.973062
-0.071101 0.3372 0.087095 -0.519745 -0.15402 0.840005
0.092602 0.23908 -0.135876 0.046237 -0.177816 -0.981655
0.082731 -0.529355 -0.086899 -0.693581 -0.073118 -0.716189
-0.125546 -0.43789 -0.043259 -0.79827 0.252873 -0.546009
-0.077238 0.163002 0.08937 -0.638427 -0.009557 0.769603
0.075058 0.855001 0.008948 0.654664 0.730571 0.193642
0.202528 -0.495939 -0.01183 0.968799 0.172415 0.145848
-0.061213 0.33182 0.093086 -0.619673 -0.061174 0.781884
0.11563 0.315221 -0.135743 0.456745 -0.060439 -0.886176
-0.035129 0.801236 -0.064915 -0.987596 -0.004116 -0.147566
0.346891 0.350928 -0.135621 0.247828 0.093591 -0.957677
0.207329 -0.002074 -0.008364 0.984123 0.136176 -0.105639
-0.027582 -0.180188 -0.089202 0.414255 -0.019617 -0.908463
-0.508768 0.114476 0.085597 0.444666 -0.04846 0.871233
0.199669 0.395108 -0.04107 0.978519 -0.190676 0.023781
-0.084591 0.130979 0.084143 -0.669862 0.024042 0.741965
-0.044513 0.130209 0.111811 -0.473741 -0.032241 0.87957
0.19528 0.016011 0.066831 0.860802 0.107824 0.497375
0.169594 -0.813443 -0.002569 0.929522 -0.315736 0.173831
-0.030064 0.276341 0.11118 -0.351054 0.027767 0.934682
-0.001382 -0.009596 0.143749 0.052632 -0.601696 0.744619
-0.022983 -0.249473 -0.087205 0.465899 0.015711 -0.883077
-0.511935 0.098095 0.085694 0.827683 -0.040304 0.5523
0.11532 -0.034304 0.12176 0.325047 -0.073047 0.942241
-0.119302 -0.260281 0.08911 -0.860693 -0.054598 0.501273
0.038808 -0.345154 -0.033036 -0.934537 -0.086976 -0.338678
-0.486968 0.11383 0.057935 0.883975 -0.284937 0.35649
0.047772 0.538681 -0.120481 -0.143834 0.240525 -0.959711
0.138386 -0.189006 -0.100753 0.449535 -0.084731 -0.889109
-0.252073 0.430052 -0.058421 -0.674184 0.64523 -0.356557
-0.299425 0.245739 -0.042297 0.643682 -0.760798 -0.034777
0.197718 -0.054907 0.063413 0.867091 0.043743 0.493108
-0.487866 0.132463 -0.015023 0.259961 -0.845954 -0.463634
0.021306 -0.224794 -0.039794 0.946776 -0.0153 -0.319176
-0.109111 0.078627 0.080562 -0.675439 0.406622 0.612156
0.171065 0.348577 -0.09501 0.710629 -0.347768 -0.610739
0.007396 0.807814 0.070619 -0.499527 0.468687 0.727339
0.090544 0.576991 -0.102284 0.138573 0.670491 -0.728463
0.003565 0.076998 0.135884 -0.278559 0.069189 0.94491
-0.131895 -0.237957 -0.003902 -0.936132 -0.037094 -0.349405
0.61875 0.061926 0.1024 -0.099345 0.541777 0.696554
-0.104074 0.269813 0.051923 -0.954193 -0.004757 0.288595
0.129997 -0.867905 0.015024 0.051531 -0.993209 -0.095855
0.200688 -0.211201 -0.048559 0.823592 -0.02722 -0.564557
-0.116023 -0.60594 -0.082911 -0.650078 0.068489 -0.756446
-0.067408 0.116206 -0.104215 -0.515309 0.274933 -0.81052
-0.046497 0.364713 -0.126592 -0.266229 -0.034919 -0.962729
-0.449002 0.176517 -0.048689 -0.520429 0.377776 -0.763607
-0.450259 0.197842 0.012001 -0.421325 0.569663 0.693012
-0.081847 0.074234 0.099494 -0.509406 0.34991 0.780251
0.076543 0.73629 0.067117 0.629139 0.122092 0.767362
-0.206883 0.48665 -0.050891 -0.695619 0.516104 -0.498736
0.099581 -0.868233 -0.051831 -0.369511 -0.910793 0.109876
-0.105607 -0.41087 -0.058029 -0.688144 0.051805 -0.719662
-0.129362 -0.284547 0.012399 -0.995761 -0.086597 -0.015967
0.08714 0.618802 -0.016899 0.875936 0.204491 0.42553
0.19171 -0.477827 0.026323 0.966628 -0.008511 0.255488
0.053218 -0.71753 0.009077 -0.997608 -0.046503 0.042978
0.055498 0.852063 0.042035 0.425449 0.65904 0.61867
0.169689 -0.533953 -0.089747 0.672269 -0.03788 -0.739226
0.132757 -0.571323 -0.105951 0.063473 -0.135944 -0.988558
-0.183801 0.509654 -0.057313 -0.643061 0.520706 -0.559704
0.092624 -0.376897 0.058333 -0.468452 -0.250864 0.846367
0.01964 -0.338027 0.05008 0.892568 -0.140653 0.427451
0.204189 -0.387556 0.009034 0.962954 -0.010198 0.261619
-0.136351 -0.182096 -0.0049 -0.965891 -0.13517 -0.214798
0.111242 0.332596 -0.139216 0.415223 -0.108148 -0.902887
-0.067767 0.58218 -0.048967 -0.303802 0.942608 -0.0712
-0.062235 0.273208 0.090686 -0.52263 0.035405 0.851771
-0.526307 0.088939 0.026352 0.214491 -0.132127 -0.879401
0.633188 0.023 0.058562 -0.409104 -0.905143 0.004873
0.087037 -0.667005 -0.07571 -0.697754 -0.01117 -0.71476
0.098568 0.728034 -0.042948 0.952758 -0.228883 -0.195355
-0.03377 0.771078 -0.072941 -0.947476 -0.065737 -0.294433
0.090248 -0.52398 -0.093924 -0.58147 -0.054707 -0.8117
-0.128525 -0.370793 0.014226 -0.99954 -0.004626 0.024722
-0.128848 0.558482 -0.000976 -0.220122 0.953867 0.196498
0.203555 -0.057661 0.051793 0.88357 0.081055 0.458997
-0.136971 -0.188305 0.003483 -0.986002 -0.090831 -0.136653
0.265911 0.431016 -0.139739 -0.020462 0.202442 -0.97716
0.07023 0.031518 -0.160955 0.004575 0.065224 -0.997631
0.025345 -0.595956 -0.035065 0.926305 0.09627 -0.34114
-0.133283 -0.265242 0.029938 -0.976071 -0.214132 0.025864
-0.240585 0.36201 0.01749 0.11879 -0.226574 0.965877
0.042237 -0.208161 -0.047617 -0.95063 -0.053401 -0.30366
0.174925 0.062403 -0.082882 0.818839 0.197528 -0.538341
0.190397 0.127827 0.035228 0.86892 0.028487 0.493408
0.106995 -0.11678 0.109287 -0.623989 -0.072527 0.777912
-0.080821 -0.050756 -0.111325 -0.559532 -0.262436 -0.785366
-0.052204 -0.26785 0.108375 0.176266 -0.212305 0.960761
-0.093655 -0.8633 0.084943 -0.027543 -0.999611 0.002776
0.175726 0.019309 -0.091999 0.828477 0.00876 -0.558942
-0.061138 -0.191751 0.120287 -0.242557 -0.083202 0.963133
-0.124282 -0.069888 -0.057292 -0.802976 -0.093844 -0.588318
0.624563 0.05569 0.108053 0.09654 0.292622 0.917644
0.199556 -0.089044 0.062744 0.876891 -0.019222 0.479503
-0.131628 0.415998 -0.086737 -0.635117 -0.599784 -0.426345
-0.111922 0.245458 0.026988 -0.976559 0.163873 0.133185
-0.3581 0.229347 0.00933 0.141116 -0.179887 0.968944
-0.098836 0.321594 0.049233 -0.885311 0.016106 0.461083
0.026777 -0.249544 0.045915 0.979607 -0.015364 0.200096
-0.002337 -0.384522 -0.054881 0.605975 0.080985 -0.791022
0.187435 -0.257567 -0.056813 0.723986 -0.183114 -0.664963
0.309514 0.333212 -0.046866 -0.383223 -0.532929 0.753017
0.093125 -0.023976 -0.152535 0.062748 -0.24648 -0.966416
0.142386 -0.365168 0.077322 0.062938 -0.131733 0.987513
0.164535 0.239522 -0.065116 0.846787 -0.000135 -0.53081
-0.101972 -0.65194 0.038951 -0.49109 -0.312947 0.801105
-0.007453 -0.354887 -0.061063 0.677676 -0.113638 -0.726318
-0.060586 -0.324892 0.103002 0.19315 -0.119287 0.97316
0.409425 0.319206 -0.07487 0.649137 0.724805 0.207001
-0.119026 0.016807 0.085244 -0.815115 0.231475 0.53057
-0.11774 0.309381 -0.054347 -0.941276 -0.218665 -0.250991
0.015833 0.611702 -0.074296 -0.145597 0.604995 -0.780322
0.077595 -0.767281 -0.05819 -0.847133 0.224677 -0.480699
-0.018131 0.693231 -0.032095 -0.898507 -0.336425 -0.231563
-0.322357 0.342543 -0.019618 -0.64002 0.704152 0.294277
0.61299 0.092285 0.035052 0.769469 0.637869 -0.017396
0.15639 -0.025457 -0.121756 0.726764 -0.031762 -0.685578
0.185856 -0.189884 0.080527 0.674824 -0.059113 0.731112
-0.358805 0.207981 -0.012873 0.527108 -0.844026 0.085757
-0.105925 -0.571009 0.03937 -0.911943 -0.00551 0.409529
0.039629 0.704601 -0.089373 0.134398 -0.644417 -0.752251
-0.098112 0.043228 -0.098722 -0.726291 0.234153 -0.645652
0.190004 -0.28828 0.064276 0.841429 -0.029682 0.52663
0.162019 -0.17536 -0.086479 0.616313 -0.045448 -0.786171
0.206684 -0.06945 -0.026887 0.951407 0.060739 -0.300567
-0.270347 0.31473 0.00614 0.222207 -0.261105 0.938317
-0.124309 -0.697098 -0.07176 -0.87722 -0.121408 -0.461165
-0.121148 -0.724796 -0.023902 -0.788392 0.18569 0.580936
0.277834 0.489986 -0.088743 0.644534 0.62359 -0.440864
-0.215115 0.420037 -0.090971 -0.253814 0.311939 -0.914585
-0.270776 0.408597 -0.065535 -0.617936 0.687793 -0.374293
-0.079055 0.240577 -0.096757 -0.662095 -0.313759 -0.680304
-0.016508 -0.013161 0.138014 -0.053141 -0.721109 0.667213
0.090952 0.78313 -0.085605 0.863867 0.047598 -0.501116
0.17015 -0.606312 -0.083485 0.613233 -0.113254 -0.781685
-0.095556 0.091359 0.084556 -0.548248 0.078371 0.818375
0.026896 -0.494669 -0.010448 0.9921 0.018894 -0.03684
0.200845 -0.152531 0.051858 0.928237 -0.145111 0.340308
-0.081199 -0.848273 0.156554 -0.532125 0.011169 0.760314
-0.461615 0.186685 0.017833 -0.321054 0.716587 0.599285
0.199819 -0.440201 -0.005026 0.995464 -0.065304 0.05859
-0.00154 0.284534 -0.130479 0.130008 -0.005318 -0.99099
0.073817 -0.370687 0.048173 -0.429389 -0.20207 0.864127
-0.189228 0.51909 -0.031684 -0.70677 0.682802 -0.181863
0.490001 0.234915 -0.018001 0.577977 0.713988 0.363914
0.15526 0.019119 0.106522 0.508003 0.185595 0.840856
0.171957 -0.259311 -0.069397 0.527697 -0.204098 -0.824161
-0.068011 0.038581 0.1137 -0.396201 0.234742 0.886028
0.180065 0.563492 -0.026351 0.308868 0.864661 0.37544
0.053466 -0.039497 0.130373 0.053537 -0.20125 0.976638
-0.144396 -0.112125 0.015767 -0.999906 -0.00056 0.012094
0.09163 -0.724429 -0.080101 -0.805752 -0.073484 -0.584539
-0.092989 0.253998 0.068836 -0.718692 0.068551 0.6912
-0.082784 -0.860943 -0.049363 -0.138993 -0.987238 0.019357
0.111311 0.321687 0.097877 0.357632 0.110174 0.926575
0.58364 0.129814 0.039788 0.748174 0.660525 0.055574
0.075886 -0.528399 0.01675 -0.678072 -0.003351 0.734888
-0.116962 -0.581344 -0.080827 -0.683117 0.033563 -0.729481
0.060494 -0.793647 -0.013546 -0.962688 -0.231429 0.004449
0.154159 -0.823838 0.062409 0.670932 0.72003 0.169118
0.170665 0.234577 -0.053392 0.883628 0.020151 -0.467683
0.021873 0.247038 0.127698 -0.028127 0.033375 0.998973
-0.1334 -0.219213 -0.00242 -0.956255 -0.068255 -0.278907
-0.133568 -0.463354 -0.039127 -0.896905 0.078299 -0.43377
0.072847 -0.775766 -0.0534 -0.866028 0.194886 -0.459933
-0.402888 0.231859 0.012262 -0.027539 0.218297 0.972616
-0.062228 -0.742129 0.02697 -0.032474 0.246611 0.964189
0.486168 0.177183 -0.041006 -0.465524 -0.841063 -0.198807
-0.383614 0.194599 -0.051368 0.222279 -0.901209 -0.337032
-0.059325 0.51483 -0.118489 -0.184972 0.424792 -0.883045
-0.363138 0.292508 -0.081149 -0.477253 0.409655 -0.775933
-0.028224 -0.850828 0.095742 0.9799 -0.01632 0.192905
0.572806 0.135376 0.050786 0.173015 0.576195 0.535325
0.079109 0.152685 0.122802 0.415981 0.055813 0.906918
-0.038844 0.8326 -0.026994 -0.790249 0.608821 -0.053915
0.07148 0.751016 0.068499 0.416352 0.125829 0.89404
0.161491 -0.287815 -0.070575 0.580381 -0.096443 -0.808253
0.198138 -0.616795 -0.005049 0.986707 -0.072427 0.134857
0.15917 -0.566656 0.042942 0.108153 -0.155259 0.978467
0.102587 0.327657 0.100473 0.371165 0.12708 0.919635
-0.031597 -0.699401 -0.105687 0.524719 0.223047 -0.820988
0.01522 0.272625 0.125065 -0.112672 0.11244 0.98648
0.03014 0.663198 0.090484 -0.103763 -0.735562 0.629908
0.065174 -0.359889 -0.072137 -0.779063 -0.070178 -0.622967
0.114609 -0.869787 0.052894 -0.004137 -0.999642 -0.024199
-0.002117 -0.263674 -0.069058 0.744396 -0.106466 -0.659015
-0.072512 -0.136668 0.119796 -0.299255 0.043353 0.952632
0.072112 -0.413357 -0.076104 -0.702145 -0.013106 -0.711854
-0.028641 -0.504082 -0.092855 0.548863 0.065826 -0.830935
0.019469 0.001664 0.143894 0.015039 0.145962 0.988915
-0.124495 0.415986 -0.09861 -0.696595 -0.384981 -0.60301
0.020539 -0.211498 -0.041958 0.930152 -0.009889 -0.361412
-0.456385 0.144631 0.039175 0.68249 -0.682844 0.204653
-0.064405 0.432819 0.089007 -0.200748 0.192375 0.956445
0.189151 0.001869 0.074581 0.753877 -0.358419 0.54392
-0.122506 -0.173862 -0.037499 -0.826045 -0.12256 -0.550036
0.11476 -0.064517 0.119165 0.162733 -0.124613 0.97095
0.196329 -0.139283 0.065734 0.882821 -0.065273 0.46436
0.111759 -0.399008 0.063918 -0.428314 -0.172147 0.884727
-0.004856 -0.667683 -0.077303 0.520397 0.160328 -0.8376
0.129427 -0.869483 0.040663 0.011376 -0.999304 -0.033458
-0.013497 0.17714 -0.114284 -0.294198 -0.205774 -0.928984
-0.103217 0.112312 -0.072141 -0.808597 0.123659 -0.572392
-0.115745 -0.038787 0.088991 -0.745088 0.090049 0.660662
-0.036756 -0.58254 -0.097177 0.388275 -0.026696 -0.920606
0.164449 0.212844 0.058262 0.73954 0.065503 0.669724
0.014147 0.262693 0.12623 -0.140387 0.099684 0.981659
-0.297178 0.269707 -0.083957 0.386842 -0.543842 -0.742794
0.610394 0.085226 0.084968 0.00689 0.486454 0.82993
0.049021 0.476009 -0.129355 -0.258598 0.084404 -0.959485
0.404197 0.226241 -0.1095 -0.617302 -0.654726 -0.424572
-0.101967 -0.853056 0.119865 -0.918517 -0.066679 0.36564
0.061808 0.670879 0.082679 0.6772 -0.30662 0.637717
0.026085 -0.214727 0.051272 0.957474 -0.027553 0.281493
0.022185 -0.189762 0.064444 0.953683 -0.028325 0.298202
0.122945 -0.813321 -0.119832 0.037454 -0.134961 -0.984548
0.083133 0.07263 -0.15089 0.159571 0.248317 -0.95035
0.124263 -0.647372 -0.095368 -0.05492 -0.092587 -0.992743
0.225427 0.507005 -0.118714 0.395702 0.488794 -0.775934
-0.143528 -0.057509 0.01982 -0.996944 0.042837 0.058422
-0.128791 -0.395864 0.039032 -0.969619 0.136205 0.202148
0.164567 0.434058 0.053838 0.6272 0.109669 0.769984
-0.117251 -0.288398 0.089993 -0.813666 -0.048669 0.578778
0.565386 0.113125 -0.013728 0.497486 0.153378 -0.853448
-0.068267 -0.861729 -0.05787 0.001458 -0.999248 0.036279
0.10168 0.205943 -0.122083 0.349524 -0.440251 -0.826257
0.416221 0.304567 -0.112689 0.550683 0.543575 -0.632525
-0.023627 0.761162 -0.088823 -0.782227 -0.218371 -0.581077
0.16625 -0.115222 -0.094455 0.729902 -0.153307 -0.664729
0.321616 0.373253 -0.037204 0.657871 -0.132281 0.728071
0.15554 -0.863256 -0.068511 0.577545 -0.815078 -0.04199
0.10095 0.80023 -0.001106 0.915101 0.323745 0.228527
0.205622 -0.077632 0.051634 0.908253 0.013131 0.413348
0.067943 -0.024985 0.131567 0.071827 -0.160819 0.983519
-0.093934 0.560249 -0.070268 -0.460561 0.700711 -0.544834
0.166923 0.202421 -0.060801 0.872951 0.022356 -0.487062
-0.077335 -0.81168 -0.131099 -0.710299 -0.154006 -0.68653
0.358464 0.337014 -0.134087 0.30539 0.067993 -0.949048
-0.069175 -0.527123 0.063595 0.416205 -0.225858 0.879567
-0.014806 0.508939 0.066569 -0.014079 0.419722 0.907331
-0.013757 0.780007 0.060394 -0.887244 0.031358 0.454689
-0.036149 0.798129 -0.053586 -0.995874 -0.025221 -0.083637
0.200877 0.057851 -0.023927 0.977776 0.091795 -0.187096
-0.040437 -0.42548 -0.086372 0.207764 0.248423 -0.944772
-0.118402 -0.534225 0.023484 -0.855093 -0.098735 0.508778
0.024241 0.653456 0.046196 -0.248428 -0.821699 0.492439
0.086295 -0.860285 -0.062217 -0.668726 -0.741698 0.043115
-0.124317 0.196408 -0.012087 -0.891475 0.202403 -0.403877
0.054947 0.862901 -0.045792 0.174389 0.96292 -0.20038
0.199784 0.072835 0.014519 0.971316 0.223299 0.077502
-0.049736 -0.678743 0.020955 0.080472 -0.285075 0.953188
0.064421 0.632488 -0.061136 0.494005 0.315583 -0.808122
-0.012228 0.672091 -0.015576 -0.953744 -0.27862 -0.083309
-0.074068 -0.012577 0.123259 -0.420822 -0.429745 0.7828
0.150401 0.1568 0.079774 0.706535 0.040966 0.706444
-0.009387 0.833699 0.037262 -0.84036 0.193909 0.491522
0.057764 0.556742 0.024071 0.203677 0.499828 0.840517
0.157253 -0.858329 0.168881 0.726265 -0.384495 0.497933
-0.037183 0.202645 0.110804 -0.49198 0.021688 0.869794
0.182878 0.082213 0.063777 0.82528 0.160401 0.539093
-0.02587 0.594477 -0.073042 -0.510077 0.711634 -0.479061
0.083052 -0.801213 -0.083103 -0.869947 0.168375 -0.462243
-0.033499 0.409706 0.101477 -0.236868 0.309638 0.92013
-0.11529 -0.365027 -0.050035 -0.769383 0.087503 -0.628789
-0.237519 0.456416 -0.031525 -0.836687 0.544867 -0.044314
-0.062755 0.226931 -0.106117 -0.617139 -0.266598 -0.740296
0.121539 -0.022445 0.120385 0.353424 -0.016766 0.935193
0.034689 -0.026409 0.133605 -0.186702 -0.220563 0.939909
0.090896 0.11563 -0.132066 0.220151 0.468796 -0.853181
-0.096457 0.383598 0.070382 -0.610649 -0.141649 0.778889
0.153471 0.205369 -0.078217 0.766788 -0.005218 -0.641441
0.162697 0.565745 -0.083255 0.332353 0.805912 -0.48557
-0.068777 0.31605 0.086559 -0.592749 0.018267 0.803382
-0.114522 -0.006534 -0.081066 -0.855286 0.012501 -0.517862
0.091278 -0.83556 0.094999 -0.873937 0.468658 0.089668
-0.183168 0.361724 -0.061775 0.628512 -0.720534 -0.292285
0.088273 -0.462411 0.023301 -0.664252 -0.028979 0.746051
0.019051 -0.501024 -0.033586 0.90204 0.022509 -0.430437
0.38867 0.241503 -0.053285 -0.64343 -0.675663 0.345842
0.076417 0.637533 0.008882 0.813462 -0.186769 0.550075
0.150391 -0.767052 0.027207 0.042224 0.411605 0.88965
-0.06129 0.147449 0.100665 -0.562732 0.099127 0.82056
-0.13916 0.552828 -0.041231 -0.466571 0.811118 -0.34937
0.123979 -0.167624 0.103391 0.045885 -0.321403 0.944489
0.265207 0.434376 -0.00972 0.041332 -0.046164 0.996239
-0.065363 -0.187029 -0.092567 -0.336576 -0.116784 -0.932864
0.1986 -0.51245 -0.051317 0.948571 0.027871 -0.310848
0.126817 -0.000389 -0.143595 0.408332 0.133951 -0.90115
-0.007496 0.854205 -0.041737 -0.492041 0.844725 -0.202759
-0.092154 -0.851014 0.142303 -0.867932 -0.100214 0.467434
-0.292804 0.362641 -0.075331 -0.737358 0.498063 -0.44042
-0.092189 0.286661 -0.094706 -0.702602 -0.041883 -0.710264
-0.117285 0.333437 0.002191 -0.970099 -0.164204 0.17786
0.114593 -0.085857 0.114376 -0.151417 -0.143891 0.972971
0.354293 0.375172 -0.095208 0.742038 0.668392 0.046984
-0.135188 -0.185674 0.06314 -0.965349 -0.048518 0.247572
0.050682 0.522434 -0.12449 -0.244324 0.302196 -0.92044
-0.127457 -0.429955 -0.036727 -0.826321 0.24583 -0.506597
-0.002516 -0.829691 -0.029462 0.440356 -0.874667 0.117397
0.193155 -0.116711 0.07249 0.824849 -0.01528 0.563258
0.197918 -0.630558 -0.049286 0.958774 -0.031115 -0.255609
0.19145 -0.648347 0.007659 0.909848 -0.10478 0.401258
0.065376 -0.369622 -0.071467 -0.756235 -0.054875 -0.650145
0.077911 -0.159355 0.088838 -0.524847 -0.015153 0.850947
-0.122484 -0.663596 -0.017865 -0.964962 -0.092085 0.242882
0.01689 -0.783098 -0.072784 0.97047 -0.144215 -0.139008
-0.079365 -0.863637 0.077979 -0.051301 -0.998623 0.002045
-0.088686 -0.522703 0.070532 -0.570166 -0.174678 0.783142
-0.025529 -0.669969 -0.093473 0.533422 0.174754 -0.826602
0.095615 -0.01442 -0.153865 0.131272 -0.151711 -0.977301
0.027363 -0.234459 0.043517 0.979693 -0.019076 0.199205
0.460534 0.196712 -0.005707 -0.724683 -0.328387 0.538554
0.076171 0.452221 -0.141621 -0.350849 0.038362 -0.934745
0.020536 0.852637 0.047703 -0.221272 0.687981 0.687037
0.169422 0.360111 0.049177 0.802458 -0.103732 0.587405
0.064319 -0.168657 0.079666 -0.613992 -0.029542 0.787362
-0.272432 0.290127 -0.081576 0.573435 -0.522219 -0.629552
-0.050555 0.117331 0.107609 -0.553841 0.076886 0.828194
-0.001634 -0.799704 -0.12123 0.862981 0.014482 -0.49651
0.178174 0.489199 0.031408 0.537204 0.350043 0.763944
0.161544 0.481958 -0.137784 0.17403 0.192785 -0.964369
-0.121526 -0.516668 0.020984 -0.830707 -0.09667 0.548006
-0.011797 -0.668779 0.02537 0.216417 -0.029251 0.962206
0.121673 0.199262 0.101017 0.557659 0.036561 0.828846
0.01217 -0.649191 -0.061935 0.611114 0.160238 -0.775104
0.00693 0.383505 -0.128265 0.046362 -0.017339 -0.998745
-0.12845 0.181002 0.005921 -0.99891 0.029951 0.004806
0.020759 0.146842 0.131623 -0.069554 0.053818 0.995893
-0.074847 0.172564 -0.084934 -0.594968 0.018984 -0.803406
0.130138 -0.826935 0.1508 0.190079 0.968876 0.136583
0.201647 -0.492815 -0.027683 0.986537 0.127101 -0.094864
0.048113 -0.135364 -0.0864 -0.649966 -0.302722 -0.694521
0.065044 0.489699 0.071241 0.079184 0.503609 0.859199
-0.100035 -0.641919 0.043084 -0.379913 -0.26441 0.868244
0.136287 0.447382 0.0738 0.393789 0.242607 0.879507
0.226847 0.387538 -0.095194 -0.719742 -0.687925 -0.085516
0.310096 0.458272 -0.061946 0.755613 0.626493 0.175557
-0.476114 0.122412 0.00606 0.463595 -0.803099 -0.354593
-0.008299 0.847288 -0.058383 -0.474182 0.790736 -0.385577
0.383562 0.279621 -0.128114 -0.123433 -0.218757 -0.964271
-0.121639 -0.080637 -0.059081 -0.802573 -0.124531 -0.582857
-0.125597 0.127628 -0.02671 -0.93599 0.023932 -0.344249
0.201196 -0.186592 -0.047951 0.867297 0.026694 -0.495701
-0.119943 -0.024807 0.081142 -0.774253 0.067247 0.628303
-0.115284 -0.707025 -0.016367 -0.898985 -0.246374 0.308869
-0.121654 0.073915 0.054222 -0.948978 0.177555 0.260463
-0.440286 0.151887 -0.00278 0.634927 -0.769233 0.013179
0.635742 0.027273 0.085301 0.188044 -0.603824 0.332527
-0.120943 0.366114 0.014692 -0.966199 -0.205166 0.154583
-0.013811 0.814072 0.043479 -0.833201 0.331275 0.43867
0.053784 -0.369178 -0.056785 -0.8081 -0.026975 -0.588133
0.066158 0.559675 0.020217 0.213861 0.402477 0.879669
0.027132 0.842515 -0.086598 -0.113352 0.800289 -0.556576
-0.028949 0.365486 0.106419 -0.017784 -0.031856 0.999082
0.611077 0.093885 0.025558 0.771675 0.633424 -0.055648
-0.024733 -0.350458 -0.077483 0.555298 -0.113295 -0.822898
-0.335488 0.247571 -0.076475 0.079043 -0.395765 -0.893096
0.090688 -0.780573 -0.08552 -0.781362 0.311149 -0.537562
0.184848 -0.561409 0.031425 0.715712 -0.139353 0.683484
-0.040763 0.001167 0.136126 -0.268685 0.398462 0.874251
-0.117038 -0.272929 -0.034973 -0.835605 0.013259 -0.548581
0.152535 -0.609453 0.034113 0.339335 -0.384539 0.853574
0.048771 -0.08627 0.10499 0.259139 -0.657914 0.704402
0.032606 0.297505 0.122167 0.051186 0.09796 0.993805
-0.113019 0.245511 0.007692 -0.981575 0.171799 0.025824
-0.072511 -0.509589 -0.098222 -0.189326 0.083753 -0.977786
0.475679 0.240723 -0.079195 0.569552 -0.1115 -0.811365
0.366953 0.292866 -0.040249 -0.276237 -0.03815 0.946878
-0.057137 -0.589343 0.043853 0.409402 -0.276292 0.869264
-0.095531 -0.863045 0.032924 -0.12134 -0.982001 -0.019476
-0.135797 0.001669 -0.027883 -0.987669 0.043303 -0.143525
0.078193 0.092982 0.127317 0.441714 -0.015313 0.896671
0.079147 0.849877 -0.041178 0.707206 0.677904 -0.19398
-0.169669 0.449701 0.045259 -0.348354 -0.305621 0.876677
0.124804 -0.753174 -0.100488 -0.181264 0.087684 -0.977673
0.082521 0.298713 -0.141377 -0.094369 -0.108839 -0.985951
0.099057 0.52662 0.043516 0.284454 0.537482 0.792413
0.193197 0.490223 -0.13281 0.102872 0.230471 -0.967437
0.190601 0.337811 -0.049318 0.959263 -0.223554 -0.161975
-0.014251 0.471358 -0.129032 0.095146 0.060678 -0.99359
-0.115908 -0.205859 -0.041595 -0.851762 -0.098907 -0.513364
0.073353 -0.25493 0.076862 -0.543025 -0.121389 0.828851
0.118565 -0.823385 0.104463 -0.077653 0.985407 0.136573
-0.020864 0.724596 0.051536 -0.868884 -0.087709 0.47999
0.032028 0.869659 -0.006054 -0.203162 0.97365 0.068582
0.009053 0.863064 0.014999 -0.177646 0.980451 0.060823
0.119685 -0.733407 -0.099111 -0.124038 0.087402 -0.979366
-0.087301 0.366927 0.075023 -0.710215 -0.12836 0.691875
-0.13564 -0.231934 0.042509 -0.99553 -0.051648 0.070573
0.071743 -0.697723 -0.051599 -0.841636 -0.148669 -0.51789
-0.102395 0.023944 0.101413 -0.548716 0.205509 0.809343
-0.059749 -0.601258 -0.10368 0.113059 0.034968 -0.991702
-0.022125 0.787485 0.038623 -0.888312 0.112189 0.443159
-0.016924 0.016897 -0.14421 -0.189055 -0.313063 -0.92918
0.020081 -0.183541 0.073372 0.965238 -0.076808 0.246592
-0.135905 -0.193249 0.05631 -0.987601 -0.044245 0.140451
-0.11461 0.338758 0.019063 -0.94429 -0.17459 0.275769
-0.478049 0.165788 -0.031376 -0.612758 0.524403 -0.59105
0.149313 -0.866783 -0.044287 0.46763 -0.875647 0.087363
-0.438075 0.22727 -0.015618 -0.715923 0.69448 0.07088
0.187147 0.032154 0.075579 0.802494 0.205291 0.56009
-0.102236 -0.582814 0.050128 -0.817705 0.059274 0.558889
0.178554 -0.092417 -0.082746 0.788692 -0.078394 -0.609698
0.068978 0.461322 0.082783 0.072172 0.269844 0.959972
0.044198 0.448188 0.089453 0.113012 0.190281 0.974186
-0.04333 -0.012029 -0.134973 -0.217895 -0.114035 -0.968357
0.086615 -0.755574 0.015937 -0.038191 -0.769548 0.635685
-0.060346 0.179007 0.099095 -0.439663 0.021418 0.896597
0.331507 0.416651 -0.124404 0.507981 0.624508 -0.593067
-0.084916 -0.47063 -0.089791 -0.451397 0.109457 -0.885011
-0.241927 0.414944 0.019189 -0.60545 0.267542 0.748451
0.117857 -0.681962 -0.094316 -0.130932 0.045503 -0.989302
0.350302 0.410051 -0.096447 0.744673 0.666413 0.003755
0.031562 -0.089787 0.107612 0.25131 -0.411289 0.8733
0.07853 0.201073 0.12124 0.372104 0.045142 0.927039
0.297896 0.405638 -0.018399 0.505411 0.059118 0.860038
0.099779 0.300883 0.104593 0.262474 0.087286 0.960786
0.143052 -0.400455 0.072982 -0.178314 -0.137991 0.972672
0.064038 -0.37691 0.036099 -0.704611 -0.286853 0.648808
-0.059911 -0.049925 0.126582 -0.293867 -0.08196 0.949137
-0.024534 -0.810627 -0.145935 0.450719 -0.129784 -0.87743
-0.125434 -0.243942 0.078676 -0.882774 -0.066988 0.464119
0.206414 0.01071 0.034718 0.993559 0.00218 0.105743
0.095461 0.797339 -0.073901 0.894717 0.149621 -0.409379
-0.120285 -0.662883 -0.08239 -0.81176 -0.007445 -0.582837
0.027312 0.22472 -0.125557 0.043509 -0.067265 -0.996352
0.06366 -0.75197 -0.024942 -0.868475 0.15425 -0.468458
0.155512 0.474336 -0.140536 0.281471 0.192058 -0.939617
-0.138779 0.407619 -0.070277 0.236083 -0.680043 -0.634146
0.146549 -0.162636 -0.098776 0.539201 -0.09342 -0.836657
0.103389 0.485605 -0.143005 -0.104815 0.270789 -0.955676
0.040068 -0.378683 -0.017006 -0.977505 -0.148532 0.133576
-0.130963 -0.566032 -0.021188 -0.952443 -0.13017 0.272122
-0.018948 0.414857 0.102412 -0.10244 0.303436 0.945972
-0.143551 -0.107786 -0.005753 -0.98852 -0.023738 -0.141929
-0.104245 0.203844 -0.050118 -0.81787 0.072408 -0.567085
0.174826 0.055275 0.082426 0.731568 0.255844 0.630226
0.033147 0.333988 -0.127146 -0.162679 -0.018705 -0.985019
-0.123805 0.074712 -0.043935 -0.927999 0.119241 -0.351303
-0.044473 -0.775704 -0.139786 -0.025612 0.439699 -0.894017
-0.073204 -0.038427 -0.120392 -0.482479 -0.247083 -0.833014
