0.025114 0.733937 -0.110579 -0.100176 -0.48305 -0.868564
0.132527 -0.494361 -0.107976 0.113034 0.042616 -0.992168
0.157227 0.075062 0.08807 0.225264 0.296358 0.925288
0.208767 0.511103 -0.122317 0.219808 0.499464 -0.835478
0.20325 -0.03778 0.050488 0.883205 0.020646 0.467829
0.298987 0.356864 -0.134193 -0.31352 -0.388628 -0.864099
-0.071078 -0.604295 0.046776 0.481544 -0.240266 0.842681
-0.04959 -0.072966 -0.115933 -0.13265 -0.296237 -0.945204
0.08593 0.049699 0.125919 0.435049 0.175384 0.882231
0.048991 0.025172 -0.15951 -0.111571 -0.132648 -0.979395
0.224334 0.452363 -0.133747 -0.030004 -0.000776 -0.997889
0.026229 0.194398 -0.114591 0.197735 -0.269809 -0.936679
0.171406 -0.791056 0.010529 0.672908 -0.572835 0.431001
0.169167 0.192387 -0.056771 0.879544 0.045099 -0.473221
0.028205 -0.318156 0.019935 0.998107 -0.033715 0.04479
0.42433 0.245485 -0.11924 0.299516 -0.372091 -0.874353
0.108605 -0.119609 -0.120047 -0.017074 -0.189663 -0.980825
0.294322 0.466155 -0.101655 0.588906 0.643597 -0.488651
0.056476 -0.333705 -0.063716 -0.798627 -0.048776 -0.599662
0.451625 0.266308 -0.039195 0.102391 0.59473 0.794978
0.447838 0.201347 -0.086877 0.679757 -0.560856 -0.289536
0.108279 0.179325 0.109046 0.545914 0.050763 0.83612
0.093936 0.073021 0.119741 0.342703 0.110993 0.932017
-0.160294 0.54132 -0.041185 -0.526584 0.778663 -0.333371
0.036935 0.289098 -0.128135 -0.142252 -0.017683 -0.988604
0.175454 -0.363181 -0.060562 0.680588 0.191479 -0.702249
-0.091818 -0.053438 -0.101978 -0.632431 -0.229235 -0.739817
-0.457059 0.193972 -0.032167 -0.747797 0.348089 -0.558755
0.205421 -0.271778 0.004228 0.999941 0.00327 -0.004064
-0.481317 0.122413 0.054011 0.792758 -0.465555 0.367154
-0.176375 0.373099 -0.07068 0.630713 -0.645236 -0.43103
-0.058158 -0.068546 -0.115297 -0.222396 -0.274284 -0.935139
0.181633 0.253482 -0.023834 0.980166 -0.012323 -0.193958
0.162967 -0.361888 -0.070612 0.621448 0.16893 -0.764439
0.201411 -0.220666 0.038226 0.952656 0.02773 0.302666
-0.00084 -0.025992 -0.137203 -0.040364 -0.300786 -0.952277
0.14902 -0.773657 0.035332 0.39579 0.295261 0.862957
0.121424 -0.567145 -0.105241 -0.18623 -0.134569 -0.970546
-0.050322 -0.416649 0.084171 0.234333 -0.227098 0.944438
-0.144334 -0.105719 0.005244 -0.999275 -0.003739 -0.031664
0.202669 0.527753 -0.110531 0.219593 0.672896 -0.705781
0.084743 0.148328 -0.121539 0.145032 0.227483 -0.962589
-0.124744 0.037769 -0.055541 -0.623412 0.037145 -0.759877
0.176718 0.52223 0.018663 0.346074 0.500811 0.791586
-0.106213 -0.51468 -0.081969 -0.680993 0.119687 -0.72173
-0.326725 0.318165 -0.088259 -0.343519 0.472986 -0.807307
-0.11461 0.338758 0.019063 -0.94429 -0.17459 0.275769
0.057481 -0.702168 0.023468 -0.86767 0.199659 0.454944
-0.07003 -0.125852 0.120366 -0.25176 -0.003489 0.967515
0.062911 -0.307559 -0.073358 -0.787403 -0.009148 -0.616305
-0.128279 -0.337218 0.008172 -0.99993 -0.004266 0.003438
-0.196907 0.508087 -0.038631 -0.713974 0.629105 -0.306149
-0.003136 -0.788319 -0.01209 0.803648 -0.080407 0.583362
0.164054 0.372024 -0.113325 0.535909 -0.320146 -0.780975
0.17457 -0.165912 -0.075954 0.707419 -0.05095 -0.704669
0.405601 0.235474 -0.043562 -0.457061 -0.652214 0.600815
0.145124 0.297292 -0.108186 0.782479 -0.096811 -0.614976
0.083712 -0.857953 0.114901 -0.947823 -0.134069 0.149151
0.084504 0.682077 0.017267 0.885594 -0.420557 0.168959
-0.118937 0.154478 -0.033414 -0.886418 0.128006 -0.441
0.194754 -0.159831 0.065473 0.908295 -0.036372 0.413268
0.425406 0.264288 -0.123855 0.400572 -0.046314 -0.910618
-0.011169 0.422186 0.100523 -0.045774 0.303261 0.950244
0.107794 0.260276 -0.135778 0.340075 -0.091515 -0.932184
-0.004356 0.608822 -0.069747 -0.433075 0.64842 -0.624928
-0.118936 0.378084 -0.086815 -0.85297 -0.209041 -0.474155
-0.083241 0.528194 0.044483 -0.055228 0.58349 0.809879
-0.117285 0.333437 0.002191 -0.970099 -0.164204 0.17786
-0.010465 -0.769387 -0.009373 0.643836 0.301973 0.686013
-0.093553 0.032624 0.103708 -0.419492 0.258944 0.869983
0.122945 -0.813321 -0.119832 0.037454 -0.134961 -0.984548
0.180726 0.285719 0.020917 0.962122 -0.021484 0.267897
0.181249 0.35252 -0.084646 0.77855 -0.425793 -0.457671
-0.072512 -0.136668 0.119796 -0.299255 0.043353 0.952632
-0.09435 -0.084265 -0.090003 -0.678341 -0.174213 -0.713309
0.059535 -0.617201 -0.054202 -0.77028 -0.0597 -0.634587
-0.136284 -0.125727 0.058112 -0.954307 0.014191 0.294852
0.205483 -0.332192 -0.007133 0.993904 0.029203 -0.102592
-0.56346 0.060016 0.025379 -0.926243 0.36326 -0.026764
-0.018131 0.693231 -0.032095 -0.898507 -0.336425 -0.231563
0.18404 -0.061451 0.080999 0.728117 0.045337 0.683489
0.003984 0.704666 -0.080559 -0.51394 -0.562683 -0.63856
-0.130933 0.54801 -0.060301 -0.357775 0.779828 -0.509409
0.017273 -0.458575 0.023195 0.884596 -0.048042 0.463617
-0.022172 -0.849455 -0.106837 0.989661 -0.081324 -0.093813
0.080814 -0.421319 -0.084492 -0.698178 -0.006825 -0.715891
0.043211 0.372567 0.106927 0.103089 0.247954 0.958686
0.192419 -0.434915 0.036641 0.957186 -0.08866 0.275226
0.212011 0.554446 -0.037187 0.582024 0.747509 0.300483
0.329324 0.313956 -0.125554 -0.393409 -0.540689 -0.741292
0.182752 0.23573 0.005035 0.999664 -0.012964 0.02014
-0.120497 -0.772781 -0.0361 -0.992195 -0.094973 0.063102
-0.057385 0.56905 0.003309 -0.129315 0.796316 0.589701
-0.032018 0.057773 0.12671 -0.300186 0.17521 0.934914
0.215102 0.405243 -0.090222 -0.928297 -0.367291 -0.037838
0.019553 -0.751787 -0.062153 0.982228 -0.100723 -0.152065
-0.127731 -0.655289 -0.040957 -0.996567 -0.026369 0.076726
-0.076454 0.287864 -0.108904 -0.638375 -0.05169 -0.767886
0.327479 0.432285 -0.065258 0.796839 0.471942 0.369665
-0.325949 0.271146 -0.089216 -0.01909 -0.372554 -0.926193
-0.103784 -0.195649 -0.062761 -0.815109 -0.038144 -0.57732
0.026306 -0.568706 -0.022114 0.981058 0.071407 -0.13385
0.087235 0.703232 -0.044319 0.770274 -0.498241 -0.365133
0.071944 0.816894 -0.09744 0.518221 0.507077 -0.681933
0.117981 0.055943 0.110423 0.33746 0.229441 0.911801
-0.0552 -0.368514 -0.086614 -0.024682 -0.126802 -0.990315
0.095265 -0.773733 0.028348 -0.261598 0.756113 0.574347
-0.127162 -0.399811 0.04866 -0.959196 0.095106 0.259265
-0.040013 0.495408 -0.12716 -0.047594 0.238662 -0.968224
-0.080599 -0.274047 0.109655 -0.03083 -0.101156 0.99287
-0.062123 -0.131464 0.122472 -0.243442 0.013467 0.969566
0.10489 0.471649 -0.145134 -0.058354 0.106489 -0.992391
0.153877 -0.588008 -0.096609 0.430354 -0.119922 -0.892749
0.084483 -0.826193 -0.004146 -0.480199 -0.870062 0.049371
0.001495 -0.375028 0.06784 0.765386 -0.162986 0.62212
-0.139817 -0.138179 0.046157 -0.948586 -0.014275 0.315815
0.18015 -0.551679 0.038755 0.634311 -0.179662 0.747303
0.198572 -0.477168 -0.048047 0.981611 0.020733 -0.175195
-0.128612 -0.551139 -0.004377 -0.942697 -0.145931 0.297266
-0.518739 0.111537 0.091455 0.020514 0.173048 0.856934
0.016616 0.606384 0.022911 -0.472496 -0.068071 0.877574
-0.112272 0.268393 -0.023686 -0.999559 -0.027085 -0.004064
0.144174 -0.037744 -0.131685 0.621002 -0.179802 -0.762006
0.000778 -0.621909 -0.067724 0.667741 0.063438 -0.741373
-0.212267 0.344953 -0.072438 0.50224 -0.702697 -0.501462
0.174571 -0.791707 -0.080528 0.895897 0.063168 -0.434535
0.01875 -0.059282 0.121382 0.280982 -0.185689 0.928641
-0.130173 -0.229728 -0.008821 -0.92821 -0.048139 -0.368594
-0.040224 -0.799907 0.057198 0.149681 0.425691 0.878613
0.130462 0.455756 0.07353 0.29054 0.308579 0.90371
-0.115157 0.549007 -0.06912 -0.373189 0.767161 -0.51974
-0.099685 -0.812652 0.001237 -0.969544 0.062939 0.232917
0.004551 0.493121 -0.124145 0.159785 0.122792 -0.978194
-0.23001 0.335163 -0.000288 0.463033 -0.598129 0.653234
-0.068267 -0.861729 -0.05787 0.001458 -0.999248 0.036279
-0.03564 -0.417598 -0.082516 0.29679 0.251579 -0.919442
-0.018446 -0.433874 0.069587 0.58156 -0.178419 0.793075
-0.015973 0.84548 -0.050998 -0.529165 0.788038 -0.312306
-0.168054 0.390435 -0.083163 0.578052 -0.594754 -0.55744
-0.286732 0.346392 -0.091942 -0.413919 0.303953 -0.856068
-0.10613 -0.507756 0.047463 -0.8025 -0.192923 0.56453
0.445356 0.202762 -0.096469 0.848514 -0.287607 -0.38474
0.101203 0.726982 -0.02373 0.922372 -0.345675 -0.10146
-0.091796 -0.458247 0.080653 -0.135736 -0.137698 0.978544
0.168957 -0.742287 -0.057929 0.864586 -0.108547 -0.490057
0.492108 0.236645 -0.040032 0.682642 0.729759 0.035476
0.200956 -0.053294 -0.041793 0.940889 -0.013512 -0.337227
0.110136 0.382506 0.092217 0.351619 0.098896 0.930592
-0.142333 0.396904 -0.026662 0.758267 -0.650856 0.021992
0.193369 -0.023962 0.067891 0.802459 0.067214 0.59263
0.150658 0.538379 -0.117666 0.279693 0.57194 -0.769116
0.183311 -0.784281 -0.038997 0.973212 -0.219445 -0.022563
-0.115714 -0.312853 0.090244 -0.791446 -0.058789 0.605551
0.126554 -0.580144 0.039424 -0.217462 -0.234326 0.947118
0.114272 -0.725662 -0.097229 -0.219862 0.093478 -0.964043
0.158434 -0.86194 0.151393 0.319462 -0.939547 0.112799
0.07704 -0.68454 0.030811 -0.424005 0.282744 0.859809
-0.069902 -0.379831 0.095547 0.164827 -0.228638 0.95914
-0.202169 0.478407 0.030323 -0.643788 0.281583 0.710646
0.173847 -0.686887 -0.060296 0.770005 -0.155051 -0.617786
0.083767 -0.49617 0.022206 -0.647772 0.049083 0.759921
0.08324 -0.078196 0.111063 -0.097674 -0.671064 0.734147
0.048473 -0.472027 -0.050326 -0.8565 0.007799 -0.514718
0.163149 -0.274309 0.079823 0.271403 -0.094861 0.957393
0.097338 -0.816077 -0.107921 -0.732015 0.002199 -0.676251
-0.050974 0.49318 -0.126885 -0.102369 0.294948 -0.944176
0.030347 0.350901 -0.127622 -0.135092 -0.051721 -0.988952
-0.097007 -0.199363 0.110599 -0.295761 -0.048614 0.94572
-0.083953 -0.222786 -0.081722 -0.592901 -0.011792 -0.804176
-0.202453 0.346126 -0.061197 0.553344 -0.755479 -0.34617
-0.127339 0.196438 8.7e-05 -0.986014 0.138888 -0.063883
-0.032453 -0.509602 0.053268 0.356719 -0.267696 0.89458
0.167608 -0.083156 -0.098613 0.771027 -0.107019 -0.627647
0.004125 -0.359459 0.068579 0.750125 -0.126829 0.648331
-0.011797 -0.668779 0.02537 0.216417 -0.029251 0.962206
0.088233 -0.615501 -0.080498 -0.63937 -0.083332 -0.76328
0.080067 0.333079 -0.143558 -0.139386 -0.046262 -0.988027
0.173292 -0.141591 0.093444 0.597488 -0.080458 0.797319
-0.137235 -0.000458 0.031912 -0.982248 -0.174194 0.050511
0.073854 -0.395047 -0.078357 -0.674152 -0.042273 -0.73734
-0.090816 -0.471046 0.079325 -0.238843 -0.155097 0.946168
-0.085123 -0.416304 -0.07434 -0.504166 0.185993 -0.837901
-0.102196 -0.501056 0.05617 -0.798362 -0.249586 0.547797
0.100209 0.71751 -0.01144 0.945671 -0.286041 -0.060172
0.195808 -0.315244 -0.03133 0.852116 -0.018166 -0.521892
-0.069479 0.265765 0.087214 -0.515873 0.070257 0.853663
-0.139865 -0.053983 0.040866 -0.96755 0.077425 0.240028
-0.352304 0.256218 -0.083883 0.101521 -0.298314 -0.948561
0.067984 0.145251 0.128088 0.238096 0.034701 0.967858
-0.256647 0.306575 -0.078077 0.655274 -0.437996 -0.615395
-0.181891 0.527504 -0.027639 -0.69385 0.706861 -0.13079
-0.34788 0.213222 -0.033203 0.621904 -0.779201 -0.056969
0.137042 0.469394 -0.144319 0.102226 0.076203 -0.991558
-0.13916 0.552828 -0.041231 -0.466571 0.811118 -0.34937
0.322985 0.396462 -0.035009 0.646266 0.17957 0.726277
-0.042906 -0.133684 0.124375 -0.021627 -0.099474 0.994665
-0.107751 -0.472021 -0.073407 -0.684144 0.120673 -0.719249
-0.115849 -0.22827 0.095761 -0.691455 -0.043335 0.721078
0.537876 0.13035 -0.000267 -0.751517 -0.659485 -0.003121
0.139238 0.531208 0.024099 0.289659 0.64489 0.70661
0.003315 0.632364 0.016478 -0.725485 -0.188583 0.660641
-0.234344 0.450698 -0.057117 -0.661194 0.593319 -0.458196
-0.045696 -0.159549 0.122804 -0.055525 0.008415 0.998234
0.100969 0.753097 -0.053087 0.946531 -0.234345 -0.214775
0.135239 -0.816702 0.071583 0.286286 0.896289 0.332671
-0.048675 0.523934 -0.115894 -0.198389 0.439112 -0.875264
-0.491838 0.154399 0.055498 -0.389004 0.844952 0.350509
-0.374308 0.195071 -0.029589 0.623393 -0.77625 -0.040727
-0.36059 0.2962 -0.004904 -0.330878 0.592354 0.729417
0.149313 -0.866783 -0.044287 0.46763 -0.875647 0.087363
0.000567 -0.13285 -0.073211 0.793951 -0.172734 -0.582893
-0.463642 0.13245 0.01109 0.596312 -0.797114 -0.0262
0.095174 0.744596 -0.072387 0.922731 -0.217644 -0.299949
0.095304 -0.285488 -0.097245 -0.305751 0.030783 -0.949416
-0.03403 0.159494 0.116659 -0.510136 0.05005 0.858395
0.199846 -0.603811 -0.03226 0.997331 -0.063062 -0.031614
-0.086907 0.21982 0.079203 -0.580524 0.13174 0.803357
-0.103457 -0.861329 0.075195 -0.535954 -0.816237 0.015169
-0.094873 -0.833541 0.099206 -0.642465 0.756908 0.108562
-0.033024 -0.574244 0.037024 0.421892 -0.274721 0.861798
-0.262612 0.281812 -0.04911 0.723493 -0.686441 -0.050175
-0.060494 -0.863744 0.115795 0.002323 -0.999413 0.024495
0.058382 -0.178066 0.074531 -0.648409 -0.058301 0.758359
0.132169 0.539651 -0.121549 0.176901 0.476272 -0.86107
0.10095 0.80023 -0.001106 0.915101 0.323745 0.228527
0.179063 0.103108 -0.060942 0.795769 0.282374 -0.535238
0.148404 0.00511 -0.126814 0.677191 0.120987 -0.725704
-0.125709 -0.618683 -0.003406 -0.919026 -0.062347 0.354519
0.155134 -0.229139 -0.08448 0.522688 -0.129174 -0.842501
0.106899 0.183601 -0.111548 0.364498 -0.100298 -0.921084
-0.097734 -0.849802 -0.042421 -0.802931 -0.590009 -0.049473
0.105551 -0.759804 -0.091689 -0.774522 0.008365 -0.561358
-0.022516 -0.217684 0.112761 0.250232 -0.140204 0.956656
0.026243 0.08767 -0.141789 -0.162282 0.246869 -0.955252
0.18732 -0.757359 -0.032292 0.843739 -0.067709 -0.529343
-0.027226 -0.745972 0.004789 0.344197 -0.577091 0.685747
0.166327 0.095794 0.07853 0.611815 0.23638 0.741742
-0.300071 0.364074 -0.05595 -0.691143 0.675351 -0.251991
0.161034 0.568606 -0.028335 0.344916 0.834093 0.425354
0.087984 -0.053565 0.123564 0.001724 -0.392773 0.918522
0.390817 0.291519 -0.041179 0.169031 0.29634 0.939784
-0.012576 0.687704 -0.038967 -0.887475 -0.32933 -0.317643
0.637609 0.050428 0.05483 0.867149 0.494064 0.028704
0.291121 0.329401 -0.089853 -0.663176 -0.746229 -0.026182
0.019282 -0.215065 0.073027 0.958379 -0.02862 0.280518
0.00764 -0.42465 -0.048536 0.785266 -0.016333 -0.618752
-0.107004 0.340122 -0.088277 -0.714373 -0.20146 -0.667786
-0.010104 -0.784463 -0.129585 0.687049 0.387032 -0.606426
-0.025145 0.170517 -0.108136 -0.258319 -0.208607 -0.93775
0.165122 -0.812324 -0.095729 0.864378 -0.101228 -0.481703
-0.375882 0.295175 -0.065604 -0.661676 0.645294 -0.377338
0.193451 -0.485558 0.020767 0.954082 0.039316 0.29515
0.23124 0.431383 -0.134003 -0.250903 -0.099781 -0.961886
0.073976 0.625784 -0.057483 0.589237 0.462365 -0.650006
0.015652 -0.435824 0.027406 0.846112 -0.055691 0.529084
-0.114879 0.292292 -0.030048 -0.959888 -0.269695 0.018742
0.016451 0.569139 0.025612 -0.191304 0.091406 0.974534
0.107612 -0.79082 -0.109667 -0.416626 0.420255 -0.798947
0.109702 -0.414554 0.058748 -0.458053 -0.233012 0.857773
0.205104 -0.551092 -0.029046 0.986384 -0.053709 -0.135199
-0.371685 0.303057 -0.046736 -0.688433 0.725076 -0.011166
-0.122544 0.115929 -0.034111 -0.91874 0.030737 -0.393068
0.040844 0.480971 -0.127222 -0.181594 0.070442 -0.980739
0.214509 -0.112795 0.004077 0.999581 -0.005448 0.00295
0.086929 -0.842304 0.03662 -0.995624 0.08421 -0.001262
0.111566 -0.548351 -0.104612 -0.344198 -0.079583 -0.932943
-0.349395 0.321464 -0.05845 -0.576546 0.806745 -0.101038
0.008052 -0.317504 -0.048101 0.761922 -0.039064 -0.646408
-0.268488 0.280074 -0.024682 0.664401 -0.672937 0.320582
0.204189 -0.387556 0.009034 0.962954 -0.010198 0.261619
0.007603 0.221919 -0.12737 0.080802 -0.065222 -0.993898
0.134189 -0.276395 -0.091156 0.475197 -0.06273 -0.876154
-0.172909 0.433097 -0.094049 -0.066846 0.126539 -0.989105
-0.096457 0.383598 0.070382 -0.610649 -0.141649 0.778889
-0.108022 0.158555 -0.053144 -0.839609 0.136222 -0.525598
0.062282 -0.061981 -0.132582 -0.314856 -0.407041 -0.857414
0.063593 -0.03808 0.13042 0.033917 -0.176254 0.983305
-0.083975 -0.60336 0.054183 0.375622 -0.22911 0.881674
0.548963 0.113674 0.019949 -0.918438 -0.366243 0.12073
0.166885 -0.862984 0.060116 0.251032 -0.956986 -0.026712
-0.108986 -0.099337 -0.071629 -0.768149 -0.119024 -0.628771
0.287254 0.432173 -0.135926 0.263285 0.366416 -0.889944
0.089759 0.713164 0.048948 0.962038 -0.07143 0.246107
0.065925 0.511256 -0.129285 -0.145377 0.106167 -0.98329
-0.137319 -0.452231 -0.023449 -0.974454 0.066601 -0.2134
0.148888 0.147277 0.081724 0.696927 0.042416 0.715869
-0.128351 -0.380652 0.022534 -0.986992 0.124529 0.070221
0.159033 -0.823144 -0.099433 0.714507 -0.339025 -0.598891
-0.550984 0.08341 0.038799 -0.822614 0.563661 -0.022833
-0.004346 -0.507721 0.036691 0.62131 -0.221428 0.751302
-0.001753 -0.830296 -0.091466 0.407667 -0.890462 -0.121923
0.170991 0.221169 -0.052762 0.880369 -0.019651 -0.473812
-0.014353 -0.589823 0.026736 0.273165 -0.129787 0.946528
0.129851 0.566858 -0.010829 0.267255 0.753588 0.600206
0.198561 0.152386 0.006801 0.934206 0.348746 0.05683
0.172608 -0.762664 0.020491 0.541892 0.097677 0.83073
0.034745 0.048389 0.13561 0.105178 0.063926 0.992349
0.183188 -0.538711 0.0379 0.789337 -0.119994 0.601046
0.036848 0.657265 -0.065664 0.003441 -0.119079 -0.991222
0.144682 -0.825866 0.097062 0.293647 0.94107 0.150767
0.242625 0.469031 -0.129506 0.213483 0.313035 -0.924994
-0.042476 -0.304536 -0.090445 0.141093 -0.088228 -0.98107
-0.079902 -0.55842 0.0612 0.440788 -0.175386 0.879474
0.212404 0.42235 -0.005264 0.334293 -0.854714 0.373773
0.155465 0.137371 -0.081943 0.768829 0.12313 -0.627366
0.004126 0.415474 -0.12833 0.062523 0.024505 -0.997544
0.177116 -0.718063 -0.052266 0.793472 -0.097571 -0.596838
0.082222 -0.712831 -0.06646 -0.893886 -0.092327 -0.437082
0.093927 -0.865091 0.127366 -0.4889 -0.860885 0.136957
0.177728 0.29694 0.02984 0.945135 0.029966 0.324886
-0.138296 -0.008056 0.005708 -0.996375 0.083768 -0.012905
-0.030113 -0.607759 -0.093475 0.506157 -0.001671 -0.861724
-0.491165 0.160616 -0.008794 -0.789094 0.610451 -0.062566
-0.102917 0.110581 0.072583 -0.69696 0.344086 0.62197
0.191011 0.381828 0.017313 0.940745 -0.14922 0.299253
0.064235 -0.345166 0.049997 -0.694278 -0.241991 0.675452
-0.118609 0.224378 0.01674 -0.950911 0.269479 0.147991
-0.107666 0.307551 -0.078614 -0.810751 -0.118455 -0.572849
-0.128638 -0.56249 -0.010418 -0.966789 -0.100787 0.234766
0.118796 -0.053774 0.11913 0.285336 -0.083608 0.953654
-0.010417 0.611395 -0.00029 -0.882116 0.08834 0.460427
-0.163197 0.424747 -0.09472 0.075527 -0.04168 -0.994894
0.072131 0.124426 0.127688 0.274958 0.039644 0.956847
0.008768 -0.729835 -0.083461 0.732333 0.108027 -0.671821
0.114817 0.517203 -0.134191 0.032365 0.417507 -0.904536
0.110275 0.150851 -0.113386 0.370398 0.196355 -0.906497
0.114384 0.113027 -0.123725 0.484054 0.379033 -0.78783
0.321333 0.42601 -0.049859 0.736212 0.308947 0.596732
0.248968 0.481396 -0.000943 0.493925 0.091364 0.860484
-0.100177 -0.773157 -0.10298 -0.733484 0.110833 -0.670207
0.053878 -0.585225 -0.048885 -0.806199 -0.025461 -0.590089
0.029004 0.867082 0.004076 -0.382421 0.890275 0.239843
-0.017239 0.81728 0.034806 -0.826053 0.362399 0.427926
-0.128141 0.385551 -0.034572 -0.996618 -0.079362 -0.001882
-0.125156 0.195674 0.021228 -0.935328 0.204157 0.284744
0.112461 -0.371209 0.070062 -0.436702 -0.253012 0.862535
0.14106 -0.325099 0.080039 0.10015 -0.062952 0.992799
-0.060998 -0.224518 0.11507 -0.06139 -0.160877 0.983624
0.109259 0.270395 -0.136053 0.352108 -0.057287 -0.933784
0.129862 -0.662475 -0.094203 0.10477 -0.048977 -0.989235
0.104617 -0.406283 -0.099693 -0.345187 0.019551 -0.935868
-0.065943 -0.82818 0.13278 -0.071389 0.983855 0.146606
0.072785 0.692803 -0.061099 0.653129 -0.51732 -0.550915
0.109249 0.732637 -0.022207 0.828784 -0.340553 -0.360329
0.033557 -0.227112 0.021813 0.866866 -0.151864 0.472105
0.171775 0.21637 0.050107 0.761823 0.058346 0.644953
-0.160208 0.394668 -0.079222 0.607071 -0.627393 -0.484291
0.052944 0.49756 -0.128455 -0.162534 0.059707 -0.984618
-0.009374 0.322904 0.113351 -0.110604 0.073943 0.991015
0.050889 0.351132 0.111846 0.174261 0.189902 0.96516
-0.095607 -0.155348 0.112764 -0.319119 -0.048524 0.940897
-0.034066 -0.346305 -0.083811 0.509605 -0.097395 -0.854622
0.028128 -0.334435 0.00367 0.998552 -0.049552 -0.003761
0.01689 -0.783098 -0.072784 0.97047 -0.144215 -0.139008
0.039875 0.750748 0.096037 0.512777 0.409943 0.72581
-0.021397 0.817793 -0.088345 -0.503709 0.560017 -0.645837
-0.061734 -0.30936 0.104634 0.149435 -0.086083 0.984697
-0.069305 -0.819203 -0.138065 -0.617029 0.015039 -0.782962
0.584522 0.065701 -0.02117 0.400165 0.473816 -0.684584
-0.128147 -0.667095 -0.05917 -0.998389 -0.008315 -0.036975
-0.002843 0.859877 -0.003247 -0.586706 0.80381 0.038575
-0.091397 0.018275 0.10969 -0.568845 0.296772 0.766289
0.016289 -0.788357 -0.058182 0.896094 -0.418252 0.080111
0.001379 0.093695 0.134767 -0.265254 0.004587 0.960765
0.034194 -0.286474 -0.025478 -0.950807 -0.115555 -0.270654
-0.06857 0.062906 0.11107 -0.355429 0.165388 0.916989
0.133262 -0.826319 0.141038 0.235313 0.965877 0.087421
-0.009794 -0.181939 -0.077634 0.617371 -0.013003 -0.786482
-0.405637 0.224352 -0.065407 -0.419287 -0.145146 -0.895582
0.182585 0.245143 0.015213 0.998002 -0.013531 0.060852
-0.183906 0.521865 -0.04024 -0.691943 0.659595 -0.288128
-0.018948 0.414857 0.102412 -0.10244 0.303436 0.945972
-0.072511 -0.509589 -0.098222 -0.189326 0.083753 -0.977786
0.153699 -0.209415 -0.08851 0.55828 -0.164423 -0.812756
0.046445 -0.516213 -0.016679 -0.673198 0.024669 0.687472
0.18001 0.159633 -0.039313 0.843797 0.054725 -0.532389
0.208227 0.501481 0.016768 0.262118 0.267077 0.925708
-0.020853 -0.837717 -0.046133 0.87923 -0.47338 0.006013
-0.137969 -0.007315 -0.007309 -0.997199 0.058814 -0.042036
-0.086403 0.556067 -0.080464 -0.41782 0.654561 -0.629883
-0.142431 -0.090566 -0.012523 -0.970219 0.000927 -0.232398
-0.126882 -0.689014 -0.066816 -0.966406 -0.062661 -0.234744
-0.052073 -0.073184 0.127008 -0.212888 -0.079681 0.971853
-0.131749 -0.251857 0.058398 -0.952149 -0.149602 0.260216
0.083646 0.804206 0.045699 0.878058 0.265075 0.393988
0.102142 0.108048 0.116049 0.502001 0.096699 0.857145
0.019676 -0.094715 0.111265 0.587242 -0.257112 0.766296
0.045447 0.85936 0.038891 0.300834 0.78544 0.540055
0.064642 -0.186891 -0.087726 -0.63321 -0.220237 -0.73895
0.11134 0.447123 -0.147002 -0.011208 -0.002434 -0.999439
-0.043143 -0.571075 0.042916 0.42851 -0.230367 0.873355
0.092996 0.541234 -0.125757 -0.022468 0.46595 -0.881001
-0.025162 0.502999 0.06893 -0.101001 0.450962 0.885882
-0.118122 0.312208 -0.008292 -0.979436 -0.093996 0.175967
0.585201 0.047343 -0.00289 -0.838934 -0.543703 -0.012342
-0.121283 -0.28613 -0.029481 -0.830399 0.031672 -0.554689
0.056134 -0.281393 0.055047 -0.751396 -0.139817 0.644855
-0.018631 -0.216125 -0.084108 0.533609 0.013637 -0.845415
0.209334 0.479356 0.020635 0.357155 0.104662 0.925708
0.044296 0.863111 0.029944 0.098912 0.963057 0.239833
0.108568 -0.475489 -0.104284 -0.282335 0.043862 -0.957412
0.165044 -0.3929 -0.077424 0.561362 0.178052 -0.807563
0.178554 -0.092417 -0.082746 0.788692 -0.078394 -0.609698
-0.021122 -0.489311 -0.086459 0.657415 0.09255 -0.745766
-0.080258 -0.167859 -0.087689 -0.57858 -0.137879 -0.803746
0.180573 -0.197632 0.084195 0.574797 -0.107579 0.807876
-0.031409 0.459346 -0.131481 0.087207 0.047176 -0.994723
-0.393766 0.239381 0.011194 -0.037558 0.185891 0.98123
0.190384 0.540083 0.00034 0.273573 0.642051 0.715042
-0.02577 -0.025819 -0.135435 -0.097758 -0.22194 -0.969503
-0.134342 0.538963 0.032443 -0.174077 0.706118 0.685825
-0.278836 0.401954 -0.015695 -0.672771 0.682873 0.280955
-0.097386 0.045701 0.098649 -0.367 0.186236 0.911058
-0.018102 0.783554 -0.100464 -0.722981 -0.050037 -0.688381
0.111503 -0.548665 0.039303 -0.431065 -0.047375 0.900343
-0.129294 -0.605741 -0.029289 -0.996723 -0.026564 0.074554
-0.140371 -0.079474 0.042123 -0.950806 0.016251 0.308787
0.044258 -0.364707 0.012782 -0.958332 -0.093477 0.262656
0.065291 0.423987 -0.138079 -0.297763 0.0454 -0.953017
-0.307238 0.302224 -0.096682 -0.053869 -0.068308 -0.995728
0.492951 0.193873 0.000659 0.015518 0.813877 0.453642
0.156857 -0.416198 0.07313 0.003376 -0.085837 0.994082
-0.240874 0.435318 0.007248 -0.735295 0.505686 0.450927
0.284486 0.392097 -0.143941 -0.14715 -0.03239 -0.986248
-0.470037 0.183466 0.013523 -0.641517 0.710269 0.259214
0.087479 -0.360981 -0.093903 -0.50368 -0.054713 -0.861999
-0.043227 -0.825262 -0.146125 0.087852 -0.276538 -0.956226
-0.128112 -0.697718 -0.050275 -0.997512 -0.007207 0.033989
-0.089748 0.390735 0.076585 -0.60725 -0.07512 0.790904
-0.027653 -0.718005 0.027303 0.082372 -0.104803 0.959313
0.08242 0.618742 -0.007017 0.93447 0.066192 0.343273
0.137507 0.175632 0.09172 0.680657 0.020111 0.732237
0.118331 -0.348707 -0.09937 0.27837 0.063951 -0.956539
0.165103 0.321519 0.052318 0.729763 0.033585 0.680768
-0.480074 0.130503 -0.008291 0.311481 -0.790769 -0.521938
0.067536 0.547743 0.029264 -0.107701 0.679032 0.711563
0.343679 0.417861 -0.099217 0.743305 0.667701 -0.024757
0.175563 -0.346664 -0.056641 0.709264 0.094444 -0.697709
0.159983 -0.859514 -0.076464 0.848474 -0.489701 -0.17974
0.197131 0.381412 -0.084817 0.949073 -0.233053 -0.207539
0.00897 0.684933 0.081383 -0.63466 0.022662 0.767883
0.001187 -0.683074 0.012417 0.772937 -0.193211 0.600308
-0.063255 -0.064551 0.124536 -0.316236 -0.055701 0.946846
0.20607 -0.160275 0.027139 0.983249 -0.098051 0.139643
0.47764 0.184168 -0.002076 -0.590328 -0.782757 0.191363
0.194401 -0.528329 -0.061486 0.843502 0.005996 -0.536735
0.021797 0.725645 -0.104484 -0.147652 -0.538963 -0.828104
0.094202 -0.694834 -0.082392 -0.684082 0.020431 -0.729019
-0.128072 0.079942 0.022295 -0.992754 0.07063 0.091854
0.401554 0.240667 -0.118598 -0.32932 -0.52965 -0.765733
0.213855 -0.119888 0.017284 0.99288 -0.062204 0.089878
0.190555 -0.748288 -0.027143 0.886419 -0.253649 -0.360053
0.155732 0.525132 -0.124023 0.215792 0.581107 -0.781875
-0.138174 -0.037424 0.041399 -0.975237 0.106639 0.190176
0.235397 0.37854 -0.096587 -0.718915 -0.690378 -0.068006
-0.359705 0.207318 -0.032439 0.499605 -0.863728 -0.046272
0.430813 0.254281 -0.029542 -0.1442 0.355875 0.917986
-0.02193 -0.202868 -0.0862 0.532719 -0.014321 -0.844212
0.133792 -0.226974 -0.097196 0.37462 -0.123575 -0.916683
-0.037775 0.125328 -0.11621 -0.343167 0.425284 -0.836512
0.584866 0.047819 0.006952 -0.847747 -0.529603 -0.000922
-0.139903 0.010642 0.001086 -0.971954 -0.202091 -0.114839
-0.409489 0.233211 -0.064364 -0.527241 -0.084752 -0.843779
0.071288 -0.425477 -0.075335 -0.705932 0.009781 -0.708034
-0.216664 0.463976 -0.061758 -0.6494 0.517431 -0.512204
-0.288125 0.262603 -0.01994 0.737554 -0.554103 0.383343
-0.139319 -0.111971 -0.019943 -0.923929 -0.063421 -0.375782
0.578009 0.061131 -0.00889 -0.933511 -0.352434 -0.004419
0.515619 0.153625 -0.006697 -0.654549 -0.755616 0.022728
-0.44259 0.194187 0.017715 -0.232677 0.503413 0.82776
0.526919 0.199292 0.008619 -0.019922 0.940303 0.333323
0.166201 -0.440759 -0.085276 0.656125 0.182819 -0.732065
0.091278 -0.83556 0.094999 -0.873937 0.468658 0.089668
0.126406 -0.742224 -0.099621 0.018062 0.070286 -0.992429
-0.522364 0.072768 0.052108 0.606817 -0.780658 -0.139452
-0.128191 -0.55083 -0.060673 -0.91675 0.070196 -0.391021
-0.004368 0.087301 -0.136374 -0.133133 0.207579 -0.969061
0.32036 0.44854 -0.084583 0.713071 0.697194 -0.056847
-0.098841 0.009111 -0.10486 -0.85095 0.00017 -0.492384
-0.125012 -0.103345 0.080541 -0.805951 0.039715 0.590586
0.097399 -0.401682 0.055422 -0.532855 -0.212568 0.817997
0.44277 0.209084 -0.030881 -0.877398 -0.320823 0.346679
0.189763 0.110203 0.04107 0.924846 0.115114 0.35278
0.345436 0.396234 -0.070607 0.740913 -0.583703 0.233695
0.149969 0.126719 0.081871 0.657656 0.034042 0.751759
0.19073 -0.391749 0.047706 0.93289 -0.027111 0.358396
0.069637 0.472558 -0.136988 -0.270845 0.123989 -0.954253
-0.107 0.004329 0.102623 -0.683182 0.053917 0.72114
-0.110481 0.240381 -0.055052 -0.928958 -0.164699 -0.30412
0.075219 -0.116773 -0.111561 -0.283598 -0.23916 -0.921729
0.01741 0.385685 -0.128051 0.002256 -0.020665 -0.999332
-0.014822 0.607425 -0.062325 -0.528173 0.690712 -0.490925
-0.027359 0.733604 0.03208 -0.987961 -0.051665 0.143331
0.12597 -0.291095 0.082672 -0.001692 -0.05662 0.99827
0.574722 0.12309 -0.005221 0.560107 0.266429 -0.782647
-0.068117 -0.270553 0.10987 0.061306 -0.144277 0.987467
0.088644 -0.503503 0.026057 -0.558006 0.035692 0.828801
0.130302 -0.612085 -0.09946 0.036392 -0.1337 -0.987435
0.062416 -0.654896 0.01274 -0.302206 0.296372 0.90443
0.02498 -0.394344 0.003975 0.973521 -0.173698 0.096553
0.064105 0.583521 0.016721 0.529724 0.056389 0.843908
0.023803 -0.036111 -0.133003 -0.098384 -0.479077 -0.871087
-0.220652 0.338321 -0.005098 0.480773 -0.657955 0.569094
-0.081185 -0.826807 0.098573 -0.235821 0.961079 0.116881
0.119171 -0.556656 0.041755 -0.31015 -0.089307 0.94573
-0.308936 0.31293 0.004815 -0.159199 0.089039 0.982931
0.043282 -0.306856 0.025051 -0.986322 -0.019761 0.153172
-0.068885 -0.808408 -0.13929 -0.566189 -0.136326 -0.80997
-0.131628 0.415998 -0.086737 -0.635117 -0.599784 -0.426345
-0.077552 0.008544 -0.123847 -0.573574 -0.040004 -0.817585
0.190416 0.018669 -0.064802 0.903766 -0.018277 -0.423227
-0.099311 -0.285609 -0.062597 -0.745105 -0.004891 -0.66687
0.161001 -0.193939 -0.085996 0.617893 -0.084948 -0.781564
-0.101152 0.175807 -0.060967 -0.751765 0.114864 -0.647056
-0.371134 0.277411 0.002874 -0.262057 0.384699 0.883951
-0.023635 -0.006757 0.144726 -0.186647 -0.092311 0.94257
0.012487 0.544382 -0.114389 -0.026687 0.396887 -0.917363
0.068225 -0.285348 0.067597 -0.687926 -0.154026 0.707397
-0.125176 -0.681222 -0.033125 -0.941532 -0.115023 0.308799
0.41678 0.256287 -0.032107 -0.123489 0.194186 0.966842
-0.018132 0.249813 -0.129721 -0.039309 -0.066252 -0.996585
0.082334 0.666885 -0.029262 0.979515 0.01882 -0.191321
-0.015132 -0.414009 0.072618 0.489507 -0.18125 0.852709
0.049764 0.594334 -0.089469 0.041899 0.608478 -0.792146
0.436656 0.233431 -0.107602 0.499657 -0.353594 -0.784567
-0.046895 -0.748809 0.014746 0.558155 -0.472446 0.658607
0.450813 0.277365 -0.09876 0.719251 0.360274 -0.587505
-0.029178 -0.055041 0.130511 -0.068572 -0.092864 0.992974
0.022773 -0.313992 0.051287 0.885334 -0.094418 0.453898
0.01101 0.619469 -0.067914 -0.261337 0.524752 -0.801245
0.025345 -0.595956 -0.035065 0.926305 0.09627 -0.34114
0.211404 0.557402 -0.05475 0.46213 0.879379 -0.055536
0.201744 -0.19947 -0.047568 0.85816 -0.007171 -0.512116
-0.296731 0.249035 -0.05601 0.56085 -0.792464 -0.226453
0.01199 0.162375 0.130537 -0.072352 0.018884 0.996908
0.199785 0.550525 -0.084103 0.287516 0.813752 -0.502518
0.019279 0.22534 0.128259 -0.01999 0.039342 0.998971
0.213477 -0.079313 0.025312 0.989417 -0.008862 0.133335
0.021173 -0.542793 -0.004104 0.937628 -0.095831 0.330691
0.077971 -0.16776 -0.10098 -0.416556 -0.221521 -0.881414
0.33378 0.427901 -0.076754 0.816548 0.54846 0.167668
0.568457 0.095378 0.055792 -0.788269 -0.151677 0.58188
-0.079648 -0.7533 0.023949 -0.338876 -0.027832 0.863058
-0.23486 0.346446 0.010076 0.377595 -0.401647 0.832377
-0.136486 -0.419444 0.014816 -0.990576 0.03054 0.12906
0.024276 -0.570061 -0.008355 0.904191 0.070385 0.413057
-0.137353 -0.468725 0.002706 -0.980924 -0.031872 0.190541
0.035593 0.865631 -0.038024 -0.033771 0.956978 -0.27054
-0.142814 0.42929 0.05046 -0.638119 -0.350895 0.682093
0.081266 0.627707 -0.002563 0.932966 -0.032446 0.339112
-0.080284 0.309172 -0.107209 -0.652064 -0.049316 -0.756101
0.103707 -0.257381 -0.098686 -0.201826 0.027842 -0.975939
0.024945 -0.196523 0.056444 0.95982 0.009093 0.279503
0.021362 -0.677702 -0.017639 0.864802 -0.209097 0.45617
0.02207 -0.524587 -0.02767 0.906221 -0.044149 -0.41527
-0.09333 0.195916 0.076013 -0.672915 -0.003888 0.739479
0.126736 -0.725758 -0.097482 0.145287 0.170077 -0.969907
0.003314 -0.828027 -0.070982 0.832573 -0.553421 -0.016061
0.039079 0.015335 0.142144 0.059444 0.176941 0.982313
0.199091 -0.177871 0.048291 0.967462 -0.051322 0.247557
0.083644 0.538082 -0.126846 -0.095745 0.380347 -0.916325
0.199915 -0.472997 -0.026706 0.998122 0.038012 -0.023155
-0.01181 0.354151 0.110022 -0.374593 0.168602 0.905184
0.172247 0.347511 0.043235 0.827068 -0.060837 0.558017
-0.193011 0.360724 -0.074179 0.561342 -0.662548 -0.493498
-0.093985 -0.595129 -0.097359 -0.463115 0.043574 -0.885209
0.354293 0.375172 -0.095208 0.742038 0.668392 0.046984
-0.103889 0.240466 0.058697 -0.852976 0.172167 0.477046
-0.097102 0.572632 -0.028414 -0.381884 0.904063 0.011649
0.040707 0.69463 -0.081144 0.128348 -0.618356 -0.774575
-0.090819 -0.715156 0.013157 -0.27958 -0.522365 0.797811
-0.137879 -0.018521 -0.013607 -0.992645 0.058942 -0.088846
-0.104196 0.560735 -0.060355 -0.462209 0.745553 -0.47933
0.582772 0.05782 -0.028059 -0.170928 -0.062321 -0.867202
-0.043695 0.576698 -0.087572 -0.394284 0.661283 -0.635537
0.104518 -0.754708 0.021732 -0.186322 -0.497264 0.811674
-0.31824 0.320155 0.002173 -0.286476 0.263388 0.918403
0.049637 -0.226908 0.056647 -0.843489 -0.138273 0.51615
-0.087302 0.546521 0.02832 -0.037049 0.741444 0.669788
-0.111164 -0.644922 0.029092 -0.858874 -0.06878 0.506864
0.278654 0.340016 -0.066032 -0.466686 -0.850285 0.221641
0.089205 -0.253537 -0.092925 -0.450763 0.043185 -0.891391
0.055264 -0.139816 -0.09159 -0.661817 -0.224713 -0.714723
-0.086081 -0.643045 -0.105181 -0.27068 0.05922 -0.960299
0.012584 -0.588586 0.007192 0.560011 0.038177 0.825927
0.038221 0.077177 0.133039 0.083904 0.086825 0.991697
-0.083628 0.042555 0.10548 -0.451443 0.165906 0.87207
0.060307 -0.354199 0.042227 -0.708864 -0.267527 0.65252
-0.096808 -0.822827 0.032215 -0.859151 0.468024 0.187304
-0.256128 0.288992 -0.050074 0.76111 -0.636637 -0.102212
0.125469 -0.489417 0.052062 -0.554295 -0.10717 0.825343
0.165047 0.131368 -0.070709 0.83912 0.15113 -0.521544
0.035016 -0.327625 -0.01589 -0.997087 -0.041421 -0.062004
0.19315 -0.095851 0.073168 0.746162 0.002897 0.665735
0.153804 -0.849327 -0.094378 0.868018 -0.067118 -0.487117
-0.138278 -0.478531 -0.025433 -0.968653 0.037195 -0.240448
-0.051281 -0.309479 0.10245 0.203955 -0.105698 0.971102
0.287108 0.354915 -0.035785 -0.091212 -0.796868 0.587571
0.617714 0.052753 0.062083 -0.767922 -0.639283 -0.008965
-0.552477 0.080768 0.024191 -0.747583 0.644614 -0.108192
0.149314 0.577072 -0.068128 0.526156 0.787485 -0.308013
0.098572 -0.626027 0.029771 -0.662092 -0.254514 0.700706
0.133848 -0.552133 0.046261 -0.21311 -0.175643 0.957612
0.274509 0.344961 -0.102197 -0.628959 -0.685758 -0.363287
0.021601 0.398444 -0.128123 -0.035037 0.001285 -0.999041
0.204444 -0.259748 0.029312 0.990349 0.007142 0.132712
0.060494 -0.793647 -0.013546 -0.962688 -0.231429 0.004449
0.134979 0.300193 0.085746 0.734479 0.047427 0.676959
-0.010309 0.058831 -0.142826 -0.162217 0.209969 -0.964042
0.192991 -0.683257 -0.040202 0.789342 -0.154584 -0.592064
-0.112062 0.271628 -0.003097 -0.999679 0.000733 0.023809
-0.090682 -0.106431 0.112995 -0.364782 0.03958 0.929977
0.172084 -0.389327 -0.071641 0.666001 0.141871 -0.713569
0.587409 0.124624 0.010492 0.771041 0.584533 -0.176825
0.522939 0.189846 -0.050337 0.149106 -0.493265 -0.851541
0.180013 0.195682 0.039814 0.925597 0.051149 0.36922
-0.248749 0.354768 -0.096413 0.126448 -0.201318 -0.969702
0.04223 -0.359766 0.003963 -0.971001 -0.095932 0.214779
0.082731 -0.529355 -0.086899 -0.693581 -0.073118 -0.716189
0.016407 -0.408254 0.032615 0.913567 -0.144137 0.375537
0.001033 -0.819177 -0.031353 0.963139 -0.069913 0.257988
-0.059302 0.549271 -0.101118 -0.363196 0.517816 -0.774344
0.139381 -0.864545 0.159287 0.040019 -0.983142 0.176381
0.192491 -0.338849 0.049787 0.915884 -0.073236 0.394108
0.206723 -0.146562 0.036829 0.968444 -0.149126 0.196721
0.214081 -0.1048 -0.00813 0.995052 0.03117 -0.090082
0.032165 0.202912 -0.118175 0.159933 -0.516171 -0.841109
-0.027695 0.340594 -0.12862 -0.051045 0.012486 -0.998454
0.097781 -0.819091 0.069213 -0.613587 0.690112 0.354582
0.5938 0.057349 0.020232 0.944766 -0.272898 0.0849
0.537989 0.169624 -0.032151 0.592675 -0.322705 -0.735737
0.185043 0.565901 -0.061189 0.31038 0.931797 -0.140378
0.02382 -0.34703 0.037545 0.890521 -0.21137 0.391947
0.301224 0.320416 -0.099513 -0.695203 -0.709929 -0.104082
0.561299 0.093315 0.038292 -0.829007 -0.514272 0.213675
-0.107748 0.330433 0.032893 -0.904859 -0.151345 0.39689
0.10111 -0.217681 0.091675 -0.133312 -0.18885 0.972402
0.146067 -0.678275 0.02726 0.173739 -0.181054 0.967414
-0.398867 0.267531 -0.067214 -0.86473 0.348537 -0.357531
0.250698 0.362834 -0.080833 -0.698836 -0.715229 -0.001262
0.492362 0.171008 -0.029064 -0.629742 -0.775891 -0.034511
-0.079297 0.493316 -0.121122 -0.261784 0.268512 -0.926905
0.200072 -0.259363 0.046794 0.942079 -0.015889 0.334434
0.20638 -0.210564 -0.026371 0.996723 -0.033234 -0.070165
0.197236 -0.581896 -0.055384 0.924077 -0.020897 -0.374063
0.18337 0.501395 0.025413 0.380003 0.283831 0.878945
0.024273 -0.121494 -0.053986 -0.508026 -0.535546 -0.497178
-0.047491 0.58521 -0.072102 -0.467197 0.739089 -0.479674
-0.091231 0.532546 0.04109 -0.013268 0.591674 0.805678
-0.21862 0.332082 -0.05042 0.592302 -0.795747 -0.120521
0.01011 0.384097 0.106478 0.002775 0.205569 0.978245
0.007155 -0.555985 0.014002 0.685176 -0.144327 0.712752
0.012099 -0.670333 -0.066839 0.581942 0.209547 -0.785297
-0.092033 -0.839774 0.133073 -0.687214 0.681305 0.247009
-0.127272 -0.737146 -0.037888 -0.993559 -0.017418 0.105012
-0.07274 -0.083204 -0.106563 -0.436671 -0.225979 -0.868071
-0.127163 0.555573 -0.048971 -0.376031 0.815076 -0.430611
0.008889 0.833561 -0.091082 -0.260551 0.730914 -0.629931
0.02054 -0.285086 -0.031607 0.949531 -0.065777 -0.305314
-0.443614 0.211721 0.006192 -0.595346 0.495891 0.625699
0.022209 -0.728711 -0.057409 0.975388 -0.009101 -0.210124
-0.142382 0.417653 0.038565 -0.411379 -0.799844 0.413292
0.189638 0.172786 0.019216 0.964509 0.187118 0.171991
-0.012411 0.688922 0.05272 -0.801479 -0.302884 0.510329
-0.295205 0.260347 -0.07498 0.487272 -0.648257 -0.580515
-0.05824 -0.203115 0.119453 -0.133348 -0.139784 0.976466
-0.554873 0.071356 0.081939 -0.840831 0.35038 0.342611
0.120408 0.041815 -0.142553 0.484265 0.20781 -0.849226
0.076196 -0.224988 0.082118 -0.47784 -0.132651 0.866573
0.143009 -0.240401 -0.089679 0.495642 -0.148198 -0.855642
-0.0651 -0.362208 0.098329 0.139934 -0.16965 0.975479
-0.493414 0.137855 -0.023795 -0.321167 -0.585746 -0.66001
-0.051203 0.395186 0.09913 -0.317433 0.130869 0.937839
-0.107128 0.361927 -0.094612 -0.636089 -0.210969 -0.740117
0.190306 0.357271 -0.074453 0.819676 -0.436207 -0.369359
0.194153 -0.34718 0.04423 0.910461 -0.066847 0.407291
0.012148 0.736723 -0.109017 -0.30934 -0.471919 -0.82172
0.026778 -0.579786 -0.01528 0.990837 0.032118 0.124341
0.008006 0.588679 0.01989 -0.462826 0.122998 0.876763
0.312688 0.448507 -0.051463 0.740823 0.486449 0.458459
0.017457 -0.767327 -0.043384 0.971855 -0.10212 0.198686
-0.037681 0.562315 -0.101695 -0.241508 0.559988 -0.791326
0.095198 0.263731 -0.138467 0.078996 -0.071963 -0.993023
0.098607 -0.151293 0.100909 -0.53177 -0.080909 0.842009
0.101034 -0.859054 -0.019393 -0.631716 -0.762231 0.126416
-0.018918 0.234655 -0.12831 -0.081768 -0.108866 -0.990263
-0.113647 0.467524 0.061877 -0.079209 0.009604 0.996792
0.500783 0.228105 -0.036849 0.662422 0.745834 0.060208
0.306684 0.380212 -0.14325 0.02559 -0.179719 -0.980943
-0.06392 -0.28129 -0.090249 -0.277349 -0.057593 -0.95628
0.024423 -0.245945 0.055381 0.932261 -0.009624 0.36048
0.153893 -0.652071 -0.08509 0.533874 -0.155492 -0.830966
-0.307164 0.261561 -0.082724 0.22051 -0.558816 -0.793002
-0.119352 0.228106 -0.002937 -0.971816 0.21761 0.015534
0.288704 0.422766 -0.016046 0.447279 0.204741 0.869553
0.163676 -0.838306 0.048172 0.831524 0.5534 0.016321
0.057096 0.148007 0.129344 0.12056 0.030211 0.992241
-0.056665 -0.093273 -0.109894 -0.229268 -0.195598 -0.95043
0.174037 0.275396 -0.047538 0.923794 -0.113057 -0.364218
-0.030624 0.132336 -0.114963 -0.278269 0.474815 -0.834806
-0.066968 0.222769 0.092247 -0.541171 0.124374 0.831585
0.109194 -0.026839 0.124873 0.428666 -0.118566 0.895078
-0.122384 -0.709438 -0.071856 -0.848136 -0.122559 -0.514254
0.141642 0.492558 -0.138366 0.169669 0.281052 -0.944442
0.119897 -0.606816 0.033682 -0.17556 0.125823 0.967551
-0.034202 0.225988 0.11115 -0.357939 0.053578 0.928774
0.057839 -0.533687 -0.059022 -0.826633 -0.071836 -0.533645
0.141424 0.242753 -0.102837 0.786135 -0.154494 -0.597991
0.201815 -0.086624 -0.042451 0.894536 0.048164 -0.442586
-0.261101 0.395142 -0.087438 -0.361145 0.493152 -0.789558
0.325411 0.438176 -0.102214 0.614285 0.699179 -0.363673
0.198427 -0.612336 -0.048352 0.978485 -0.017215 -0.182785
-0.052039 -0.832879 -0.144466 -0.042991 -0.259385 -0.960307
0.179552 0.227203 -0.032142 0.911595 0.006683 -0.410695
-0.059683 0.150196 -0.096791 -0.319112 0.28548 -0.903481
0.389909 0.305567 -0.127946 0.306913 0.192018 -0.929427
-0.02937 -0.272427 -0.089259 0.371937 -0.051012 -0.923741
-0.177939 0.51616 0.028643 -0.575526 0.613728 0.539369
0.20132 0.400916 -0.049823 0.928526 -0.341303 0.020552
0.044077 0.03113 0.13737 0.066763 0.282073 0.957014
-0.304833 0.244018 -0.053244 0.527399 -0.813123 -0.244717
-0.073959 0.053961 -0.119682 -0.646213 0.236 -0.723227
0.200207 0.553799 -0.021455 0.387633 0.782629 0.483662
0.1977 -0.237681 -0.048545 0.835539 -0.165024 -0.521368
0.049228 -0.128208 0.063816 -0.197137 -0.120481 0.904154
0.193229 0.546522 -0.093473 0.301244 0.735307 -0.606628
0.045546 -0.569035 -0.034437 -0.948334 -0.041841 -0.252215
-0.435628 0.158141 -0.028946 0.352091 -0.889511 -0.266961
-0.215378 0.350808 -0.082391 0.442991 -0.630599 -0.629176
0.031347 -0.170886 0.042625 0.705963 -0.330228 0.610158
0.059371 -0.706732 -0.02836 -0.869897 -0.234353 -0.431505
0.180201 0.062788 -0.074177 0.819361 0.179819 -0.543954
0.063784 0.386832 -0.139351 -0.382759 0.022936 -0.922987
0.198333 -0.279375 0.048373 0.919895 -0.064443 0.383851
0.358496 0.295631 -0.127336 -0.310473 -0.369662 -0.871749
0.041712 -0.136915 0.058042 -0.088778 -0.531095 0.806929
0.122043 -0.763249 -0.100967 -0.258465 0.294971 -0.910452
-0.000684 0.686139 -0.059154 -0.6934 -0.426199 -0.579793
-0.095544 -0.659891 -0.101335 -0.502162 -0.021293 -0.864298
-0.094364 0.272848 0.066958 -0.70924 0.014176 0.70444
0.174253 -0.853738 0.05651 0.920611 0.200112 -0.041786
0.057656 0.204173 -0.11997 -0.222561 -0.3924 -0.892097
0.294085 0.327211 -0.099116 -0.686741 -0.717234 -0.11015
0.170715 -0.088131 0.095742 0.640746 0.053044 0.765689
-0.052836 0.130946 0.107073 -0.520995 -0.0304 0.852536
0.054548 0.675287 -0.0667 0.39356 -0.316966 -0.859726
-0.125164 0.035869 0.067958 -0.872749 0.164821 0.458095
-0.01431 0.81532 -0.095631 -0.464603 0.501677 -0.722704
-0.087177 -0.844175 0.149542 -0.750695 0.386581 0.511284
-0.128613 -0.633816 -0.061277 -0.99443 -0.024864 -0.09618
0.115704 -0.866683 0.139325 -0.057234 -0.981489 0.181578
-0.124409 -0.554747 -0.068766 -0.817618 0.12418 -0.56082
-0.10735 0.147538 -0.057399 -0.82154 0.166014 -0.54522
0.142192 -0.826646 -0.110726 0.453033 -0.14831 -0.874589
0.050158 -0.474996 -0.00907 -0.875282 -0.033073 0.478825
-0.109048 0.180114 0.056789 -0.814067 -0.037669 0.579537
-0.014941 -0.224823 -0.082053 0.515277 0.015364 -0.856769
0.189166 -0.117986 -0.065324 0.776005 -0.023951 -0.63004
-0.007916 0.631287 0.001336 -0.819469 -0.017043 0.570671
-0.074327 0.161075 -0.086749 -0.542205 0.190071 -0.815165
-0.108194 0.162603 0.057449 -0.807327 -0.005596 0.589649
-0.131244 0.458292 0.061486 -0.063896 -0.047041 0.995345
-0.111993 0.250778 -0.044228 -0.997552 0.041769 -0.049628
-0.051291 0.551539 0.029079 -0.200277 0.72975 0.653607
0.050029 -0.644544 -0.018459 -0.990343 -0.125317 -0.029335
-0.111152 0.042676 -0.079896 -0.836057 0.174431 -0.518126
0.076679 -0.569631 -0.075529 -0.698423 -0.136661 -0.702347
0.00891 -0.223514 -0.061019 0.765724 -0.028679 -0.641193
0.089234 -0.825917 0.050906 -0.98602 -0.032693 0.130148
0.175134 -0.130609 0.092506 0.654954 -0.031713 0.75447
0.053649 0.723377 0.085535 0.698308 0.309645 0.632482
0.125579 -0.305496 0.081749 -0.012809 -0.0644 0.997756
0.01184 0.495042 0.073124 0.04407 0.517631 0.851584
-0.03604 -0.398001 0.084323 0.287446 -0.22562 0.930797
-0.014383 0.343221 -0.128915 0.004651 0.016632 -0.999587
0.511478 0.217694 -0.064646 0.452981 0.304981 -0.749528
-0.022767 -0.84324 0.062084 0.97819 0.162716 0.08991
0.062424 -0.271381 0.064355 -0.725337 -0.120539 0.677697
-0.293004 0.261409 -0.011478 0.78655 -0.443341 0.407107
0.196688 -0.626695 -0.001024 0.968585 -0.089519 0.228121
-0.118136 -0.66448 0.00818 -0.96395 -0.186091 0.189633
0.043325 0.71518 -0.09713 0.176149 -0.617344 -0.76354
-0.112126 0.273583 -0.045953 -0.998065 -0.055195 -0.02756
-0.1138 -0.142273 -0.058536 -0.762357 -0.170206 -0.623535
-0.062755 0.226931 -0.106117 -0.617139 -0.266598 -0.740296
0.053784 -0.369178 -0.056785 -0.8081 -0.026975 -0.588133
-0.052119 -0.505924 0.062012 0.385406 -0.25327 0.887217
0.1291 0.040479 -0.137862 0.522144 0.228364 -0.819446
0.154772 -0.374288 0.075292 0.131818 0.004211 0.990322
-0.009807 -0.141833 -0.082415 0.654297 -0.196414 -0.729384
-0.021611 0.354664 0.106063 -0.185916 0.00412 0.979124
0.174728 -0.329642 0.072947 0.259515 -0.053908 0.954291
0.220776 0.504453 0.013155 0.225034 0.320789 0.912372
0.020546 -0.722088 -0.031818 0.957674 -0.044305 0.283121
0.635742 0.027273 0.085301 0.188044 -0.603824 0.332527
-0.120904 -0.108059 -0.05512 -0.791765 -0.076925 -0.605843
0.019214 0.865098 -0.0252 -0.256421 0.95897 -0.075623
0.020666 0.620048 -0.070114 -0.19214 0.517392 -0.830605
0.200521 -0.341803 0.03052 0.932927 -0.09331 0.346986
-0.069542 0.471722 0.075323 -0.232766 0.351023 0.906369
-0.112379 -0.701236 0.00185 -0.849764 -0.391012 0.344305
-0.097835 -0.753075 -0.105379 -0.756828 -0.087804 -0.641558
-0.00669 -0.812877 -0.127306 0.80662 -0.282142 -0.515662
-0.096994 -0.833249 -0.091322 -0.95388 -0.145145 -0.259203
0.05983 -0.243848 0.065839 -0.732229 -0.140601 0.666098
-0.340243 0.219855 -0.037717 0.616023 -0.776089 -0.07983
-0.030064 0.276341 0.11118 -0.351054 0.027767 0.934682
0.033197 0.589541 0.0263 0.043028 0.008711 0.997147
-0.013557 0.559973 0.021826 -0.017017 0.705447 0.701498
-0.00792 0.579608 0.011466 -0.537529 0.309699 0.782818
0.022545 -0.712363 -0.035905 0.942495 -0.13547 0.301539
-0.105778 -0.586729 0.041585 -0.93562 0.031209 0.350495
-0.08047 -0.010603 -0.121199 -0.569948 -0.081431 -0.816505
0.165165 -0.859074 0.013384 0.790479 -0.557873 -0.219041
0.641578 0.029044 0.01345 0.568803 -0.563762 -0.287157
-0.513367 0.130464 0.056679 -0.789299 0.607183 0.035484
-0.134621 0.402237 -0.059319 -0.161454 -0.919304 -0.187908
0.011506 -0.162451 0.097373 0.804205 -0.12115 0.579774
0.30113 0.320009 -0.088369 -0.700898 -0.713008 -0.00617
0.175529 -0.798193 -0.014923 0.920643 -0.338717 0.180614
-0.002108 -0.443458 0.051241 0.765822 -0.145151 0.626442
0.140028 -0.869321 0.116654 0.054708 -0.998026 0.026632
0.1079 -0.61073 -0.094376 -0.416383 -0.103493 -0.902921
0.048532 0.042703 0.134643 0.091223 0.136366 0.985732
-0.442571 0.20307 -0.043649 -0.602866 0.106374 -0.790657
0.087281 0.450873 -0.144603 -0.175674 0.0176 -0.983996
0.02906 0.447532 0.091709 0.164955 0.21462 0.961987
0.041279 0.428483 0.093755 0.116334 0.323225 0.938454
-0.087731 -0.188375 -0.07968 -0.650058 -0.042063 -0.757063
0.141654 -0.411499 0.071018 -0.260025 -0.124411 0.95621
0.144301 -0.665914 -0.088927 0.460451 -0.060185 -0.884063
0.15917 -0.566656 0.042942 0.108153 -0.155259 0.978467
0.011961 0.047383 -0.149365 -0.204684 0.311308 -0.926632
0.019194 0.863678 0.013428 -0.091472 0.994067 0.047933
-0.037733 -0.830675 0.106557 0.66442 0.666919 0.272819
-0.08446 -0.107151 -0.093841 -0.563816 -0.159159 -0.808511
-0.165508 0.458724 -0.091382 -0.285755 0.151628 -0.945156
0.578162 0.078856 0.058451 -0.03277 -0.753921 0.634401
-0.234415 0.357936 -0.094963 0.192026 -0.29449 -0.934988
-0.08057 -0.568105 -0.101425 -0.246737 0.047587 -0.967269
0.265207 0.434376 -0.00972 0.041332 -0.046164 0.996239
0.208849 -0.148736 -0.014527 0.966844 -0.247671 -0.045672
0.008526 -0.338416 0.067304 0.751549 -0.178311 0.633048
-0.111585 0.026399 -0.084132 -0.85014 0.13157 -0.506683
0.145042 0.507987 -0.134079 0.210585 0.368546 -0.903083
-0.044882 0.493456 0.070299 -0.22979 0.503368 0.831913
-0.046154 0.257675 0.103434 -0.613832 0.046559 0.786473
-0.113966 -0.561954 0.024343 -0.886584 -0.117521 0.447229
-0.010142 0.621322 -0.002154 -0.905993 0.060372 0.400531
-0.085949 -0.243336 0.110959 -0.180316 -0.03651 0.982867
-0.287164 0.300618 -0.094868 0.206222 -0.283291 -0.933391
