0.090639 -0.840812 -0.094614 -0.976837 0.021648 -0.20895
0.082924 0.825677 -0.0771 0.697993 0.532812 -0.47489
-0.084497 -0.632935 -0.104789 -0.235438 0.069771 -0.96799
0.153995 0.298777 0.063129 0.75148 0.021701 0.65933
-0.128095 -0.208258 -0.018472 -0.907679 -0.100161 -0.406732
0.090589 -0.815461 0.052039 -0.845614 0.289804 0.424437
-0.058735 -0.771799 -0.135602 -0.255175 0.378643 -0.886642
0.10111 -0.217681 0.091675 -0.133312 -0.18885 0.972402
-0.026726 0.149997 -0.105856 -0.235081 0.281099 -0.921286
-0.13555 -0.197772 -0.00142 -0.97246 -0.085059 -0.21167
0.049021 0.476009 -0.129355 -0.258598 0.084404 -0.959485
0.10844 0.278488 0.103522 0.352791 0.042845 0.934474
0.199604 0.049137 -0.034252 0.9686 0.081713 -0.234142
-0.002696 -0.419521 -0.059696 0.716533 0.050353 -0.694326
0.070348 -0.705876 -0.045835 -0.814596 -0.254912 -0.520706
-0.2195 0.436338 -0.081505 -0.437107 0.455725 -0.775032
0.01627 0.359909 0.111954 0.016506 0.179155 0.98328
0.152556 0.062939 0.093295 0.346973 0.330247 0.87373
0.034613 -0.016282 0.135648 -0.053771 -0.331845 0.931185
-0.035903 0.781011 9.4e-05 -0.992589 0.061799 0.104387
-0.015475 -0.694924 0.025133 0.357213 -0.026095 0.932972
0.072766 0.526676 0.050225 0.120676 0.524077 0.842666
0.016175 0.702936 -0.084792 -0.233807 -0.614089 -0.753469
0.199846 -0.603811 -0.03226 0.997331 -0.063062 -0.031614
-0.314299 0.349191 -0.020131 -0.60541 0.713802 0.342551
-0.037056 -0.007746 0.142621 -0.278431 -0.087582 0.952014
0.214341 0.476742 -0.132675 0.124052 0.19262 -0.97311
-0.114494 -0.367256 0.084883 -0.777045 -0.006068 0.626973
-0.126875 -0.610168 -0.00829 -0.981208 0.023794 0.189093
0.055115 0.557172 -0.113281 -0.137871 0.455327 -0.878974
-0.152536 0.526079 -0.070487 -0.456163 0.621128 -0.63708
0.628745 0.064638 0.070803 0.851477 0.513729 0.077838
-0.127736 -0.31913 0.027787 -0.995299 -0.03064 0.086957
-0.100357 -0.22903 0.107965 -0.406804 -0.046097 0.908763
-0.054936 -0.48116 -0.097314 0.044565 0.111714 -0.992554
-0.10686 -0.561582 -0.087992 -0.591234 0.0693 -0.801674
0.021825 0.02805 -0.15476 -0.188363 -0.008692 -0.969142
0.127592 0.009017 0.121557 0.348464 0.128524 0.927355
0.070029 0.850404 -0.059065 0.48205 0.764465 -0.426691
0.129748 -0.857667 0.183372 -0.012526 -0.445647 0.835843
0.196864 -0.672192 -0.035335 0.944593 -0.097775 -0.291515
-0.123166 -0.446902 0.049556 -0.859418 -0.187529 0.474047
0.180804 -0.750774 -0.038147 0.685796 -0.010645 -0.721573
-0.033834 -0.467174 0.06692 0.262333 -0.276344 0.924188
0.021809 -0.457929 0.012597 0.899251 -0.029787 0.435342
-0.138035 -0.189893 0.027702 -0.99601 -0.064893 0.041565
-0.082982 -0.508846 -0.095506 -0.341294 0.091552 -0.932187
-0.375175 0.198912 -0.049765 0.529487 -0.785222 -0.310985
0.175328 -0.071285 -0.0897 0.812629 -0.073958 -0.577823
0.095735 -0.246355 -0.095626 -0.365953 0.019363 -0.928569
0.088679 -0.835874 -0.040335 -0.998483 -0.045076 0.000311
-0.135746 0.023677 0.049655 -0.939739 0.153886 0.296179
-0.035629 -0.316306 0.09727 0.249602 -0.071969 0.965447
0.200408 -0.54068 -0.046264 0.953014 -0.012051 -0.302468
0.108869 -0.203655 -0.103005 -0.143436 -0.176801 -0.973073
-0.073187 -0.723629 -0.120932 -0.327305 0.230487 -0.910586
0.144166 0.184527 0.084966 0.715543 0.031403 0.697835
0.328727 0.389615 -0.139077 0.414871 0.024392 -0.908868
0.138838 0.409774 0.078169 0.533544 0.080017 0.841597
0.075934 0.74369 -0.096836 0.643923 -0.325801 -0.690831
0.166871 0.470506 0.04715 0.635065 0.18412 0.749254
0.111624 -0.806007 0.060873 -0.08921 0.708077 0.695139
-0.087685 0.0254 -0.117127 -0.731941 0.136911 -0.661183
0.048045 0.543928 0.035247 0.065149 0.746156 0.659021
0.032221 0.695249 0.091118 -0.0951 -0.180078 0.975349
-0.060613 0.57173 -0.082086 -0.434052 0.659607 -0.611422
0.119173 -0.362069 0.074774 -0.259131 -0.210336 0.941996
-0.073945 -0.800159 -0.137148 -0.64495 -0.133085 -0.744266
-0.000901 0.356488 -0.128218 0.092941 -0.019235 -0.995346
0.089205 -0.253537 -0.092925 -0.450763 0.043185 -0.891391
0.149961 -0.794199 -0.107917 0.509094 0.244145 -0.821211
0.037395 0.714913 0.096812 0.211747 -0.331041 0.911856
-0.110346 0.121549 -0.058667 -0.850355 0.070229 -0.518524
0.007005 0.155847 -0.113987 -0.153406 -0.089689 -0.980893
-0.270171 0.368225 0.013942 -0.578837 0.057118 0.810511
-0.089429 0.563315 0.006477 -0.1077 0.857832 0.497492
0.137834 -0.869715 0.095388 0.033559 -0.999046 0.01461
0.297896 0.405638 -0.018399 0.505411 0.059118 0.860038
-0.075286 -0.147647 0.119428 -0.298716 0.004556 0.951146
0.008612 -0.160344 -0.05816 0.811739 -0.016532 -0.58302
0.172062 -0.860661 0.11985 0.538112 -0.805143 0.128459
0.015031 -0.544859 -0.045663 0.841722 0.044196 -0.537918
0.099052 -0.82675 0.093788 -0.53349 0.814163 0.191901
0.397166 0.332333 -0.084284 0.687451 0.715286 0.102374
-0.093719 -0.228891 -0.072241 -0.73007 -0.038213 -0.682264
-0.001271 -0.118564 0.117611 0.527916 -0.19827 0.821781
0.469406 0.205011 -0.064267 0.152395 -0.718729 -0.677652
-0.050673 0.300536 -0.124102 -0.4568 -0.016447 -0.888912
-0.12803 -0.667559 -0.047616 -0.997768 -0.016026 0.061821
-0.497096 0.106859 0.074212 0.636585 -0.179674 0.729083
-0.021477 0.425695 0.098496 -0.102873 0.241887 0.963794
0.044619 0.418346 -0.131399 -0.349532 0.065234 -0.931498
-0.024534 -0.810627 -0.145935 0.450719 -0.129784 -0.87743
0.183251 0.20263 0.013472 0.998123 0.046004 0.023788
0.2047 -0.235566 0.02316 0.99433 -0.025685 0.101768
0.185512 -0.769438 -0.002064 0.920112 -0.308431 0.228843
-0.182353 0.363965 -0.006455 0.581411 -0.695016 0.421583
-0.017914 -0.274702 0.098021 0.366525 -0.220961 0.902918
-0.437313 0.154793 0.00631 0.604681 -0.793128 0.069337
0.378258 0.249784 -0.100103 -0.67521 -0.664446 -0.318492
0.1332 0.268754 -0.11968 0.706561 -0.098861 -0.699184
-0.010633 -0.44838 0.05961 0.696779 -0.204145 0.686095
0.068225 -0.285348 0.067597 -0.687926 -0.154026 0.707397
-0.021453 -0.839395 -0.083692 0.915231 -0.360667 -0.022731
-0.094702 -0.554563 0.059473 -0.717303 -0.108604 0.680979
-0.095728 -0.334141 -0.067046 -0.644827 0.063062 -0.76158
0.083356 -0.859584 0.086993 -0.905541 -0.399392 -0.043575
-0.063416 0.388811 -0.122346 -0.314721 -0.090202 -0.944875
0.166156 0.392142 0.056056 0.690853 -0.002176 0.722689
0.195169 -0.623483 -0.056727 0.828616 -0.054595 -0.556964
0.073816 0.769051 -0.10493 0.609574 -0.048297 -0.788392
0.201389 -0.335538 -0.022099 0.88983 0.109973 -0.441694
-0.417636 0.250061 -0.032665 -0.769199 0.638699 -0.004774
0.180863 -0.367598 0.067039 0.658845 -0.074976 0.731943
0.01627 -0.222228 -0.050572 0.866274 -0.016774 -0.497505
-0.048708 0.14926 -0.100678 -0.396731 0.517367 -0.721735
0.014003 0.77088 -0.119734 -0.184326 -0.013448 -0.974668
0.048634 0.282041 0.122425 0.125572 0.113737 0.985424
0.068431 0.574254 0.014859 0.514509 0.195293 0.831477
0.172485 -0.046293 -0.098054 0.800984 -0.126059 -0.584669
-0.143532 0.529193 -0.07382 -0.453567 0.616416 -0.642198
-0.137836 0.558213 -0.018374 -0.334353 0.939459 -0.009506
-0.001897 0.371207 -0.128649 0.065249 -0.019564 -0.997525
0.095883 0.738976 0.026763 0.962693 -0.12375 0.237766
-0.15713 0.514318 0.045033 -0.313071 0.494931 0.808548
0.176743 0.210003 0.044231 0.82312 0.060475 0.561963
-0.064278 0.579363 -0.066695 -0.450662 0.811748 -0.346835
0.165044 -0.3929 -0.077424 0.561362 0.178052 -0.807563
0.019194 0.863678 0.013428 -0.091472 0.994067 0.047933
0.578176 0.093026 0.064389 -0.188227 -0.191686 0.941946
0.161661 0.283654 -0.076917 0.868282 -0.162366 -0.467412
0.399411 0.306303 -0.123681 0.319221 0.282171 -0.885984
0.059371 -0.706732 -0.02836 -0.869897 -0.234353 -0.431505
-0.108923 -0.796514 -0.00464 -0.841009 -0.309597 0.432992
-0.128147 -0.3393 -0.00417 -0.999251 0.007196 -0.029696
-0.079575 -0.124771 0.117672 -0.318634 -0.025299 0.947288
-0.012416 0.027244 -0.148147 -0.240081 -0.082947 -0.952604
0.16793 0.572627 -0.050707 0.382118 0.894588 0.080621
0.16109 0.224747 0.061228 0.752299 0.057012 0.655759
0.121698 -0.013377 -0.146718 0.414071 0.009482 -0.907548
0.188667 -0.765014 -0.010446 0.948896 -0.297697 0.077874
-0.162682 0.543356 -0.030695 -0.619773 0.765098 -0.16921
-0.172952 0.420495 0.031883 -0.005368 -0.387202 0.921534
-0.395181 0.237927 -0.073196 -0.385313 -0.206219 -0.898733
0.135684 -0.868141 -0.037014 0.05404 -0.99395 0.0848
0.031468 0.37184 0.107977 0.0476 0.199027 0.977979
0.226457 0.524368 -0.102567 0.440142 0.65266 -0.616564
-0.114425 0.148472 0.048839 -0.837969 0.076059 0.538655
0.256156 0.387379 -0.025444 -0.280695 -0.57717 0.764978
0.076719 -0.508696 -0.082561 -0.699429 -0.029788 -0.714003
0.114384 0.113027 -0.123725 0.484054 0.379033 -0.78783
0.139874 0.575292 -0.083271 0.351837 0.801453 -0.480865
0.057289 -0.682799 0.016548 -0.840559 0.137146 0.520244
0.029018 0.663503 -0.065962 -0.123204 -0.17528 -0.971666
0.503241 0.164873 0.008468 -0.601053 -0.776953 0.184006
0.097663 -0.235869 -0.09648 -0.329618 -0.036544 -0.941898
0.458043 0.241724 -0.093828 0.60329 -0.254047 -0.752066
0.047995 0.221674 -0.125515 -0.127791 -0.270098 -0.951907
0.035551 -0.171245 -0.049016 -0.894262 -0.16234 -0.415569
0.131547 0.346371 0.086197 0.467994 0.026965 0.882794
0.177393 -0.02506 0.086485 0.691848 0.057534 0.719448
0.177819 -0.414674 -0.069616 0.684563 0.069289 -0.725181
-0.164866 0.539053 0.008437 -0.631547 0.722558 0.275145
0.105044 -0.861117 0.164565 -0.343805 -0.891392 0.259008
0.057231 -0.127071 0.069785 -0.748891 0.208939 0.62215
0.066947 0.659545 0.034087 0.667252 -0.558787 0.460371
-0.118712 -0.273675 0.088748 -0.861803 -0.046174 0.497569
0.062399 0.063478 -0.15303 -0.06801 0.191597 -0.979092
-0.030079 0.713993 -0.004019 -0.897658 -0.422398 -0.099211
-0.032867 -0.856307 -0.006745 0.566151 -0.806195 -0.16599
0.096311 -0.704455 -0.08505 -0.693712 0.053644 -0.718122
0.150452 0.046888 -0.117952 0.678453 0.275152 -0.681083
0.164877 -0.825256 -0.049373 0.771939 -0.635576 -0.005896
0.103147 -0.024489 -0.151286 0.164399 -0.233091 -0.95698
0.167848 0.319284 -0.083062 0.80766 -0.271659 -0.522628
0.105822 -0.808989 -0.115131 -0.504286 0.057394 -0.848806
-0.032039 -0.862957 0.08402 0.342552 -0.933372 0.046114
0.141056 0.561142 -0.101262 0.297929 0.679368 -0.670346
-0.116953 -0.104545 0.092928 -0.786851 0.086244 0.610321
-0.089487 0.194561 -0.070885 -0.763066 0.067247 -0.642442
0.042126 -0.237027 0.02479 -0.988502 -0.035529 0.144789
-0.099683 -0.052042 -0.095297 -0.69035 -0.233666 -0.683771
0.063681 -0.528283 0.006541 -0.653869 -0.031466 0.754315
0.01217 -0.649191 -0.061935 0.611114 0.160238 -0.775104
-0.12434 -0.262753 -0.023763 -0.853654 0.035652 -0.51935
-0.042006 -0.845302 -0.138519 0.330364 -0.372329 -0.857346
-0.50506 0.099128 0.027581 0.211951 -0.805821 -0.535523
-0.131322 0.407529 0.011867 -0.559579 -0.671973 0.228504
0.196899 0.09033 -0.018015 0.975531 0.199059 -0.071073
0.202103 0.558668 -0.057044 0.192905 0.976074 -0.059584
-0.140524 0.546538 -0.054065 -0.504788 0.726094 -0.466403
0.160013 -0.863817 0.050391 0.228836 -0.970459 -0.028092
0.165625 0.032725 -0.105488 0.781063 0.09037 -0.616598
-0.128669 -0.458073 0.032737 -0.89509 -0.177924 0.407172
0.439017 0.223349 -0.102971 0.579222 0.003518 -0.799359
0.185516 -0.304436 -0.045192 0.759642 -0.072094 -0.64626
0.143675 0.529045 -0.124438 0.212246 0.518888 -0.827406
-0.250827 0.409706 0.013742 -0.610177 0.401156 0.680223
0.18202 -0.449645 -0.073002 0.729289 0.150999 -0.666491
0.190215 0.1757 0.004032 0.980578 0.189835 -0.002858
0.141777 0.252945 0.08161 0.727554 0.052697 0.683899
-0.087202 0.404721 0.079258 -0.626851 0.004344 0.778859
0.08324 -0.078196 0.111063 -0.097674 -0.671064 0.734147
-0.096305 -0.285492 0.106765 -0.258062 -0.055118 0.957617
0.00341 -0.291436 0.084648 0.562951 -0.20319 0.796151
-0.081148 0.568367 -0.001386 -0.16336 0.854743 0.489534
0.047782 -0.282073 0.043558 -0.858145 -0.04989 0.509315
0.096486 0.413418 -0.145615 -0.062768 0.003765 -0.997427
0.203571 -0.291946 -0.018069 0.940685 -0.046065 -0.324175
-0.043083 -0.860496 -0.013146 0.281458 -0.949352 -0.114401
-0.083933 0.307514 0.076435 -0.631094 -0.029827 0.768972
0.011065 -0.328863 0.067675 0.753291 -0.218505 0.619837
0.168575 -0.10943 0.098463 0.650749 0.035907 0.758325
0.026726 -0.669983 -0.030686 0.990536 -0.070366 0.102309
-0.002774 -0.445151 -0.061034 0.739194 0.064595 -0.670301
-0.101599 -0.821687 0.004036 -0.951773 0.244696 0.18471
-0.113656 0.371233 -0.091067 -0.683704 -0.232855 -0.691056
0.126736 -0.725758 -0.097482 0.145287 0.170077 -0.969907
-0.197977 0.496799 0.023345 -0.737067 0.481001 0.473485
0.182792 0.183353 0.035139 0.935622 0.128773 0.314759
-0.059054 -0.864012 0.041742 -0.004074 -0.999807 -0.019006
-0.558471 0.066782 0.064469 -0.905694 0.400898 0.107587
0.02608 -0.38612 -0.002332 0.994486 -0.065089 -0.0397
-0.025008 0.515142 0.063126 -0.130693 0.516875 0.844702
0.052655 -0.35209 0.034482 -0.748573 -0.259162 0.60931
0.092459 0.549912 -0.121263 0.008169 0.447059 -0.893254
0.016451 0.569139 0.025612 -0.191304 0.091406 0.974534
0.081744 -0.491092 -0.087906 -0.68252 -0.013303 -0.729773
0.086956 0.828764 0.021633 0.870216 0.312971 0.365459
0.26519 0.367994 -0.032878 -0.551106 -0.490982 0.673033
0.544617 0.145855 0.037334 -0.583871 0.098275 0.792509
-0.1388 -0.451414 -0.012895 -0.993229 0.041173 -0.083041
-0.06129 0.147449 0.100665 -0.562732 0.099127 0.82056
-0.046878 -0.2105 0.118265 0.093314 -0.196601 0.975959
0.087351 0.340582 0.104018 0.262978 0.111884 0.957869
0.59854 0.08444 0.077186 -0.816926 -0.073681 0.550905
0.165026 0.497141 -0.133522 0.16082 0.295526 -0.941004
0.016973 -0.186197 0.085109 0.896696 -0.060083 0.433671
-0.056473 -0.582949 -0.103291 0.128778 0.001238 -0.990603
-0.099288 -0.130375 0.111301 -0.472103 0.055817 0.873278
-0.299425 0.245739 -0.042297 0.643682 -0.760798 -0.034777
-0.043885 -0.408347 0.084322 0.256791 -0.198606 0.945683
-0.040013 0.495408 -0.12716 -0.047594 0.238662 -0.968224
-0.082035 0.577061 -0.032218 -0.522803 0.825622 0.102025
0.171935 -0.546879 -0.087166 0.680985 -0.033052 -0.73154
0.076641 0.601339 0.005267 0.746173 0.039203 0.664451
-0.030793 -0.786419 0.037764 0.567686 0.519378 0.637624
0.012784 -0.213051 -0.055931 0.803666 0.008507 -0.594063
0.071288 -0.425477 -0.075335 -0.705932 0.009781 -0.708034
-0.011457 -0.145158 0.118734 0.482875 -0.160654 0.858247
-0.037214 0.805572 -0.017158 -0.986537 -0.117486 0.076573
0.373634 0.249463 -0.078363 -0.72866 -0.678831 0.084382
-0.511668 0.090361 0.031258 0.551755 -0.549651 -0.624201
-0.204276 0.359009 -0.082729 0.458057 -0.6113 -0.643987
0.096294 -0.316829 0.075479 -0.33243 -0.116499 0.935675
0.159863 -0.164735 -0.08863 0.571901 -0.075732 -0.814734
-0.064497 -0.537945 0.059044 0.358979 -0.176242 0.915806
0.142059 0.428552 0.074211 0.457978 0.12508 0.878795
0.086147 -0.672896 0.032755 -0.344988 0.217896 0.911394
0.074113 -0.794254 -0.062445 -0.910978 0.10736 -0.395847
0.181093 0.189876 -0.029793 0.941387 0.06738 -0.326458
0.195433 -0.431277 0.027267 0.957156 -0.080905 0.277112
0.074487 -0.81957 -0.064029 -0.825655 -0.479049 -0.252213
-0.109303 -0.380705 -0.057126 -0.710106 -0.026587 -0.703342
0.171697 -0.304598 -0.060214 0.702295 -0.059115 -0.709392
-0.076284 -0.184911 -0.08788 -0.52054 -0.097952 -0.845042
0.163438 -0.235739 0.083869 0.242418 -0.173199 0.953647
-0.020354 0.492347 -0.127582 0.047763 0.137874 -0.989198
-0.130173 -0.229728 -0.008821 -0.92821 -0.048139 -0.368594
0.043193 0.567726 0.024852 0.235889 0.021182 0.965883
0.15917 -0.566656 0.042942 0.108153 -0.155259 0.978467
0.03391 -0.07749 -0.109779 -0.578958 -0.471235 -0.664408
-0.020823 -0.346619 0.08886 0.381557 -0.092341 0.916965
-0.127508 0.405642 -0.084742 -0.912896 -0.290865 -0.278724
-0.072624 0.0781 -0.113853 -0.573609 0.269501 -0.77256
0.054001 -0.484759 -0.058796 -0.796947 -0.000964 -0.602757
0.21864 0.534678 -0.006895 0.363605 0.674192 0.642305
0.205416 -0.170978 -0.037946 0.965456 -0.009295 -0.255567
-0.011211 0.098227 -0.132931 -0.206888 0.394502 -0.888548
0.199376 0.070858 0.024256 0.97135 0.209609 0.105907
0.000106 0.447705 -0.128353 0.136024 0.006696 -0.990589
0.027733 0.262894 -0.126214 0.006957 -0.074147 -0.995499
0.039875 0.750748 0.096037 0.512777 0.409943 0.72581
0.177408 -0.410612 0.066625 0.60494 -0.086875 0.78567
0.177728 0.29694 0.02984 0.945135 0.029966 0.324886
0.068237 -0.663617 -0.054241 -0.766908 -0.146425 -0.624685
0.236877 0.426611 -0.002237 0.439171 -0.493138 0.716959
-0.375803 0.273337 -0.083609 -0.326093 0.195264 -0.923335
0.091518 -0.253235 0.084441 -0.254247 -0.131898 0.957473
0.119262 0.403009 0.087605 0.332721 0.129289 0.932457
0.274392 0.469484 -0.115592 0.481527 0.627713 -0.611211
0.123828 -0.80122 0.054655 0.219039 0.676809 0.700341
0.130578 -0.634081 0.03332 0.299407 -0.146825 0.941907
0.051035 0.202116 0.128626 0.085426 0.021131 0.995956
-0.126905 0.387369 -0.072235 -0.970489 -0.158741 -0.168705
-0.082637 0.505612 0.057194 -0.157219 0.398859 0.902063
0.46704 0.188534 -0.038715 -0.482483 -0.869872 -0.060344
-0.118857 0.095022 -0.048714 -0.871415 0.184106 -0.450481
0.083834 0.101108 0.124548 0.458304 0.00751 0.887809
-0.569588 0.043089 0.012309 -0.846239 0.529147 -0.046753
-0.067767 0.58218 -0.048967 -0.303802 0.942608 -0.0712
0.356134 0.306346 -0.041735 -0.108835 -0.065726 0.970075
-0.078811 -0.459772 0.080478 0.139529 -0.123508 0.980881
0.124728 -0.008212 0.119187 0.344256 -0.20405 0.914942
-0.015867 0.080776 -0.136113 -0.15527 0.216243 -0.963908
0.20584 -0.382968 -0.01023 0.999073 0.010105 -0.012481
0.109658 -0.823423 0.095176 -0.218484 0.94611 0.235764
-0.028277 0.238324 -0.127766 -0.129082 -0.129772 -0.982122
0.137501 -0.48282 -0.106033 0.211917 0.069135 -0.971907
-0.011418 0.218537 0.122114 -0.429576 0.145395 0.890019
0.548963 0.113674 0.019949 -0.918438 -0.366243 0.12073
0.174495 -0.480071 0.059757 0.563277 -0.16155 0.805674
0.07898 0.573004 0.00908 0.499831 0.375638 0.77842
-0.04431 0.421795 0.096219 -0.209865 0.237051 0.947653
-0.053573 -0.580106 0.045611 0.378611 -0.29069 0.878042
-0.065392 -0.346528 -0.085703 -0.31039 -0.043285 -0.949216
0.187142 0.547222 -0.005348 0.235725 0.707058 0.666236
-0.137969 -0.007315 -0.007309 -0.997199 0.058814 -0.042036
0.061556 0.01151 -0.157129 -0.17471 -0.239328 -0.951854
0.126383 -0.739119 0.025652 0.233558 0.583707 0.743635
-0.121051 -0.327998 0.072269 -0.981397 -0.036824 0.185612
-0.062405 0.470238 -0.129581 -0.116906 0.078677 -0.989796
0.174975 0.166724 -0.049057 0.927665 0.048397 -0.35934
-0.367172 0.280115 -0.084372 -0.346155 0.325645 -0.879627
-0.053801 0.430268 0.091059 -0.187075 0.228252 0.955035
-0.163941 0.527927 0.02904 -0.528283 0.664763 0.527182
-0.362419 0.309724 -0.035286 -0.625658 0.766392 0.136194
0.128869 -0.829731 0.163231 0.17811 0.915845 0.344583
-0.464611 0.185316 -0.029323 -0.679322 0.514651 -0.504162
-0.0127 0.622052 -0.013596 -0.945379 0.147527 0.280605
0.14174 -0.078542 0.112175 0.338395 0.034084 0.930034
-0.258016 0.409157 -0.078087 -0.465058 0.615891 -0.635904
0.44277 0.209084 -0.030881 -0.877398 -0.320823 0.346679
0.052101 -0.686413 -0.014491 -0.996131 -0.043118 -0.070002
-0.066335 0.325245 -0.117086 -0.499772 -0.022602 -0.865814
-0.028065 -0.798814 0.048205 0.635824 0.572744 0.51332
-0.018837 -0.60238 -0.085449 0.690235 -0.015479 -0.723381
0.040715 0.468444 0.083441 0.135682 0.346437 0.928043
-0.038756 0.816598 -0.011558 -0.920328 -0.333669 0.183774
-0.240874 0.435318 0.007248 -0.735295 0.505686 0.450927
-0.398102 0.181015 -0.003586 0.561205 -0.824734 0.059373
0.008096 0.785905 -0.117182 -0.338918 0.235683 -0.910118
-0.115822 -0.004988 0.088645 -0.77537 -0.247905 0.576458
0.141463 -0.095833 -0.118234 0.495953 -0.163445 -0.852022
-0.010342 0.462578 -0.129097 0.109272 0.04169 -0.993123
0.124603 -0.633043 -0.096845 -0.051038 -0.098269 -0.992954
0.135375 -0.373688 0.07595 -0.093724 -0.163048 0.979535
0.019789 -0.599989 -0.044829 0.78811 0.11052 -0.602929
0.20599 -0.541979 -0.023757 0.998545 -0.024894 -0.030111
0.131677 -0.447251 0.062222 -0.574147 -0.212591 0.788787
-0.021555 -0.775124 0.012221 0.709814 0.586503 0.385187
-0.128328 0.118139 0.020485 -0.972992 0.073414 0.213974
-0.134727 -0.445724 -0.03054 -0.929626 0.128572 -0.342578
-0.04201 -0.306659 0.099703 0.276382 -0.115386 0.952772
0.175816 -0.664048 0.019947 0.488221 -0.115907 0.863935
-0.125746 -0.375357 0.044562 -0.985608 -0.034907 0.162619
-0.119723 0.318568 -0.02092 -0.995988 -0.043182 0.072571
-0.558632 0.063082 0.074167 -0.905608 0.353862 0.218102
-0.127483 0.012881 0.073414 -0.840524 0.233555 0.481305
0.046909 0.855016 -0.067184 0.152205 0.855469 -0.49464
0.163355 0.193855 -0.066756 0.793341 0.039197 -0.607013
0.194137 0.411194 0.017782 0.891875 -0.293592 0.305451
0.558337 0.162107 0.029476 0.720857 0.688801 0.073255
-0.016025 0.698887 -0.045306 -0.784405 -0.48948 -0.375961
-0.399563 0.180414 -0.022259 0.487029 -0.867398 -0.089083
-0.037069 0.449808 -0.132083 0.023011 -0.03687 -0.997534
-0.002627 -0.497648 0.038048 0.664908 -0.210363 0.716387
0.369101 0.355778 -0.07729 0.668046 0.651146 0.358767
0.201674 -0.587399 -0.021578 0.995869 -0.077451 0.002958
0.010764 0.485699 -0.124405 0.134394 0.14424 -0.977935
-0.037915 -0.856081 -0.042404 0.544893 -0.833058 0.061257
-0.113817 -0.485931 0.045815 -0.859604 -0.240554 0.450439
0.019438 -0.688707 -0.018509 0.874871 -0.175679 0.451044
0.150391 -0.767052 0.027207 0.042224 0.411605 0.88965
-0.120827 0.406886 -0.097103 -0.696278 -0.345223 -0.621041
0.201722 -0.296746 0.03478 0.9408 -0.066797 0.331982
0.097089 0.599705 -0.028634 0.856686 0.405578 0.295338
-0.123417 0.485172 0.060891 0.038722 0.122536 0.991274
-0.013071 0.262156 0.116968 -0.42001 0.055821 0.905622
-0.138747 0.032438 -0.00131 -0.955527 0.264319 -0.118149
0.141636 0.447864 -0.144253 0.153452 -0.0433 -0.986907
-0.090748 -0.533439 -0.094721 -0.458579 0.095984 -0.880171
0.058436 -0.166602 -0.087053 -0.64761 -0.186447 -0.738282
-0.129933 -0.266309 -0.004166 -0.979901 -0.090178 -0.174282
0.05761 0.31627 -0.135641 -0.38005 -0.031488 -0.924377
0.019811 -0.175757 -0.04002 0.928614 0.057696 -0.362195
-0.119205 -0.118934 -0.056003 -0.787877 -0.085438 -0.609613
0.199784 0.072835 0.014519 0.971316 0.223299 0.077502
-0.031594 -0.850699 -0.047737 0.589551 -0.80331 0.051796
-0.126483 -0.628001 -0.012174 -0.97873 -0.096686 0.174026
0.163636 0.269901 -0.068676 0.875722 -0.122596 -0.465598
0.093094 -0.401715 -0.093816 -0.471373 -0.009953 -0.881489
0.334771 0.296258 -0.111197 -0.560991 -0.665835 -0.491208
0.057096 0.148007 0.129344 0.12056 0.030211 0.992241
0.155474 -0.351884 0.076271 0.235621 -0.052576 0.970146
-0.007624 -0.828803 -0.11231 0.537073 -0.782491 -0.244865
0.087333 -0.599439 -0.081349 -0.659385 -0.081233 -0.747279
-0.12629 0.11823 -0.024573 -0.949996 0.000175 -0.309964
0.02111 -0.741697 -0.06144 0.966582 -0.097207 -0.229799
-0.160294 0.54132 -0.041185 -0.526584 0.778663 -0.333371
0.025622 -0.469551 -0.016064 0.962789 0.037466 -0.262258
0.061378 -0.036095 -0.143958 -0.258308 -0.392324 -0.88279
0.1984 -0.378778 0.026438 0.953043 -0.025391 0.300506
-0.090349 0.419904 0.075725 -0.637674 0.08674 0.765217
0.065925 0.511256 -0.129285 -0.145377 0.106167 -0.98329
0.05983 -0.243848 0.065839 -0.732229 -0.140601 0.666098
-0.104324 -0.666625 0.031527 -0.571753 -0.284499 0.755004
0.009678 0.136842 0.131089 -0.122541 0.03328 0.991762
0.075527 -0.719722 0.035795 -0.056303 -0.040943 0.995748
-0.067734 -0.8642 0.0858 -0.023582 -0.99963 0.006246
-0.238561 0.391412 0.023096 -0.330543 -0.163054 0.927201
-0.034435 0.792715 -0.070371 -0.97973 0.013242 -0.199028
-0.060013 0.097123 0.106998 -0.498157 0.133487 0.845512
0.034503 0.029351 -0.157246 -0.198376 0.032642 -0.965342
0.08751 -0.514177 -0.092433 -0.612779 -0.031437 -0.788213
-0.381731 0.279198 -0.078201 -0.47518 0.466106 -0.744708
-0.194203 0.349638 -0.05492 0.631192 -0.752967 -0.183213
0.080668 -0.608782 -0.074562 -0.677346 -0.053734 -0.733625
0.083493 -0.624724 0.013596 -0.744331 -0.171673 0.643779
0.190135 -0.47625 -0.066741 0.842351 0.048048 -0.535827
-0.136668 -0.041011 -0.032753 -0.964486 0.009255 -0.26078
0.12945 -0.864855 0.157638 -0.026087 -0.984875 0.168905
0.045191 -0.196715 -0.05851 -0.869185 -0.154231 -0.454678
-0.137943 -0.065182 -0.026831 -0.963388 0.005479 -0.267388
-0.021488 -0.842526 -0.035094 0.918738 -0.391358 -0.006844
-0.067005 0.425378 -0.126354 -0.241739 -0.155933 -0.957033
0.558218 0.139521 -0.013776 0.607707 0.122268 -0.783747
0.197795 0.368061 -0.066195 0.970369 -0.186343 -0.125718
-0.125829 -0.334717 0.040771 -0.992056 -9.7e-05 0.124931
-0.115213 0.034838 -0.074871 -0.867524 0.144045 -0.475042
-0.033995 0.00963 0.135205 -0.257432 0.233004 0.934121
-0.113667 -0.383723 0.085132 -0.728483 -0.089501 0.677772
-0.429866 0.229301 0.002818 -0.629988 0.577843 0.504003
-0.012342 0.768482 0.061094 -0.842162 -0.083466 0.526843
0.025597 -0.454265 0.0015 0.983479 0.020534 0.149224
0.108493 -0.652486 0.034097 -0.073653 -0.061031 0.991624
0.150405 -0.638505 0.028203 0.18161 0.119546 0.975449
-0.125308 -0.344921 0.047458 -0.990218 0.052007 0.128615
0.130917 0.210608 0.095005 0.513216 0.05404 0.856517
-0.083003 0.101785 0.093605 -0.598567 0.201178 0.7745
0.026861 -0.671987 -0.043725 0.994794 0.00499 -0.076304
0.212776 -0.13716 -0.008434 0.975222 -0.193726 -0.064851
0.090486 -0.829546 0.062101 -0.97084 0.201011 0.116451
0.180736 0.537293 -0.108599 0.256245 0.631897 -0.73056
0.027529 -0.291964 0.033447 0.994605 -0.011846 0.10298
0.566777 0.088622 0.047652 -0.855124 -0.43576 0.262627
0.166698 -0.847704 0.014223 0.972463 0.097135 -0.127874
0.19046 -0.445208 0.039911 0.955277 -0.090511 0.279172
0.164236 -0.798702 0.015752 0.823457 0.386877 0.409984
0.209169 -0.112078 0.038891 0.945059 -0.016032 0.326455
0.126728 0.221099 -0.111153 0.625709 -0.289957 -0.724105
0.173612 0.451073 -0.137763 0.189637 -0.061136 -0.979496
-0.119703 0.317853 -0.048604 -0.992093 -0.088023 -0.075961
0.146067 -0.678275 0.02726 0.173739 -0.181054 0.967414
-0.136486 -0.419444 0.014816 -0.990576 0.03054 0.12906
0.159662 0.155322 0.070589 0.709172 0.059772 0.702482
0.04204 0.448712 -0.129242 -0.26214 0.037894 -0.959828
-0.4037 0.178507 0.008202 0.562404 -0.818828 0.108604
0.353143 0.402571 -0.090769 0.938683 0.008707 0.095636
0.263437 0.419616 -0.01165 -0.035632 -0.186061 0.981211
0.116583 0.127547 -0.116987 0.497063 0.325243 -0.803721
-0.110448 0.458445 -0.115423 -0.444739 0.07308 -0.892157
0.02884 -0.264172 0.029839 0.984259 -0.048361 0.169864
0.150062 -0.757229 0.02522 0.005457 -0.180905 0.967178
-0.126896 0.529208 -0.083508 -0.357518 0.599036 -0.715216
0.092994 -0.866482 0.103104 -0.501825 -0.863321 0.012425
0.177936 -0.784563 -0.07134 0.866866 0.169356 -0.435475
0.199194 0.389878 -0.052353 0.993627 -0.109211 0.01721
0.07704 -0.68454 0.030811 -0.424005 0.282744 0.859809
-0.06981 -0.862854 -0.079515 -0.019159 -0.998926 0.040568
0.180139 0.461344 -0.136932 0.150319 0.000928 -0.988601
0.122292 -0.868467 0.132346 -0.042068 -0.992088 0.115506
-0.046714 0.107789 0.112226 -0.491975 0.180216 0.851681
-0.124519 0.501187 0.057599 -0.060985 0.309807 0.947231
0.183847 -0.292259 0.070806 0.55248 -0.04729 0.827883
0.009035 -0.108063 0.114302 0.577349 -0.294933 0.760489
-0.059187 -0.86278 -0.077786 0.009084 -0.998525 0.052389
-0.128025 -0.309229 0.028099 -0.996114 -0.031322 0.076271
-0.357953 0.314533 -0.044975 -0.691607 0.719417 0.050442
0.312443 0.456903 -0.073983 0.724663 0.687901 0.020626
-0.092189 0.286661 -0.094706 -0.702602 -0.041883 -0.710264
0.023389 0.830036 -0.098532 -0.082613 0.700272 -0.708609
-0.125005 0.098585 0.035511 -0.934869 -0.001253 0.354174
0.067688 0.830475 -0.088297 0.446419 0.646202 -0.616466
-0.113008 -0.023898 0.089599 -0.764185 0.051915 0.642549
0.095792 -0.30437 -0.097809 -0.279765 0.012875 -0.955937
0.2759 0.364306 -0.029093 -0.339824 -0.541645 0.755048
-0.039497 -0.862445 0.111785 0.254442 -0.956348 0.127644
-0.326596 0.227455 -0.014669 0.6648 -0.716723 0.194331
0.044961 -0.42825 -0.041181 -0.950278 -0.024595 -0.283578
0.006215 -0.082825 -0.096215 0.367249 -0.632314 -0.676317
-0.143551 -0.069613 0.025405 -0.994281 0.022016 0.098088
-0.127114 -0.354085 0.035907 -0.994542 0.047536 0.089531
-0.020206 0.796996 0.04027 -0.910527 0.186292 0.367778
-0.03922 0.172164 0.112573 -0.53837 0.108162 0.835682
-0.010494 -0.687428 -0.086154 0.65349 0.210402 -0.727064
0.171979 -0.043825 0.091949 0.690366 0.017241 0.723249
0.025441 -0.083938 -0.096265 -0.436814 -0.659923 -0.602702
0.303649 0.415116 -0.023375 0.588438 0.121981 0.798293
-0.075643 0.194034 -0.085526 -0.691417 -0.082723 -0.717035
-0.130106 -0.589841 -0.029676 -0.985969 -0.097114 0.129951
-0.27118 0.290588 -0.006501 0.48518 -0.577936 0.653414
-0.127731 -0.655289 -0.040957 -0.996567 -0.026369 0.076726
-0.031902 -0.496289 0.057012 0.316484 -0.270203 0.9089
-0.121627 -0.236033 -0.028017 -0.879772 -0.024415 -0.47433
0.240489 0.436404 -0.00061 0.651634 -0.210013 0.720062
0.041879 -0.387526 -0.012558 -0.984853 -0.116339 0.125732
-0.125282 -0.712187 -0.032343 -0.859804 0.102785 0.483725
0.168512 -0.041192 -0.105239 0.807433 -0.129454 -0.575429
-0.136676 -0.432675 -0.01631 -0.970716 0.117456 -0.205646
0.063983 0.808551 0.069303 0.498238 0.428356 0.753368
0.160829 -0.3186 0.076318 0.251805 -0.041003 0.966828
0.107667 0.10521 -0.131139 0.437576 0.380285 -0.812313
-0.08393 -0.833171 0.132486 -0.429285 0.873823 0.216749
0.090311 -0.835815 0.083536 -0.928694 0.362574 0.069447
-0.040223 -0.547099 -0.099245 0.319658 0.006087 -0.947188
0.119367 0.426522 0.083352 0.257973 0.177477 0.949019
0.177339 -0.237405 0.077748 0.512538 -0.18741 0.835893
0.133802 0.251732 0.089668 0.663747 0.041743 0.746169
0.041994 0.083757 -0.144938 -0.14033 0.224561 -0.964171
0.292131 0.48399 -0.06013 0.772224 0.621296 0.111053
0.089729 0.732602 0.050173 0.958571 -0.008397 0.270544
-0.105792 0.24926 0.050203 -0.945037 0.138171 0.289645
-0.128728 0.083259 -0.003096 -0.999242 0.023641 -0.006981
-0.08961 0.296726 -0.097886 -0.543226 -0.063092 -0.816336
0.05498 0.191864 -0.115784 -0.239947 -0.030902 -0.960734
-0.122095 -0.136612 -0.047934 -0.822066 -0.14761 -0.549691
-0.068955 -0.046103 0.123542 -0.399318 -0.059087 0.914575
0.054301 -0.025757 -0.146575 -0.277596 -0.383561 -0.880622
-0.02377 -0.500522 0.052314 0.441388 -0.258617 0.858932
0.081262 -0.442283 0.021509 -0.690755 -0.271516 0.668757
0.145498 -0.844627 0.17881 0.430396 0.48315 0.730824
-0.115404 0.238473 -0.002864 -0.903801 0.41067 0.030274
-0.106649 -0.400774 -0.057471 -0.723603 -0.052129 -0.683517
0.138259 0.026056 0.113792 0.396146 0.14871 0.904797
0.208767 0.511103 -0.122317 0.219808 0.499464 -0.835478
-0.116636 0.356252 0.023283 -0.938185 -0.20414 0.278665
0.16587 -0.663362 -0.074522 0.604505 -0.188434 -0.773198
0.427318 0.226277 -0.038263 -0.290817 -0.397246 0.857801
0.078452 -0.336626 -0.087852 -0.655267 -0.03523 -0.754545
0.064089 -0.335448 -0.073718 -0.770656 -0.053446 -0.634951
0.154074 -0.092006 0.106685 0.485229 0.002862 0.873919
0.012485 -0.565754 -0.051222 0.829682 0.024645 -0.557025
-0.096378 -0.425293 0.086019 -0.252152 -0.324373 0.901329
0.044271 -0.438535 -0.038775 -0.978035 9.9e-05 -0.205449
0.076004 0.848588 0.024149 0.710321 0.613974 0.334688
-0.020049 0.061625 -0.139945 -0.244617 0.272426 -0.929935
0.104592 -0.481481 0.037512 -0.635379 -0.039548 0.770969
0.174641 -0.31602 0.073509 0.244976 -0.021083 0.960266
0.091134 0.741311 0.044487 0.964979 -0.032197 0.255171
-0.215097 0.44046 0.03368 -0.624907 0.212909 0.746377
-0.13307 -0.53643 -0.009525 -0.885862 -0.214316 0.409457
-0.112283 0.255652 -0.007752 -0.998966 0.037016 -0.002027
0.278617 0.486006 -0.029151 0.672295 0.586696 0.44857
-0.098288 0.261666 0.062906 -0.758915 0.031767 0.648846
-0.002516 -0.829691 -0.029462 0.440356 -0.874667 0.117397
0.075374 -0.655588 0.018592 -0.61168 0.31995 0.723089
0.144071 -0.582431 -0.101599 0.324243 -0.146595 -0.934349
0.076796 -0.617424 -0.070461 -0.664722 -0.054925 -0.745052
0.050104 -0.199604 0.062587 -0.809571 -0.080517 0.581104
0.143417 0.142979 -0.094652 0.697764 0.145052 -0.701075
0.009298 0.678172 -0.064121 -0.489925 -0.417981 -0.763542
-0.522824 0.073201 0.082324 0.246238 -0.920654 0.177263
0.076858 -0.815089 -0.073377 -0.88289 -0.145193 -0.375318
-0.363836 0.210274 -0.056993 0.457828 -0.735623 -0.495186
-0.118456 -0.517935 -0.069342 -0.752235 0.13649 -0.643877
-0.079692 -0.093259 0.117573 -0.435138 -0.014681 0.89942
0.379461 0.33621 -0.062509 0.550762 0.603429 0.576628
0.104471 -0.583659 -0.095909 -0.491639 -0.128643 -0.859957
0.172362 -0.741388 0.004278 0.332377 0.741261 0.5806
0.086016 0.483856 -0.139821 -0.285981 0.294484 -0.911387
-0.00976 -0.803055 -0.134167 0.709128 -0.122904 -0.692435
-0.129714 -0.256979 -0.008745 -0.966169 -0.036721 -0.251005
0.01168 -0.721474 -0.078752 0.738626 0.10697 -0.665254
-0.095796 -0.249424 0.10828 -0.296952 -0.020003 0.951613
0.423138 0.211839 -0.102999 -0.630933 -0.635819 -0.413028
0.175967 -0.126597 -0.080001 0.751578 -0.131762 -0.645603
0.156474 -0.003275 0.104487 0.535022 -0.239359 0.804821
0.077598 -0.695092 0.033622 -0.264762 0.186373 0.945512
-0.143449 -0.090042 0.02933 -0.991572 0.023676 0.123161
0.092948 0.289338 -0.140113 0.114194 -0.06987 -0.990974
0.049612 0.401984 -0.134401 -0.358241 0.032585 -0.931293
0.016409 -0.33028 0.059817 0.843468 -0.200523 0.494524
-0.124628 0.064431 0.050716 -0.901708 0.256884 0.344801
0.030852 0.251416 0.12755 0.011093 0.036737 0.999186
-0.123332 -0.603033 0.001209 -0.921819 0.083871 0.37804
0.498 0.229602 -0.023745 0.635813 0.759607 0.130523
-0.019758 0.55007 0.038456 0.041675 0.838562 0.533922
0.169586 -0.81851 -0.030035 0.785233 -0.617429 0.039205
-0.13728 -0.103918 0.05414 -0.967031 0.00174 0.253867
0.024273 -0.121494 -0.053986 -0.508026 -0.535546 -0.497178
-0.072202 0.013092 0.121657 -0.352779 0.287832 0.888404
-0.095967 0.129836 -0.077417 -0.734004 0.138129 -0.664345
0.158434 0.183607 0.069658 0.734205 0.054698 0.676454
-0.081724 0.541852 -0.096423 -0.353713 0.555487 -0.751369
0.176323 0.08403 -0.072825 0.81472 0.201612 -0.54294
-0.065293 -0.764603 0.023111 -0.299134 0.515615 0.788904
0.099085 0.71296 0.000216 0.831888 -0.504596 0.002384
-0.094899 -0.116153 0.112046 -0.363387 0.058836 0.928643
-0.128205 -0.329662 0.017538 -0.99915 -0.010291 0.033254
0.006273 0.715137 -0.091295 -0.421634 -0.575677 -0.695955
0.192022 0.448481 0.035736 0.556501 0.126565 0.82052
-0.013897 -0.152082 -0.083332 0.617198 -0.147565 -0.771335
0.077207 -0.455232 -0.082264 -0.705862 0.034613 -0.707462
-0.270776 0.408597 -0.065535 -0.617936 0.687793 -0.374293
-0.1405 0.531186 0.038044 -0.183713 0.688947 0.701064
-0.11007 -0.102958 0.10019 -0.720651 0.078843 0.68863
-0.384103 0.290542 -0.05009 -0.706535 0.705083 -0.052426
-0.099175 0.45369 0.065553 -0.372487 0.068528 0.918342
0.088072 0.310628 -0.142812 0.015538 -0.089302 -0.993963
0.062937 0.350036 0.109016 0.303487 0.254521 0.917891
0.095767 -0.854338 -0.009518 -0.702239 -0.708137 0.021974
-0.118848 -0.262658 -0.032444 -0.827851 0.003763 -0.560436
-0.08896 0.141713 0.079394 -0.673409 0.077627 0.734852
-0.038484 0.41594 -0.129679 -0.061998 -0.039673 -0.997118
0.518964 0.212973 -0.02893 0.481884 0.822039 0.30019
0.14241 -0.20166 0.094132 0.02968 -0.151152 0.982693
-0.066409 0.354197 0.092551 -0.398061 -0.099412 0.901938
0.165293 0.180138 -0.065357 0.823202 0.055517 -0.561337
0.055716 0.360716 -0.136276 -0.335613 -0.027401 -0.941491
-0.376671 0.297539 -0.055571 -0.702364 0.70059 -0.118213
0.065032 0.458596 -0.137132 -0.294559 0.075294 -0.952169
0.059878 0.056448 0.131655 0.035868 0.145645 0.98659
-0.084484 -0.672532 0.033075 0.167328 -0.352658 0.915656
0.197231 -0.446758 0.013024 0.975705 -0.086426 0.198034
0.078411 0.838861 0.031355 0.761476 0.377054 0.522522
0.172084 -0.389327 -0.071641 0.666001 0.141871 -0.713569
0.323683 0.323078 -0.046337 -0.415121 -0.502878 0.756094
-0.029706 0.007094 -0.138532 -0.158194 -0.159334 -0.973623
0.190483 0.33831 0.000263 0.977225 -0.093188 0.187781
-0.04503 0.238265 -0.122198 -0.541378 -0.15333 -0.826074
0.142184 0.438433 0.072822 0.436839 0.135284 0.888043
0.064746 0.861076 -0.039109 0.441953 0.868263 -0.188841
-0.001546 -0.740589 -0.096369 0.725288 0.160144 -0.668704
-0.55805 0.060068 0.001749 0.023523 0.151302 -0.755309
0.114272 -0.725662 -0.097229 -0.219862 0.093478 -0.964043
0.536972 0.1579 0.030467 -0.526668 0.160462 0.822485
-0.069104 -0.429833 -0.086703 -0.239981 0.305406 -0.919763
-0.015294 0.393424 -0.129524 0.023569 -0.009224 -0.999657
0.060479 0.864418 -0.006705 0.375081 0.920311 0.058755
0.037395 0.394384 0.102987 0.09616 0.403896 0.853609
-0.081638 -0.519154 -0.096903 -0.295264 0.090866 -0.948838
0.058114 -0.742139 0.018827 -0.959597 -0.240474 0.129729
-0.023121 -0.83795 -0.109946 0.897695 -0.372441 -0.107378
0.064907 -0.536898 -0.067332 -0.765906 -0.060723 -0.639989
-0.053713 0.295224 0.095663 -0.491697 0.001681 0.870063
-0.129783 0.068623 0.020029 -0.948415 0.287257 0.096149
-0.099311 -0.285609 -0.062597 -0.745105 -0.004891 -0.66687
-0.437562 0.177347 -0.053379 -0.151061 0.055582 -0.950098
0.072472 0.637532 -0.053945 0.70206 0.264402 -0.659908
-0.121277 0.215742 -0.002815 -0.970176 0.221103 -0.037209
0.204672 0.012973 0.045744 0.967303 0.022494 0.243859
-0.128468 -0.30704 -4e-05 -0.999585 -0.010013 -0.026606
0.531348 0.199004 -0.057456 -0.133694 -0.566222 -0.811753
0.105361 0.78025 -0.021313 0.999869 -4e-05 0.006775
0.234118 0.442772 -0.134839 -0.118395 0.046967 -0.990204
0.02184 -0.23598 0.061401 0.942953 -0.005392 0.330627
0.139259 -0.058415 0.112509 0.315148 -0.006282 0.948544
0.058917 0.122554 0.129945 0.142292 0.058077 0.986703
0.061495 0.785628 0.079582 0.515254 0.14138 0.801787
-0.103757 0.494577 0.059162 0.008579 0.227402 0.973157
-0.132319 -0.255788 0.001567 -0.966219 -0.112581 -0.230884
0.110937 -0.627818 -0.093939 -0.444754 -0.086763 -0.889952
0.179927 -0.029914 -0.089083 0.823535 -0.036047 -0.565037
-0.138493 -0.460408 -0.002078 -0.991166 -0.034846 0.116739
0.025369 0.02699 0.140218 0.050136 0.258412 0.964135
-0.111911 0.10953 -0.057662 -0.892043 0.094287 -0.441352
0.192373 -0.503541 -0.063563 0.852276 0.013753 -0.522716
0.144682 -0.825866 0.097062 0.293647 0.94107 0.150767
0.343001 0.299943 -0.050866 -0.559867 -0.569575 0.600813
0.083091 -0.060434 -0.138253 -0.121796 -0.370864 -0.920012
-0.09659 0.371755 0.067618 -0.664915 -0.18691 0.723054
0.140057 0.308839 0.079166 0.732184 0.051739 0.679116
-0.007873 0.516287 0.063806 -0.000768 0.444075 0.895372
0.200089 0.444435 0.030127 0.640462 0.049887 0.765246
0.201426 -0.210707 0.036978 0.950154 0.001084 0.311312
-0.007027 0.313007 -0.130155 0.092224 0.060775 -0.99376
-0.02612 -0.85117 0.083951 0.9843 -0.04298 0.166114
0.089923 0.275805 0.109885 0.394849 0.107925 0.912336
0.107886 -0.494709 0.039167 -0.590316 -0.066246 0.804272
0.047366 0.811607 0.075618 0.216339 0.434965 0.874018
0.043679 0.384649 -0.132231 -0.402903 -0.007254 -0.912845
0.181672 0.203607 -0.025247 0.978313 0.027979 -0.195114
0.155243 -0.294652 -0.0745 0.583017 -0.038414 -0.811231
-0.06054 -0.455571 0.077225 0.284513 -0.276079 0.917219
0.080382 0.446115 0.086224 0.124275 0.299574 0.945646
-0.128638 -0.56249 -0.010418 -0.966789 -0.100787 0.234766
0.145591 0.370184 0.074853 0.640645 -0.030984 0.766873
0.139631 -0.593188 0.03922 -0.203218 -0.207175 0.956484
0.143324 -0.276946 -0.084877 0.575721 -0.096831 -0.8118
-0.12868 -0.376998 0.003773 -0.990558 0.084028 0.008664
0.053375 0.666022 0.087663 0.499013 -0.464271 0.67211
0.166365 -0.177264 0.092941 0.37633 -0.173817 0.908275
-0.073409 -0.863872 0.04934 -0.03452 -0.999325 -0.010206
-0.164064 0.514665 -0.072509 -0.516754 0.50956 -0.6871
0.363477 0.366443 -0.100271 0.700681 0.712227 -0.005388
0.203989 -0.368591 0.009033 0.964311 -0.024656 0.256523
0.046377 -0.536567 -0.039889 -0.902495 -0.027424 -0.423306
0.199007 -0.436321 0.008302 0.986373 -0.089127 0.137288
0.169822 -0.818603 -0.044462 0.780021 -0.625429 0.00735
0.169328 -0.75313 -0.058064 0.857023 0.176599 -0.471772
-0.096702 -0.849263 0.132243 -0.898977 0.070211 0.370452
-0.06826 -0.779225 0.030367 -0.470643 0.51494 0.698421
0.202069 -0.000737 -0.034613 0.915935 0.118764 -0.376008
0.059709 0.598069 -0.085305 0.11981 0.652878 -0.747204
0.001852 0.794605 0.073735 -0.5164 0.362195 0.771307
0.066065 -0.47275 -0.07156 -0.727066 0.039463 -0.685301
0.042975 -0.35177 0.011291 -0.978823 -0.069799 0.19156
0.045677 0.782775 -0.119151 0.272203 0.054192 -0.957329
0.081821 0.695175 0.060324 0.885452 -0.15676 0.431604
-0.115469 0.072223 0.074005 -0.844653 0.336636 0.4129
-0.109111 0.078627 0.080562 -0.675439 0.406622 0.612156
-0.073081 0.270444 -0.110212 -0.612868 -0.10678 -0.781256
-0.121148 0.353853 -0.025749 -0.990098 -0.128385 0.014721
-0.108181 -0.809228 -0.085981 -0.873513 -0.372314 -0.308526
-0.088675 0.186938 0.079907 -0.657835 -0.020644 0.752726
-0.093711 0.29023 0.066745 -0.749364 0.065899 0.65826
0.193884 0.045861 -0.053291 0.910351 0.131753 -0.3918
0.35836 0.356968 -0.062534 0.617932 0.567214 0.54434
0.204029 0.503752 -0.126966 0.169242 0.393449 -0.899882
0.095976 -0.55352 0.032118 -0.467025 -0.019015 0.882772
0.20959 -0.146761 -0.000292 0.935178 -0.345804 0.026205
0.147697 -0.859617 -0.101845 0.701901 -0.421364 -0.570659
0.492445 0.20304 -0.06305 0.042701 -0.388498 -0.920364
0.214407 -0.080998 0.010175 0.999354 0.016959 0.000999
0.204279 -0.563547 -0.027337 0.985633 -0.097643 -0.106122
0.272043 0.344808 -0.059832 -0.515367 -0.770856 0.356503
0.059907 -0.768204 -0.01519 -0.994076 0.042076 -0.098062
-0.19197 0.480807 -0.071518 -0.549508 0.454428 -0.700183
-0.026073 0.407748 -0.129751 -0.007648 -0.014163 -0.999703
-0.129172 -0.280656 0.042838 -0.988024 -0.139606 0.0602
0.341718 0.370328 -0.056802 0.640529 0.47709 0.593567
0.358076 0.363424 -0.123504 0.717849 0.484848 -0.493684
0.11909 0.269151 -0.130953 0.494435 -0.085238 -0.856196
0.212982 0.42223 -0.122669 -0.225589 -0.685038 -0.668221
-0.412598 0.253753 -0.053654 -0.774557 0.573019 -0.255307
0.186899 0.040793 -0.069941 0.866016 0.117081 -0.485538
0.135961 0.235612 0.088662 0.678574 0.060722 0.731399
0.294322 0.466155 -0.101655 0.588906 0.643597 -0.488651
0.082392 0.843602 0.009493 0.871628 0.475475 0.107559
-0.022125 0.787485 0.038623 -0.888312 0.112189 0.443159
0.024241 0.653456 0.046196 -0.248428 -0.821699 0.492439
-0.088037 -0.280998 0.108651 -0.112792 -0.076951 0.989258
0.212979 0.493154 -0.128957 0.199948 0.275882 -0.938644
-0.004451 0.244793 0.121564 -0.367497 0.080108 0.926436
0.021173 -0.542793 -0.004104 0.937628 -0.095831 0.330691
-0.475225 0.173317 0.028486 -0.439535 0.843713 0.244501
0.001917 0.774198 0.076512 -0.416248 -0.366394 0.820812
0.130584 0.24189 -0.115816 0.692955 -0.202696 -0.690909
0.365264 0.302771 -0.041747 -0.028361 0.095207 0.969908
0.175011 -0.011937 -0.096175 0.829675 0.05559 -0.553809
0.206934 -0.203116 0.006442 0.997943 -0.047471 0.041901
-0.009283 -0.524827 -0.079265 0.684697 0.075249 -0.724432
-0.390596 0.272882 -0.006015 -0.542943 0.653414 0.526778
-0.096043 -0.480377 -0.084055 -0.581181 0.125694 -0.802744
0.004675 0.504388 0.068717 0.034087 0.476354 0.877035
0.126503 -0.593665 0.035976 -0.203447 -0.193558 0.959637
-0.051863 0.274104 -0.122309 -0.458556 -0.052591 -0.886676
0.055679 -0.727535 -0.005373 -0.950214 -0.192435 -0.241586
-0.124783 0.370043 -0.058149 -0.931481 -0.343042 -0.113898
0.012159 0.457755 -0.126757 0.065919 0.042487 -0.996491
0.20521 0.042243 -0.01332 0.980057 0.092145 -0.165765
-0.061908 0.496739 -0.123961 -0.150991 0.341443 -0.927001
0.02013 -0.252102 0.066273 0.948628 -0.023108 0.315218
0.632885 0.060215 0.032226 0.823299 0.565734 -0.034346
-0.112127 -0.852284 0.035258 -0.909435 -0.381137 -0.021101
0.144968 -0.869063 -0.061861 0.237124 -0.958709 0.022947
0.109745 -0.507532 0.039277 -0.611405 -0.067516 0.788139
0.169945 -0.854025 0.127715 0.895115 0.176381 0.185734
0.175256 0.338525 0.037586 0.879777 -0.05004 0.471763
0.092151 -0.737363 -0.079184 -0.841794 -0.072152 -0.534516
-0.035786 -0.437403 0.075755 0.261016 -0.21579 0.940308
0.038961 0.534556 0.046823 0.024273 0.779783 0.625573
0.174133 -0.469645 0.061879 0.520277 -0.137564 0.838435
-0.100455 0.079528 -0.085124 -0.732516 0.205565 -0.648394
-0.01884 0.808011 0.037444 -0.90439 0.234216 0.352225
-0.058205 -0.351093 0.099085 0.17324 -0.120745 0.97733
-0.163911 0.543162 -0.019722 -0.644565 0.763365 -0.028213
-0.001458 0.320816 -0.128886 0.12347 0.047708 -0.990927
0.008211 -0.186596 -0.060416 0.779808 0.064961 -0.622189
0.043656 -0.228171 0.040547 -0.979468 -0.039926 0.178873
-0.033066 0.076666 -0.13419 -0.250136 0.275646 -0.925589
0.28525 0.470949 -0.105165 0.523463 0.650533 -0.549901
-0.140105 -0.059723 -0.01919 -0.94556 0.015299 -0.323552
-0.014251 0.471358 -0.129032 0.095146 0.060678 -0.99359
0.191945 -0.738153 -0.031131 0.774506 -0.245146 -0.580903
0.120948 0.172946 -0.105538 0.427271 0.078458 -0.900112
-0.100389 -0.710196 0.012789 -0.49521 -0.528825 0.682381
-0.064797 -0.253272 0.111882 0.025455 -0.095977 0.994751
0.041022 0.398225 -0.130859 -0.323336 0.026475 -0.942331
-0.016354 0.718317 0.05856 -0.781066 -0.077596 0.613917
-0.118937 0.154478 -0.033414 -0.886418 0.128006 -0.441
0.348574 0.296172 -0.122643 -0.464255 -0.580878 -0.665646
0.201196 -0.186592 -0.047951 0.867297 0.026694 -0.495701
-0.076071 -0.786022 0.031123 -0.516753 0.704807 0.483184
-0.096475 -0.84144 0.124029 -0.778365 0.556759 0.258875
-0.03538 0.825669 -0.057725 -0.80715 0.390242 -0.377601
-0.3429 0.305917 -0.004149 -0.356033 0.392661 0.846851
-0.187012 0.357035 -0.013634 0.523351 -0.778975 0.338778
0.140707 -0.869159 -0.051234 0.085087 -0.993836 0.062134
0.187962 -0.672028 -0.050694 0.705209 -0.296777 -0.642163
-0.007848 -0.831758 -0.073798 0.043882 -0.998669 -0.01043
0.058973 0.834553 -0.088799 0.326317 0.694382 -0.6362
0.387509 0.31882 -0.0526 0.356524 0.499601 0.788331
-0.08962 -0.642845 0.043188 0.084022 -0.315112 0.937183
-0.560629 0.050934 0.074315 -0.467192 -0.567429 0.502944
-0.029789 0.715643 -0.013729 -0.946934 -0.301646 -0.079186
0.344016 0.382968 -0.128857 0.817646 0.078695 -0.564368
-0.09169 -0.290847 -0.070565 -0.714029 -0.023442 -0.699574
-0.056624 -0.798845 -0.146789 -0.358062 0.068957 -0.923434
-0.168412 0.381367 0.003012 0.516833 -0.686873 0.507631
0.027568 -0.619036 -0.029472 0.994932 0.01569 -0.082396
0.105949 -0.864761 0.009149 -0.384105 -0.891185 -0.149739
-0.156249 0.540004 0.018418 -0.460991 0.773996 0.431509
0.587669 0.063402 0.046042 0.772054 -0.330177 0.469522
-0.330454 0.225241 -0.038271 0.507663 -0.85182 -0.121968
0.0238 -0.458807 -0.01837 0.905881 0.08262 -0.409439
0.018665 -0.146783 -0.042315 0.907007 -0.119575 -0.401528
0.172016 0.011734 -0.097591 0.810498 0.037355 -0.583785
0.068133 0.559736 -0.1142 -0.120111 0.510938 -0.849422
-0.095819 0.375251 -0.106439 -0.483079 -0.225176 -0.845531
0.301187 0.441288 -0.031859 0.75752 0.391847 0.489262
0.145172 0.265841 -0.102164 0.826093 -0.112889 -0.552031
0.08575 0.675001 -0.008028 0.915345 -0.395687 0.018687
-0.077552 0.008544 -0.123847 -0.573574 -0.040004 -0.817585
-0.111572 0.505695 0.05643 0.022731 0.351223 0.933707
-0.125546 -0.43789 -0.043259 -0.79827 0.252873 -0.546009
-0.120147 0.134127 0.038762 -0.926894 0.074876 0.366937
-0.134581 -0.411583 -0.014745 -0.958384 0.083125 -0.269854
-0.122699 -0.149145 0.088215 -0.839102 0.031861 0.542503
0.075853 -0.746191 -0.047286 -0.898216 0.075982 -0.431055
0.206132 0.007018 -0.01441 0.991368 0.027412 -0.122058
0.134973 0.202146 -0.097835 0.672668 -0.134597 -0.725433
-0.212118 0.494441 -0.011088 -0.744052 0.664302 0.06054
0.207391 -0.012184 0.034932 0.959318 0.125565 0.24729
-0.12969 -0.235744 0.069181 -0.944388 -0.071906 0.320508
-0.020522 0.745156 -0.085438 -0.808826 -0.296126 -0.507473
-0.137234 -0.009098 -0.019678 -0.995352 0.035942 -0.087841
0.108269 -0.232465 0.089793 -0.037053 -0.147785 0.987943
0.103782 -0.634875 -0.090218 -0.477617 -0.059705 -0.875414
-0.129715 -0.005703 0.063974 -0.888957 -0.199257 0.400819
0.042019 -0.268811 0.019785 -0.985247 -0.027214 0.160273
-0.027293 -0.799583 -0.147585 0.443012 0.109085 -0.882716
0.053357 -0.673061 0.009291 -0.916856 0.000191 0.36065
0.006102 -0.812207 -0.096119 0.917085 -0.277161 -0.281242
0.007915 -0.722654 -0.009501 0.791664 0.001039 0.610764
0.063984 0.260335 -0.135014 -0.314552 -0.088841 -0.943349
0.190384 0.540083 0.00034 0.273573 0.642051 0.715042
0.057038 0.006475 0.141855 0.138682 0.041505 0.977808
0.401304 0.244969 -0.036993 -0.423426 -0.336415 0.828322
-0.463642 0.13245 0.01109 0.596312 -0.797114 -0.0262
0.139923 -0.441573 0.067052 -0.353747 -0.143285 0.922519
