0.200289 -0.114682 -0.048722 0.879477 0.043019 -0.473649
0.074294 0.665206 0.026948 0.830033 -0.411285 0.366096
-0.142749 -0.107787 0.036668 -0.977675 0.006021 0.202703
0.030941 -0.257128 0.023312 0.983135 -0.063429 0.170709
0.04025 -0.182871 -0.052776 -0.905148 -0.205258 -0.371431
0.171814 0.115385 -0.065718 0.792567 0.270199 -0.546421
0.193864 -0.108336 -0.059346 0.812116 0.008367 -0.583108
-0.048295 -0.126871 -0.10415 0.03146 -0.125059 -0.990054
0.179229 -0.303621 -0.052598 0.739246 -0.084683 -0.667559
0.073657 -0.350552 0.056515 -0.574454 -0.32202 0.749371
0.175412 0.415372 0.048933 0.593998 0.00252 0.803283
-0.090547 0.548534 -0.085825 -0.386765 0.632648 -0.670523
0.198638 -0.498694 0.006348 0.962712 0.046804 0.264902
0.593625 0.11014 0.066743 0.178484 0.578356 0.789678
0.0443 -0.544757 -0.026764 -0.993768 -0.007885 0.019296
-0.512696 0.124648 0.005712 -0.830868 -0.027078 -0.497424
-0.139817 -0.138179 0.046157 -0.948586 -0.014275 0.315815
-0.097363 -0.792941 -0.109907 -0.797989 0.040954 -0.597553
0.188171 0.542384 -0.100655 0.262855 0.724006 -0.637517
-0.045315 -0.862361 0.004747 0.136035 -0.986971 -0.068217
-0.14061 -0.147497 0.043139 -0.950555 -0.044844 0.307154
-0.051623 -0.56992 0.047517 0.420441 -0.209648 0.879123
-0.302141 0.254303 -0.004621 0.656174 -0.519427 0.519096
-0.057185 -0.861096 -0.040008 0.085399 -0.995725 -0.006737
0.103074 -0.392606 0.060108 -0.486702 -0.160871 0.858214
0.009053 0.863064 0.014999 -0.177646 0.980451 0.060823
0.378258 0.249784 -0.100103 -0.67521 -0.664446 -0.318492
-0.460988 0.194963 0.008584 -0.692523 0.61701 0.338431
0.023902 -0.708777 -0.053672 0.954297 -0.088269 -0.267879
0.163379 -0.007414 0.097425 0.631351 -0.143009 0.759752
0.132994 0.095954 -0.118376 0.610336 0.259366 -0.747251
0.095255 -0.863459 0.140148 -0.482427 -0.841509 0.200272
0.148444 0.105868 0.083305 0.586969 0.086617 0.802676
0.04956 -0.627121 -0.016326 -0.959229 0.090302 0.24686
0.194576 -0.186031 0.062696 0.950465 -0.085166 0.296536
0.073281 -0.089123 0.097178 -0.205633 -0.675572 0.650407
0.447327 0.211963 -0.093569 0.83807 -0.119481 -0.529108
-0.501483 0.120857 0.001028 -0.163891 -0.720705 -0.671894
0.138795 0.581783 -0.041396 0.2646 0.926952 0.254735
-0.081513 0.270991 0.078218 -0.60271 0.051806 0.79617
-0.10376 -0.809326 -0.096282 -0.883868 -0.248847 -0.382261
0.187616 0.513155 0.019578 0.259914 0.390908 0.881427
-0.052489 -0.797664 0.05347 -0.235307 0.739337 0.621642
-0.111071 -0.784321 -0.006777 -0.854211 0.004566 0.516428
-0.120284 0.324483 -0.030312 -0.999277 -0.024692 0.022066
-0.108784 -0.525319 -0.081311 -0.678443 0.108897 -0.72639
0.030329 0.60094 -0.084124 -0.069373 0.593849 -0.801537
0.080396 -0.221607 -0.089472 -0.469199 -0.09276 -0.877702
0.03937 -0.055278 0.124987 -0.143978 -0.480181 0.864241
0.033658 0.314084 -0.127477 -0.138159 0.031322 -0.988289
-0.035972 0.751736 0.001123 -0.965178 -0.106512 0.232266
0.029781 0.506152 0.065761 0.105035 0.499473 0.859768
0.090567 -0.839899 0.105711 -0.872847 0.47383 0.114922
-0.062697 -0.084474 0.122408 -0.26555 -0.063382 0.961541
-0.020138 -0.446387 0.068292 0.525841 -0.232969 0.811827
0.485056 0.1774 -0.005742 -0.570197 -0.818241 0.053516
-0.081391 0.364497 -0.111901 -0.474505 -0.140968 -0.868134
-0.334501 0.333959 -0.039149 -0.676604 0.735575 0.031753
-0.052525 -0.864288 0.05592 0.002967 -0.999858 -0.006748
0.402217 0.230775 -0.05444 -0.602925 -0.718224 0.345021
0.068998 0.218901 -0.128961 -0.157189 -0.284038 -0.94525
0.472179 0.249473 -0.083023 0.859977 0.104085 -0.457658
0.166324 -0.729021 -0.003211 0.429319 0.218135 0.851733
-0.407592 0.256614 -0.061585 -0.8114 0.441188 -0.371047
0.052123 -0.211212 0.063625 -0.779373 -0.086862 0.61878
-0.04199 -0.076822 0.128295 -0.10439 -0.062358 0.991608
0.274392 0.469484 -0.115592 0.481527 0.627713 -0.611211
0.199439 0.412436 -0.116082 0.614328 -0.548219 -0.556763
-0.127539 0.179081 -0.009313 -0.976691 0.046145 -0.192627
-0.107761 -0.181552 0.104712 -0.658886 -0.002031 0.752055
-0.112983 0.193807 -0.037051 -0.893895 0.086814 -0.439583
0.089978 0.69909 -0.024502 0.963586 -0.233363 -0.068627
0.275566 0.412334 -0.012807 0.045929 -0.139973 0.986525
-0.01137 0.344156 0.111296 -0.28986 0.071206 0.943326
-0.046463 -0.087354 -0.111729 -0.017319 -0.230561 -0.972572
0.174571 -0.791707 -0.080528 0.895897 0.063168 -0.434535
-0.128197 -0.643927 -0.043077 -0.996766 -0.053571 0.050284
0.035925 0.156015 0.13145 0.041749 0.058329 0.996954
0.04568 -0.506477 -0.019095 -0.766091 -0.000546 0.526244
0.128494 0.316169 -0.127288 0.581346 -0.080983 -0.808849
-0.134021 -0.257886 0.013022 -0.987291 -0.122105 -0.092759
-0.435628 0.158141 -0.028946 0.352091 -0.889511 -0.266961
0.202499 0.06121 0.014328 0.948473 0.298751 0.100266
0.130708 -0.065216 0.114818 0.25832 -0.015972 0.965226
0.043656 -0.228171 0.040547 -0.979468 -0.039926 0.178873
-0.471056 0.127615 0.034185 0.740797 -0.650911 0.165092
0.140733 -0.13714 -0.107543 0.483682 -0.250527 -0.838248
0.147114 0.313058 -0.108229 0.765955 -0.115344 -0.632337
-0.082645 -0.443376 -0.086105 -0.368025 0.277461 -0.885284
0.140394 -0.835984 0.170708 0.436383 0.792295 0.423426
-0.237519 0.456416 -0.031525 -0.836687 0.544867 -0.044314
-0.054336 -0.152413 0.122028 -0.088471 -0.021919 0.994848
0.198925 -0.630879 -0.037444 0.999787 -0.011239 -0.01519
0.157915 -0.030299 0.103213 0.578152 0.017553 0.815149
-0.571207 0.038165 0.04725 -0.98257 0.15207 0.034204
0.084483 -0.826193 -0.004146 -0.480199 -0.870062 0.049371
-0.12044 0.378518 0.031139 -0.957203 -0.209353 0.198777
-0.128207 -0.012611 -0.055884 -0.922398 0.019433 -0.382831
0.360498 0.320603 -0.044583 0.217082 0.277859 0.934805
0.023834 -0.140591 0.085094 0.869784 -0.187419 0.449108
0.509453 0.170975 0.018208 -0.010307 0.180556 0.932682
-0.003425 -0.469085 0.046755 0.718076 -0.142679 0.681092
-0.010465 -0.769387 -0.009373 0.643836 0.301973 0.686013
0.192419 -0.434915 0.036641 0.957186 -0.08866 0.275226
-0.11923 -0.793778 -0.054994 -0.955757 -0.256914 -0.06216
-0.081465 0.555744 0.017686 -0.050221 0.767295 0.639241
0.33743 0.289698 -0.104354 -0.501991 -0.751886 -0.418724
0.18518 -0.234607 0.072187 0.654285 -0.162757 0.735038
-0.10781 -0.248213 0.102329 -0.607432 -0.023257 0.78903
-0.006869 -0.696632 -0.086203 0.519432 0.266467 -0.811625
0.197795 0.368061 -0.066195 0.970369 -0.186343 -0.125718
-0.023325 -0.603272 0.026555 0.189542 -0.136083 0.971733
-0.066593 0.519553 -0.11419 -0.220625 0.42137 -0.879126
-0.419529 0.200988 -0.056704 -0.31362 -0.065008 -0.944297
-0.438075 0.22727 -0.015618 -0.715923 0.69448 0.07088
0.046096 0.31072 0.119688 0.118158 0.111081 0.98665
0.080206 -0.506531 0.019952 -0.63287 0.041185 0.773135
0.135353 -0.001265 -0.138896 0.581902 0.120732 -0.803024
0.141943 0.340321 -0.119885 0.662977 -0.173535 -0.727925
-0.098901 -0.717357 0.006405 -0.564663 -0.593561 0.568181
0.261714 0.515136 -0.044062 0.73 0.672294 0.097955
-0.044473 -0.775704 -0.139786 -0.025612 0.439699 -0.894017
0.063593 -0.03808 0.13042 0.033917 -0.176254 0.983305
-0.12911 -0.54161 -0.00156 -0.935899 -0.135147 0.32243
-0.027039 0.121583 -0.12084 -0.21935 0.353614 -0.908975
0.067556 -0.689272 -0.047573 -0.789758 -0.143092 -0.595986
0.268384 0.507298 -0.043089 0.732341 0.645284 0.201845
-0.21076 0.477578 -0.054526 -0.64909 0.536086 -0.539514
0.018374 -0.405393 -0.031504 0.941499 -0.027448 -0.331894
-0.057137 -0.589343 0.043853 0.409402 -0.276292 0.869264
-0.092021 -0.570508 -0.097189 -0.437329 0.046694 -0.896394
0.048382 0.394275 0.101926 0.12465 0.316092 0.939563
0.008663 0.556298 0.027286 -0.073739 0.429575 0.891661
0.199296 0.041932 0.052323 0.927656 0.138353 0.341887
-0.020202 -0.088623 -0.107838 0.297722 -0.38992 -0.869111
0.242958 0.375901 -0.05115 -0.584458 -0.71626 0.380907
0.287135 0.482788 -0.085308 0.651248 0.656746 -0.379425
0.039275 -0.073079 0.117302 -0.001539 -0.535079 0.843851
-0.021867 0.145894 0.121992 -0.389085 0.019101 0.92055
0.08553 0.355312 -0.145133 -0.085257 -0.022963 -0.995811
0.041584 0.055441 0.134455 0.129311 0.074313 0.988322
0.395272 0.330377 -0.1101 0.598725 0.62032 -0.500628
0.007575 0.66906 0.078544 -0.716167 -0.440727 0.521388
0.272796 0.447577 -0.132837 0.230299 0.524359 -0.819326
-0.213011 0.347029 -0.001227 0.460254 -0.645131 0.603501
-0.305487 0.265312 0.003646 0.381283 -0.217279 0.895594
0.001131 -0.571424 -0.066215 0.764211 -0.027577 -0.644305
0.172485 -0.046293 -0.098054 0.800984 -0.126059 -0.584669
-0.102603 0.346013 0.050545 -0.836343 -0.246993 0.488305
0.10489 0.471649 -0.145134 -0.058354 0.106489 -0.992391
0.046278 0.815583 -0.109024 0.1706 0.610029 -0.773397
0.084904 0.649101 -0.017095 0.990873 -0.046884 0.060758
0.172653 0.026087 0.093162 0.626244 0.15184 0.763334
0.532453 0.187522 -0.047546 0.124301 -0.656899 -0.736277
-0.089175 0.208194 0.07903 -0.624431 0.074362 0.777323
0.469406 0.205011 -0.064267 0.152395 -0.718729 -0.677652
-0.038534 -0.813782 0.061662 0.376975 0.71198 0.547847
-0.063424 -0.543386 -0.102396 -0.036076 0.054434 -0.99745
0.11995 0.192491 -0.106388 0.487874 -0.146277 -0.858218
-0.368049 0.200968 -0.039478 0.619822 -0.771077 -0.139808
-0.074763 -0.57009 0.056829 0.420882 -0.168688 0.890923
-0.058408 0.097448 -0.116448 -0.508415 0.301572 -0.806254
-0.072774 -0.506771 0.070698 0.365537 -0.227252 0.902365
-0.067633 -0.863774 0.029184 -0.012545 -0.999836 -0.01212
-0.096763 0.364876 -0.103277 -0.50021 -0.22467 -0.835384
0.152284 -0.838584 0.154856 0.651719 0.735678 0.183832
-0.114904 -0.157467 0.098848 -0.706911 -0.044735 0.704684
0.0431 -0.251932 -0.044379 -0.873672 -0.002576 -0.485384
-0.132393 -0.199947 -0.01101 -0.904178 -0.111123 -0.412355
-0.009794 -0.181939 -0.077634 0.617371 -0.013003 -0.786482
0.090224 0.37338 0.098251 0.186956 0.104856 0.975217
0.100209 0.71751 -0.01144 0.945671 -0.286041 -0.060172
-0.141658 0.545642 0.019708 -0.332184 0.791405 0.512203
0.08153 -0.639535 0.01523 -0.593305 0.330533 0.725285
0.390002 0.309458 -0.048209 0.271292 0.481939 0.831804
-0.076454 0.287864 -0.108904 -0.638375 -0.05169 -0.767886
0.032914 0.444015 -0.127874 -0.125943 0.009717 -0.99123
-0.353466 0.312734 -0.020215 -0.651867 0.711653 0.259653
-0.035347 -0.515002 -0.096589 0.333193 0.050823 -0.938711
-0.129504 0.469839 0.061902 0.009196 -0.035882 0.997914
0.069922 -0.217449 0.080227 -0.558089 -0.111189 0.821098
0.03686 -0.119467 0.081196 0.641543 -0.576308 0.496313
0.111685 0.432979 0.083875 0.228353 0.213859 0.948929
-0.0305 0.262065 0.111479 -0.299499 0.022561 0.953599
-0.047456 -0.663851 -0.104993 0.365811 0.123904 -0.921352
-0.339242 0.3201 -0.010057 -0.600223 0.52408 0.597216
0.557304 0.094568 0.014532 -0.761564 -0.646886 0.026198
0.188835 -0.401142 0.051699 0.916561 -0.028831 0.397562
-0.128026 0.139273 0.009823 -0.992333 0.049339 0.104427
0.024846 -0.326551 0.042092 0.932621 -0.11725 0.319257
0.059296 -0.755886 0.003555 -0.996734 -0.044976 0.016953
0.142022 0.20518 0.085809 0.717351 0.05985 0.694052
0.171517 -0.103761 -0.090299 0.770276 -0.099693 -0.62977
0.158975 -0.860353 0.00516 0.492748 -0.830044 -0.187341
-0.366603 0.266199 0.007446 -0.055447 0.235393 0.970131
0.027984 -0.246325 -0.030077 0.141931 -0.090839 -0.902832
-0.083392 -0.123998 -0.092254 -0.601546 -0.070985 -0.795252
0.117201 -0.333361 -0.099069 0.274997 0.039462 -0.960629
-0.183757 0.522573 0.006975 -0.702615 0.681471 0.203335
0.433127 0.212409 -0.109438 0.305832 -0.211462 -0.832395
0.30685 0.314796 -0.07723 -0.691508 -0.712386 0.101642
-0.113136 -0.726973 -0.080135 -0.8209 -0.092936 -0.561683
0.17421 -0.772099 0.019144 0.702165 -0.060052 0.693315
-0.113817 -0.485931 0.045815 -0.859604 -0.240554 0.450439
0.182826 0.321003 0.016626 0.909254 -0.099772 0.403301
0.106303 0.324242 -0.140386 0.400844 -0.098885 -0.910726
-0.080413 0.056294 -0.112757 -0.690036 0.207032 -0.692908
0.150498 -0.805835 -0.11057 0.578689 0.122831 -0.796159
0.00897 0.684933 0.081383 -0.63466 0.022662 0.767883
-0.088185 0.183546 -0.073557 -0.69709 0.057705 -0.714402
-0.000974 -0.170623 0.107511 0.610221 -0.111153 0.78424
-0.162767 0.380385 -0.005158 0.545054 -0.738022 0.397558
-0.140371 -0.079474 0.042123 -0.950806 0.016251 0.308787
-0.276741 0.334797 0.008585 -0.139547 -0.047305 0.986045
0.631648 0.03015 0.06976 -0.94918 -0.309245 -0.003048
0.474581 0.22937 -0.077533 0.404967 -0.22406 -0.884174
0.102643 0.527304 -0.129772 0.007374 0.302641 -0.950747
0.203469 -0.140449 -0.043739 0.890157 -0.019142 -0.452975
0.063707 -0.739497 -0.022761 -0.860483 0.011105 -0.505434
-0.103444 0.324478 0.041149 -0.883003 -0.047413 0.459878
0.170665 0.234577 -0.053392 0.883628 0.020151 -0.467683
0.499006 0.172005 0.01594 -0.533703 -0.706515 0.440407
-0.105001 -0.860242 0.058353 -0.604147 -0.779465 0.004979
-0.011211 0.098227 -0.132931 -0.206888 0.394502 -0.888548
-0.098149 -0.236015 -0.066685 -0.755789 -0.056217 -0.651259
-0.086466 0.474308 -0.123264 -0.335658 0.134614 -0.931719
0.151879 -0.193412 0.095007 0.160597 -0.135897 0.975254
-0.191121 0.498823 0.030148 -0.649979 0.481533 0.585015
-0.087329 0.173528 0.080867 -0.663213 -0.010113 0.748247
-0.144349 -0.126949 0.017596 -0.999676 -0.002378 0.017087
-0.099683 -0.052042 -0.095297 -0.69035 -0.233666 -0.683771
0.104471 -0.583659 -0.095909 -0.491639 -0.128643 -0.859957
0.029381 0.53527 0.04636 0.052105 0.794015 0.604861
0.044277 -0.491607 -0.038786 -0.984792 -0.012869 -0.1694
0.163438 -0.235739 0.083869 0.242418 -0.173199 0.953647
-0.096761 0.541643 -0.088597 -0.384073 0.594793 -0.705321
0.451207 0.252836 -0.027966 0.03606 0.568572 0.821373
0.167902 -0.073773 0.096619 0.613671 0.053372 0.786596
-0.139121 0.019797 0.037118 -0.973722 0.107699 0.19155
-0.127114 -0.354085 0.035907 -0.994542 0.047536 0.089531
-0.017701 0.322242 -0.129827 -0.008599 0.063238 -0.997371
-0.303876 0.249508 -0.067887 0.387064 -0.842036 -0.36816
0.075529 0.833037 -0.077747 0.585412 0.636626 -0.501685
0.137005 -0.742641 0.025542 0.247847 0.692716 0.666396
0.017239 -0.496234 0.016463 0.859384 -0.094054 0.498725
0.022117 -0.520897 0.001362 0.868362 -0.171903 0.463673
0.389909 0.305567 -0.127946 0.306913 0.192018 -0.929427
-0.072587 0.106883 -0.104176 -0.555836 0.283972 -0.780685
0.011497 0.056591 -0.146321 -0.179671 0.246214 -0.951819
-0.094084 0.338276 -0.099503 -0.618645 -0.136826 -0.773461
0.062425 0.329024 -0.137796 -0.382017 -0.028351 -0.923717
0.163689 -0.845572 -0.050395 0.99001 -0.079613 -0.054128
-0.159763 0.383051 -0.058266 0.709609 -0.655371 -0.257743
0.557007 0.095042 -0.011205 -0.732316 -0.670177 -0.096188
-0.040223 -0.547099 -0.099245 0.319658 0.006087 -0.947188
0.161762 -0.82839 -0.021344 0.957928 -0.271027 0.03086
0.555107 0.100666 -0.027023 -0.051698 -0.380338 -0.7433
0.279895 0.352415 -0.041904 -0.224617 -0.794323 0.562893
-0.186855 0.366689 0.002419 0.496774 -0.677052 0.541861
0.01942 -0.698022 -0.022005 0.889077 -0.153805 0.430107
-0.070734 0.547623 -0.097266 -0.355605 0.548275 -0.756098
-0.350756 0.320241 -0.039813 -0.687835 0.707074 0.104751
-0.001984 0.198404 0.128432 -0.16954 0.069822 0.978631
0.148883 0.549469 -0.109712 0.251197 0.653315 -0.713781
0.000695 0.794406 -0.112624 -0.367486 0.202627 -0.906088
-0.118802 0.04035 0.078342 -0.87409 0.071482 0.47852
-0.046497 0.364713 -0.126592 -0.266229 -0.034919 -0.962729
0.134552 -0.812708 -0.11833 0.240911 -0.209819 -0.944552
0.120211 -0.714101 0.022391 0.416781 -0.257891 0.865807
-0.222084 0.388787 -0.09619 -0.021536 0.054848 -0.997649
0.14174 -0.078542 0.112175 0.338395 0.034084 0.930034
0.093919 -0.352251 -0.097622 -0.405784 -0.015574 -0.913368
0.090792 -0.862661 -0.053283 -0.720233 -0.628073 0.174477
0.054001 -0.484759 -0.058796 -0.796947 -0.000964 -0.602757
-0.159934 0.505253 -0.080772 -0.477225 0.396102 -0.783551
0.346471 0.306099 -0.127978 -0.296667 -0.428191 -0.844414
0.026332 -0.475403 -0.006479 0.995418 0.007108 0.051216
-0.127166 -0.298459 0.049419 -0.989773 -0.107246 0.085616
0.199154 0.415064 0.008159 0.805123 -0.516915 0.265231
0.055285 0.636682 0.030482 0.490444 -0.422489 0.756207
0.003661 -0.760675 -0.094038 0.798745 0.148931 -0.579312
0.045677 0.782775 -0.119151 0.272203 0.054192 -0.957329
0.110905 0.163071 -0.111417 0.373122 0.1362 -0.91683
-0.488095 0.103885 0.038953 0.85183 -0.520537 -0.02869
0.07033 0.334141 -0.141838 -0.341383 -0.032399 -0.939273
-0.107392 -0.375969 0.09198 -0.673519 -0.074979 0.734424
0.019051 -0.501024 -0.033586 0.90204 0.022509 -0.430437
0.211606 -0.00978 0.010046 0.928915 0.341811 -0.031323
0.181712 0.229294 0.022541 0.991483 0.014142 0.125807
0.285814 0.405031 -0.01414 0.126724 -0.063409 0.981021
-0.029784 0.717016 0.018558 -0.973749 -0.084131 0.175846
-0.001705 0.222893 0.125352 -0.339399 0.151714 0.92714
-0.013497 0.17714 -0.114284 -0.294198 -0.205774 -0.928984
0.209694 -0.031629 0.031896 0.947559 0.015555 0.319076
-0.378147 0.296857 -0.038055 -0.716562 0.695641 0.044615
-0.089467 0.135959 -0.082493 -0.682934 0.185419 -0.706053
-0.040136 -0.252596 -0.092733 0.173265 0.03979 -0.982909
0.585952 0.048656 -0.025665 -0.03311 -0.589285 -0.732151
-0.113131 -0.793826 -0.012905 -0.893096 -0.27925 0.335671
0.098523 -0.856427 0.15795 -0.866091 -0.10944 0.399708
0.193985 0.515839 -0.122171 0.116209 0.546963 -0.828969
0.163755 -0.032587 -0.113139 0.750654 -0.071802 -0.656192
0.113822 -0.594479 0.033299 -0.229011 -0.157266 0.959236
0.0844 -0.235435 0.085005 -0.250841 -0.111218 0.956997
-0.137319 -0.452231 -0.023449 -0.974454 0.066601 -0.2134
-0.194558 0.417248 0.033582 0.231613 -0.366616 0.900001
0.135698 0.18714 0.093057 0.680129 0.031011 0.732411
0.186032 0.14592 0.041582 0.830513 0.129716 0.53818
0.01101 0.619469 -0.067914 -0.261337 0.524752 -0.801245
-0.133948 0.057823 0.023708 -0.92811 0.317161 0.16071
-0.031909 -0.86175 0.024691 0.361879 -0.924931 -0.084459
0.25806 0.476155 -0.004296 0.450254 0.197221 0.869242
-0.027474 0.279697 -0.130511 -0.129709 -0.037016 -0.990167
-0.002895 0.595147 -0.083973 -0.206321 0.62199 -0.749609
-0.078333 -0.295703 0.107216 0.036058 -0.091854 0.995003
0.084546 0.706861 0.059693 0.830318 -0.136281 0.538779
-0.109053 -0.304407 -0.050438 -0.802767 0.034286 -0.595265
-0.207571 0.492553 -0.043156 -0.711676 0.559365 -0.421825
0.153681 0.155074 -0.081672 0.737831 0.049539 -0.672886
0.074149 -0.729635 0.034562 0.004851 -0.200951 0.96957
0.03431 0.731277 -0.109301 -0.001783 -0.551729 -0.831811
0.208849 -0.148736 -0.014527 0.966844 -0.247671 -0.045672
0.017809 -0.527841 0.009113 0.865203 -0.106533 0.480621
-0.085826 -0.395002 0.094654 0.064316 -0.201428 0.977217
-0.247947 0.3105 -0.008859 0.620304 -0.560991 0.545376
0.095445 -0.129874 0.100237 -0.558427 -0.036708 0.828712
0.112919 -0.487567 0.043472 -0.61252 -0.09585 0.784276
0.046445 -0.516213 -0.016679 -0.673198 0.024669 0.687472
0.046848 0.728438 -0.105855 0.236582 -0.52712 -0.81582
-0.114249 0.125042 -0.050559 -0.886769 0.056656 -0.458677
0.036626 0.169208 -0.118192 -0.065472 0.165382 -0.978925
0.150022 0.342976 0.067558 0.727101 -0.089682 0.680541
0.010994 -0.245771 -0.056003 0.794351 -0.088702 -0.600511
-0.045329 -0.19893 0.119987 0.076226 -0.141523 0.986816
0.050884 -0.637527 -0.033113 -0.953587 -0.139419 -0.255911
0.386787 0.268196 -0.037985 -0.262594 -0.15488 0.94467
0.04229 -0.35943 -0.037519 -0.876795 -0.038993 -0.474656
-0.321111 0.30715 -0.094567 -0.217134 0.167046 -0.957765
-0.087948 0.161596 0.080003 -0.678081 -0.025103 0.734394
0.079627 -0.606253 0.015917 -0.748134 -0.148614 0.645917
0.187072 -0.525366 0.034534 0.838988 -0.08389 0.537263
0.14106 -0.325099 0.080039 0.10015 -0.062952 0.992799
0.083767 -0.49617 0.022206 -0.647772 0.049083 0.759921
0.342878 0.333704 -0.042617 0.234011 0.118084 0.9548
0.008732 -0.644024 0.014644 0.688278 -0.126726 0.712289
-0.06931 0.079628 0.105061 -0.454105 0.345161 0.814068
-0.133033 -0.514341 0.001382 -0.854079 -0.174862 0.484466
-0.159743 0.535155 -0.053039 -0.490752 0.74039 -0.457717
0.170867 0.422823 -0.132936 0.254849 -0.361516 -0.896516
0.204018 0.053671 0.021208 0.954942 0.260927 0.132616
-0.1405 0.011738 0.030902 -0.980018 -0.124037 0.12599
0.378023 0.290353 -0.129658 -0.063687 -0.153745 -0.980163
0.392386 0.317874 -0.122251 0.507038 0.405294 -0.760182
-0.068242 -0.097443 0.121269 -0.250106 -0.001776 0.968209
0.00268 -0.794847 -0.111613 0.90966 0.054696 -0.403847
-0.099311 -0.285609 -0.062597 -0.745105 -0.004891 -0.66687
0.075884 0.308133 -0.141146 -0.199458 -0.095112 -0.97492
-0.487871 0.105388 0.023909 0.773202 -0.609939 -0.159881
-0.138867 -0.015117 0.015648 -0.998294 0.051299 0.026481
0.192531 0.340712 -0.03944 0.958088 -0.264909 -0.087525
0.494165 0.186358 -0.054717 -0.032657 -0.468511 -0.878955
-0.045072 -0.049899 -0.124346 -0.15987 -0.417133 -0.89251
-0.475225 0.173317 0.028486 -0.439535 0.843713 0.244501
0.05856 -0.287608 -0.067571 -0.81529 0.002413 -0.578961
0.042301 -0.322502 0.014943 -0.972513 -0.030493 0.224803
0.017017 0.514493 -0.122581 0.003215 0.114303 -0.992762
0.544448 0.138851 -0.022261 0.237225 -0.229844 -0.841487
0.008381 -0.148669 -0.058947 0.80801 -0.077133 -0.583813
-0.336114 0.245781 0.007008 0.191452 -0.129668 0.968183
-0.005154 -0.817071 -0.006799 0.968154 -0.019303 0.239059
0.224495 0.43995 -0.13336 -0.185494 -0.099955 -0.976084
0.066993 0.196219 -0.119716 -0.200212 -0.220843 -0.949649
-0.172639 0.363714 -0.033828 0.672815 -0.737078 -0.029601
0.027173 0.58427 -0.095817 -0.073293 0.534212 -0.841833
-0.024057 0.794982 -0.094485 -0.775329 0.02983 -0.621612
-0.003575 0.169608 -0.115158 -0.145353 -0.161434 -0.970678
0.105822 -0.808989 -0.115131 -0.504286 0.057394 -0.848806
-0.044669 -0.859805 -0.049604 0.208416 -0.973391 0.074544
-0.065676 0.238926 -0.108116 -0.593541 -0.249793 -0.764651
0.172087 0.556142 -0.011277 0.209356 0.781345 0.586935
0.05063 0.211156 -0.122223 -0.111384 -0.402728 -0.906053
-0.472145 0.16475 0.044699 0.051227 0.744016 0.656146
0.201219 -0.13905 0.05522 0.908043 -0.079239 0.411027
0.054514 -0.62476 -0.005476 -0.719475 0.334223 0.598781
-0.125464 0.104998 -0.027823 -0.945711 0.059879 -0.31302
0.057357 0.498072 0.067287 0.051303 0.467943 0.881921
-0.131244 0.458292 0.061486 -0.063896 -0.047041 0.995345
0.022182 0.649429 -0.062984 -0.360809 -0.026197 -0.928202
0.196583 -0.466598 0.010561 0.967023 -0.04315 0.249223
0.199184 -0.004434 -0.044882 0.950407 0.074091 -0.301584
0.187116 0.327587 -0.051056 0.856976 -0.357078 -0.371543
0.089925 0.613166 -0.026584 0.949323 0.24956 0.156017
0.206934 -0.206862 -0.016148 0.998837 -0.039227 -0.026254
0.09745 0.131301 0.117414 0.463843 0.035276 0.884511
0.081519 -0.812649 -0.084086 -0.89869 0.063784 -0.426012
-0.091518 -0.362279 0.10079 -0.116586 -0.200582 0.969132
0.026397 0.159437 0.131298 -0.018279 0.049308 0.998293
-0.393186 0.281291 -0.033903 -0.716487 0.691589 0.083037
0.201214 -0.187759 0.039381 0.950162 -0.013272 0.311424
0.093299 -0.419815 0.045093 -0.628483 -0.361557 0.688538
0.150401 0.1568 0.079774 0.706535 0.040966 0.706444
0.093201 0.774041 -0.082507 0.843597 0.029756 -0.535917
-0.116063 -0.675231 0.008599 -0.940305 -0.1457 0.296357
-0.136175 -0.429834 0.016928 -0.986504 -0.012746 0.161321
-0.146881 0.498084 -0.090668 -0.458234 0.293504 -0.838246
0.10422 0.762593 -0.008009 0.989372 9.4e-05 0.090753
0.021825 0.02805 -0.15476 -0.188363 -0.008692 -0.969142
0.152535 -0.609453 0.034113 0.339335 -0.384539 0.853574
0.126357 -0.869945 0.075982 -0.007282 -0.999928 0.006864
-0.059015 -0.657192 -0.10743 0.148262 0.096139 -0.981673
-0.059341 -0.244379 0.112523 0.040532 -0.111884 0.99223
-0.128874 0.111948 -0.014258 -0.980258 -0.030804 -0.189711
0.095845 -0.322752 -0.098108 -0.304522 0.010749 -0.947878
-0.116872 -0.085286 0.090343 -0.765203 0.063003 0.6405
0.342994 0.402653 -0.126896 0.672379 0.346632 -0.644869
0.102543 -0.532254 0.0353 -0.471914 0.023045 0.881118
0.071336 0.059217 0.131191 0.190772 0.106219 0.970753
-0.086907 0.21982 0.079203 -0.580524 0.13174 0.803357
-0.017634 0.464267 0.087939 -0.102112 0.38118 0.914788
-0.086403 0.556067 -0.080464 -0.41782 0.654561 -0.629883
0.037767 -0.126902 0.070251 0.759774 -0.499333 0.405849
0.097208 0.712009 -0.021164 0.851513 -0.499046 -0.125129
0.08324 -0.078196 0.111063 -0.097674 -0.671064 0.734147
-0.037365 0.798134 -0.027825 -0.997717 -0.021241 0.034224
-0.114494 -0.367256 0.084883 -0.777045 -0.006068 0.626973
0.099384 -0.189954 0.095926 -0.173159 -0.080186 0.981104
0.085916 0.320307 -0.143799 -0.036556 -0.068656 -0.996952
-0.071621 0.170203 0.093887 -0.63155 0.002607 0.774598
-0.13943 0.031568 0.020294 -0.93684 0.334831 0.087994
0.120367 0.517686 0.041551 0.264979 0.621621 0.735418
-0.069424 -0.832697 -0.138387 -0.579757 -0.098733 -0.799934
0.266551 0.489646 -0.018005 0.648029 0.456366 0.606604
-0.068777 0.31605 0.086559 -0.592749 0.018267 0.803382
0.071944 0.816894 -0.09744 0.518221 0.507077 -0.681933
0.016916 -0.364015 -0.034114 0.856505 -0.006514 -0.510007
0.156089 -0.260268 0.082327 0.158392 -0.076586 0.984349
0.197395 -0.541881 -0.055959 0.908803 -0.00943 -0.409212
0.204091 -0.501744 -0.023103 0.978478 0.178118 -0.0912
-0.087968 0.061281 -0.103978 -0.713477 0.14314 -0.68535
-0.122738 0.090782 0.041199 -0.953236 0.028106 0.293097
-0.029619 -0.339758 0.092603 0.297203 -0.09662 0.946517
-0.096798 0.396997 -0.111557 -0.387359 -0.192082 -0.899925
0.176021 0.35513 0.038688 0.842903 -0.104096 0.526792
-0.163197 0.424747 -0.09472 0.075527 -0.04168 -0.994894
-0.103457 -0.861329 0.075195 -0.535954 -0.816237 0.015169
-0.370439 0.303752 -0.036966 -0.662219 0.743866 0.083775
0.091692 0.604454 -0.021724 0.831462 0.365866 0.376209
0.198848 -0.636864 -0.026393 0.9994 -0.014777 0.024393
-0.405582 0.195054 0.020047 0.208476 0.231916 0.947685
-0.105108 -0.612475 0.043418 -0.889162 -0.04918 0.450737
0.553862 0.129343 0.046135 -0.569592 -0.024543 0.809701
0.085173 -0.477586 0.02174 -0.631787 0.09001 0.769581
-0.044743 -0.864123 0.077669 0.037941 -0.998966 0.01084
0.025441 -0.083938 -0.096265 -0.436814 -0.659923 -0.602702
0.069969 0.278952 0.119019 0.362229 0.126368 0.922154
-0.10613 -0.507756 0.047463 -0.8025 -0.192923 0.56453
-0.052709 -0.26123 -0.093676 -0.03148 -0.01528 -0.995552
0.202612 -0.419536 -0.015657 0.980805 -0.162047 -0.105714
0.085313 0.245543 -0.137025 -0.037416 -0.128106 -0.990717
-0.439647 0.216474 -0.043871 -0.593162 0.311013 -0.740044
-0.284842 0.335129 -0.095386 -0.175317 0.16605 -0.966634
0.206674 -0.197809 -0.027075 0.995474 -0.025188 -0.087346
-0.113483 0.185901 0.048984 -0.885064 -0.019642 0.462758
0.229312 0.414311 -0.012933 -0.243456 -0.661362 0.683955
0.08651 0.023156 0.130087 0.307776 0.22376 0.923762
-0.065943 -0.82818 0.13278 -0.071389 0.983855 0.146606
0.03379 0.0352 0.137161 0.099492 0.203939 0.971624
0.538321 0.129973 0.009362 -0.762595 -0.645686 0.02984
0.098607 -0.151293 0.100909 -0.53177 -0.080909 0.842009
-0.145518 0.485643 -0.094875 -0.290499 0.119864 -0.94119
0.417398 0.313378 -0.084657 0.679912 0.731559 0.041512
-0.234344 0.450698 -0.057117 -0.661194 0.593319 -0.458196
-0.127206 -0.381111 -0.027378 -0.973561 0.053992 -0.211145
-0.260109 0.295224 -0.07131 0.60686 -0.61337 -0.497924
0.364655 0.328748 -0.04905 0.328151 0.35767 0.873988
0.189981 0.075561 -0.053345 0.886119 0.12737 -0.444221
-0.143944 -0.078593 0.021703 -0.998016 0.006981 0.058911
0.113499 -0.446052 -0.10387 -0.151762 0.042753 -0.983236
0.095615 -0.01442 -0.153865 0.131272 -0.151711 -0.977301
0.201823 -0.168463 0.040745 0.94508 -0.116024 0.299078
0.193298 -0.256683 0.061146 0.824067 -0.019366 0.563359
-0.118316 0.353102 -0.077414 -0.933606 -0.145886 -0.322949
-0.137656 -0.479342 0.000252 -0.963658 -0.047791 0.259105
-0.043695 0.576698 -0.087572 -0.394284 0.661283 -0.635537
0.495366 0.170235 -0.039586 -0.454162 -0.853373 -0.217615
-0.135796 0.047216 0.02309 -0.993637 0.093489 0.061174
-0.363836 0.210274 -0.056993 0.457828 -0.735623 -0.495186
-0.018868 -0.46403 -0.080884 0.664609 0.103327 -0.732802
-0.107678 0.517996 -0.100816 -0.368935 0.38867 -0.837659
-0.020885 0.697223 -0.014877 -0.867665 -0.38338 -0.052037
-0.001634 -0.799704 -0.12123 0.862981 0.014482 -0.49651
-0.111152 0.042676 -0.079896 -0.836057 0.174431 -0.518126
0.197847 0.479403 -0.134219 0.112089 0.107568 -0.986634
0.133735 -0.869794 0.055196 0.020396 -0.999401 -0.018794
-0.482828 0.170292 -0.012325 -0.722811 0.680828 -0.105288
-0.011334 -0.496932 0.0453 0.591973 -0.238359 0.769371
-0.071647 -0.181545 0.116814 -0.130849 -0.034243 0.989772
0.096311 -0.704455 -0.08505 -0.693712 0.053644 -0.718122
-0.142713 -0.168295 0.016426 -0.986848 -0.145767 -0.010371
0.613906 0.066547 0.095059 -0.840149 -0.002708 0.482971
0.158125 -0.164599 0.097715 0.245844 -0.144869 0.956929
-0.123735 -0.345434 0.057238 -0.984228 0.06132 0.165427
-0.015678 -0.338345 0.087386 0.466843 -0.097487 0.878808
-0.001546 -0.740589 -0.096369 0.725288 0.160144 -0.668704
-0.383614 0.194599 -0.051368 0.222279 -0.901209 -0.337032
0.212163 0.447217 0.019951 0.485437 -0.025242 0.86749
0.171957 -0.259311 -0.069397 0.527697 -0.204098 -0.824161
0.045546 -0.569035 -0.034437 -0.948334 -0.041841 -0.252215
0.07853 0.201073 0.12124 0.372104 0.045142 0.927039
0.183646 -0.739783 -0.037938 0.607384 -0.196158 -0.76803
0.55719 0.094582 0.002145 -0.75206 -0.658853 0.00031
0.119173 -0.362069 0.074774 -0.259131 -0.210336 0.941996
0.047782 -0.282073 0.043558 -0.858145 -0.04989 0.509315
0.341718 0.370328 -0.056802 0.640529 0.47709 0.593567
-0.187012 0.357035 -0.013634 0.523351 -0.778975 0.338778
0.024782 0.744108 -0.11494 -0.096576 -0.440606 -0.890664
-0.184148 0.497644 -0.066257 -0.603607 0.463558 -0.647815
0.004718 0.102577 -0.134214 -0.143262 0.29706 -0.942615
0.174037 0.275396 -0.047538 0.923794 -0.113057 -0.364218
-0.127483 0.012881 0.073414 -0.840524 0.233555 0.481305
-0.277353 0.345596 0.008911 -0.312627 -0.044153 0.941634
-0.016625 -0.773338 0.002145 0.684631 0.552177 0.471868
-0.170059 0.533756 -0.042299 -0.616725 0.716057 -0.321157
-0.087706 0.359198 -0.106952 -0.545521 -0.170169 -0.819987
0.082924 0.825677 -0.0771 0.697993 0.532812 -0.47489
0.208499 -0.003138 0.003656 0.968891 0.2263 -0.075216
0.075666 -0.70655 -0.055844 -0.867971 -0.158385 -0.468702
-0.042336 -0.507274 -0.097999 0.218348 0.076207 -0.971556
-0.260639 0.328192 -0.092095 0.381518 -0.304491 -0.86936
0.058773 0.217687 -0.126242 -0.209013 -0.302174 -0.929202
-0.08346 -0.319182 -0.076689 -0.602811 -0.006738 -0.797389
-0.053591 -0.165795 -0.097369 0.045845 -0.139898 -0.986918
0.187013 -0.587816 -0.069535 0.748875 -0.040744 -0.661249
0.060989 -0.789528 -0.027975 -0.981138 -0.026643 -0.170638
-0.11387 0.559504 -0.052667 -0.438893 0.794655 -0.415829
0.215432 0.403425 -0.068214 -0.904952 -0.414153 0.037569
0.021504 0.847645 -0.078584 -0.166639 0.803599 -0.569007
0.039875 0.750748 0.096037 0.512777 0.409943 0.72581
0.175967 -0.126597 -0.080001 0.751578 -0.131762 -0.645603
0.03926 -0.179114 0.034385 -0.499437 -0.384226 0.726167
0.180058 0.266042 -0.030938 0.949932 -0.00688 -0.311119
0.230185 0.544019 -0.037553 0.608401 0.754657 0.241703
0.205672 -0.285266 0.005108 0.99973 0.020149 0.00954
-0.12088 -0.42981 -0.046068 -0.752726 0.2807 -0.595301
0.040576 0.822798 -0.10437 0.09626 0.643025 -0.759037
0.085304 -0.351101 -0.092997 -0.599166 -0.043335 -0.798869
0.063737 -0.801004 -0.028769 -0.92235 -0.366374 -0.099916
-0.101464 -0.719864 -0.097887 -0.776094 0.022642 -0.630069
0.177116 -0.718063 -0.052266 0.793472 -0.097571 -0.596838
0.165535 -0.311471 -0.06596 0.67832 -0.00893 -0.734249
0.12245 -0.07057 0.117013 0.295449 -0.125443 0.945559
-0.165472 0.388299 0.009646 0.411858 -0.710627 0.569855
0.19802 -0.479944 0.004185 0.977418 0.029583 0.203341
-0.562646 0.061117 0.014206 -0.884333 0.438756 -0.126113
-0.121526 -0.516668 0.020984 -0.830707 -0.09667 0.548006
-0.117493 0.205938 0.0381 -0.918403 0.152745 0.362329
-0.057823 -0.093212 0.123919 -0.285212 -0.020644 0.957764
-0.115276 0.428834 0.062197 -0.267216 -0.002889 0.962236
-0.151561 0.487694 0.056348 -0.2452 0.1997 0.947506
0.098739 -0.127577 -0.117615 -0.244727 -0.214314 -0.943192
0.154101 -0.859568 -0.091135 0.742673 -0.510634 -0.394857
-0.119145 0.333887 -0.064447 -0.968644 -0.118481 -0.20502
0.076495 -0.600844 -0.07112 -0.684283 -0.047823 -0.727527
0.095084 0.589002 -0.087509 0.169971 0.771837 -0.612453
0.147762 0.1225 -0.095339 0.635736 0.217161 -0.735893
0.046113 -0.589728 -0.027529 -0.977116 -0.029709 0.112578
-0.121189 -0.363661 0.071696 -0.957037 -0.018797 0.283593
0.035343 -0.319041 -0.021568 -0.992146 -0.016567 -0.119747
-0.537217 0.070295 0.030653 0.578528 -0.692235 -0.426484
-0.363138 0.292508 -0.081149 -0.477253 0.409655 -0.775933
-0.128141 0.385551 -0.034572 -0.996618 -0.079362 -0.001882
0.097125 -0.178891 0.096305 -0.305208 -0.119135 0.94175
0.328677 0.304515 -0.059532 -0.581703 -0.627908 0.516981
0.001407 0.859654 -0.039866 -0.440134 0.846811 -0.287172
-0.200808 0.500466 0.014207 -0.746954 0.529282 0.400483
-0.080132 0.084442 -0.10513 -0.629982 0.240382 -0.736436
0.145073 -0.625173 -0.094311 0.339417 -0.154034 -0.926963
-0.11153 -0.810374 -0.070405 -0.888889 -0.430185 -0.109884
0.086869 0.714224 -0.061253 0.738157 -0.521793 -0.418503
0.212979 0.493154 -0.128957 0.199948 0.275882 -0.938644
0.181927 -0.076576 -0.079711 0.820705 -0.03972 -0.569276
0.027363 0.072981 0.134489 0.106162 0.108081 0.98742
-0.127766 0.495317 -0.100697 -0.403373 0.266574 -0.874895
0.610405 0.063994 0.084241 -0.772822 -0.545327 0.288422
0.048334 0.536955 0.043617 4.6e-05 0.744075 0.66695
-0.13826 -0.015213 0.0256 -0.995421 0.042747 0.083582
0.607035 0.065642 0.047259 -0.485119 -0.863394 -0.030249
-0.059488 -0.127789 -0.10326 -0.179937 -0.125024 -0.972381
-0.177311 0.480135 -0.081225 -0.434983 0.317381 -0.842593
-0.429269 0.159559 -0.002642 0.519398 -0.853806 0.018608
-0.018102 0.783554 -0.100464 -0.722981 -0.050037 -0.688381
0.344296 0.320545 -0.041708 0.018013 -0.080304 0.993221
-0.019785 -0.835084 -0.028897 0.77086 -0.572513 0.013474
0.085493 0.038408 0.128179 0.373622 0.148232 0.915383
0.156143 -0.729582 -0.079155 0.712795 0.015487 -0.700289
0.031163 -0.105095 -0.085549 -0.748914 -0.407264 -0.522448
0.203994 -0.254758 -0.024166 0.987594 -0.034252 -0.146101
0.003525 0.580209 0.018911 -0.468653 0.218731 0.852965
-0.027102 -0.841616 0.088997 0.964325 0.163006 0.174552
-0.040475 -0.226393 0.113963 0.107955 -0.173722 0.978727
0.063657 0.365798 -0.139215 -0.385463 -0.019582 -0.922074
-0.329508 0.260762 -0.084117 0.0154 -0.478144 -0.877618
0.073658 -0.808262 -0.064303 -0.926191 0.010828 -0.369685
-0.104681 0.352124 -0.094134 -0.653585 -0.197977 -0.730154
0.063595 0.143841 -0.124304 -0.050807 0.396995 -0.913769
0.2064 -0.222703 -0.003239 0.99863 -0.050555 0.005364
0.186397 -0.573963 0.026707 0.726916 -0.185001 0.659601
-0.042553 -0.342133 -0.087635 0.218893 -0.071304 -0.967606
-0.082278 -0.041431 -0.11333 -0.58247 -0.234046 -0.77694
0.643493 0.030033 0.04525 0.961315 0.096458 0.012676
-0.16902 0.381402 -0.07288 0.612595 -0.655731 -0.44102
0.177097 -0.802178 -0.053348 0.916622 -0.368406 0.00054
-0.374308 0.195071 -0.029589 0.623393 -0.77625 -0.040727
0.187769 -0.358617 0.057211 0.865923 -0.048466 0.49695
-0.036756 -0.58254 -0.097177 0.388275 -0.026696 -0.920606
0.206109 0.425619 0.016694 0.692454 -0.582116 0.406779
-0.045004 0.333637 0.100069 -0.305509 -0.148795 0.936475
-0.50506 0.099128 0.027581 0.211951 -0.805821 -0.535523
0.097663 -0.235869 -0.09648 -0.329618 -0.036544 -0.941898
-0.013253 -0.538196 0.035916 0.556339 -0.18094 0.81028
-0.112302 -0.756842 0.000437 -0.73684 -0.077421 0.634168
0.077814 0.552291 0.022974 -0.066292 0.831968 0.532631
-0.109149 0.285562 -0.07221 -0.909563 -0.077943 -0.403539
-0.002353 -0.215868 -0.072404 0.617669 0.025336 -0.783163
0.071074 -0.179519 -0.095072 -0.500925 -0.206975 -0.8393
0.372363 0.270267 -0.045736 -0.590696 -0.450441 0.660703
0.252843 0.422263 -0.138865 -0.200117 0.014652 -0.978751
0.048634 0.282041 0.122425 0.125572 0.113737 0.985424
0.199132 0.537824 -0.101207 0.287727 0.696402 -0.655586
0.00833 0.349883 -0.127158 0.07246 -0.017926 -0.997136
0.065165 -0.632484 0.003567 -0.211689 0.471715 0.851673
0.085185 0.557559 0.019158 0.008268 0.791734 0.593063
-0.010309 0.058831 -0.142826 -0.162217 0.209969 -0.964042
-0.012649 0.473233 0.084321 -0.061815 0.454527 0.886606
-0.316717 0.248835 -0.073916 0.257948 -0.689317 -0.664557
0.129244 -0.869519 -0.05662 0.008706 -0.998811 0.047217
0.199869 -0.447517 -0.013201 0.99948 -0.014534 0.018843
0.199429 -0.175201 -0.050669 0.845484 0.015017 -0.530564
0.192022 0.448481 0.035736 0.556501 0.126565 0.82052
-0.29804 0.368145 -0.042055 -0.739927 0.668758 -0.010611
0.04176 -0.18957 0.040098 -0.977671 -0.061328 0.200689
0.034897 -0.148042 -0.060489 -0.892149 -0.291219 -0.344628
-0.089552 0.333096 0.068783 -0.882214 -0.010321 0.469173
0.04737 -0.585831 -0.038422 -0.922352 -0.018482 -0.37756
-0.079235 0.404237 -0.119485 -0.303442 -0.12453 -0.944193
-0.05995 -0.261948 0.110519 0.089101 -0.145327 0.985151
0.111419 -0.218578 0.092134 -0.028396 -0.193925 0.979845
-0.355184 0.235932 -0.076332 0.213457 -0.461771 -0.858178
0.03511 -0.134826 -0.072078 -0.8372 -0.313887 -0.446591
0.108901 -0.183595 -0.106 -0.085407 -0.146674 -0.984897
0.024511 -0.663085 -0.017216 0.896838 -0.18913 0.374172
0.565369 0.155016 0.024537 0.738539 0.67313 0.032614
0.004664 -0.074564 -0.104805 0.329075 -0.629811 -0.697354
0.119083 -0.50699 0.045435 -0.559959 -0.086673 0.823834
-0.049596 -0.767416 -0.135454 -0.084504 0.402719 -0.908134
0.205567 -0.369559 -0.003248 0.997747 0.001053 0.054723
0.073824 0.647463 -0.048545 0.745921 0.17382 -0.638887
0.06121 -0.559355 0.003978 -0.697012 0.013921 0.716491
0.068734 -0.296207 -0.080872 -0.72847 -0.012926 -0.681676
0.109745 -0.507532 0.039277 -0.611405 -0.067516 0.788139
-0.025208 -0.454752 0.068448 0.393064 -0.290348 0.869581
0.377809 0.349362 -0.081804 0.667199 0.688791 0.268322
0.601027 0.087739 0.00396 0.439572 0.108829 -0.885728
-0.137139 -0.021619 -0.022712 -0.993148 0.052124 -0.102191
0.02411 0.863527 0.023578 -0.057707 0.995646 0.070117
-0.13454 -0.402438 0.019121 -0.970254 0.147689 0.185247
-0.105466 0.370534 -0.098599 -0.628246 -0.242625 -0.738618
0.131871 0.22154 0.093753 0.598396 0.068579 0.798062
0.122288 0.588744 -0.072078 0.365516 0.88227 -0.279029
-0.539874 0.078719 0.087854 0.48357 -0.272458 0.739626
0.15284 -0.451626 0.069274 -0.08698 -0.123105 0.981656
0.128165 -0.247163 0.086632 0.111664 -0.153732 0.981534
0.008006 0.588679 0.01989 -0.462826 0.122998 0.876763
0.05017 0.565997 -0.107876 -0.106495 0.485006 -0.866575
0.087362 -0.086127 0.103701 -0.284304 -0.514614 0.805453
0.170724 0.083746 0.07785 0.714835 0.213081 0.665971
-0.339121 0.329835 -0.051074 -0.65677 0.752094 -0.047122
0.146212 -0.770373 -0.098973 0.488226 0.303282 -0.814052
-0.12955 -0.282679 0.022 -0.991439 -0.126797 0.002941
0.232136 0.465726 -0.132112 0.157802 0.246241 -0.952849
0.236814 0.505789 -0.111946 0.493602 0.552429 -0.671507
0.199045 -0.601041 -0.046481 0.988073 -0.023249 -0.150782
-0.112701 -0.458155 -0.065658 -0.720963 0.151745 -0.676034
-0.012525 0.633206 -0.020301 -0.981162 0.159609 0.065075
-0.048361 0.586866 -0.026618 -0.391992 0.780066 0.448384
0.029064 -0.157748 0.058804 0.862502 -0.33517 0.352854
-0.023281 -0.847158 -0.069066 0.815893 -0.566274 0.063998
-0.106746 -0.080658 0.100951 -0.701627 0.052627 0.710323
0.036594 0.282326 0.123716 0.085027 0.155863 0.983802
0.003259 -0.281886 -0.058931 0.77418 -0.119107 -0.621561
0.066104 0.648149 0.026444 0.662091 -0.343497 0.665458
0.076162 -0.144992 -0.105456 -0.433169 -0.201883 -0.877918
0.087524 0.692824 0.040955 0.919085 -0.335662 0.136035
0.020416 -0.712162 -0.063151 0.924934 0.008383 -0.377135
0.095316 -0.341922 -0.098064 -0.343062 0.007164 -0.934817
-0.170608 0.397609 -0.090185 0.439583 -0.392789 -0.800354
0.063838 0.204543 0.12685 0.22507 0.037344 0.973232
0.024714 0.630888 -0.066433 -0.162401 0.280724 -0.943187
-0.110328 -0.170429 -0.056453 -0.798108 -0.103953 -0.593224
0.342963 0.41767 -0.108835 0.69046 0.701319 -0.172548
0.635473 0.047775 0.085348 0.917013 0.366717 0.15461
0.059907 -0.768204 -0.01519 -0.994076 0.042076 -0.098062
-0.295228 0.353154 -0.002515 -0.586323 0.433305 0.677763
-0.137561 0.441334 0.058089 -0.391356 -0.173332 0.885086
0.007217 -0.171681 0.101455 0.645796 -0.130727 0.748345
0.132627 -0.338035 -0.092213 0.499131 0.046862 -0.865001
-0.005244 -0.653786 0.023539 0.521641 -0.015097 0.846433
-0.13522 0.41626 0.047545 -0.521835 -0.712304 0.455675
0.146414 0.30097 0.07183 0.777545 0.041963 0.626947
0.0383 -0.363261 -0.026529 -0.951296 -0.05596 -0.227043
-0.018102 0.679539 -0.013322 -0.868651 -0.455097 -0.1667
-0.051643 0.473187 0.07847 -0.246513 0.457686 0.849939
-0.07893 -0.260108 -0.083386 -0.581174 -0.034899 -0.812964
0.040219 0.145665 -0.120349 -0.149071 0.308584 -0.933403
-0.135626 -0.505382 -0.003239 -0.960518 -0.105793 0.238958
-0.111794 0.217977 -0.03883 -0.900134 -0.150544 -0.406874
0.076637 0.171548 -0.119019 0.136885 0.119042 -0.982369
0.10168 0.205943 -0.122083 0.349524 -0.440251 -0.826257
-0.1257 -0.542248 0.007891 -0.868517 -0.158295 0.464464
0.042502 -0.278304 0.022006 -0.991091 -0.018251 0.124691
0.141898 -0.515903 0.056377 -0.332167 -0.222341 0.913191
0.183273 0.275173 -0.003888 0.999347 -0.019685 -0.003345
-0.122274 -0.479097 -0.05827 -0.765663 0.106169 -0.633777
-0.009962 -0.515114 -0.078751 0.687179 0.07985 -0.722021
0.026416 -0.652241 -0.0185 0.968828 -0.100692 0.192987
-0.111054 -0.014941 -0.086839 -0.831714 -0.04488 -0.553168
0.135849 -0.802418 0.049854 0.429343 0.574776 0.691804
0.187511 -0.048649 -0.073238 0.827981 -0.068343 -0.55649
-0.120826 -0.497777 0.02816 -0.81019 -0.241753 0.533923
-0.014353 -0.589823 0.026736 0.273165 -0.129787 0.946528
-0.214212 0.425231 0.03648 -0.356254 -0.042378 0.924911
-0.485552 0.124429 -0.001077 0.194122 -0.781451 -0.591205
-0.061011 0.575396 -0.008698 -0.186439 0.863299 0.464543
0.12131 0.106453 -0.122389 0.526677 0.341037 -0.776637
-0.022687 -0.829547 -0.135316 0.615416 -0.601131 -0.496488
-0.078516 -0.863679 0.067498 -0.05127 -0.998662 -0.00177
-0.11529 -0.365027 -0.050035 -0.769383 0.087503 -0.628789
0.345276 0.382985 -0.08512 0.837335 0.478463 0.260689
-0.548325 0.086569 0.068217 -0.876133 0.474538 0.071696
-0.115916 0.29891 -0.014773 -0.951851 -0.278099 0.124212
0.10095 0.80023 -0.001106 0.915101 0.323745 0.228527
-0.095308 0.024816 -0.108454 -0.756763 0.137821 -0.637845
0.138789 0.292988 -0.115296 0.767043 -0.067358 -0.637983
0.019949 0.280649 -0.127573 0.082425 -0.019892 -0.995375
-0.027877 -0.307056 0.095839 0.309163 -0.091474 0.944935
-0.020569 0.018537 0.136794 -0.183299 0.130928 0.97412
-0.112051 -0.614284 -0.086957 -0.61959 0.09368 -0.779187
0.099616 -0.138325 0.10276 -0.561146 -0.053838 0.825844
0.126165 -0.756526 0.023593 -0.067908 -0.737908 0.670161
-0.262981 0.41869 -0.059066 -0.684806 0.674494 -0.263335
0.023669 -0.161087 0.072005 0.868247 -0.238652 0.434394
0.019282 -0.215065 0.073027 0.958379 -0.02862 0.280518
0.019962 -0.749708 -0.042179 0.971167 -0.20158 0.115657
-0.108541 0.093948 0.073191 -0.771441 0.202508 0.602485
0.425421 0.235279 -0.113189 0.295052 -0.453369 -0.838229
-0.003967 -0.617744 0.020429 0.291531 0.036522 0.949733
0.153362 -0.615264 -0.092205 0.477093 -0.164124 -0.863364
0.168432 0.203855 0.0551 0.753157 0.077828 0.653205
0.079931 0.648295 0.006658 0.894245 -0.146104 0.412313
-0.129812 -0.132161 0.073181 -0.877434 0.043507 0.47767
0.177466 0.009507 -0.089005 0.82861 0.050889 -0.5567
-0.097564 -0.39981 -0.06547 -0.633115 -0.076332 -0.763558
0.032873 0.143825 0.132076 0.040466 0.035211 0.998163
0.30113 0.320009 -0.088369 -0.700898 -0.713008 -0.00617
0.015257 -0.069824 -0.106982 0.012963 -0.690587 -0.721606
0.156694 -0.500653 -0.099821 0.473612 -0.002825 -0.880303
-0.078811 -0.459772 0.080478 0.139529 -0.123508 0.980881
0.02256 -0.39961 0.011664 0.946796 -0.222533 0.223502
0.199669 0.395108 -0.04107 0.978519 -0.190676 0.023781
-0.001219 -0.529272 0.028609 0.651904 -0.15459 0.742051
0.44309 0.29207 -0.068414 0.581508 0.774693 0.220582
0.139977 0.002379 0.116165 0.456454 -0.147627 0.865698
-0.116134 0.217705 -0.02881 -0.918834 -0.11941 -0.373272
0.066399 -0.80526 -0.004015 -0.91961 -0.355877 0.153181
-0.106649 -0.400774 -0.057471 -0.723603 -0.052129 -0.683517
0.073447 0.324531 0.110815 0.321523 0.126654 0.937387
0.168327 0.023093 -0.102694 0.806893 0.03383 -0.58896
0.464216 0.268645 -0.060894 0.787236 0.607304 0.094527
0.032609 -0.125023 -0.074067 -0.839388 -0.296487 -0.455144
0.020611 0.01641 0.142142 0.009961 0.120467 0.992327
0.07449 -0.234408 0.080064 -0.50183 -0.106431 0.85524
0.121698 -0.013377 -0.146718 0.414071 0.009482 -0.907548
-0.032987 0.833224 -0.049539 -0.719919 0.622978 -0.291588
0.020198 0.826216 0.065914 -0.330212 0.525616 0.778671
0.177159 -0.654445 0.020103 0.485644 -0.043077 0.872497
0.420735 0.274742 -0.038844 0.056223 0.456851 0.886543
0.143891 0.552768 0.001242 0.235849 0.718408 0.652865
0.087479 -0.484585 -0.093215 -0.59168 -0.004398 -0.804779
-0.134763 -0.163679 -0.018504 -0.908799 -0.132052 -0.385711
0.101234 -0.448785 -0.100344 -0.456975 0.055999 -0.887443
-0.08262 0.493635 0.061911 -0.259014 0.418612 0.869195
-0.168353 0.368874 -0.042547 0.693527 -0.698453 -0.160248
-0.009818 0.844553 0.032856 -0.739243 0.424494 0.491999
-0.128936 -0.389839 -0.023675 -0.966596 0.10346 -0.232988
0.405601 0.235474 -0.043562 -0.457061 -0.652214 0.600815
0.010305 -0.255438 0.086415 0.780896 -0.103152 0.61277
-0.231546 0.459375 -0.047733 -0.700252 0.620833 -0.351428
-0.133199 -0.156176 -0.024978 -0.85447 -0.133606 -0.499118
0.184706 -0.426064 0.056559 0.823682 -0.038736 0.564487
-0.067215 0.178341 -0.090047 -0.501508 -0.072932 -0.859798
0.317659 0.447802 -0.097693 0.63583 0.675666 -0.371275
0.175489 0.554913 -0.090872 0.322389 0.750306 -0.576304
0.178611 0.346568 0.031736 0.852347 -0.108106 0.505067
-0.076298 -0.020994 -0.122443 -0.563243 -0.15517 -0.811208
-0.079648 -0.7533 0.023949 -0.338876 -0.027832 0.863058
0.112474 -0.266017 -0.099421 0.059413 -0.01082 -0.990307
0.058725 0.533035 0.047464 0.026476 0.645951 0.759116
0.096831 -0.116502 0.102079 -0.550245 -0.119865 0.825871
0.324274 0.345469 -0.038317 0.143502 -0.106482 0.975905
0.070754 -0.23904 -0.082241 -0.646526 -0.04292 -0.76102
0.029668 -0.229539 0.032897 0.97611 -0.045992 0.211405
0.170607 -0.20921 -0.076212 0.616166 -0.091818 -0.781927
0.277834 0.489986 -0.088743 0.644534 0.62359 -0.440864
-0.10881 0.330655 -0.083579 -0.78412 -0.174453 -0.594572
0.063616 0.359337 0.106544 0.196587 0.191142 0.961456
-0.128191 -0.55083 -0.060673 -0.91675 0.070196 -0.391021
0.047158 0.072442 0.131482 0.224938 0.11892 0.966196
0.121118 -0.459321 0.052848 -0.598272 -0.095679 0.795047
0.176244 0.248015 0.040002 0.876762 0.039104 0.477382
0.143579 0.457108 0.067453 0.443296 0.276726 0.847468
0.021601 0.398444 -0.128123 -0.035037 0.001285 -0.999041
0.199969 -0.164049 -0.049658 0.840824 -0.002828 -0.538887
-0.199625 0.368488 -0.087835 0.38798 -0.525947 -0.75431
0.115529 0.28042 -0.133877 0.476909 -0.04345 -0.874472
0.11165 -0.869963 0.070917 0.004815 -0.999977 0.002103
-0.131535 -0.550364 -0.014356 -0.9057 -0.247942 0.331685
0.102448 -0.294788 0.081136 -0.185288 -0.122517 0.97367
0.056733 0.453097 0.08714 0.115145 0.326073 0.938073
0.2062 -0.024958 -0.025566 0.972042 0.023135 -0.231221
0.038373 0.670506 -0.067886 0.050565 -0.285627 -0.95459
-0.072504 -0.801959 0.051564 -0.425506 0.768693 0.462342
0.521705 0.150024 -0.032409 -0.672697 -0.609606 -0.300996
-0.072752 -0.164963 -0.093528 -0.570411 -0.149257 -0.807065
0.027729 0.009219 0.142885 -0.010918 0.128347 0.991617
-0.109168 0.189785 0.057549 -0.826821 -0.053421 0.559761
0.379212 0.316406 -0.048149 0.276823 0.420572 0.863725
0.109451 0.072027 0.112798 0.50994 0.137878 0.848524
0.192279 0.092547 -0.039945 0.929902 0.238146 -0.276271
0.072706 -0.173637 0.084994 -0.535603 -0.043395 0.843262
0.011824 0.760228 -0.118338 -0.294455 -0.220272 -0.924239
0.085559 -0.750127 -0.066704 -0.864723 0.035426 -0.500165
0.025276 -0.517372 -0.021794 0.936585 -0.030339 -0.325331
0.141777 0.252945 0.08161 0.727554 0.052697 0.683899
0.089923 0.275805 0.109885 0.394849 0.107925 0.912336
0.007349 -0.682101 0.004571 0.781881 -0.286909 0.552861
0.169402 0.068931 -0.088319 0.791686 0.210746 -0.57321
-0.04054 -0.673605 0.021606 -0.041409 -0.180313 0.981134
0.141424 0.242753 -0.102837 0.786135 -0.154494 -0.597991
0.028417 -0.318993 0.010232 0.999677 -0.017299 0.013658
-0.109205 -0.611322 0.03445 -0.902774 -0.001669 0.429765
-0.003307 -0.807322 -0.013969 0.942019 -0.040672 0.326447
