0.199492 -0.541279 0.000974 0.938568 -0.037279 0.342962
-0.141371 0.021615 0.026853 -0.968056 0.151203 0.186951
0.0473 0.576772 0.023983 0.356106 0.001832 0.934271
-0.049596 -0.767416 -0.135454 -0.084504 0.402719 -0.908134
0.201092 0.022429 -0.035598 0.949413 0.004635 -0.312285
0.138513 -0.12231 0.110824 0.167965 -0.082318 0.981578
0.184428 0.170685 0.036092 0.890416 0.153448 0.425594
-0.030643 0.76343 -0.078197 -0.815634 -0.244274 -0.51701
-0.236596 0.444049 0.005019 -0.791561 0.438439 0.423404
0.02054 -0.285086 -0.031607 0.949531 -0.065777 -0.305314
0.193307 -0.277024 0.058457 0.86616 -0.055266 0.492809
-0.361085 0.205887 -0.022175 0.558156 -0.825074 0.009888
0.075061 0.181304 0.123712 0.467644 0.035395 0.880403
0.630448 0.034049 0.05978 -0.917759 -0.365233 -0.020509
-0.010189 -0.487684 0.047618 0.600301 -0.248558 0.759018
-0.033438 0.760632 0.014769 -0.945825 -0.114804 0.296412
0.196526 0.07877 0.028942 0.903614 0.387282 0.177554
0.021167 0.41244 -0.127971 -0.030479 0.031945 -0.998672
-0.033388 0.215383 0.112114 -0.376474 0.045307 0.921427
-0.289532 0.288082 0.001226 0.37178 -0.417683 0.824669
0.187924 0.02735 -0.069917 0.922175 0.012202 -0.358729
0.100132 -0.644314 -0.087442 -0.538198 -0.081887 -0.836817
-0.095199 0.127532 0.0749 -0.670396 0.049497 0.74013
0.57221 0.080801 0.049238 -0.746123 -0.624215 0.227241
-0.017208 0.206277 -0.122837 -0.205572 -0.379541 -0.901029
-0.060341 0.23085 0.095289 -0.557539 0.093824 0.823507
0.089509 -0.171894 0.094166 -0.43579 -0.131794 0.889871
-0.190058 0.471386 0.041756 -0.503957 0.124459 0.838111
0.213316 -0.068016 -0.001158 0.98667 0.06054 -0.141686
-0.011695 0.715101 -0.073489 -0.687363 -0.544554 -0.475001
-0.164064 0.514665 -0.072509 -0.516754 0.50956 -0.6871
-0.298707 0.278298 0.002268 0.46095 -0.19598 0.859759
0.173566 -0.341962 0.07242 0.232203 -0.043108 0.96415
-0.101322 0.534171 -0.092612 -0.372797 0.573792 -0.728922
-0.034023 0.070479 0.122944 -0.343538 0.190313 0.918475
0.041485 -0.305161 -0.041602 -0.871572 -0.018909 -0.489496
0.063733 -0.649147 -0.052607 -0.759785 -0.159267 -0.629338
0.064413 0.049622 -0.156934 -0.065787 0.309374 -0.947099
0.19513 -0.612459 -0.057656 0.840102 -0.033514 -0.541052
0.315732 0.442179 -0.108751 0.551953 0.679862 -0.481489
-0.214686 0.481045 0.011506 -0.787698 0.473255 0.387239
0.090896 0.11563 -0.132066 0.220151 0.468796 -0.853181
0.34777 0.385491 -0.116369 0.94692 0.135696 -0.152564
-0.039995 -0.371988 -0.082963 0.335795 -0.177811 -0.923992
-0.024645 0.838909 -0.052232 -0.563301 0.763016 -0.314495
0.061428 -0.67387 0.018688 -0.532413 0.310157 0.780062
0.04223 -0.359766 0.003963 -0.971001 -0.095932 0.214779
0.079147 0.849877 -0.041178 0.707206 0.677904 -0.19398
-0.037288 -0.474202 -0.093326 0.375791 0.115501 -0.917682
-0.042093 -0.695076 -0.110292 0.349324 0.281179 -0.892732
0.053795 0.771104 -0.116049 0.4075 -0.046669 -0.911087
0.070417 -0.478244 0.009647 -0.567888 0.082744 0.818712
-0.109238 -0.470446 0.06375 -0.778875 -0.295463 0.552326
-0.05493 0.193974 -0.10024 -0.526635 -0.234407 -0.816872
-0.027003 0.737391 -0.066216 -0.873929 -0.356149 -0.324711
-0.261883 0.413306 -0.069888 -0.569295 0.656485 -0.493843
0.399756 0.330111 -0.096803 0.700664 0.706172 -0.075722
-0.163197 0.424747 -0.09472 0.075527 -0.04168 -0.994894
-0.04065 -0.282788 -0.092079 0.154036 -0.056474 -0.984329
-0.030787 -0.41676 0.078989 0.335294 -0.180218 0.924484
0.174641 -0.31602 0.073509 0.244976 -0.021083 0.960266
-0.062457 0.525135 0.049234 -0.145776 0.584931 0.797473
0.188964 -0.13659 0.079729 0.794429 0.015593 0.598505
0.020536 0.852637 0.047703 -0.221272 0.687981 0.687037
0.095 -0.534535 -0.096539 -0.585179 -0.065189 -0.808039
0.195103 0.128707 -0.017246 0.802227 0.13853 -0.575976
0.468688 0.261713 -0.049181 0.669134 0.731248 0.125348
0.113971 -0.485696 -0.106181 -0.211874 0.034497 -0.974156
0.089895 0.696738 -0.004319 0.983011 -0.147567 0.012462
0.350395 0.395899 -0.116758 0.876451 -0.214073 -0.392819
0.161448 -0.855453 -0.002757 0.763339 -0.571579 -0.164904
-0.083933 0.307514 0.076435 -0.631094 -0.029827 0.768972
-0.419001 0.166488 -0.012355 0.596266 -0.799438 -0.031389
0.637609 0.050428 0.05483 0.867149 0.494064 0.028704
0.09563 -0.675094 -0.083068 -0.614437 0.035806 -0.787958
-0.0691 -0.020982 0.1229 -0.375346 -0.100478 0.904043
-0.087874 -0.015895 0.112305 -0.555989 -0.244063 0.792047
-0.033283 -0.08155 0.128415 -0.034896 -0.055022 0.997453
-0.179714 0.358781 -0.022022 0.606205 -0.754963 0.245287
0.205111 -0.181878 0.027755 0.970619 -0.014786 0.232109
0.313281 0.455733 -0.085186 0.708626 0.699501 -0.088208
0.190289 0.150949 -0.022205 0.834952 0.07107 -0.537526
-0.144349 -0.126949 0.017596 -0.999676 -0.002378 0.017087
-0.122451 0.002355 0.083806 -0.799879 -0.144246 0.558149
-0.012167 -0.062734 0.129221 0.113991 -0.112975 0.987017
-0.258166 0.430263 -0.039714 -0.742596 0.664472 -0.072253
0.119644 -0.000853 0.124308 0.356882 -0.377812 0.843472
0.179312 0.073669 -0.071885 0.817567 0.193455 -0.542072
-0.469578 0.126464 0.01724 0.738216 -0.673043 0.018006
-0.058277 0.241738 -0.114338 -0.543251 -0.190176 -0.817022
0.005034 -0.100241 -0.084576 0.68022 -0.42073 -0.590924
0.028436 -0.241418 0.036908 0.982226 -0.014096 0.186431
-0.035492 -0.85994 0.004032 0.411944 -0.891674 -0.148438
0.175529 -0.798193 -0.014923 0.920643 -0.338717 0.180614
0.131575 -0.866138 -0.00849 0.065052 -0.996899 -0.022855
-0.099288 -0.130375 0.111301 -0.472103 0.055817 0.873278
0.182976 0.219729 -0.00496 0.999665 0.02069 -0.009118
0.101028 0.542224 0.032434 0.408236 0.568921 0.712235
0.061269 -0.580656 -0.058247 -0.743447 -0.079342 -0.66368
0.010531 -0.527283 0.01788 0.703992 -0.170323 0.689182
0.206414 0.01071 0.034718 0.993559 0.00218 0.105743
-0.015537 -0.817036 -0.135259 0.713837 -0.338419 -0.6068
-0.120497 -0.772781 -0.0361 -0.992195 -0.094973 0.063102
-0.192924 0.349428 -0.045165 0.627208 -0.772753 -0.087418
-0.07392 0.435022 0.085108 -0.535469 0.186763 0.822812
0.626014 0.041555 0.055647 -0.828182 -0.559497 -0.031779
0.148888 0.147277 0.081724 0.696927 0.042416 0.715869
0.132092 0.131917 -0.107583 0.561321 0.239457 -0.787624
0.001831 -0.195469 0.102776 0.615997 -0.10081 0.781229
0.039486 -0.244707 0.010229 -0.353262 -0.083387 0.820741
0.108346 -0.799223 -0.114428 -0.44096 0.300727 -0.837615
-0.231132 0.366374 0.01718 0.168374 -0.327792 0.926311
0.106475 -0.704125 -0.092093 -0.447023 0.090316 -0.885329
-0.334501 0.333959 -0.039149 -0.676604 0.735575 0.031753
-0.113817 -0.485931 0.045815 -0.859604 -0.240554 0.450439
0.04396 -0.462744 -0.033901 -0.995281 -0.004254 -0.063816
0.334873 0.371815 -0.137362 0.372272 0.069737 -0.918969
0.055703 -0.297868 -0.063461 -0.831545 -0.013597 -0.555013
-0.118487 -0.051758 0.087005 -0.765117 0.048163 0.641553
-0.058184 -0.864255 0.08164 0.000203 -0.999972 0.003031
0.512349 0.196884 0.01114 -0.253602 0.838711 0.474035
0.035593 0.865631 -0.038024 -0.033771 0.956978 -0.27054
0.069969 0.278952 0.119019 0.362229 0.126368 0.922154
0.034745 0.048389 0.13561 0.105178 0.063926 0.992349
-0.060083 0.582418 -0.028933 -0.235331 0.953659 0.163666
-0.096246 -0.353732 0.101656 -0.174329 -0.141959 0.974149
0.126383 -0.739119 0.025652 0.233558 0.583707 0.743635
0.074605 0.834224 0.038905 0.751863 0.35604 0.550242
-0.025145 0.395446 -0.129595 -0.015808 -0.01557 -0.999634
0.027239 -0.201525 0.047477 0.974028 0.001996 0.225755
0.097728 0.224082 0.111736 0.367661 0.090025 0.923498
-0.037862 0.254864 0.109013 -0.419227 0.029494 0.905252
0.037003 0.626507 0.030556 0.032192 -0.450037 0.886621
-0.100717 -0.149246 -0.073009 -0.728429 -0.143442 -0.66991
-0.550984 0.08341 0.038799 -0.822614 0.563661 -0.022833
0.128494 0.316169 -0.127288 0.581346 -0.080983 -0.808849
0.22449 0.475745 -0.131117 0.191854 0.241976 -0.950222
-0.05824 -0.203115 0.119453 -0.133348 -0.139784 0.976466
0.198179 0.07008 0.03493 0.952187 0.232672 0.187377
0.062238 -0.239946 -0.072774 -0.767832 -0.06685 -0.636377
-0.051045 0.010978 0.129095 -0.254908 0.21717 0.940707
-0.002337 -0.384522 -0.054881 0.605975 0.080985 -0.791022
0.151623 -0.86316 0.158451 0.228875 -0.957778 0.157033
0.076704 -0.671358 0.026047 -0.549571 0.31308 0.773473
-0.111858 -0.846701 0.065512 -0.923276 0.191153 0.06928
0.045191 -0.196715 -0.05851 -0.869185 -0.154231 -0.454678
0.201219 -0.13905 0.05522 0.908043 -0.079239 0.411027
0.344653 0.309346 -0.044157 -0.296128 -0.282344 0.888663
-0.08193 -0.863353 0.026991 -0.037977 -0.999269 -0.003383
0.558337 0.162107 0.029476 0.720857 0.688801 0.073255
0.417398 0.313378 -0.084657 0.679912 0.731559 0.041512
0.084913 0.226908 0.115874 0.4736 0.111392 0.871906
-0.189228 0.51909 -0.031684 -0.70677 0.682802 -0.181863
0.141056 0.561142 -0.101262 0.297929 0.679368 -0.670346
-0.039891 0.034179 -0.142614 -0.285037 0.164916 -0.941375
-0.112769 -0.689758 -0.087497 -0.658583 -0.10934 -0.74381
-0.059911 -0.049925 0.126582 -0.293867 -0.08196 0.949137
-0.081082 -0.648627 0.039596 0.30591 -0.271481 0.909075
0.027745 0.307641 0.121413 0.014773 0.096195 0.994392
0.111043 -0.827026 0.142839 -0.330301 0.927126 0.089965
0.447327 0.211963 -0.093569 0.83807 -0.119481 -0.529108
0.183588 -0.506835 -0.076751 0.767097 -0.000132 -0.641451
0.084029 -0.146932 0.092521 -0.600893 -0.016914 0.798293
0.006747 0.634781 -0.058793 -0.483514 0.287884 -0.821698
-0.105472 0.359375 0.052645 -0.831499 -0.259845 0.490377
-0.076298 -0.020994 -0.122443 -0.563243 -0.15517 -0.811208
-0.00484 0.801597 -0.107862 -0.470822 0.291062 -0.830198
-0.126701 -0.251374 -0.017577 -0.916733 0.020387 -0.394335
-0.039217 -0.064371 -0.119963 -0.056712 -0.321851 -0.944699
0.206674 -0.197809 -0.027075 0.995474 -0.025188 -0.087346
0.130578 -0.634081 0.03332 0.299407 -0.146825 0.941907
-0.092662 0.077968 -0.094901 -0.750719 0.221844 -0.620881
-0.089085 0.356752 0.071641 -0.750209 -0.107956 0.650284
0.199884 0.393281 -0.071593 0.97901 -0.191897 0.002138
0.377809 0.349362 -0.081804 0.667199 0.688791 0.268322
0.231192 0.458675 0.011153 0.728168 0.012852 0.682302
-0.04508 -0.693008 0.017069 -0.18516 -0.176146 0.965677
0.229312 0.414311 -0.012933 -0.243456 -0.661362 0.683955
-0.136971 -0.188305 0.003483 -0.986002 -0.090831 -0.136653
-0.370668 0.238397 -0.078698 -0.024032 -0.334862 -0.940063
0.105598 0.196253 0.110069 0.50582 0.031829 0.859702
0.401304 0.244969 -0.036993 -0.423426 -0.336415 0.828322
0.191084 -0.075422 -0.064381 0.876489 -0.011527 -0.480004
0.10469 -0.375518 -0.100843 -0.215913 -0.014605 -0.969431
0.001131 -0.571424 -0.066215 0.764211 -0.027577 -0.644305
0.175816 -0.664048 0.019947 0.488221 -0.115907 0.863935
0.405791 0.26791 -0.128087 0.0019 -0.068506 -0.994936
0.140394 -0.835984 0.170708 0.436383 0.792295 0.423426
-0.51575 0.128259 0.037611 -0.761796 0.647285 -0.01134
0.095408 0.603509 -0.062356 0.653119 0.718732 -0.220412
-0.060246 -0.567149 0.051266 0.346393 -0.185119 0.9195
0.125972 -0.392269 -0.100246 0.300295 0.077042 -0.948958
-0.263547 0.421725 -0.038534 -0.79064 0.611696 -0.012245
0.120606 -0.664149 0.032387 0.099772 -0.141846 0.984436
0.020655 0.743657 0.089823 -0.90833 0.210667 0.360221
0.518964 0.212973 -0.02893 0.481884 0.822039 0.30019
-0.100455 0.079528 -0.085124 -0.732516 0.205565 -0.648394
0.105095 -0.866438 0.138872 -0.135549 -0.968328 0.187098
0.020482 -0.309435 -0.028071 0.937328 -0.001135 -0.347319
-0.119352 0.228106 -0.002937 -0.971816 0.21761 0.015534
0.003977 -0.803523 -0.106894 0.936173 -0.097888 -0.333811
-0.319367 0.326852 -0.086292 -0.37971 0.490142 -0.784556
0.027529 -0.291964 0.033447 0.994605 -0.011846 0.10298
0.201556 -0.276556 -0.026131 0.897659 -0.12001 -0.423218
-0.056446 -0.672157 0.024114 0.209106 -0.323142 0.922513
0.248821 0.460945 -0.000502 0.275965 -0.125403 0.952309
-0.021063 -0.073344 -0.115369 0.168925 -0.44014 -0.881151
0.192989 -0.231253 0.061901 0.898806 -0.022084 0.435614
0.199937 -0.45843 -0.028532 0.999214 0.002459 -0.033975
-0.126485 -0.560262 -0.000736 -0.925483 -0.129969 0.352435
-0.015661 -0.831958 -0.096914 0.336729 -0.938543 -0.033041
0.288704 0.422766 -0.016046 0.447279 0.204741 0.869553
-0.005073 -0.37277 -0.056495 0.64683 -0.020606 -0.761624
0.027151 -0.587909 -0.022396 0.996399 0.041423 -0.044884
-0.005138 0.54657 0.039382 0.32101 0.745111 0.580379
-0.058748 -0.855361 -0.134433 -0.11877 -0.604275 -0.760921
0.014694 0.195248 -0.11774 0.17796 -0.319812 -0.930054
0.049612 0.401984 -0.134401 -0.358241 0.032585 -0.931293
-0.004615 0.622815 0.006335 -0.776865 -0.001235 0.628554
0.336316 0.400831 -0.134388 0.544196 0.290767 -0.774996
0.090486 -0.829546 0.062101 -0.97084 0.201011 0.116451
0.01217 -0.649191 -0.061935 0.611114 0.160238 -0.775104
0.196665 -0.520541 0.012377 0.950109 -0.020114 0.310789
0.366219 0.284874 -0.125365 -0.323721 -0.383562 -0.864013
0.038208 -0.256167 -0.035961 -0.802995 0.014819 -0.592307
0.187797 -0.721214 -0.040496 0.700885 -0.189593 -0.683911
0.157407 0.425523 0.063269 0.720169 0.075477 0.689028
0.086397 -0.107037 -0.119531 -0.278731 -0.325001 -0.90301
0.145294 0.013109 0.113114 0.437362 0.141884 0.886262
0.130708 -0.065216 0.114818 0.25832 -0.015972 0.965226
0.033197 0.589541 0.0263 0.043028 0.008711 0.997147
0.063593 -0.03808 0.13042 0.033917 -0.176254 0.983305
0.025455 -0.685564 -0.054751 0.964774 -0.011814 -0.260898
0.199159 -0.589569 -0.046856 0.985032 -0.017283 -0.171398
0.048996 0.705457 -0.086944 0.242312 -0.639539 -0.728355
-0.220789 0.473421 0.008344 -0.84804 0.413386 0.327942
-0.189437 0.512329 -0.046052 -0.69801 0.582867 -0.414431
-0.21862 0.332082 -0.05042 0.592302 -0.795747 -0.120521
-0.262981 0.41869 -0.059066 -0.684806 0.674494 -0.263335
-0.058694 0.499903 0.064525 -0.152517 0.411383 0.89835
-0.025899 -0.108007 0.126571 0.109499 -0.116884 0.986393
0.168371 0.279436 -0.061192 0.905736 -0.14859 -0.396334
-0.106363 -0.216115 0.104835 -0.554459 -0.061486 0.822148
0.049764 0.594334 -0.089469 0.041899 0.608478 -0.792146
-0.102878 0.297876 0.050401 -0.893696 0.197866 0.394482
0.098672 0.197237 -0.118378 0.320599 -0.432339 -0.837433
0.022935 -0.362232 -0.020382 0.931798 -0.01682 -0.362541
0.11524 -0.86643 0.004794 -0.147124 -0.98023 -0.092557
-0.015416 0.450614 -0.130013 0.111944 0.010803 -0.993473
0.20561 -0.395258 -0.000188 0.993515 -0.02242 0.10818
-0.012679 -0.767032 -0.119036 0.644851 0.436347 -0.625752
0.060494 -0.793647 -0.013546 -0.962688 -0.231429 0.004449
-0.137943 -0.065182 -0.026831 -0.963388 0.005479 -0.267388
-0.268897 0.415002 -0.048027 -0.731524 0.676406 -0.078337
-0.307238 0.302224 -0.096682 -0.053869 -0.068308 -0.995728
-0.102154 0.161231 -0.062358 -0.915896 0.109172 -0.353917
0.156899 0.014316 -0.116871 0.666894 0.060197 -0.741483
0.15526 0.019119 0.106522 0.508003 0.185595 0.840856
0.568729 0.079354 0.009374 -0.887626 -0.45559 0.008996
0.052958 -0.695958 -0.017025 -0.977883 -0.103269 -0.165197
0.196955 -0.148852 0.063164 0.892701 -0.094559 0.44045
0.061808 0.670879 0.082679 0.6772 -0.30662 0.637717
0.143771 0.577094 -0.034038 0.310664 0.856802 0.398161
0.170577 0.168518 -0.057747 0.88749 0.045864 -0.442375
0.250045 0.526814 -0.065828 0.699791 0.705676 -0.092909
0.165842 0.378342 0.056233 0.74307 -0.023983 0.667841
-0.128393 -0.441601 0.03957 -0.921059 -0.100883 0.375906
-0.10379 0.566716 -0.010736 -0.149569 0.972708 0.150333
0.132759 0.009337 -0.138725 0.548671 0.107239 -0.828383
0.311943 0.411193 -0.032238 0.71638 0.238339 0.652453
0.079002 0.272677 -0.138869 -0.116481 -0.068759 -0.990174
-0.361635 0.309861 -0.06258 -0.652359 0.721414 -0.231951
0.183847 -0.292259 0.070806 0.55248 -0.04729 0.827883
-0.018102 0.679539 -0.013322 -0.868651 -0.455097 -0.1667
-0.040763 0.068999 -0.134199 -0.369413 0.252601 -0.891631
0.097343 -0.042414 -0.145714 0.051177 -0.319764 -0.945229
-0.056988 -0.703758 -0.117257 -0.038069 0.21409 -0.970832
0.01774 -0.139291 0.09487 0.773628 -0.215983 0.594822
-0.129139 -0.276409 -0.003828 -0.989102 -0.070111 -0.122026
-0.403415 0.17813 -0.013547 0.495706 -0.867727 -0.030565
0.192888 0.560068 -0.032801 0.346133 0.871353 0.268768
-0.096702 -0.849263 0.132243 -0.898977 0.070211 0.370452
0.015033 -0.354181 0.05472 0.794366 -0.215074 0.566424
0.199439 0.412436 -0.116082 0.614328 -0.548219 -0.556763
0.195929 -0.662784 -0.010717 0.953097 0.00161 0.296825
0.007747 0.816843 -0.106376 -0.317246 0.579746 -0.747358
-0.116912 0.553536 -0.060556 -0.415523 0.762805 -0.494641
0.03454 0.672111 0.094611 0.036623 0.17041 0.976299
0.011961 0.047383 -0.149365 -0.204684 0.311308 -0.926632
0.090337 0.787359 0.038072 0.970058 0.126215 0.202605
0.008889 0.833561 -0.091082 -0.260551 0.730914 -0.629931
0.022452 0.700593 0.089705 -0.445748 -0.195338 0.861836
-0.399563 0.180414 -0.022259 0.487029 -0.867398 -0.089083
0.08153 -0.639535 0.01523 -0.593305 0.330533 0.725285
0.20325 -0.03778 0.050488 0.883205 0.020646 0.467829
0.113539 -0.319153 0.079878 -0.14129 -0.088509 0.985095
0.049234 -0.583924 -0.016536 -0.904251 -0.095459 0.416027
0.019887 0.105218 0.135106 -0.015516 0.150608 0.987097
0.018864 -0.630812 0.003695 0.802151 -0.045824 0.593067
-0.132032 -0.1823 -0.017521 -0.881811 -0.159836 -0.443316
0.186833 0.380634 0.026591 0.878781 -0.1934 0.435021
0.054227 -0.606986 -0.010051 -0.823499 -0.004084 0.564288
0.20129 -0.379533 -0.034815 0.92313 0.005816 -0.383509
0.210268 -0.032546 -0.008682 0.963709 0.002859 -0.266589
-0.285389 0.306245 0.006067 0.082771 -0.202825 0.97344
-0.106825 -0.774431 -0.002367 -0.738272 0.115368 0.662746
0.03636 0.195707 -0.112986 0.053094 -0.254344 -0.95802
0.13046 -0.623757 0.036263 0.200403 -0.152691 0.961741
-0.086912 0.522788 -0.105798 -0.292605 0.464762 -0.835644
0.078411 0.838861 0.031355 0.761476 0.377054 0.522522
0.372116 0.348826 -0.119833 0.648487 0.487528 -0.582994
-0.026027 -0.280648 0.099486 0.333349 -0.254921 0.906585
-0.082949 -0.825312 0.085001 -0.239557 0.954312 0.148841
0.232136 0.465726 -0.132112 0.157802 0.246241 -0.952849
0.070833 -0.320436 0.064505 -0.560834 -0.148194 0.813379
0.152581 0.51433 0.033197 0.220167 0.743879 0.593787
-0.130919 -0.386487 0.006172 -0.886085 0.426502 0.012409
-0.083628 0.042555 0.10548 -0.451443 0.165906 0.87207
0.063409 -0.073662 -0.127849 -0.306048 -0.398382 -0.864251
0.180966 -0.263796 0.07309 0.524511 -0.019804 0.847481
-0.079861 0.51272 -0.113646 -0.286526 0.399056 -0.870316
0.063657 0.365798 -0.139215 -0.385463 -0.019582 -0.922074
0.029817 0.402535 0.100986 0.100936 0.312148 0.944207
-0.043757 0.577958 -0.00574 -0.198266 0.779988 0.59323
-0.002843 0.859877 -0.003247 -0.586706 0.80381 0.038575
-0.197464 0.512406 -0.01555 -0.697944 0.71003 0.036051
-0.128382 0.440219 -0.106211 -0.496937 -0.15764 -0.850585
0.05709 -0.4435 -0.060101 -0.757891 0.037785 -0.651096
0.247569 0.401347 -0.134545 -0.381205 -0.239933 -0.892238
0.08297 -0.709461 0.0366 -0.062363 0.037232 0.995517
0.03431 0.731277 -0.109301 -0.001783 -0.551729 -0.831811
-0.097102 0.572632 -0.028414 -0.381884 0.904063 0.011649
0.356033 0.37214 -0.116438 0.778692 0.591968 -0.198171
0.113822 -0.594479 0.033299 -0.229011 -0.157266 0.959236
0.182572 -0.354178 0.066311 0.828498 -0.064243 0.554675
0.120821 -0.869064 -0.047897 0.002777 -0.998061 0.061789
0.019755 0.504545 -0.123063 -0.009637 0.01777 -0.999157
0.013477 0.371576 -0.127723 0.03087 -0.034654 -0.998767
0.189166 -0.117986 -0.065324 0.776005 -0.023951 -0.63004
-0.051291 0.551539 0.029079 -0.200277 0.72975 0.653607
0.052212 -0.694877 -0.002797 -0.998639 -0.01665 0.028608
-0.546431 0.062787 0.027877 0.591031 -0.781199 -0.198686
0.554565 0.110212 0.04308 -0.84684 -0.336388 0.399207
0.075058 0.855001 0.008948 0.654664 0.730571 0.193642
-0.125875 -0.308228 0.051491 -0.982733 -0.116061 0.140375
0.060975 0.280292 -0.135298 -0.324442 -0.042007 -0.944754
0.020594 -0.682127 -0.063032 0.710762 0.123378 -0.688495
0.268384 0.507298 -0.043089 0.732341 0.645284 0.201845
0.153681 0.155074 -0.081672 0.737831 0.049539 -0.672886
-0.072135 0.021301 -0.130686 -0.476978 -0.33638 -0.802794
0.098184 0.810191 -0.050737 0.935477 0.331517 -0.111994
-0.497096 0.106859 0.074212 0.636585 -0.179674 0.729083
-0.034991 -0.759528 -0.129941 0.275164 0.423981 -0.85872
-0.111054 -0.014941 -0.086839 -0.831714 -0.04488 -0.553168
0.201106 0.071103 -0.009809 0.980574 0.190627 -0.036029
0.08206 -0.176935 0.089979 -0.455941 -0.075623 0.88565
-0.319942 0.23147 -0.033625 0.611022 -0.790413 -0.024026
0.108504 0.095884 -0.134687 0.470662 0.278462 -0.834076
-0.277736 0.401763 -0.067289 -0.498997 0.785156 -0.346684
0.018201 -0.776789 -0.059293 0.991916 -0.095832 -0.00084
0.039077 0.22982 0.128276 0.028926 0.042897 0.998627
-0.125282 -0.712187 -0.032343 -0.859804 0.102785 0.483725
0.111377 -0.295362 -0.099111 0.119768 -0.006221 -0.988744
-0.114494 -0.367256 0.084883 -0.777045 -0.006068 0.626973
0.140658 -0.866656 -0.026121 0.152315 -0.976582 0.150182
0.521705 0.150024 -0.032409 -0.672697 -0.609606 -0.300996
0.561299 0.093315 0.038292 -0.829007 -0.514272 0.213675
-0.313814 0.353606 -0.045234 -0.673934 0.735856 -0.054712
-0.10038 -0.574056 -0.092629 -0.523389 0.041246 -0.851077
0.140057 0.308839 0.079166 0.732184 0.051739 0.679116
-0.063234 -0.86279 -0.111645 -0.039435 -0.995378 -0.075345
0.071499 0.068345 -0.152649 0.011442 0.203733 -0.978653
0.614869 0.056432 0.078699 -0.780643 -0.615541 0.064349
-0.003307 -0.807322 -0.013969 0.942019 -0.040672 0.326447
0.021485 0.241365 -0.125541 0.077075 0.01737 -0.996268
-0.205953 0.426193 -0.091447 -0.234923 0.29069 -0.927446
-0.365772 0.227345 -0.0742 0.163239 -0.473729 -0.863335
0.136119 -0.648832 0.032677 0.173633 0.006913 0.983285
-0.537217 0.070295 0.030653 0.578528 -0.692235 -0.426484
0.365056 0.356187 -0.121305 0.635399 0.516226 -0.564745
0.1322 0.290735 0.089011 0.648438 0.05066 0.759528
-0.082146 0.269292 -0.102466 -0.655597 -0.108224 -0.746946
-0.103451 0.066943 -0.085173 -0.826514 0.146527 -0.543091
-0.137139 -0.021619 -0.022712 -0.993148 0.052124 -0.102191
0.531348 0.199004 -0.057456 -0.133694 -0.566222 -0.811753
-0.136051 -0.0088 -0.030866 -0.987313 0.035018 -0.154214
-0.119308 -0.211965 -0.034394 -0.865268 -0.096282 -0.491503
0.189859 0.05207 0.064356 0.767861 0.253008 0.587899
-0.128791 -0.395864 0.039032 -0.969619 0.136205 0.202148
0.046843 -0.187037 -0.065259 -0.846549 -0.168635 -0.504686
0.135495 -0.265266 -0.091245 0.468469 -0.086527 -0.877626
-0.132342 -0.01619 0.058525 -0.898961 0.118413 0.42159
-0.084219 0.250031 0.077602 -0.6582 0.045548 0.751202
0.099052 -0.82675 0.093788 -0.53349 0.814163 0.191901
-0.05791 -0.778824 0.034764 -0.212681 0.623838 0.7401
0.163017 -0.761604 -0.076031 0.809099 0.396373 -0.426952
0.064436 -0.46795 0.005216 -0.479782 0.057316 0.875369
-0.046714 0.107789 0.112226 -0.491975 0.180216 0.851681
0.161833 -0.836023 -0.060367 0.99563 0.076211 -0.053076
-0.145606 0.551629 -0.033816 -0.434878 0.868552 -0.211291
-0.046998 0.197528 -0.106501 -0.51555 -0.303356 -0.800404
0.08492 -0.448049 -0.089108 -0.639335 0.055434 -0.766321
-0.041078 -0.270593 0.105747 0.170675 -0.16775 0.970881
-0.126745 -0.679842 -0.070022 -0.961536 -0.036959 -0.270346
0.054902 -0.161619 0.072274 -0.677874 0.021026 0.734633
0.134716 -0.182661 0.097548 0.09365 -0.183767 0.977468
0.179631 -0.150886 -0.072749 0.700489 -0.088596 -0.708102
-0.095543 -0.512036 0.064829 -0.834116 -0.101704 0.535647
0.194517 -0.718526 -0.034171 0.796626 -0.09979 -0.593943
-0.393502 0.190098 0.013366 0.567138 -0.419181 0.634898
0.028703 0.868301 -0.02417 -0.250642 0.948864 -0.174697
0.075784 -0.399309 0.038067 -0.676644 -0.325134 0.660352
0.200192 -0.59611 -0.012016 0.992084 -0.08126 0.092127
0.513139 0.189487 0.01729 -0.476308 0.022938 0.800425
-0.030975 0.031058 -0.144737 -0.148432 0.076653 -0.985114
0.204951 -0.523248 -0.01254 0.973892 0.004512 0.208806
0.006538 0.288792 0.12168 -0.195434 0.100868 0.974394
0.168092 0.386815 -0.117758 0.417313 -0.408572 -0.808525
-0.097362 0.23379 -0.072351 -0.724701 -0.417296 -0.547306
-0.042316 -0.641358 -0.100792 0.436457 0.054065 -0.897371
-0.049792 0.032334 -0.1393 -0.313315 0.170733 -0.933913
0.092012 0.707312 0.029013 0.963475 -0.239416 0.092577
0.194234 0.435737 0.035344 0.625686 -0.050219 0.775433
0.144166 0.184527 0.084966 0.715543 0.031403 0.697835
-0.109884 0.565098 -0.003127 -0.133751 0.935043 0.293647
0.01432 -0.533162 -0.045655 0.84724 0.046832 -0.528643
-0.0453 0.563884 0.015328 -0.19988 0.807428 0.552403
-0.125012 -0.103345 0.080541 -0.805951 0.039715 0.590586
0.328136 0.364101 -0.139272 0.170919 -0.086182 -0.97921
0.150158 0.268865 0.070323 0.759476 0.08344 0.644894
0.103181 0.791101 -0.054439 0.947179 0.153802 -0.266405
-0.383614 0.194599 -0.051368 0.222279 -0.901209 -0.337032
0.087959 -0.682223 0.034706 -0.199459 0.143725 0.964793
-0.201174 0.4048 0.031236 0.297283 -0.345166 0.889755
0.019804 -0.435166 0.017419 0.951401 0.026622 0.297493
0.009474 0.502566 -0.123223 0.064909 0.017149 -0.997258
0.073549 -0.470644 -0.079138 -0.710503 0.036756 -0.702718
-0.074619 -0.437901 -0.087284 -0.311916 0.310993 -0.889215
0.104562 -0.671195 -0.088558 -0.458756 0.038343 -0.885949
-0.066081 0.286203 0.088237 -0.395413 -0.000926 0.908206
0.028642 0.528045 0.053141 0.083438 0.58354 0.803654
-0.015644 -0.809007 0.029019 0.871188 0.348319 0.345685
0.551827 0.169603 -0.000632 0.80969 0.579342 -0.028316
-0.009384 -0.458235 -0.070057 0.73056 0.115423 -0.672826
0.564538 0.153913 0.040412 0.589 0.603407 0.510985
0.131418 0.43345 0.078744 0.386283 0.190157 0.900409
-0.124362 -0.593272 -0.002927 -0.943694 0.023131 0.329561
-0.118119 0.343126 0.006969 -0.976638 -0.142031 0.16103
0.635555 0.053351 0.023843 0.894093 0.444159 -0.0496
0.039405 -0.194732 0.028347 -0.660748 -0.208742 0.598734
-0.461015 0.197278 -0.00193 -0.78315 0.609649 0.106843
-0.050974 0.49318 -0.126885 -0.102369 0.294948 -0.944176
0.054784 -0.496783 -0.059724 -0.801591 -0.0269 -0.59692
0.106621 -0.692964 -0.091215 -0.431614 0.077175 -0.894498
0.576833 0.068288 0.030566 -0.865443 -0.484782 0.123751
-0.117527 -0.780955 -0.071757 -0.94232 -0.052773 -0.325663
0.009193 0.547024 0.034048 0.083253 0.707754 0.700038
0.198988 0.426823 0.027249 0.666902 -0.419205 0.598428
0.024276 -0.570061 -0.008355 0.904191 0.070385 0.413057
0.182792 0.183353 0.035139 0.935622 0.128773 0.314759
-0.187635 0.352415 -0.037457 0.608478 -0.788817 -0.06087
-0.035363 -0.458001 0.070597 0.298771 -0.337113 0.892205
0.111624 -0.806007 0.060873 -0.08921 0.708077 0.695139
0.197062 0.35796 -0.028936 0.986862 -0.10706 0.110122
-0.107392 -0.375969 0.09198 -0.673519 -0.074979 0.734424
0.175182 0.272283 0.036733 0.918276 0.062906 0.38874
0.150573 -0.427727 -0.092233 0.468523 0.192391 -0.860808
-0.160208 0.394668 -0.079222 0.607071 -0.627393 -0.484291
-0.296418 0.303713 0.00618 0.02174 -0.086608 0.994818
0.587012 0.046614 0.018263 0.102758 -0.897293 0.029802
0.017536 0.319208 0.119477 -0.158142 0.170631 0.970088
0.156283 -0.845602 0.163527 0.812668 0.459866 0.345005
-0.001431 0.70195 -0.072596 -0.637215 -0.5322 -0.557024
0.129538 0.176095 -0.100915 0.510548 0.045572 -0.857822
0.060528 -0.728559 -0.018774 -0.878 -0.173417 -0.435973
-0.028018 -0.466425 -0.087712 0.427547 0.115512 -0.896504
-0.048399 0.127786 -0.110299 -0.415722 0.363004 -0.833385
-0.114469 0.21629 0.042827 -0.960811 0.118193 0.246165
0.09026 0.70161 0.018305 0.955255 -0.294068 0.014425
-0.073874 0.274919 0.083407 -0.577316 0.040707 0.814535
-0.505138 0.087904 0.050756 0.660358 -0.738534 -0.053814
0.062167 -0.686242 0.024924 -0.636113 0.287271 0.7047
-0.118712 -0.273675 0.088748 -0.861803 -0.046174 0.497569
0.169003 -0.846026 0.051535 0.788524 0.613074 -0.019284
-0.120173 0.48309 -0.10676 -0.436955 0.18589 -0.878691
-0.003531 0.615948 -0.063124 -0.503538 0.602562 -0.618851
0.014972 -0.212531 0.084287 0.85674 -0.062492 0.511641
-0.127268 0.398053 -0.07808 -0.971743 -0.152906 -0.179376
-0.501942 0.09458 0.066107 0.691287 -0.65464 0.277621
0.008096 0.785905 -0.117182 -0.338918 0.235683 -0.910118
0.157227 0.075062 0.08807 0.225264 0.296358 0.925288
-0.186855 0.366689 0.002419 0.496774 -0.677052 0.541861
-0.20051 0.353429 -0.072894 0.528534 -0.690635 -0.490498
-0.028762 -0.528373 0.046984 0.373337 -0.257818 0.890484
0.082731 -0.529355 -0.086899 -0.693581 -0.073118 -0.716189
-0.039479 0.736438 -0.023183 -0.996133 -0.086006 0.004398
0.124883 -0.521484 -0.108119 -0.040507 -0.00446 -0.998957
0.386111 0.255688 -0.118468 -0.517158 -0.520907 -0.672584
0.202069 -0.000737 -0.034613 0.915935 0.118764 -0.376008
-0.162829 0.522231 -0.066722 -0.517775 0.594865 -0.614388
0.109507 0.027104 -0.150942 0.451432 0.031572 -0.889959
0.204672 0.012973 0.045744 0.967303 0.022494 0.243859
-0.014546 -0.649149 0.024635 -0.04343 0.078968 0.989529
0.44354 0.23503 -0.020448 -0.390232 0.109784 0.886345
0.061316 0.684776 -0.066073 0.548163 -0.415586 -0.719918
0.484948 0.227044 -0.006231 0.289627 0.096408 0.939027
-0.121675 0.391336 0.037026 -0.942323 -0.249056 0.218604
-0.350269 0.298465 -0.002983 -0.253936 0.459581 0.848796
0.012784 -0.213051 -0.055931 0.803666 0.008507 -0.594063
0.156838 0.145689 0.073989 0.701217 0.065366 0.70978
0.198043 -0.458693 -0.048148 0.966609 0.039069 -0.2315
-0.124479 -0.419796 -0.036375 -0.796207 0.190637 -0.568497
-0.029298 0.727788 0.017952 -0.987828 0.028097 0.148454
0.075609 0.251028 -0.136586 -0.146148 -0.10604 -0.982545
0.076434 -0.615183 0.009609 -0.767213 -0.215126 0.603705
0.182465 -0.33626 0.06859 0.793375 -0.058433 0.604828
-0.005092 -0.648917 -0.074585 0.599876 0.086828 -0.794745
0.200652 -0.242756 0.042917 0.957075 0.040175 0.285144
0.109172 -0.184619 0.097849 -0.103167 -0.142933 0.983314
0.017809 -0.527841 0.009113 0.865203 -0.106533 0.480621
0.052917 0.041931 -0.158186 -0.12617 0.250573 -0.956588
0.633278 0.059106 0.05077 0.853433 0.519103 0.012795
0.177819 -0.414674 -0.069616 0.684563 0.069289 -0.725181
0.064428 0.400687 0.098021 0.111966 0.205264 0.972267
-0.060803 0.308264 -0.119664 -0.424841 -0.015949 -0.905071
-0.100083 -0.488332 0.066002 -0.728357 -0.347458 0.587618
0.142517 -0.869061 0.04457 0.155754 -0.980809 -0.043612
0.164339 -0.839745 0.086054 0.787739 0.615723 0.01869
-0.021341 0.694962 0.018574 -0.9555 -0.290559 0.033619
0.164497 -0.547339 -0.093608 0.682774 -0.033679 -0.729851
0.106028 0.56998 -0.000382 0.397036 0.718533 0.570883
0.631648 0.03015 0.06976 -0.94918 -0.309245 -0.003048
0.207462 -0.017613 -0.017789 0.974074 0.055402 -0.21828
-0.344184 0.250665 -0.080197 0.194195 -0.411097 -0.889899
0.046795 -0.497662 -0.046089 -0.884281 -0.053615 -0.457476
0.394612 0.231333 -0.094257 -0.650847 -0.732169 -0.158551
0.087469 0.263871 0.111877 0.41794 0.080784 0.902737
-0.094406 0.418662 -0.117 -0.348442 -0.22789 -0.909187
0.136548 -0.869288 -0.094419 0.185246 -0.967915 -0.124098
0.005011 0.736494 0.071404 -0.407412 0.133454 0.899549
0.226475 0.513032 0.007996 0.412041 0.486507 0.768999
0.010857 0.054898 0.138241 0.047249 0.027029 0.994332
0.043709 -0.436227 -0.022002 -0.994797 -0.020093 0.075988
-0.058408 0.097448 -0.116448 -0.508415 0.301572 -0.806254
0.205265 -0.294826 0.020148 0.991138 -0.01287 0.116307
0.117739 -0.817515 0.081447 -0.054515 0.944264 0.321272
-0.125156 0.195674 0.021228 -0.935328 0.204157 0.284744
-0.135785 -0.081214 0.061225 -0.945069 0.008927 0.322493
-0.010224 -0.216925 -0.078912 0.538334 0.041019 -0.84158
-0.104719 -0.292322 -0.055818 -0.799092 0.011234 -0.600773
0.154074 -0.092006 0.106685 0.485229 0.002862 0.873919
-0.047456 -0.663851 -0.104993 0.365811 0.123904 -0.921352
0.169621 -0.368199 -0.067071 0.621195 0.223401 -0.750528
0.090556 0.700841 -0.013043 0.946526 -0.295429 -0.011917
-0.059325 0.51483 -0.118489 -0.184972 0.424792 -0.883045
0.006124 -0.269711 0.087449 0.548973 -0.171636 0.814925
-0.046991 -0.833862 0.129193 0.443614 0.82482 0.308464
0.06366 -0.75197 -0.024942 -0.868475 0.15425 -0.468458
0.129124 -0.208549 -0.101142 0.265415 -0.204753 -0.941197
0.43231 0.242345 -0.11462 0.447207 -0.397567 -0.798201
0.165015 0.510728 -0.128872 0.139772 0.350379 -0.924411
0.140891 -0.869437 0.106941 0.06455 -0.996606 0.019455
-0.392028 0.282843 -0.047356 -0.710612 0.702629 -0.031599
0.196384 -0.68223 -0.009171 0.959526 0.025089 0.274326
-0.125679 0.022163 0.071276 -0.837382 0.211704 0.502181
0.032002 0.658853 0.077038 -0.008532 -0.981867 0.186135
-0.139903 0.010642 0.001086 -0.971954 -0.202091 -0.114839
-0.064458 -0.793162 0.045631 -0.347186 0.514298 0.76929
-0.457225 0.150662 -0.031822 0.347429 -0.828386 -0.435885
-0.339242 0.3201 -0.010057 -0.600223 0.52408 0.597216
0.026895 0.629306 0.030966 -0.221959 -0.43736 0.862794
0.122127 0.493833 0.056238 0.23275 0.533419 0.812644
-0.03632 -0.178217 -0.092861 0.366516 -0.030074 -0.929897
0.610708 0.08579 0.007559 0.300013 0.226141 -0.919392
0.046377 -0.536567 -0.039889 -0.902495 -0.027424 -0.423306
-0.272346 0.33467 -0.096384 0.059222 -0.070227 -0.992724
0.172466 0.561085 -0.083791 0.387343 0.751431 -0.53353
0.187928 -0.18059 -0.064263 0.636926 0.018891 -0.770187
0.117456 -0.55708 -0.105931 -0.249104 -0.111432 -0.961645
0.072224 0.602221 -0.078921 0.199525 0.677099 -0.707926
-0.262095 0.373478 0.017331 -0.303795 0.096116 0.944195
0.185231 0.552955 -0.0882 0.312687 0.751396 -0.580739
0.178234 0.204728 -0.036075 0.924477 0.020022 -0.380368
0.167848 0.319284 -0.083062 0.80766 -0.271659 -0.522628
-0.339525 0.22411 -0.001763 0.439159 -0.665019 0.57766
0.054301 -0.025757 -0.146575 -0.277596 -0.383561 -0.880622
-0.132863 -0.124064 0.066964 -0.857966 0.024829 0.512187
0.193098 0.41921 0.028507 0.836803 -0.300934 0.437212
0.319733 0.31336 -0.058447 -0.537972 -0.647866 0.538911
0.155021 -0.862805 0.01447 0.268159 -0.95974 -0.083285
0.033831 0.615266 0.027435 0.01878 -0.147675 0.987006
-0.091985 0.349272 0.066039 -0.770911 -0.162471 0.613346
0.093789 0.01569 0.13098 0.194277 0.250298 0.948447
0.165026 0.497141 -0.133522 0.16082 0.295526 -0.941004
0.087443 -0.293274 -0.094513 -0.362613 0.018267 -0.923318
-0.288125 0.262603 -0.01994 0.737554 -0.554103 0.383343
-0.289517 0.318833 0.007771 -0.123821 -0.073604 0.98804
0.06925 0.440973 0.088502 0.095189 0.189882 0.976475
0.154561 -0.630932 -0.088752 0.469564 -0.149496 -0.869676
0.175489 0.554913 -0.090872 0.322389 0.750306 -0.576304
0.006695 -0.571781 0.011966 0.657999 -0.089764 0.745783
-0.112983 0.193807 -0.037051 -0.893895 0.086814 -0.439583
-0.16902 0.381402 -0.07288 0.612595 -0.655731 -0.44102
-0.129095 -0.283958 0.002675 -0.995954 -0.065141 -0.054528
-0.398102 0.181015 -0.003586 0.561205 -0.824734 0.059373
0.135849 -0.802418 0.049854 0.429343 0.574776 0.691804
0.051939 0.782846 0.084191 0.297949 -0.000752 0.937088
0.165704 -0.56502 -0.091596 0.617497 -0.054409 -0.783639
-0.274692 0.346884 -0.096356 -0.189965 0.063398 -0.975764
-0.128309 0.394815 -0.06268 -0.963728 -0.206655 -0.080995
-0.000625 0.40489 0.104016 0.106082 0.137081 0.984431
-0.522824 0.073201 0.082324 0.246238 -0.920654 0.177263
-0.001385 0.559186 0.024146 -0.163107 0.613382 0.765696
0.177489 -0.708377 -0.05233 0.783544 -0.037048 -0.617302
-0.079297 0.493316 -0.121122 -0.261784 0.268512 -0.926905
0.202686 0.493969 -0.130375 0.14727 0.269389 -0.951235
0.186207 0.177137 0.02801 0.920531 0.223675 0.312866
0.166318 0.013443 -0.105806 0.709804 0.014704 -0.676136
0.275013 0.501263 -0.047924 0.722314 0.665154 0.179582
-0.13861 -0.062006 0.046459 -0.967729 0.042516 0.248163
0.149947 -0.1007 0.108844 0.487794 -0.012872 0.87276
-0.163595 0.396582 0.018031 0.314687 -0.657741 0.677268
-0.000901 0.356488 -0.128218 0.092941 -0.019235 -0.995346
0.0876 0.725281 0.056799 0.879446 0.009919 0.454289
0.192022 0.448481 0.035736 0.556501 0.126565 0.82052
-0.114288 -0.28095 -0.040118 -0.879099 0.01137 -0.47629
0.130283 -0.86883 -0.045301 0.012348 -0.997769 0.065132
0.046224 -0.598881 -0.033534 -0.985628 -0.035188 -0.114923
-0.124668 0.045196 0.064636 -0.888672 0.219565 0.400056
-0.044771 -0.454442 -0.092754 0.211483 0.149896 -0.963419
0.276548 0.386122 -0.141814 -0.271706 -0.174757 -0.937304
0.03379 0.0352 0.137161 0.099492 0.203939 0.971624
0.152574 0.227796 -0.082315 0.801468 -0.11861 -0.58588
-0.097186 -0.700984 0.019226 -0.306733 -0.433028 0.836474
0.111405 -0.86433 0.153754 -0.084489 -0.9844 0.152992
-0.035803 0.796187 -0.006416 -0.995978 -0.002222 0.087987
0.033857 -0.046071 -0.129814 -0.263004 -0.487712 -0.832089
-0.367463 0.238119 0.01012 0.053634 0.010992 0.998308
0.001931 0.588647 -0.089944 -0.116715 0.588798 -0.798862
0.008006 0.588679 0.01989 -0.462826 0.122998 0.876763
0.174306 -0.852005 0.066722 0.906061 0.388292 -0.014048
-0.125113 -0.524204 0.013864 -0.845021 -0.123701 0.519629
-0.124198 0.390655 -0.084283 -0.86646 -0.245659 -0.428994
0.297227 0.368352 -0.138769 -0.170314 -0.408275 -0.896334
-0.160983 0.480838 0.055034 -0.244082 0.108333 0.962233
0.158234 -0.305493 -0.072085 0.607487 -0.006564 -0.794068
0.538711 0.131633 0.025917 -0.698034 -0.671215 0.208936
-0.507479 0.085721 0.065046 0.697343 -0.691678 0.106378
0.195461 -0.411916 0.031624 0.949777 -0.063215 0.305927
0.020193 -0.707726 -0.026809 0.909149 -0.128524 0.393489
-0.076148 0.032378 0.112744 -0.384715 0.332879 0.859038
-0.3429 0.305917 -0.004149 -0.356033 0.392661 0.846851
-0.000522 0.337727 0.112824 -0.038208 0.055773 0.997252
0.003405 -0.208983 0.099577 0.64773 -0.113463 0.751508
-0.508613 0.135489 0.004708 -0.921754 0.312291 -0.182153
-0.38724 0.287615 -0.03825 -0.700929 0.711421 0.044855
-0.095556 0.091359 0.084556 -0.548248 0.078371 0.818375
0.073629 0.4626 -0.139624 -0.368747 0.121459 -0.919751
-0.10444 0.449189 -0.118625 -0.375653 -0.03747 -0.923613
0.037811 -0.081452 0.111916 0.078242 -0.55046 0.828148
-0.043519 0.556827 0.02527 -0.169436 0.763632 0.621278
0.121374 -0.212334 0.093147 0.078317 -0.203878 0.975029
0.165243 0.150054 -0.067076 0.823452 0.038432 -0.564341
0.059296 -0.755886 0.003555 -0.996734 -0.044976 0.016953
0.078308 0.065419 0.128249 0.429959 0.069339 0.899606
-0.092084 -0.208376 0.111066 -0.194697 -0.046828 0.979693
-0.09 -0.383538 -0.072681 -0.686046 -0.058038 -0.673505
-0.286732 0.346392 -0.091942 -0.413919 0.303953 -0.856068
0.073455 -0.050334 -0.140947 -0.203646 -0.414901 -0.886037
-0.04923 0.541236 -0.10865 -0.304757 0.455445 -0.835784
0.12808 -0.268469 0.08399 0.05301 -0.085501 0.994594
0.01233 -0.611785 0.009948 0.636222 0.088396 0.764544
0.031467 0.24383 -0.125534 -0.045511 0.007761 -0.998582
-0.013765 -0.743604 0.001884 0.272156 -0.73003 0.620083
0.130978 0.543173 0.016102 0.238688 0.676731 0.695567
-0.072752 -0.164963 -0.093528 -0.570411 -0.149257 -0.807065
-0.125866 -0.3169 0.046277 -0.988734 -0.065644 0.133092
-0.119026 0.016807 0.085244 -0.815115 0.231475 0.53057
-0.105001 -0.860242 0.058353 -0.604147 -0.779465 0.004979
0.022491 -0.069932 0.118055 0.246723 -0.282287 0.924443
-0.014353 -0.589823 0.026736 0.273165 -0.129787 0.946528
-0.003754 0.276237 0.119515 -0.324511 0.073731 0.942828
0.091188 -0.071402 0.117274 -0.077537 -0.580531 0.808897
0.05761 0.31627 -0.135641 -0.38005 -0.031488 -0.924377
-0.144093 -0.073752 0.005786 -0.999441 0.012054 -0.021688
0.111311 0.321687 0.097877 0.357632 0.110174 0.926575
-0.328339 0.322464 -0.003769 -0.462533 0.420485 0.77542
-0.50961 0.085449 0.042071 0.590014 -0.748159 -0.257844
0.032221 0.695249 0.091118 -0.0951 -0.180078 0.975349
0.132927 -0.86992 0.08423 0.006005 -0.999907 0.010047
-0.427799 0.196371 -0.053394 -0.35543 0.052301 -0.930053
0.166646 0.286488 -0.068516 0.894714 -0.174875 -0.410517
-0.13318 -0.050309 0.065025 -0.869005 0.034723 0.489524
-0.118936 0.378084 -0.086815 -0.85297 -0.209041 -0.474155
-0.250041 0.439982 -0.0306 -0.744505 0.666179 0.035242
0.074617 0.501303 0.064567 0.110116 0.476293 0.870748
-0.173776 0.531896 0.006702 -0.642013 0.726618 0.242467
0.15301 -0.440031 0.070651 -0.087154 -0.098729 0.983951
0.170305 0.300816 0.047881 0.73295 -0.016847 0.678634
-0.123196 -0.365004 0.062351 -0.980876 -0.05313 0.185735
-0.033666 0.148216 0.117221 -0.474642 0.016062 0.879983
0.292705 0.367873 -0.021838 0.058166 -0.498472 0.845546
0.13242 0.52742 0.02971 0.255498 0.634123 0.729655
0.197132 -0.438193 0.017752 0.971469 -0.097733 0.213599
0.214081 -0.1048 -0.00813 0.995052 0.03117 -0.090082
-0.127866 -0.331994 -0.010844 -0.995518 -0.004798 -0.083943
-0.121627 -0.236033 -0.028017 -0.879772 -0.024415 -0.47433
0.10903 0.351029 -0.14256 0.336766 -0.106017 -0.934902
0.13153 -0.143023 0.109471 0.191096 -0.19635 0.960938
-0.194558 0.417248 0.033582 0.231613 -0.366616 0.900001
0.020198 0.826216 0.065914 -0.330212 0.525616 0.778671
0.14925 0.408281 -0.134498 0.344918 -0.268537 -0.898218
0.15966 -0.82965 0.053706 0.893773 0.442884 0.06293
-0.027294 0.459769 0.08837 -0.141141 0.321333 0.93541
-0.012342 0.768482 0.061094 -0.842162 -0.083466 0.526843
0.054803 -0.478841 -5.4e-05 -0.664656 0.00107 0.740114
0.126817 -0.000389 -0.143595 0.408332 0.133951 -0.90115
-0.102933 0.134484 0.06699 -0.753754 0.077405 0.651659
-0.381228 0.225496 -0.073718 -0.114506 -0.298066 -0.945365
0.135454 -0.11644 -0.116448 0.462039 -0.242623 -0.852865
0.468831 0.186983 -0.02598 -0.524616 -0.851077 0.000803
-0.021535 0.817115 0.023775 -0.866823 0.261246 0.423136
0.008014 0.206002 0.129019 -0.074472 0.066142 0.994979
0.277606 0.499221 -0.068702 0.713788 0.695291 -0.076677
0.183549 -0.248255 0.071665 0.612045 -0.060726 0.785313
-0.085504 -0.587646 0.05857 0.140096 -0.202484 0.96476
0.421754 0.264216 -0.034228 -0.020985 0.348677 0.93581
0.048157 0.528349 0.05115 0.079715 0.546491 0.833029
0.433127 0.212409 -0.109438 0.305832 -0.211462 -0.832395
-0.144295 -0.093384 0.010764 -0.999877 0.012485 0.000811
-0.562534 0.052542 -0.004689 -0.413731 0.454019 -0.595604
-0.035786 0.76634 -0.061555 -0.982879 -0.068095 -0.169511
0.093611 0.819421 0.005075 0.806416 0.554003 0.202615
0.025741 0.865174 -0.033402 -0.16779 0.968484 -0.180128
0.16987 -0.018 0.092848 0.691286 0.093084 0.715637
0.192132 -0.356635 -0.044642 0.690038 0.267726 -0.667351
0.038208 -0.338239 0.000841 -0.868223 -0.162688 0.463675
0.013479 0.360454 -0.127295 0.039585 -0.036876 -0.998417
0.105735 0.555848 0.016559 0.414945 0.644746 0.635409
0.161969 -0.858054 -0.049755 0.870033 -0.456762 0.046643
-0.070691 -0.301654 -0.086429 -0.504181 -0.087668 -0.85557
0.610755 0.060741 0.066729 -0.721892 -0.689752 -0.025285
0.045035 -0.217176 0.049761 -0.938892 -0.082927 0.316654
0.234655 0.542472 -0.048976 0.66547 0.744537 0.042053
-0.136793 0.013114 0.052071 -0.962641 0.080172 0.240379
0.012984 -0.173147 -0.052012 0.826853 0.05512 -0.559658
0.052841 -0.14956 0.069469 -0.745075 0.038116 0.654059
0.061837 -0.220755 0.072457 -0.683039 -0.103929 0.722815
-0.121277 0.215742 -0.002815 -0.970176 0.221103 -0.037209
-0.213011 0.347029 -0.001227 0.460254 -0.645131 0.603501
0.391003 0.233714 -0.082411 -0.700415 -0.708843 0.017782
0.199212 -0.612267 -0.038231 0.998285 -0.036114 -0.042465
-0.053425 -0.327308 -0.089385 -0.073525 -0.046156 -0.994608
-0.052618 0.032782 0.122418 -0.405002 0.211328 0.887396
0.568799 0.151166 0.014968 0.740751 0.67146 -0.011365
0.491814 0.236322 -0.030042 0.663206 0.742428 0.083751
-0.109211 -0.115975 0.102006 -0.685244 0.042684 0.726704
0.029381 0.53527 0.04636 0.052105 0.794015 0.604861
-0.111995 0.543079 -0.07829 -0.397059 0.663316 -0.633431
0.135087 -0.723231 0.014886 0.427185 0.022427 0.898768
0.014626 0.103145 -0.135642 -0.16487 0.280157 -0.944801
-0.04886 0.251844 -0.121683 -0.515601 -0.098447 -0.851109
-0.137353 -0.468725 0.002706 -0.980924 -0.031872 0.190541
0.049723 0.292 0.121313 0.123456 0.10502 0.98645
0.25199 0.50433 -0.101281 0.517835 0.611732 -0.597067
-0.114308 -0.218635 -0.042351 -0.881141 -0.051658 -0.469899
0.139836 -0.860353 -0.108832 0.615011 -0.461828 -0.626672
0.195798 -0.427561 -0.048453 0.88768 0.099034 -0.442451
-0.07854 0.225676 0.083967 -0.595825 0.118869 0.794187
0.411458 0.218676 -0.098161 -0.590713 -0.80335 -0.066807
0.205483 -0.332192 -0.007133 0.993904 0.029203 -0.102592
0.204784 -0.017691 0.045463 0.90722 0.102507 0.402371
0.190397 0.127827 0.035228 0.86892 0.028487 0.493408
-0.129519 -0.530498 -0.054053 -0.889004 0.04082 -0.454826
0.102218 0.03239 0.124439 0.472845 0.33328 0.812464
0.199927 -0.425041 -0.031131 0.987571 -0.025205 -0.153221
-1.1e-05 -0.151621 0.109981 0.604055 -0.140416 0.783793
0.066329 -0.48718 -0.072365 -0.719124 0.01013 -0.694621
0.587669 0.063402 0.046042 0.772054 -0.330177 0.469522
-0.346815 0.223223 -0.061176 0.460878 -0.720507 -0.505736
-0.047226 -0.741083 0.022218 0.45072 -0.593665 0.662386
0.066577 0.741971 0.072227 0.353806 0.244903 0.894637
-0.126329 0.028278 -0.055012 -0.91334 0.094071 -0.394095
-0.251212 0.358434 0.017543 0.042069 -0.195711 0.976304
-0.001546 -0.740589 -0.096369 0.725288 0.160144 -0.668704
-0.021204 0.694486 0.004417 -0.945309 -0.319656 -0.027407
0.094554 0.481915 0.071119 0.198592 0.475482 0.854662
-0.035005 0.433912 -0.130674 0.0024 -0.076402 -0.996376
-0.451059 0.17275 0.033353 0.051047 0.722665 0.6892
0.081577 0.695794 -0.049204 0.848215 -0.377756 -0.362813
0.04568 -0.506477 -0.019095 -0.766091 -0.000546 0.526244
0.107641 0.306926 -0.138319 0.33133 -0.070819 -0.939452
-0.020049 0.061625 -0.139945 -0.244617 0.272426 -0.929935
-0.042268 0.235863 0.106872 -0.506343 0.024883 0.860468
-0.115748 0.424186 -0.109194 -0.487882 -0.281408 -0.826152
0.548282 0.112258 0.003972 -0.948945 -0.3143 0.022893
-0.094125 -0.826066 0.055994 -0.736444 0.666088 0.113395
-0.183757 0.522573 0.006975 -0.702615 0.681471 0.203335
-0.120516 0.347506 -0.018462 -0.996819 -0.071787 0.026955
-0.293004 0.261409 -0.011478 0.78655 -0.443341 0.407107
-0.053639 -0.630118 -0.104522 0.235069 0.052993 -0.969412
-0.013477 0.010702 0.139029 -0.206118 0.194023 0.958295
-0.036626 0.4442 0.090944 -0.172844 0.251942 0.950607
0.095228 -0.180716 -0.103984 -0.256056 -0.177056 -0.949302
0.053412 0.565518 0.021732 0.298224 0.183533 0.927807
-0.07797 0.580544 -0.041046 -0.453337 0.880568 -0.095781
-0.103076 0.241691 -0.070637 -0.784695 -0.331394 -0.522266
-0.064612 -0.861912 -0.027233 0.028147 -0.998173 -0.050581
0.297112 0.324293 -0.076328 -0.671638 -0.733908 0.082195
0.119262 0.403009 0.087605 0.332721 0.129289 0.932457
0.129939 -0.052821 0.11525 0.317169 -0.044783 0.946353
0.12234 -0.525042 0.045441 -0.474861 -0.107836 0.872138
-0.083858 -0.863251 0.117282 -0.041848 -0.998868 0.020058
-0.009798 0.692752 -0.052612 -0.805323 -0.412446 -0.416919
-0.247729 0.313666 -0.073175 0.672017 -0.502794 -0.54225
-0.055704 -0.864287 0.071784 -0.004001 -0.999987 0.00119
-0.100312 -0.3932 0.094192 -0.33645 -0.203793 0.909362
0.08782 -0.363187 0.06021 -0.488496 -0.312297 0.814341
-0.082784 -0.860943 -0.049363 -0.138993 -0.987238 0.019357
-0.02387 -0.465171 0.064835 0.428695 -0.275813 0.858484
-0.093609 -0.236066 0.109401 -0.340385 -0.038322 0.939158
-0.402425 0.271279 -0.033155 -0.747413 0.657757 0.085757
-0.419865 0.236797 -0.056277 -0.748713 0.277357 -0.595052
0.083012 0.825134 0.030963 0.821717 0.30405 0.481535
0.219589 0.514755 -0.115818 0.369282 0.576634 -0.727701
-0.100181 -0.802704 -0.10514 -0.83212 -0.116541 -0.539897
0.163664 0.43441 -0.137415 0.188411 -0.19639 -0.962069
-0.135649 -0.463206 0.012736 -0.962168 -0.077835 0.254039
-0.073348 -0.350976 -0.082631 -0.398614 -0.019675 -0.915051
-0.022326 0.11924 0.122188 -0.40383 0.075935 0.910192
-0.054089 -0.030901 0.12856 -0.205078 0.080627 0.975012
-0.2237 0.473529 -0.039998 -0.759492 0.569437 -0.305004
-0.136401 -0.53115 -0.029628 -0.998933 -0.022814 -0.021332
0.093668 0.247071 0.111264 0.341657 0.080326 0.936269
0.143602 -0.311617 -0.083173 0.578058 0.032215 -0.814937
0.03391 -0.07749 -0.109779 -0.578958 -0.471235 -0.664408
-0.123451 0.377696 -0.076129 -0.906571 -0.27508 -0.313957
-0.082084 -0.62163 0.048428 0.357044 -0.257411 0.88527
-0.302331 0.347597 -0.080814 -0.545829 0.578028 -0.602239
-0.092562 -0.272327 0.108175 -0.212429 -0.056746 0.975449
0.011022 0.604332 -0.079438 -0.13043 0.629737 -0.764881
0.14106 -0.325099 0.080039 0.10015 -0.062952 0.992799
0.130584 0.24189 -0.115816 0.692955 -0.202696 -0.690909
0.138686 -0.219627 0.09045 0.052626 -0.17757 0.982611
0.56719 0.08396 0.036701 -0.85675 -0.495178 0.131507
-0.138372 -0.032806 -0.02127 -0.976587 0.123213 -0.168112
0.068998 0.218901 -0.128961 -0.157189 -0.284038 -0.94525
0.103466 -0.848345 0.1625 -0.805362 0.27263 0.525634
0.071273 0.11607 -0.135166 0.067644 0.400206 -0.913335
-0.082224 -0.067149 0.116451 -0.536328 0.004431 0.842964
-0.125308 -0.344921 0.047458 -0.990218 0.052007 0.128615
0.149968 0.44119 0.067764 0.601079 0.14409 0.784016
0.14244 -0.39589 -0.09261 0.519104 0.133571 -0.843902
-0.137628 -0.185142 0.037613 -0.99189 -0.064838 0.092454
