-0.097186 -0.700984 0.019226 -0.306733 -0.433028 0.836474
-0.261883 0.413306 -0.069888 -0.569295 0.656485 -0.493843
0.199625 -0.443756 -0.031941 0.997356 0.010965 -0.066294
-0.136573 0.402693 0.001553 0.04986 -0.877122 0.325009
-0.229393 0.469099 -0.030339 -0.786972 0.611012 -0.07965
0.010762 -0.486389 0.027206 0.775169 -0.155125 0.612143
-0.036149 0.798129 -0.053586 -0.995874 -0.025221 -0.083637
0.006957 0.553297 -0.110194 -0.00736 0.430687 -0.902086
0.187837 -0.217173 -0.06253 0.630232 -0.036345 -0.774672
-0.235952 0.31601 -0.022345 0.72288 -0.665827 0.17743
0.097357 0.229906 -0.133124 0.220987 -0.298991 -0.919666
-0.27416 0.390149 0.00454 -0.655868 0.402722 0.636964
0.321261 0.433059 -0.115087 0.539239 0.663257 -0.518712
0.203881 -0.398765 0.00858 0.955127 -0.080757 0.279414
-0.122194 0.024468 -0.064202 -0.89349 0.086726 -0.439515
-0.129501 -0.415852 0.04225 -0.948694 0.006802 0.312024
0.132169 0.539651 -0.121549 0.176901 0.476272 -0.86107
-0.059875 0.045344 0.115827 -0.39262 0.214763 0.890352
0.185443 0.135706 0.044196 0.820657 0.060518 0.56733
0.130405 0.08468 0.102703 0.316934 0.149645 0.928222
0.003184 0.237676 0.125318 -0.391454 0.094842 0.911702
-0.12908 -0.49274 -0.049953 -0.849912 0.070577 -0.521835
-0.005581 0.396261 -0.129158 0.05308 6.2e-05 -0.998552
0.111473 -0.834131 0.16498 -0.52267 0.717378 0.433567
0.073993 0.362976 -0.143098 -0.262425 -0.01361 -0.96224
-0.11807 -0.795977 -0.036118 -0.887824 -0.422663 0.130502
0.189984 -0.36904 0.051484 0.912574 -0.043839 0.404344
0.235897 0.508823 0.002317 0.658288 0.347775 0.665385
0.153011 -0.172776 0.097463 0.168562 -0.173948 0.96968
-0.101886 0.525921 -0.098067 -0.347101 0.541205 -0.765841
-0.545085 0.062401 0.038336 0.550552 -0.831292 -0.059447
-0.126123 -0.654282 -0.073011 -0.918637 -0.012563 -0.376569
-0.008262 -0.805517 0.000126 0.929604 0.137887 0.341007
0.154561 -0.630932 -0.088752 0.469564 -0.149496 -0.869676
0.119736 -0.729594 0.022398 0.427328 0.283482 0.842346
0.188912 -0.016432 -0.0722 0.872677 0.052108 -0.481691
-0.082082 0.295499 0.077533 -0.603859 -0.01233 0.796584
-0.112743 0.280677 -0.021709 -0.997223 -0.069866 0.021182
0.166318 -0.524395 -0.093133 0.655581 -0.036781 -0.754148
0.189983 0.150161 0.033537 0.871335 0.157256 0.463732
0.088 -0.185917 0.092059 -0.406 -0.047193 0.912072
0.129422 0.366375 -0.135972 0.457646 -0.16131 -0.872057
-0.109378 -0.003996 -0.089735 -0.824812 -0.001154 -0.565103
-0.129259 0.074182 0.003355 -0.978035 0.175066 0.008372
-0.128373 0.171263 -0.001979 -0.996783 -0.002173 -0.061017
0.095408 0.603509 -0.062356 0.653119 0.718732 -0.220412
0.350111 0.361402 -0.058309 0.594179 0.543322 0.587732
-0.172631 0.497249 0.044718 -0.495519 0.336446 0.799739
0.166023 0.06419 0.088978 0.496407 0.227798 0.81947
0.022247 -0.47844 0.007434 0.906344 -0.107159 0.407985
-0.118593 0.56055 0.002121 -0.264314 0.877906 0.38434
-0.024902 -0.847335 -0.057444 0.686267 -0.721167 0.059357
-0.274238 0.395674 -0.079163 -0.49672 0.515528 -0.696547
-0.065356 -0.170504 0.120057 -0.240354 -0.074055 0.966152
0.094386 -0.719297 0.035544 0.250096 -0.070267 0.962375
-0.085042 0.215007 -0.076747 -0.772647 -0.181756 -0.601218
0.206927 -0.103332 0.045828 0.93456 -0.026734 0.354706
0.120243 0.16894 0.102919 0.532804 0.024232 0.845105
-0.110567 0.361573 0.044435 -0.85886 -0.285999 0.422862
-0.128669 0.396111 -0.014559 -0.936353 -0.311247 0.008005
0.035697 -0.304275 -0.02608 -0.975468 -0.049378 -0.205723
0.16849 -0.858195 0.026333 0.809825 -0.491255 -0.218998
0.06287 0.247454 -0.133096 -0.367853 -0.148128 -0.917715
-0.064797 -0.253272 0.111882 0.025455 -0.095977 0.994751
-0.374193 0.218744 -0.070926 0.16981 -0.479036 -0.858646
-0.1361 -0.222712 0.015626 -0.997732 -0.035009 -0.057373
-0.111511 0.174184 -0.043551 -0.886566 0.075443 -0.45589
0.041972 0.619473 -0.072764 0.027526 0.470607 -0.880695
-0.073945 -0.800159 -0.137148 -0.64495 -0.133085 -0.744266
0.460534 0.196712 -0.005707 -0.724683 -0.328387 0.538554
0.182906 -0.110909 -0.074098 0.786345 -0.081491 -0.611896
0.279895 0.352415 -0.041904 -0.224617 -0.794323 0.562893
0.138686 -0.219627 0.09045 0.052626 -0.17757 0.982611
0.201028 -0.515419 -0.001203 0.935295 -0.007491 0.352952
-0.146515 0.40572 0.017555 0.51546 -0.732655 0.440078
0.28484 0.334493 -0.095599 -0.629877 -0.76278 -0.141904
0.209472 0.547425 -0.084326 0.333878 0.78641 -0.51533
0.075527 -0.719722 0.035795 -0.056303 -0.040943 0.995748
-0.121638 -0.307294 0.076456 -0.969763 -0.089065 0.224624
-0.082784 -0.860943 -0.049363 -0.138993 -0.987238 0.019357
-0.134822 -0.53683 -0.042689 -0.95019 0.001378 -0.277172
-0.044477 0.22438 0.106002 -0.522101 0.048589 0.850888
0.014738 -0.479331 -0.041468 0.824501 0.046093 -0.563221
0.240333 0.418108 -0.009953 0.204743 -0.505744 0.823008
-0.050529 -0.861955 -0.068597 0.073227 -0.993525 0.074199
-0.039217 -0.064371 -0.119963 -0.056712 -0.321851 -0.944699
0.153405 0.289864 -0.093513 0.855429 -0.126211 -0.501834
-0.078048 -0.535336 -0.099487 -0.267277 0.099794 -0.958359
0.082521 0.298713 -0.141377 -0.094369 -0.108839 -0.985951
-0.027148 0.084264 -0.133222 -0.256536 0.314713 -0.912888
0.059286 -0.003036 0.140116 0.080514 -0.401289 0.909872
0.097907 -0.524266 0.032432 -0.505852 0.044742 0.861173
-0.335172 0.224147 -0.01032 0.491344 -0.851509 0.170517
-0.123215 -0.362795 -0.037767 -0.877284 0.075064 -0.469613
0.021535 -0.275884 0.059509 0.92899 -0.056882 0.362515
0.051962 -0.310481 0.045421 -0.777042 -0.102057 0.619752
0.331393 0.389769 -0.051194 0.891583 -0.238912 0.370247
0.464921 0.223688 -0.080091 0.484838 -0.333684 -0.803593
0.320022 0.447686 -0.069642 0.743009 0.641738 0.177656
0.022942 -0.391349 0.018368 0.921929 -0.2303 0.307771
-0.136486 -0.419444 0.014816 -0.990576 0.03054 0.12906
-0.091273 0.556483 0.016129 -0.042326 0.793082 0.606856
0.100134 -0.081621 0.112131 -0.244794 -0.442764 0.850925
-0.125746 -0.375357 0.044562 -0.985608 -0.034907 0.162619
-0.105708 -0.346793 -0.058436 -0.753999 0.086537 -0.650984
0.05063 0.211156 -0.122223 -0.111384 -0.402728 -0.906053
0.210772 0.412464 -0.071437 -0.115863 -0.983032 0.016038
-0.066685 -0.835434 0.154846 0.215736 0.819775 0.506838
-0.026435 0.110822 -0.125403 -0.243661 0.350909 -0.903502
0.165331 -0.185614 -0.08312 0.62593 -0.05213 -0.778043
0.158076 -0.456046 -0.094408 0.487404 0.161281 -0.857648
-0.104737 -0.670865 -0.09539 -0.552093 -0.037235 -0.832506
0.172124 -0.15274 -0.07994 0.684469 -0.091754 -0.723223
-0.138088 0.400214 -0.035184 0.314 -0.880168 -0.035231
-0.160695 0.387204 -0.069027 0.669118 -0.624323 -0.401937
-0.000364 0.861612 -0.026542 -0.440972 0.888572 -0.083352
0.203994 -0.254758 -0.024166 0.987594 -0.034252 -0.146101
-0.111448 -0.436889 0.071117 -0.774161 -0.159764 0.611422
-0.081497 -0.829569 0.119276 -0.317714 0.928786 0.170961
-0.021672 -0.537914 0.041396 0.405754 -0.192808 0.888952
-0.049043 0.589577 -0.055948 -0.260383 0.948857 -0.093199
0.053374 -0.520226 -0.054917 -0.874866 -0.074801 -0.47795
0.373634 0.249463 -0.078363 -0.72866 -0.678831 0.084382
0.086325 0.789389 0.050433 0.812504 0.350177 0.458241
-0.1341 -0.139745 0.065732 -0.90119 0.03083 0.419245
-0.054633 0.205547 -0.104421 -0.528815 -0.311004 -0.789195
-0.051592 -0.189437 0.121652 -0.016154 -0.110909 0.991624
-0.041048 0.46295 0.08442 -0.187845 0.438603 0.869035
0.061837 -0.220755 0.072457 -0.683039 -0.103929 0.722815
-0.125594 -0.35576 -0.030679 -0.963644 0.079637 -0.25332
0.01316 0.297027 0.121568 -0.11928 0.104247 0.986722
-0.015644 -0.809007 0.029019 0.871188 0.348319 0.345685
-0.020717 -0.823417 0.041615 0.848312 -0.412445 0.300001
-0.129128 0.10019 0.007689 -0.995269 -0.091249 0.02078
-0.105108 -0.612475 0.043418 -0.889162 -0.04918 0.450737
-0.077552 0.008544 -0.123847 -0.573574 -0.040004 -0.817585
0.085681 -0.43233 -0.089033 -0.633589 0.004635 -0.773291
0.157733 -0.219379 -0.08421 0.567078 -0.105826 -0.816601
0.048747 -0.51393 -0.047153 -0.875128 -0.094751 -0.474413
-0.049491 -0.739062 -0.124156 0.2132 0.336057 -0.909485
-0.116295 0.113788 -0.047868 -0.86436 0.098573 -0.490328
0.295543 0.459976 -0.034557 0.740453 0.328911 0.582393
-0.133693 0.040891 -0.026627 -0.95926 0.158568 -0.230057
0.073126 -0.781263 0.03079 -0.545828 0.136302 0.814191
-0.418508 0.178846 0.027209 0.138001 0.173777 0.919931
0.088929 -0.560058 0.028513 -0.542858 -0.021492 0.837759
0.041279 0.428483 0.093755 0.116334 0.323225 0.938454
0.062104 0.501076 -0.129575 -0.18904 0.094677 -0.977102
-0.111858 -0.846701 0.065512 -0.923276 0.191153 0.06928
-0.097555 0.30571 -0.090896 -0.724475 -0.115998 -0.678404
-0.075423 -0.062386 -0.111047 -0.268039 -0.219617 -0.934182
0.294322 0.466155 -0.101655 0.588906 0.643597 -0.488651
-0.199541 0.381461 -0.094476 0.163752 -0.334376 -0.919283
0.155376 -0.711028 0.007616 0.462803 -0.445055 0.765557
0.211345 -0.137182 -0.019526 0.941669 -0.179527 -0.245028
0.186623 -0.474852 0.043623 0.915407 -0.075051 0.395123
-0.102246 -0.593839 0.050699 -0.757668 -0.051106 0.63006
-0.096761 0.541643 -0.088597 -0.384073 0.594793 -0.705321
-0.034283 -0.639106 0.024704 0.205934 -0.056883 0.97515
-0.244653 0.430884 -0.067188 -0.56344 0.618271 -0.54364
0.177568 0.194701 -0.038035 0.92815 0.026852 -0.370994
0.171388 0.385629 0.050483 0.738716 -0.061328 0.670553
-0.109907 -0.167922 0.102944 -0.670803 -0.018929 0.741247
0.428046 0.283599 -0.044806 0.280068 0.545442 0.789116
-0.008795 -0.192243 -0.076865 0.612207 0.009784 -0.790541
0.025467 -0.020526 0.132002 -0.23314 -0.484362 0.814817
0.026342 -0.50879 -0.004585 0.965073 -0.059319 0.206949
0.135849 -0.802418 0.049854 0.429343 0.574776 0.691804
-0.087329 0.173528 0.080867 -0.663213 -0.010113 0.748247
0.370999 0.281486 -0.041287 -0.399093 -0.296856 0.84901
0.05635 -0.01563 0.134444 0.073287 -0.332184 0.940278
0.151641 -0.26936 0.08236 0.131831 -0.071611 0.988165
0.198796 -0.227747 -0.049761 0.821995 -0.117012 -0.550566
0.175101 0.301432 0.038196 0.949014 0.013599 0.314345
-0.074389 0.092549 0.099116 -0.555411 -0.055027 0.823978
0.08603 -0.653652 -0.07544 -0.693596 -0.056791 -0.717899
0.134716 -0.182661 0.097548 0.09365 -0.183767 0.977468
0.079601 -0.792459 -0.07322 -0.841597 0.22424 -0.489729
0.197361 -0.202494 0.050963 0.945559 -0.046818 0.321027
-0.053639 -0.630118 -0.104522 0.235069 0.052993 -0.969412
-0.082035 0.577061 -0.032218 -0.522803 0.825622 0.102025
0.448578 0.288368 -0.086251 0.720578 0.682798 -0.105588
0.044524 0.850101 -0.075718 0.116653 0.820873 -0.556984
0.185908 -0.534409 -0.073636 0.750518 -0.030293 -0.659917
-0.179714 0.358781 -0.022022 0.606205 -0.754963 0.245287
0.264838 0.48205 -0.011398 0.564749 0.365364 0.733244
0.047929 0.29513 -0.130953 -0.336124 -0.019107 -0.941252
0.064089 -0.335448 -0.073718 -0.770656 -0.053446 -0.634951
0.200515 0.403335 -0.01511 0.961026 -0.236126 0.134163
-0.114425 0.148472 0.048839 -0.837969 0.076059 0.538655
0.005975 0.72689 0.073103 -0.504873 0.148891 0.846187
-0.136925 -0.419414 -0.006856 -0.987896 0.081354 -0.125016
0.139977 0.002379 0.116165 0.456454 -0.147627 0.865698
-0.129654 -0.523628 0.0042 -0.896421 -0.143948 0.416572
0.405791 0.26791 -0.128087 0.0019 -0.068506 -0.994936
0.186061 0.524472 0.013344 0.27342 0.542127 0.794138
-0.131392 0.029203 0.058089 -0.857574 0.179807 0.480166
0.199604 0.049137 -0.034252 0.9686 0.081713 -0.234142
0.089496 -0.861895 -0.083591 -0.858434 -0.442857 -0.14602
0.089189 0.192241 -0.118931 0.197133 -0.329391 -0.921072
0.173699 0.482532 0.037359 0.59022 0.277906 0.754168
0.053773 -0.625667 -0.044382 -0.869422 -0.114129 -0.476144
0.114488 -0.843654 -0.117072 -0.423112 0.021785 -0.905572
-0.127692 0.074247 0.030789 -0.977033 0.150462 0.145411
-0.362419 0.309724 -0.035286 -0.625658 0.766392 0.136194
0.201791 -0.513784 -0.039007 0.957794 0.075194 -0.276573
0.597598 0.069365 0.046635 -0.300938 -0.920346 0.170072
-0.042027 -0.222986 -0.091688 0.126328 0.008242 -0.991018
-0.098337 0.151974 -0.068762 -0.729531 0.177556 -0.65945
-0.109723 -0.244724 -0.04936 -0.838569 -0.023139 -0.543653
-0.040419 0.331641 -0.127566 -0.205055 0.008783 -0.976846
-0.133033 -0.514341 0.001382 -0.854079 -0.174862 0.484466
0.311943 0.411193 -0.032238 0.71638 0.238339 0.652453
0.180191 0.389284 0.041413 0.773303 -0.152634 0.613198
-0.097083 -0.298508 -0.064777 -0.722719 -0.011422 -0.690931
0.007294 0.788804 0.08002 -0.405969 0.253682 0.873095
-0.109198 -0.11109 -0.069207 -0.754405 -0.099019 -0.64884
0.158125 -0.164599 0.097715 0.245844 -0.144869 0.956929
-0.038717 0.59141 -0.039584 -0.475459 0.871834 0.080526
-0.076984 -0.328727 0.104666 0.088918 -0.084037 0.992312
0.158599 -0.277784 -0.074107 0.56303 -0.140918 -0.814046
0.259975 0.367333 -0.123456 -0.491037 -0.668299 -0.554659
0.098438 0.27217 0.106933 0.337248 0.073031 0.93745
0.25451 0.515863 -0.084309 0.585758 0.68027 -0.439761
0.074531 -0.807727 0.01815 -0.906813 -0.166786 0.383835
0.536205 0.159181 -0.030384 0.581929 -0.206856 -0.783295
0.135254 0.515337 0.038754 0.375498 0.613993 0.693534
-0.115822 -0.004988 0.088645 -0.77537 -0.247905 0.576458
-0.347643 0.289022 0.001767 -0.04876 0.287468 0.954501
0.195574 -0.218037 -0.054965 0.727508 -0.036976 -0.683887
-0.065147 -0.713675 0.012157 0.003024 -0.075258 0.994497
0.206934 -0.203116 0.006442 0.997943 -0.047471 0.041901
-0.144997 0.427672 -0.093092 -0.118981 -0.462659 -0.864129
0.565369 0.155016 0.024537 0.738539 0.67313 0.032614
-0.11441 -0.306292 -0.041825 -0.864637 0.055405 -0.498499
0.56719 0.08396 0.036701 -0.85675 -0.495178 0.131507
0.209694 -0.031629 0.031896 0.947559 0.015555 0.319076
-0.11981 0.22356 -0.013886 -0.990015 0.113334 -0.069557
0.115553 -0.804652 -0.118776 -0.21803 0.167168 -0.956494
-0.096206 -0.565993 0.056353 -0.735217 -0.054654 0.65916
-0.040854 0.385606 -0.128435 -0.141192 -0.03236 -0.988306
0.139304 -0.830717 0.152572 0.394095 0.899246 0.183519
0.148144 0.467093 -0.143216 0.165698 0.071069 -0.983364
-0.137234 -0.009098 -0.019678 -0.995352 0.035942 -0.087841
0.290028 0.458639 -0.11491 0.498472 0.637164 -0.587371
0.243691 0.473574 0.001756 0.394641 -0.055464 0.91489
0.074704 0.260865 0.118527 0.377189 0.057824 0.922099
0.295824 0.338783 -0.049553 -0.392625 -0.665905 0.629471
-0.278078 0.406263 -0.04331 -0.694661 0.718329 -0.016211
0.199594 -0.112056 0.061415 0.894428 -0.023744 0.446523
-0.119529 0.098501 0.051504 -0.924557 0.08213 0.367485
0.0876 0.725281 0.056799 0.879446 0.009919 0.454289
0.137337 -0.489585 0.058906 -0.419238 -0.142333 0.895445
0.261714 0.515136 -0.044062 0.73 0.672294 0.097955
0.19675 -0.337882 0.04039 0.905318 -0.078632 0.417332
0.111311 0.321687 0.097877 0.357632 0.110174 0.926575
0.060176 -0.259966 -0.069461 -0.803667 -0.001212 -0.594809
0.205478 -0.394065 -0.016941 0.99178 -0.038082 -0.113508
-0.017448 -0.333028 -0.073425 0.697037 -0.084546 -0.71185
0.3833 0.239578 -0.083289 -0.649323 -0.756205 -0.047912
0.402439 0.257118 -0.126127 -0.1507 -0.243047 -0.953819
-0.017208 0.206277 -0.122837 -0.205572 -0.379541 -0.901029
0.213374 -0.132117 0.010899 0.987027 -0.13049 0.082302
-0.101523 -0.792061 0.007564 -0.725678 0.221209 0.650216
0.041165 -0.337496 -0.039355 -0.875981 -0.063964 -0.477742
-0.026414 -0.725786 -0.110179 0.418495 0.358997 -0.832473
0.13446 -0.237755 -0.095072 0.437326 -0.144841 -0.885961
0.01326 -0.433683 -0.038634 0.835441 -0.003004 -0.54916
0.154341 0.31354 -0.099246 0.778458 -0.164061 -0.605328
-0.143821 -0.060835 0.00663 -0.999305 0.030966 -0.013013
0.266551 0.489646 -0.018005 0.648029 0.456366 0.606604
0.039104 0.219967 0.128655 0.02112 0.040044 0.998974
0.160516 -0.154213 -0.089566 0.633464 -0.122715 -0.763712
-0.045487 0.090431 0.115912 -0.471229 0.123058 0.873217
-0.128612 -0.551139 -0.004377 -0.942697 -0.145931 0.297266
0.121021 -0.807718 0.062952 0.115069 0.764349 0.625619
0.167493 -0.781704 -0.086558 0.735331 0.336341 -0.587318
-0.049882 0.314159 -0.124588 -0.419476 0.00574 -0.907648
0.084694 -0.012767 0.131664 0.222308 -0.276543 0.927137
0.331693 0.352783 -0.041299 0.38892 0.182906 0.897234
0.068667 0.664406 -0.052292 0.690865 -0.043815 -0.719521
0.159983 -0.859514 -0.076464 0.848474 -0.489701 -0.17974
0.227688 0.470613 0.015502 0.773149 0.019479 0.633145
0.060704 0.854787 -0.059541 0.37436 0.820052 -0.427434
0.534841 0.187313 0.020597 0.590085 -0.066665 0.725184
-0.095225 0.164958 0.073085 -0.706901 -0.033636 0.706497
0.634202 0.056117 0.066368 0.893888 0.440182 0.052649
0.190658 -0.458075 0.035454 0.963578 -0.069341 0.257647
0.638785 0.038391 0.088263 0.959385 0.116743 0.193504
0.221531 0.425563 -0.128535 -0.392933 -0.324266 -0.852079
0.03297 0.723196 0.100036 -0.042675 -0.461441 0.865074
-0.013788 -0.249704 -0.080933 0.571188 -0.026024 -0.820194
0.509453 0.170975 0.018208 -0.010307 0.180556 0.932682
-0.060111 0.441792 0.08782 -0.18043 0.254061 0.948608
0.059299 0.731165 0.078646 0.532484 0.341777 0.768187
0.109691 -0.855501 0.172394 -0.678125 0.276843 0.65028
0.188422 0.061907 -0.0602 0.869185 0.153302 -0.468016
0.197544 -0.672163 -0.014224 0.976858 0.041666 0.20789
0.003415 -0.310264 -0.054119 0.758894 -0.071504 -0.647007
0.206763 0.02092 -0.006563 0.998298 0.015111 -0.054514
0.023834 -0.140591 0.085094 0.869784 -0.187419 0.449108
0.052083 -0.537677 -0.007052 -0.82368 -0.00491 0.566301
0.199709 -0.578775 -0.004307 0.981315 -0.05257 0.18384
0.019804 -0.435166 0.017419 0.951401 0.026622 0.297493
-0.393766 0.239381 0.011194 -0.037558 0.185891 0.98123
-0.142928 -0.037177 0.008087 -0.988292 0.136281 0.013741
0.08777 -0.072949 -0.134172 -0.120552 -0.382323 -0.915518
0.101034 -0.859054 -0.019393 -0.631716 -0.762231 0.126416
-0.021458 -0.747862 -0.117955 0.611204 0.309636 -0.726013
-0.12156 0.361221 -0.001417 -0.974142 -0.206926 0.07151
0.038938 -0.161815 -0.061066 -0.86257 -0.261691 -0.431479
-0.016064 -0.236618 -0.082748 0.523456 -0.009237 -0.851861
0.19003 -0.318448 -0.039252 0.771821 -0.00825 -0.635551
0.019812 -0.378209 -0.027693 0.923312 -0.008657 -0.381337
0.012167 -0.685079 -0.004878 0.83994 -0.243829 0.445949
-0.048803 -0.826154 0.108485 0.216336 0.959632 0.157561
0.116681 -0.788163 -0.112386 -0.219311 0.47247 -0.852442
0.395778 0.256785 -0.036724 -0.361249 -0.129599 0.912399
0.073968 -0.660397 -0.061492 -0.744898 -0.11111 -0.657604
0.097309 0.816862 -0.020934 0.939117 0.338254 0.012266
-0.114159 -0.412843 -0.047765 -0.784789 0.070356 -0.613922
-0.069486 -0.203186 0.116392 -0.305921 -0.087896 0.947883
0.084504 0.682077 0.017267 0.885594 -0.420557 0.168959
0.081577 0.695794 -0.049204 0.848215 -0.377756 -0.362813
0.022658 -0.507243 -0.026678 0.858732 0.030782 -0.508609
0.008743 -0.682099 -0.072907 0.565435 0.216461 -0.795105
0.043686 -0.339745 0.020895 -0.976069 -0.077811 0.197547
0.196526 0.07877 0.028942 0.903614 0.387282 0.177554
-0.135981 -0.540436 -0.023482 -0.990284 -0.088851 0.099607
0.203633 -0.391696 -0.027425 0.961215 -0.052486 -0.264833
0.24021 0.373243 -0.090129 -0.706433 -0.707477 -0.015694
-0.031206 -0.259736 -0.090277 0.320269 0.00094 -0.94716
0.198427 -0.612336 -0.048352 0.978485 -0.017215 -0.182785
0.411906 0.308885 -0.060213 0.499348 0.680414 0.532109
-0.032635 0.504479 -0.124797 -0.058188 0.31184 -0.948209
0.103825 -0.837522 -0.112303 -0.52414 -0.042841 -0.849979
-0.018108 0.709024 0.053695 -0.884153 -0.16473 0.43332
-0.143636 -0.123111 0.029742 -0.993873 0.004277 0.107224
0.4248 0.20896 -0.075333 -0.502415 -0.859425 0.061698
0.194401 -0.528329 -0.061486 0.843502 0.005996 -0.536735
-0.089552 -0.712047 -0.108329 -0.623849 0.181906 -0.759318
0.193281 -0.039652 -0.06247 0.905665 -0.027027 -0.423004
0.061436 -0.538524 0.004008 -0.689467 -0.018566 0.723662
0.195065 0.347304 -0.032171 0.953445 -0.298807 0.009777
0.003715 0.82588 0.055815 -0.582951 0.44789 0.671692
0.183311 -0.784281 -0.038997 0.973212 -0.219445 -0.022563
0.021784 -0.744558 -0.0516 0.98035 -0.173592 -0.044073
-0.037365 0.798134 -0.027825 -0.997717 -0.021241 0.034224
-0.112701 -0.458155 -0.065658 -0.720963 0.151745 -0.676034
-0.117285 0.333437 0.002191 -0.970099 -0.164204 0.17786
-0.328347 0.239899 0.003495 0.291038 -0.36932 0.869766
-0.000927 0.551066 0.031047 0.074277 0.777192 0.62269
0.146332 0.311263 0.071235 0.774297 0.047137 0.630873
0.204189 -0.387556 0.009034 0.962954 -0.010198 0.261619
-0.160294 0.54132 -0.041185 -0.526584 0.778663 -0.333371
0.195685 -0.740232 -0.021664 0.923579 -0.3279 -0.131157
-0.229506 0.393232 0.026584 -0.259339 -0.2468 0.931263
0.399033 0.227329 -0.079092 -0.608529 -0.782813 0.120044
-0.20336 0.366799 0.011383 0.159964 -0.558054 0.813566
-0.189507 0.370771 -0.083019 0.477063 -0.646642 -0.582582
0.027102 0.102384 -0.138153 -0.162068 0.293896 -0.941585
-0.504889 0.144793 0.017362 -0.783433 0.620251 -0.025611
0.084719 0.601958 -0.005483 0.76595 0.207484 0.603349
-0.1045 0.007969 -0.096983 -0.844032 0.009891 -0.536199
-0.028143 0.843772 -0.026097 -0.633015 0.767413 -0.096682
-0.06075 -0.825518 0.11481 -0.019852 0.990294 0.105657
0.175816 -0.664048 0.019947 0.488221 -0.115907 0.863935
0.149929 0.389968 0.072222 0.634508 -0.004636 0.770717
0.193985 0.515839 -0.122171 0.116209 0.546963 -0.828969
0.506178 0.161641 -0.001065 -0.601594 -0.794325 0.080775
0.021167 0.41244 -0.127971 -0.030479 0.031945 -0.998672
0.160829 -0.3186 0.076318 0.251805 -0.041003 0.966828
0.166247 -0.256205 0.080345 0.334563 -0.094287 0.934131
-0.03922 0.172164 0.112573 -0.53837 0.108162 0.835682
0.496223 0.232784 -0.058346 0.669935 0.737607 -0.069728
0.379617 0.349321 -0.10607 0.71576 0.669952 -0.172276
-0.021595 -0.806219 0.045821 0.895513 0.308742 0.297523
-0.115469 0.072223 0.074005 -0.844653 0.336636 0.4129
0.198654 0.385663 -0.039395 0.997155 -0.065056 0.022226
-0.072269 -0.438254 0.083057 0.119383 -0.199916 0.972272
0.002549 0.733075 -0.102199 -0.464197 -0.562029 -0.661061
0.136859 -0.861764 0.173757 0.062356 -0.966272 0.247895
0.096931 -0.82585 0.083403 -0.610508 0.740871 0.224672
0.201622 0.559001 -0.045687 0.257759 0.958617 0.041492
0.18393 -0.004505 -0.079123 0.886485 0.07157 -0.456295
0.127879 0.510996 0.044577 0.267552 0.576244 0.769902
0.15966 -0.82965 0.053706 0.893773 0.442884 0.06293
0.057818 -0.228584 0.067186 -0.702448 -0.133977 0.698447
0.200605 0.53395 0.001605 0.253395 0.63743 0.727264
-0.043274 0.177408 -0.102645 -0.468587 -0.278295 -0.834053
0.124804 -0.753174 -0.100488 -0.181264 0.087684 -0.977673
-0.070367 0.105124 0.100559 -0.492551 0.383293 0.780735
0.042551 -0.262781 -0.043704 -0.859387 0.012251 -0.509226
-0.144093 -0.073752 0.005786 -0.999441 0.012054 -0.021688
-0.050851 -0.084159 0.1263 -0.251048 -0.062104 0.962313
0.198159 0.381679 -0.027946 0.997305 -0.057728 0.039368
0.632328 0.038784 0.013421 -0.88588 -0.352773 -0.269979
0.191335 -0.028005 -0.067737 0.906257 0.005626 -0.422324
-0.523381 0.074378 0.092547 -0.022615 -0.92145 0.375428
-0.046152 -0.629137 0.029999 0.375165 -0.25094 0.890927
-0.506858 0.114554 0.008888 -0.132369 -0.7372 -0.66019
-0.068771 0.046756 -0.12676 -0.528618 0.294807 -0.792545
-0.084985 -0.157513 0.115749 -0.323655 -0.014722 0.945737
-0.12827 -0.327463 -0.00148 -0.999686 -0.006319 -0.019664
-0.023402 -0.29665 -0.083939 0.552659 -0.128331 -0.823445
-0.00906 0.269849 -0.130956 0.055031 -0.05005 -0.996765
0.023756 0.562822 0.02669 -0.015908 0.10788 0.993543
0.004675 0.504388 0.068717 0.034087 0.476354 0.877035
0.037418 -0.352733 -0.009383 -0.967905 -0.12962 0.192637
0.08492 -0.448049 -0.089108 -0.639335 0.055434 -0.766321
0.025249 -0.008481 0.143298 0.139748 -0.544657 0.80486
-0.031534 -0.704441 0.02363 -0.719039 0.089849 0.667766
-0.378818 0.193048 -0.021166 0.478495 -0.877262 -0.003186
0.006538 0.288792 0.12168 -0.195434 0.100868 0.974394
-0.123874 -0.205358 -0.027832 -0.855755 -0.09832 -0.507717
-0.228934 0.461556 0.001107 -0.838063 0.452717 0.302292
0.027529 -0.291964 0.033447 0.994605 -0.011846 0.10298
0.513139 0.189487 0.01729 -0.476308 0.022938 0.800425
0.081023 -0.468601 0.017292 -0.643657 0.062402 0.762623
-0.003308 0.389108 0.105746 0.025413 0.090301 0.995288
-0.046895 -0.748809 0.014746 0.558155 -0.472446 0.658607
-0.11627 -0.117828 0.095325 -0.728169 0.04517 0.683665
-0.039318 0.431803 0.09445 -0.234315 0.32787 0.91386
-0.039662 -0.14542 0.123517 -0.057336 -0.060461 0.996374
0.109451 0.072027 0.112798 0.50994 0.137878 0.848524
0.022545 -0.712363 -0.035905 0.942495 -0.13547 0.301539
-0.108986 -0.099337 -0.071629 -0.768149 -0.119024 -0.628771
0.530757 0.138435 0.006574 -0.769413 -0.637206 0.041326
0.208767 0.511103 -0.122317 0.219808 0.499464 -0.835478
0.19513 -0.612459 -0.057656 0.840102 -0.033514 -0.541052
0.313621 0.324841 -0.051642 -0.467799 -0.59893 0.64762
0.097728 0.224082 0.111736 0.367661 0.090025 0.923498
-0.086707 -0.860987 -0.061134 -0.14469 -0.985315 0.060804
0.200989 0.071831 -9.1e-05 0.972524 0.230678 0.030004
-0.503034 0.146141 0.000711 -0.834127 0.535272 -0.081814
-0.40545 0.214956 0.014982 0.1587 0.186415 0.963585
-0.107678 0.517996 -0.100816 -0.368935 0.38867 -0.837659
0.427318 0.226277 -0.038263 -0.290817 -0.397246 0.857801
0.083182 0.739497 0.060974 0.6862 0.108749 0.716474
0.113769 -0.111173 0.113456 -0.266293 -0.017086 0.937783
-0.112022 0.252306 0.018212 -0.991578 0.093109 0.080162
-0.058184 -0.864255 0.08164 0.000203 -0.999972 0.003031
-0.137478 0.019118 -0.0184 -0.984664 -0.005525 -0.168635
-0.094364 0.272848 0.066958 -0.70924 0.014176 0.70444
0.070029 0.850404 -0.059065 0.48205 0.764465 -0.426691
-0.081341 0.413824 0.083597 -0.641934 0.084037 0.761179
0.225187 0.395285 -0.110376 -0.744371 -0.542393 -0.386266
0.151333 -0.044672 -0.123574 0.685834 -0.201926 -0.698293
-0.076526 0.065916 -0.114431 -0.671906 0.180172 -0.718032
0.07853 0.201073 0.12124 0.372104 0.045142 0.927039
0.286465 0.337172 -0.060426 -0.503562 -0.757409 0.395671
0.092012 0.707312 0.029013 0.963475 -0.239416 0.092577
0.048672 -0.381251 -0.049413 -0.907487 0.001823 -0.393711
-0.107748 0.330433 0.032893 -0.904859 -0.151345 0.39689
-0.040982 0.817452 -0.036782 -0.984063 -0.150402 -0.029358
0.620952 0.04936 0.081417 -0.827718 -0.554565 0.016418
0.183549 -0.248255 0.071665 0.612045 -0.060726 0.785313
-0.130919 -0.386487 0.006172 -0.886085 0.426502 0.012409
0.02906 0.447532 0.091709 0.164955 0.21462 0.961987
-0.062457 0.525135 0.049234 -0.145776 0.584931 0.797473
0.017081 -0.086316 -0.09049 -0.060257 -0.700715 -0.691666
-0.078958 -0.076857 0.11831 -0.450659 -0.027738 0.89075
0.285769 0.380066 -0.142248 -0.142841 -0.296273 -0.937906
0.165598 0.162628 0.063655 0.712677 0.071283 0.697828
-0.105001 -0.860242 0.058353 -0.604147 -0.779465 0.004979
0.212163 0.447217 0.019951 0.485437 -0.025242 0.86749
0.043363 -0.239479 0.03612 -0.986488 -0.033225 0.155
0.018634 0.683407 -0.071469 -0.40171 -0.512825 -0.756683
-0.053369 0.172128 0.103228 -0.507447 0.065257 0.858796
0.307242 0.443273 -0.039792 0.69516 0.380611 0.606052
0.175182 0.272283 0.036733 0.918276 0.062906 0.38874
0.104689 0.589103 -0.027046 0.481712 0.751728 0.428796
0.176363 0.269658 -0.039524 0.929883 -0.049447 -0.36363
-0.139121 0.019797 0.037118 -0.973722 0.107699 0.19155
0.150949 -0.509884 -0.102652 0.41674 -0.015132 -0.907093
0.159467 -0.823805 0.034449 0.967884 0.109377 0.145366
-0.057823 -0.093212 0.123919 -0.285212 -0.020644 0.957764
-0.026765 0.468065 -0.130458 0.086394 0.080868 -0.992839
-0.025003 0.183974 0.119939 -0.526976 0.075243 0.843792
0.095932 0.715612 -0.035571 0.859019 -0.454631 -0.215807
0.035979 -0.294999 -0.029547 -0.954718 -0.055574 -0.286784
-0.070304 0.025609 0.118341 -0.384783 0.36477 0.845615
-0.564747 0.034226 0.021025 0.843236 -0.533688 0.006295
0.213332 -0.068848 0.025612 0.987422 0.037473 0.142591
0.008231 -0.154501 0.103464 0.686703 -0.114659 0.713181
-0.018978 -0.572896 -0.087106 0.655899 -0.053233 -0.750492
0.201647 -0.492815 -0.027683 0.986537 0.127101 -0.094864
0.030921 0.122231 -0.130172 -0.137899 0.441952 -0.885804
0.082409 -0.250777 0.081803 -0.366357 -0.116183 0.921057
0.028707 -0.308457 0.00893 0.998625 -0.047452 0.016142
-0.173776 0.531896 0.006702 -0.642013 0.726618 0.242467
0.052339 -0.17131 -0.079625 -0.77278 -0.17752 -0.606757
0.040039 0.021345 -0.157352 -0.162101 -0.330566 -0.920733
0.110806 -0.869134 0.035459 -0.040333 -0.997391 -0.056287
0.632407 0.027239 0.033808 -0.913039 -0.348647 -0.113104
0.209257 0.46232 0.021863 0.509826 0.027054 0.856774
0.066078 -0.138816 -0.10066 -0.611962 -0.20622 -0.763368
0.17474 0.360451 -0.097865 0.649631 -0.434106 -0.622259
0.15898 -0.864192 0.10831 0.255193 -0.963977 0.016088
0.20549 -0.257889 0.007053 0.999947 0.006145 0.004068
0.027381 -0.638527 -0.021158 0.99435 -0.029829 0.077074
-0.009468 0.669677 0.027101 -0.771355 -0.608215 0.166994
0.156835 0.09206 -0.096087 0.724333 0.219676 -0.653476
-0.128147 -0.667095 -0.05917 -0.998389 -0.008315 -0.036975
0.056124 0.865588 0.004307 0.317123 0.934952 0.143012
0.027957 -0.095479 -0.089014 -0.732805 -0.460457 -0.49841
0.15271 -0.058301 0.106282 0.506724 0.000949 0.861992
0.034745 0.048389 0.13561 0.105178 0.063926 0.992349
-0.074049 -0.036427 0.121535 -0.436708 0.020278 0.897821
-0.125597 0.127628 -0.02671 -0.93599 0.023932 -0.344249
-0.084589 -0.085315 0.115167 -0.433935 0.000786 0.900535
-0.106933 0.077307 -0.076539 -0.825548 0.162012 -0.539836
0.322985 0.396462 -0.035009 0.646266 0.17957 0.726277
-0.060346 0.179007 0.099095 -0.439663 0.021418 0.896597
0.194754 -0.159831 0.065473 0.908295 -0.036372 0.413268
-0.025364 0.31635 0.110868 -0.432613 0.142804 0.878122
0.044505 0.574165 -0.103144 -0.054869 0.523072 -0.848369
-0.129504 0.469839 0.061902 0.009196 -0.035882 0.997914
-0.030071 -0.303956 -0.08621 0.449624 -0.11371 -0.885863
0.477893 0.210524 -0.002453 0.211626 0.461918 0.818436
0.191071 -0.170982 -0.061055 0.701025 0.016943 -0.712048
-0.060924 -0.59163 -0.103592 0.085729 0.012739 -0.995455
0.35836 0.356968 -0.062534 0.617932 0.567214 0.54434
0.037477 0.217565 -0.123567 0.021008 -0.262432 -0.962863
0.084618 -0.383664 0.05172 -0.561909 -0.239954 0.789837
0.073817 -0.370687 0.048173 -0.429389 -0.20207 0.864127
0.072427 -0.217429 -0.085642 -0.529311 -0.142971 -0.834747
0.018197 0.669141 -0.064439 -0.393321 -0.295728 -0.861571
0.109563 -0.092245 -0.127685 0.037506 -0.285581 -0.957415
-0.031532 -0.195764 0.118876 0.180889 -0.142422 0.972999
-0.040223 -0.547099 -0.099245 0.319658 0.006087 -0.947188
-0.093244 0.008441 0.111843 -0.517835 0.240191 0.820877
0.13792 -0.869718 -0.069016 0.05594 -0.997987 0.012035
0.171667 -0.84955 0.09761 0.754121 0.655343 0.039234
0.096083 -0.391372 -0.096104 -0.461892 -0.07006 -0.881096
0.098433 0.766183 0.01924 0.982829 0.014781 0.180769
0.083868 -0.182639 -0.09969 -0.380457 -0.247842 -0.890825
0.015281 0.860007 -0.054789 -0.281055 0.873171 -0.394605
-0.037273 0.315636 -0.128505 -0.185775 0.033694 -0.981169
0.08575 0.675001 -0.008028 0.915345 -0.395687 0.018687
-0.090819 -0.715156 0.013157 -0.27958 -0.522365 0.797811
0.055788 0.782931 -0.115332 0.391996 0.025152 -0.9186
-0.115157 0.549007 -0.06912 -0.373189 0.767161 -0.51974
0.060692 -0.212076 -0.076356 -0.723192 -0.174621 -0.667856
0.190222 0.170556 -0.011288 0.962567 0.209458 -0.147897
0.010109 0.036521 -0.151614 -0.162716 0.161255 -0.972454
-0.074979 -0.763268 -0.125366 -0.518779 0.188751 -0.829208
0.165003 -0.792008 -0.094313 0.762004 0.178363 -0.618228
0.086334 -0.708065 -0.074948 -0.799976 -0.02624 -0.59689
-0.003527 -0.827573 -0.016887 0.850571 -0.456754 0.236632
0.033831 0.615266 0.027435 0.01878 -0.147675 0.987006
0.205227 -0.258616 0.017758 0.998701 0.016653 0.044483
0.10216 0.737895 -0.035874 0.903503 -0.203616 -0.369462
-0.398867 0.267531 -0.067214 -0.86473 0.348537 -0.357531
0.006725 -0.296361 -0.05223 0.769981 -0.102475 -0.629779
-0.56346 0.060016 0.025379 -0.926243 0.36326 -0.026764
0.145065 -0.445426 -0.098892 0.394769 0.176736 -0.90114
0.08858 -0.770721 0.019807 -0.202103 0.820413 0.532378
0.040576 0.822798 -0.10437 0.09626 0.643025 -0.759037
0.008215 -0.349009 -0.045318 0.745441 -0.054853 -0.663918
0.084119 0.637848 -0.016529 0.980827 0.005288 0.170091
-0.081389 -0.680654 -0.107306 -0.32432 0.077869 -0.940573
0.016706 -0.420067 -0.034061 0.888504 -0.024468 -0.444102
-0.140166 -0.178825 0.016608 -0.957697 -0.282857 -0.031559
-0.01744 -0.574833 0.030086 0.356866 -0.194323 0.911821
0.391946 0.324871 -0.060778 0.481473 0.636674 0.598978
0.020039 -0.285587 0.061983 0.934309 -0.050103 0.352162
0.175744 -0.805094 -0.062593 0.961119 -0.269689 -0.05066
0.251575 0.369323 -0.049385 -0.658379 -0.653617 0.371681
-0.365345 0.286564 0.000611 -0.232279 0.450935 0.856837
-0.006514 -0.794573 -0.130073 0.818448 0.123137 -0.549675
0.083765 0.028673 -0.159729 0.165039 0.008027 -0.98093
0.212605 -0.091806 0.030334 0.970785 -0.006727 0.236643
0.163809 -0.02278 -0.113967 0.7604 -0.008123 -0.649078
-0.313814 0.353606 -0.045234 -0.673934 0.735856 -0.054712
0.176263 -0.035351 0.08778 0.69863 0.021041 0.715118
0.467418 0.206675 -0.005015 -0.511976 0.327507 0.790332
0.082782 0.65 -0.005331 0.978974 -0.056829 0.195392
0.053412 0.565518 0.021732 0.298224 0.183533 0.927807
-0.01581 0.286328 -0.131527 0.002227 -0.008723 -0.999677
0.195277 -0.079241 -0.056472 0.861047 0.013588 -0.508317
0.160518 0.545919 -0.108372 0.282464 0.648594 -0.706007
0.073824 0.647463 -0.048545 0.745921 0.17382 -0.638887
0.075511 0.672374 0.036488 0.803452 -0.573671 0.13735
-0.104633 -0.359238 -0.061214 -0.736335 0.07611 -0.672084
-0.238719 0.440486 -0.063569 -0.624033 0.569911 -0.53153
0.196899 0.09033 -0.018015 0.975531 0.199059 -0.071073
-0.022859 0.515385 -0.122087 -0.048434 0.242267 -0.968929
0.109437 -0.229247 -0.09997 -0.184717 -0.064355 -0.980533
-0.493865 0.149757 0.064157 -0.264578 0.824804 0.475805
0.006948 -0.803589 -0.040907 0.879056 -0.326971 0.345008
-0.087817 -0.818887 0.053415 -0.625074 0.73059 0.242482
0.03187 -0.1155 -0.078763 -0.789577 -0.34486 -0.506137
0.234694 0.542095 -0.063873 0.618276 0.773237 -0.125463
0.059535 -0.617201 -0.054202 -0.77028 -0.0597 -0.634587
0.005378 0.357628 0.112218 -0.034019 0.125531 0.990726
-0.145518 0.485643 -0.094875 -0.290499 0.119864 -0.94119
0.108493 -0.652486 0.034097 -0.073653 -0.061031 0.991624
0.073549 -0.470644 -0.079138 -0.710503 0.036756 -0.702718
-0.089654 0.520145 0.049016 -0.034146 0.49771 0.865218
0.00897 0.684933 0.081383 -0.63466 0.022662 0.767883
-0.300499 0.326577 0.004771 -0.25757 0.178044 0.948663
0.294085 0.327211 -0.099116 -0.686741 -0.717234 -0.11015
0.336117 0.346977 -0.137365 0.061005 -0.061189 -0.99455
-0.104681 0.352124 -0.094134 -0.653585 -0.197977 -0.730154
-0.052052 -0.86111 -0.125271 0.046704 -0.963 -0.256177
-0.03876 0.473525 0.081245 -0.154225 0.357832 0.920115
-0.112105 -0.553692 0.031006 -0.882434 -0.105679 0.458206
0.131057 0.134887 0.097952 0.581025 0.022295 0.813373
-0.035748 0.519346 -0.120318 -0.109117 0.302853 -0.945981
-0.076704 0.284344 0.081138 -0.52662 0.003527 0.8423
-0.120488 -0.642361 0.009843 -0.962753 -0.075297 0.255999
0.633134 0.045771 0.001981 -0.444324 -0.067978 -0.838875
0.14357 -0.727272 0.010706 0.484423 0.051752 0.864601
-0.037889 -0.603844 -0.097515 0.403661 0.012434 -0.914496
0.242349 0.371055 -0.078806 -0.702716 -0.711416 0.007826
0.151623 -0.86316 0.158451 0.228875 -0.957778 0.157033
-0.114896 -0.239233 0.096079 -0.686909 -0.022999 0.72632
-0.118316 0.353102 -0.077414 -0.933606 -0.145886 -0.322949
-0.13522 0.41626 0.047545 -0.521835 -0.712304 0.455675
-0.070613 -0.122252 -0.100792 -0.411404 -0.114809 -0.903517
0.191479 -0.753194 -0.008611 0.957026 -0.271453 0.088914
-0.116123 -0.481026 -0.066258 -0.745999 0.102617 -0.657539
0.03033 -0.142832 -0.053842 -0.897663 -0.329135 -0.288103
-0.105146 0.315658 -0.084402 -0.781672 -0.143769 -0.606605
0.010943 -0.256389 -0.054438 0.793318 -0.103682 -0.599857
-0.111053 0.238913 0.03953 -0.942973 0.232013 0.2378
0.334771 0.296258 -0.111197 -0.560991 -0.665835 -0.491208
-0.168684 0.487685 0.050286 -0.456677 0.170591 0.868501
-0.061942 0.341996 0.093095 -0.642515 -0.081722 0.759769
-0.129227 -0.567086 -0.060355 -0.945261 0.029003 -0.322494
-0.048951 0.263087 -0.122906 -0.502699 -0.091259 -0.859514
0.027568 -0.619036 -0.029472 0.994932 0.01569 -0.082396
0.066974 0.186199 -0.118694 -0.109434 -0.03739 -0.989221
0.186431 0.452932 -0.135752 0.146803 -0.052993 -0.9877
-0.499972 0.150706 0.04338 -0.707847 0.702792 0.060233
0.026717 0.859559 -0.060307 -0.091852 0.875127 -0.470163
-0.040064 -0.189343 0.120925 0.107262 -0.122268 0.986522
0.007349 -0.682101 0.004571 0.781881 -0.286909 0.552861
0.019419 0.09378 -0.13884 -0.18264 0.23742 -0.954063
0.064746 0.861076 -0.039109 0.441953 0.868263 -0.188841
0.0434 -0.41707 -0.02408 -0.999646 -0.012648 0.012239
-0.122412 -0.613405 0.005634 -0.915495 0.052415 0.396466
0.087765 0.609055 -0.013636 0.872483 0.212344 0.423624
-0.038045 -0.205951 -0.09171 0.211101 -0.069936 -0.973706
-0.077881 -0.387081 0.094926 0.143039 -0.211708 0.966694
0.454839 0.280366 -0.089567 0.772626 0.543022 -0.293828
0.520726 0.161102 -0.038074 0.049835 -0.455104 -0.781132
-0.002188 -0.775911 -0.013078 0.769911 0.159639 0.610937
-0.324006 0.34123 -0.060903 -0.644692 0.727401 -0.226167
-0.125221 0.155569 -0.017792 -0.922452 0.054602 -0.37823
0.177574 0.565629 -0.071812 0.286087 0.912501 -0.288684
0.119913 -0.779698 -0.108463 -0.174544 0.45193 -0.869523
0.004125 -0.359459 0.068579 0.750125 -0.126829 0.648331
-0.216811 0.470949 0.017683 -0.766564 0.365146 0.520163
0.216553 0.552505 -0.045831 0.52902 0.832968 0.07783
0.196758 -0.456494 0.011444 0.972964 -0.059435 0.220424
0.002582 -0.625224 0.018601 0.426811 0.099143 0.889979
0.52252 0.214984 -0.038457 0.519883 0.782047 0.34174
-0.015132 -0.414009 0.072618 0.489507 -0.18125 0.852709
0.148986 0.249062 -0.09306 0.792002 -0.140055 -0.593463
-0.143551 -0.107786 -0.005753 -0.98852 -0.023738 -0.141929
0.018994 -0.728666 -0.068076 0.930287 0.022187 -0.361007
0.372736 0.308519 -0.043603 0.144625 0.294161 0.939527
0.167902 -0.073773 0.096619 0.613671 0.053372 0.786596
0.153267 -0.439463 -0.093524 0.503726 0.204212 -0.838725
0.321601 0.440731 -0.061743 0.823757 0.424709 0.374157
-0.087268 -0.378004 0.09802 0.007762 -0.206243 0.977748
-0.553679 0.052123 0.031699 0.826232 -0.56007 -0.040425
0.162257 -0.846657 -0.065666 0.992102 -0.015985 -0.114958
0.17779 -0.747465 0.009379 0.357024 0.758021 0.544054
-0.122668 -0.761625 -0.034591 -0.951295 -0.281799 0.097284
-0.082052 -0.831787 -0.122964 -0.825573 -0.024934 -0.561849
0.069063 0.627295 0.015668 0.659853 -0.246957 0.705892
-0.003531 0.615948 -0.063124 -0.503538 0.602562 -0.618851
0.152425 -0.362833 0.076076 0.178062 -0.08094 0.979825
0.399662 0.305973 -0.049215 0.31818 0.502888 0.798439
0.157915 -0.030299 0.103213 0.578152 0.017553 0.815149
-0.133814 -0.197214 0.065015 -0.946868 -0.067744 0.30701
-0.069224 -0.400615 0.090794 0.134261 -0.160128 0.977807
0.207329 -0.002074 -0.008364 0.984123 0.136176 -0.105639
0.176807 0.250404 -0.037954 0.93133 0.005128 -0.364118
-0.139449 -0.025353 0.017585 -0.982571 0.164888 0.064183
0.175563 -0.346664 -0.056641 0.709264 0.094444 -0.697709
-0.2195 0.436338 -0.081505 -0.437107 0.455725 -0.775032
-0.012884 0.596466 -0.079108 -0.269242 0.723683 -0.633668
-0.008761 -0.279417 -0.073546 0.688397 -0.117905 -0.71521
-0.570127 0.031047 -0.01805 0.300676 -0.369084 -0.572937
0.158906 0.116982 0.07666 0.575583 0.176429 0.797391
0.045419 -0.580082 -0.03061 -0.992881 -0.048395 -0.051889
-0.014325 0.534576 -0.11768 -0.083441 0.366239 -0.925589
0.114975 -0.173334 0.101454 -0.135782 -0.329499 0.931383
-0.022027 0.737188 -0.07667 -0.789576 -0.401399 -0.457048
-0.486693 0.163641 0.037998 -0.67685 0.710666 0.188286
0.15804 -0.762183 -0.08427 0.766784 0.338086 -0.537681
-0.083385 0.571138 -0.061983 -0.483843 0.757788 -0.426183
-0.113089 0.290092 -0.006068 -0.98783 -0.139713 0.058605
-0.100717 -0.149246 -0.073009 -0.728429 -0.143442 -0.66991
-0.17637 0.442988 -0.091958 -0.144079 0.194823 -0.969784
0.061378 -0.036095 -0.143958 -0.258308 -0.392324 -0.88279
-0.091841 -0.862054 0.124725 -0.26415 -0.949922 0.123774
0.547257 0.158537 0.036707 -0.517564 0.213574 0.809001
0.205943 -0.344097 0.001183 0.998926 -0.012502 0.021317
0.445356 0.202762 -0.096469 0.848514 -0.287607 -0.38474
-0.037632 -0.240991 -0.091642 0.195435 0.044775 -0.978894
-0.016674 -0.176746 -0.082934 0.587904 -0.023596 -0.80849
-0.204276 0.359009 -0.082729 0.458057 -0.6113 -0.643987
-0.070734 0.547623 -0.097266 -0.355605 0.548275 -0.756098
0.105025 -0.507901 -0.103428 -0.374568 -0.011148 -0.926181
-0.107666 0.307551 -0.078614 -0.810751 -0.118455 -0.572849
-0.009268 -0.529134 0.035181 0.546866 -0.156112 0.813931
0.043311 -0.40771 -0.029107 -0.998568 -0.030087 -0.035415
0.182369 0.264682 -0.019336 0.990682 -0.002465 -0.126205
0.185465 -0.237466 -0.06265 0.699126 -0.117705 -0.705026
0.156255 -0.238813 -0.082345 0.499987 -0.129494 -0.856265
-0.023914 0.160831 -0.105907 -0.332831 -0.104645 -0.926744
0.150022 0.342976 0.067558 0.727101 -0.089682 0.680541
0.019535 -0.547912 -0.036159 0.944089 0.045487 -0.322592
0.103147 -0.024489 -0.151286 0.164399 -0.233091 -0.95698
0.283639 0.412945 -0.141993 -0.023045 0.142629 -0.986902
0.038961 0.534556 0.046823 0.024273 0.779783 0.625573
-0.04454 0.571083 0.004012 -0.161414 0.793132 0.586721
-0.109044 -0.84138 0.004716 -0.840766 0.53198 -0.072996
0.143983 -0.150709 -0.102012 0.515895 -0.178219 -0.837053
0.060719 -0.548486 -0.061248 -0.779632 -0.049143 -0.624184
-0.079992 -0.407794 -0.076406 -0.449995 0.026721 -0.889802
-0.315405 0.341933 -0.009739 -0.5511 0.574146 0.595041
-0.222618 0.374714 0.018881 0.097695 -0.418803 0.900676
0.002139 -0.827882 -0.038705 0.907513 -0.392903 0.138503
-0.009818 0.844553 0.032856 -0.739243 0.424494 0.491999
0.16625 -0.115222 -0.094455 0.729902 -0.153307 -0.664729
-0.064497 -0.537945 0.059044 0.358979 -0.176242 0.915806
-0.137081 -0.203662 0.01124 -0.990289 -0.087854 -0.102037
0.265341 0.475209 -0.116239 0.453091 0.553546 -0.69832
0.142861 -0.371413 -0.087569 0.587798 0.124088 -0.799284
-0.092154 -0.851014 0.142303 -0.867932 -0.100214 0.467434
-0.014835 0.681438 -0.024184 -0.814798 -0.48208 -0.315938
0.075199 0.270467 0.117202 0.499928 0.10511 0.85963
-0.536623 0.066672 0.05509 0.365146 -0.928537 0.02393
-0.123029 0.387661 0.027744 -0.931889 -0.276838 0.219138
0.073895 0.137735 0.126599 0.366082 0.062201 0.920356
-0.098149 -0.236015 -0.066685 -0.755789 -0.056217 -0.651259
0.024613 -0.323473 -0.018928 0.900165 0.016166 -0.430466
0.1977 -0.237681 -0.048545 0.835539 -0.165024 -0.521368
-0.38359 0.227891 0.011528 0.084119 0.030935 0.995837
-0.162829 0.522231 -0.066722 -0.517775 0.594865 -0.614388
0.032002 0.658853 0.077038 -0.008532 -0.981867 0.186135
0.165044 -0.3929 -0.077424 0.561362 0.178052 -0.807563
0.043449 -0.0216 0.134692 0.077497 -0.220281 0.967699
-0.402425 0.271279 -0.033155 -0.747413 0.657757 0.085757
0.025465 0.429609 -0.127172 -0.069882 0.04871 -0.995933
0.175245 0.219374 -0.043346 0.927865 -0.009583 -0.37216
0.188629 0.180703 -0.008559 0.952716 0.269548 -0.125635
0.228379 0.494918 0.012457 0.50042 0.12186 0.85246
0.34651 0.39495 -0.08043 0.725122 -0.637667 0.201573
-0.004761 0.671849 0.05657 -0.85548 -0.398295 0.326721
0.234655 0.542472 -0.048976 0.66547 0.744537 0.042053
-0.011612 -0.578124 -0.07969 0.685161 -0.063359 -0.725609
-0.068437 0.278184 -0.114158 -0.540644 -0.049623 -0.839057
-0.304833 0.244018 -0.053244 0.527399 -0.813123 -0.244717
-0.003653 -0.720929 0.006126 0.779756 -0.12337 0.612867
0.184428 0.170685 0.036092 0.890416 0.153448 0.425594
0.192022 0.448481 0.035736 0.556501 0.126565 0.82052
-0.29338 0.32724 -0.095499 -0.162585 0.221578 -0.958706
0.02728 -0.326405 0.028806 0.99262 -0.043847 0.109785
-0.092057 -0.373729 -0.07193 -0.543647 -0.032099 -0.838171
0.438863 0.261688 -0.032952 0.06423 0.550119 0.830258
0.059898 -0.083124 0.105296 0.134743 -0.705171 0.695184
0.553443 0.119536 0.045565 -0.862321 -0.16286 0.456973
-0.079718 0.127072 -0.092731 -0.624503 0.16903 -0.762097
0.182976 0.219729 -0.00496 0.999665 0.02069 -0.009118
-0.033394 -0.862311 -0.105921 0.221876 -0.968737 -0.028869
0.140786 -0.06905 -0.124887 0.586829 -0.250073 -0.770079
0.270405 0.370098 -0.132391 -0.332287 -0.59481 -0.728699
-0.360521 0.208625 -0.047556 0.449905 -0.861264 -0.225679
-0.114997 -0.802943 -0.052982 -0.894426 -0.441408 -0.012479
0.046812 -0.007168 0.138297 0.067364 -0.425604 0.901066
0.198038 -0.098629 0.065176 0.861293 -0.028873 0.501947
0.0383 -0.363261 -0.026529 -0.951296 -0.05596 -0.227043
0.165569 0.063302 -0.095893 0.760412 0.195134 -0.618248
0.204668 -0.539404 -0.012577 0.982969 -0.038368 0.179412
-0.127941 -0.613609 -0.065991 -0.963014 0.007045 -0.242443
-0.100895 0.534396 0.039584 -0.01778 0.621698 0.782777
0.123682 -0.866498 -3e-05 -0.020606 -0.997735 -0.05316
0.405601 0.235474 -0.043562 -0.457061 -0.652214 0.600815
-0.00364 -0.321219 0.081606 0.549992 -0.157216 0.819614
-0.105644 0.311779 0.037268 -0.932406 0.075801 0.350475
-0.073668 0.526124 -0.10881 -0.319684 0.492647 -0.808127
0.009369 0.186692 -0.116971 0.139442 -0.133335 -0.980208
0.507179 0.1717 -0.046202 0.101159 -0.538774 -0.831411
0.050181 -0.251152 0.052688 -0.830265 -0.075458 0.551164
0.173435 0.464474 0.043186 0.576308 0.190771 0.793533
0.013834 -0.651477 0.007362 0.767235 -0.143544 0.623796
0.177159 -0.654445 0.020103 0.485644 -0.043077 0.872497
0.01918 -0.413586 -0.026371 0.973701 -0.026901 -0.2083
0.321132 0.3034 -0.07052 -0.666754 -0.66391 0.336541
0.076915 -0.069848 -0.133604 -0.199359 -0.401433 -0.893659
0.055707 -0.152901 -0.088633 -0.663539 -0.193235 -0.722398
-0.026828 -0.568205 -0.093094 0.480662 -0.041175 -0.873771
0.606645 0.0758 0.08593 -0.756586 0.004896 0.608116
0.088823 -0.539187 0.02787 -0.561758 0.037607 0.825152
0.327479 0.432285 -0.065258 0.796839 0.471942 0.369665
-0.059662 0.433378 -0.128714 -0.150598 -0.112836 -0.981683
0.204138 -0.009831 -0.031559 0.947171 0.064636 -0.313357
0.611343 0.094198 0.044654 0.773815 0.633345 0.00637
-0.116222 0.566149 -0.016053 -0.198985 0.978055 0.05174
0.097643 -0.007237 0.129397 0.282573 -0.250304 0.925065
0.423138 0.211839 -0.102999 -0.630933 -0.635819 -0.413028
-0.020268 0.709292 -0.045081 -0.938817 -0.29857 -0.170256
-0.009065 -0.825808 0.001226 0.705616 -0.53664 0.33874
0.284486 0.392097 -0.143941 -0.14715 -0.03239 -0.986248
0.17652 -0.625542 -0.075638 0.605902 -0.139967 -0.782736
-0.091223 0.566961 -0.002604 -0.171433 0.906777 0.377524
0.183182 0.209777 -0.002505 0.999662 0.01982 -0.00916
-0.110448 0.319461 -0.077324 -0.871561 -0.164996 -0.460197
0.11147 0.457279 -0.146685 -0.014502 0.057827 -0.997706
0.023877 0.765692 -0.121196 -0.072494 -0.050631 -0.995851
-0.068174 -0.782273 -0.136766 -0.430313 0.355903 -0.826729
0.088012 0.299135 0.107571 0.383907 0.126795 0.907108
0.018374 -0.405393 -0.031504 0.941499 -0.027448 -0.331894
-0.128072 0.079942 0.022295 -0.992754 0.07063 0.091854
0.241136 0.406475 -0.016557 -0.018322 -0.52955 0.846169
-0.068213 0.189915 0.095443 -0.478932 0.033481 0.876697
0.614799 0.057848 0.040757 -0.800744 -0.597032 -0.041361
-0.087518 -0.602468 -0.101115 -0.459953 0.051205 -0.886343
-0.249984 0.438323 -0.020452 -0.767669 0.612802 0.176066
-0.353413 0.284334 -0.088237 -0.276965 0.111628 -0.949637
-0.234415 0.357936 -0.094963 0.192026 -0.29449 -0.934988
0.152081 0.365537 0.068909 0.669388 -0.072325 0.739213
0.34777 0.385491 -0.116369 0.94692 0.135696 -0.152564
0.194919 -0.475422 0.015003 0.952149 -0.000642 0.305097
0.11486 -0.85469 -0.119133 -0.315506 -0.022466 -0.923348
-0.129548 0.039878 0.057023 -0.886889 0.230381 0.399491
0.02006 -0.117287 0.10017 0.66805 -0.326684 0.667853
0.010041 0.765767 0.072354 -0.318657 -0.353375 0.870491
0.146644 -0.644095 -0.090638 0.425144 -0.144569 -0.893127
0.071104 0.071888 0.13053 0.181484 0.042153 0.977751
0.141198 0.049284 -0.125534 0.636644 0.291456 -0.713516
0.02256 -0.39961 0.011664 0.946796 -0.222533 0.223502
0.121788 -0.165486 -0.108244 0.203623 -0.151805 -0.965383
0.263886 0.404298 -0.139948 -0.227783 -0.103608 -0.966714
0.063353 0.680636 0.080527 0.61933 0.114367 0.775524
0.048771 -0.08627 0.10499 0.259139 -0.657914 0.704402
-0.298277 0.361063 -0.067496 -0.691841 0.654012 -0.3044
0.172084 -0.389327 -0.071641 0.666001 0.141871 -0.713569
0.041418 -0.323397 -0.040985 -0.875462 -0.0248 -0.482449
-0.248424 0.297932 -0.039487 0.772207 -0.633931 0.030954
-0.104096 -0.207567 -0.061246 -0.82763 -0.050123 -0.558783
-0.488974 0.160138 -0.023607 -0.781739 0.538065 -0.307056
0.012659 -0.293684 0.075623 0.796711 -0.127444 0.590203
0.052945 0.826972 -0.098468 0.218695 0.631261 -0.743065
0.034169 0.417917 0.096874 0.086723 0.197162 0.976388
0.077095 -0.481741 0.015734 -0.658601 0.077073 0.748263
