0.18058 -0.793792 -0.056648 0.899388 -0.379558 -0.049168
-0.308337 0.275845 0.005919 0.185155 -0.083372 0.96942
0.034613 -0.016282 0.135648 -0.053771 -0.331845 0.931185
-0.176375 0.373099 -0.07068 0.630713 -0.645236 -0.43103
-0.027347 0.34653 0.10516 -0.159092 -0.033276 0.983591
-0.059709 0.455172 0.083229 -0.171922 0.317302 0.932331
0.170891 0.569563 -0.063767 0.533193 0.812815 -0.212254
-0.032816 -0.143502 -0.096551 0.340009 -0.242039 -0.907539
0.242601 0.508527 -0.004683 0.639321 0.375254 0.670334
0.05392 -0.369217 0.028362 -0.725593 -0.276432 0.628608
-0.126722 -0.36547 -0.028719 -0.97453 0.042314 -0.212576
0.114593 -0.085857 0.114376 -0.151417 -0.143891 0.972971
0.004239 0.367341 0.110357 -0.08475 0.226518 0.967734
-0.109329 -0.854396 0.018437 -0.722344 -0.687753 -0.071147
0.379186 0.295452 -0.040307 0.109146 0.301114 0.940224
0.087714 -0.734162 0.034476 0.071376 -0.373282 0.920698
-0.111904 -0.811141 -0.047018 -0.868841 -0.491764 0.039722
-0.513167 0.129705 0.067698 -0.760166 0.6343 0.102856
-0.489428 0.163331 0.004755 -0.776628 0.629589 -0.019252
0.099057 0.52662 0.043516 0.284454 0.537482 0.792413
0.447731 0.278172 -0.049828 0.428953 0.688829 0.568799
0.173511 0.288765 0.04182 0.895208 -0.047316 0.431871
-0.126701 -0.251374 -0.017577 -0.916733 0.020387 -0.394335
0.190958 -0.06167 -0.065306 0.885315 -0.033684 -0.461906
0.555443 0.150652 -0.013969 0.631642 0.118028 -0.758671
-0.111071 -0.784321 -0.006777 -0.854211 0.004566 0.516428
-0.050851 -0.084159 0.1263 -0.251048 -0.062104 0.962313
0.088443 -0.030744 0.129349 0.113133 -0.063363 0.991328
0.433961 0.231062 -0.032065 -0.632137 -0.485465 0.589626
0.100969 0.753097 -0.053087 0.946531 -0.234345 -0.214775
0.148404 0.00511 -0.126814 0.677191 0.120987 -0.725704
0.034459 0.190369 0.129881 0.040036 0.025319 0.998828
-0.449002 0.176517 -0.048689 -0.520429 0.377776 -0.763607
-0.026619 0.183204 -0.111129 -0.316026 -0.251455 -0.914476
-0.06806 0.448509 0.083911 -0.26488 0.280174 0.920085
0.134511 0.271723 0.087896 0.684345 0.04312 0.725791
-0.055704 -0.864287 0.071784 -0.004001 -0.999987 0.00119
-0.13661 -0.21169 0.018692 -0.995499 -0.082653 -0.038228
0.0259 0.279447 0.124969 -0.007179 0.192803 0.980323
-0.134727 -0.445724 -0.03054 -0.929626 0.128572 -0.342578
0.434285 0.204556 -0.073501 -0.46308 -0.88083 0.09156
0.045812 0.861934 -0.054034 0.095996 0.939221 -0.324249
-0.105127 0.380209 0.062011 -0.731775 -0.206671 0.648235
0.057839 -0.533687 -0.059022 -0.826633 -0.071836 -0.533645
-0.118456 -0.517935 -0.069342 -0.752235 0.13649 -0.643877
0.052332 -0.534822 -0.050598 -0.865243 -0.055377 -0.497747
-0.162682 0.543356 -0.030695 -0.619773 0.765098 -0.16921
0.17769 -0.102931 -0.0825 0.787673 -0.088546 -0.609626
-0.552719 0.055532 0.022322 0.88887 -0.437378 -0.118258
0.19373 0.381894 0.006157 0.967976 -0.119906 0.219967
-0.123369 -0.391446 -0.037692 -0.856048 -0.039988 -0.51359
0.196088 -0.183612 -0.056194 0.770471 0.016422 -0.634317
-0.315127 0.253691 0.00347 0.321289 -0.272567 0.896773
0.1003 -0.417698 0.052211 -0.556169 -0.331451 0.760924
0.086498 -0.318724 0.071963 -0.375727 -0.1253 0.918124
-0.071347 0.541393 0.034527 -0.098293 0.681143 0.72501
0.559349 0.161747 0.016622 0.733562 0.67937 0.010078
0.122576 0.158062 -0.106404 0.446716 0.150384 -0.881886
0.013117 0.334858 0.114224 -0.173867 0.188671 0.965045
0.63001 0.034697 0.089487 -0.872032 -0.445976 0.048461
0.335652 0.306611 -0.050665 -0.543665 -0.563941 0.620328
-0.024595 -0.836866 0.053998 0.956867 0.281628 0.05477
0.016472 -0.703821 -0.070117 0.816231 0.080999 -0.569977
0.02491 -0.386036 -0.011959 0.972165 -0.047525 -0.214071
0.061495 0.785628 0.079582 0.515254 0.14138 0.801787
0.142185 0.431641 -0.142583 0.253718 -0.166488 -0.952602
0.175412 0.415372 0.048933 0.593998 0.00252 0.803283
0.500572 0.179425 -0.051033 0.032065 -0.459641 -0.886777
0.052109 -0.171254 0.068806 -0.795891 -0.03467 0.603412
0.205547 -0.404095 -0.007413 0.992277 -0.112025 -0.003015
0.331393 0.389769 -0.051194 0.891583 -0.238912 0.370247
-0.118764 0.30587 -0.041903 -0.978616 -0.18931 -0.064174
-0.054095 0.075104 0.11324 -0.453124 0.124497 0.881355
0.208499 -0.003138 0.003656 0.968891 0.2263 -0.075216
0.548963 0.113674 0.019949 -0.918438 -0.366243 0.12073
-0.257447 0.427133 -0.017932 -0.751627 0.624967 0.210845
0.086801 -0.813679 -0.09428 -0.832153 0.116223 -0.539002
-0.046463 -0.087354 -0.111729 -0.017319 -0.230561 -0.972572
0.192277 -0.249227 -0.052806 0.766577 -0.145258 -0.624526
-0.057726 -0.339431 -0.088184 -0.163403 -0.044792 -0.980814
0.00833 0.349883 -0.127158 0.07246 -0.017926 -0.997136
0.15219 -0.864857 -0.080561 0.69178 -0.689586 -0.075636
0.170991 0.256611 0.047411 0.744779 0.079365 0.662169
0.642296 0.036202 0.025636 0.98453 0.165261 -0.017427
0.203994 -0.254758 -0.024166 0.987594 -0.034252 -0.146101
0.016616 0.606384 0.022911 -0.472496 -0.068071 0.877574
-0.361635 0.309861 -0.06258 -0.652359 0.721414 -0.231951
0.171814 0.115385 -0.065718 0.792567 0.270199 -0.546421
-0.117616 -0.4321 0.063966 -0.82028 -0.193776 0.537362
0.183273 0.275173 -0.003888 0.999347 -0.019685 -0.003345
-0.051851 -0.142172 0.122945 -0.065909 -0.118265 0.990331
0.001188 -0.694117 -0.080791 0.492092 0.241801 -0.836211
-0.240627 0.367557 -0.097823 0.076054 -0.063284 -0.994504
-0.043872 -0.183954 -0.094523 0.167482 -0.053264 -0.982528
-0.135177 0.051548 -0.010339 -0.984413 0.12541 -0.104356
-0.112266 -0.337538 -0.04918 -0.796748 0.077413 -0.598255
0.515619 0.153625 -0.006697 -0.654549 -0.755616 0.022728
0.133419 -0.716889 -0.094761 0.374745 0.113592 -0.916501
-0.127104 0.37619 -0.027438 -0.980379 -0.192389 0.007597
0.19858 -0.647532 -0.022121 0.996171 -0.022393 0.076204
0.151879 -0.193412 0.095007 0.160597 -0.135897 0.975254
-0.007495 -0.501156 -0.074742 0.744613 0.073637 -0.66315
-0.116381 0.108687 0.054056 -0.850721 0.19833 0.48655
-0.080258 -0.167859 -0.087689 -0.57858 -0.137879 -0.803746
-0.328202 0.326206 -0.081416 -0.422003 0.651542 -0.626612
0.011159 0.756175 0.072282 -0.454047 0.006723 0.876151
0.187824 -0.50052 0.037581 0.886873 -0.123662 0.443398
0.063983 0.808551 0.069303 0.498238 0.428356 0.753368
-0.061408 -0.357433 -0.086292 -0.231542 -0.067448 -0.967583
-0.023966 -0.170594 -0.088068 0.461075 -0.041154 -0.885709
-0.06129 0.147449 0.100665 -0.562732 0.099127 0.82056
0.049172 -0.272716 0.047008 -0.85201 -0.088551 0.515617
0.013559 0.86286 0.023618 -0.143774 0.975204 0.115584
0.131871 0.22154 0.093753 0.598396 0.068579 0.798062
0.151641 -0.26936 0.08236 0.131831 -0.071611 0.988165
-0.060056 0.358403 -0.121233 -0.365642 -0.044186 -0.929656
-0.137937 -0.004019 0.018531 -0.994799 -0.01848 0.028357
-0.072891 0.155036 0.092799 -0.646458 0.001648 0.762736
-0.018474 0.616563 -0.039813 -0.867667 0.427805 -0.240172
0.157551 -0.864544 0.096394 0.285235 -0.955725 0.011864
0.05437 0.329432 0.114563 0.205354 0.187192 0.960264
-0.124039 -0.161009 -0.038506 -0.818974 -0.171558 -0.547122
-0.143534 -0.065639 -0.002989 -0.994729 0.020388 -0.091272
0.00161 -0.340893 0.073689 0.689187 -0.107857 0.715599
-0.037862 0.254864 0.109013 -0.419227 0.029494 0.905252
-0.103423 -0.002036 -0.098774 -0.816075 0.000134 -0.575363
0.608147 0.071764 0.012449 -0.274394 -0.707029 -0.623968
-0.143207 -0.055037 -0.003407 -0.994504 0.024106 -0.091273
0.108279 0.179325 0.109046 0.545914 0.050763 0.83612
0.089234 -0.825917 0.050906 -0.98602 -0.032693 0.130148
0.238761 0.452755 -0.13394 0.00919 0.14794 -0.987683
-0.114089 0.016541 -0.080787 -0.87467 0.039602 -0.482283
-0.026827 0.558006 0.026394 0.057771 0.827266 0.555274
0.194581 0.157905 -0.012338 0.843579 0.373667 -0.358464
0.063707 -0.739497 -0.022761 -0.860483 0.011105 -0.505434
0.174623 -9.5e-05 -0.095298 0.836081 0.09158 -0.540047
0.016405 -0.641603 0.006116 0.802762 -0.087082 0.586676
0.152336 0.111272 -0.093927 0.738938 0.241888 -0.628691
0.001036 -0.83009 -0.080233 0.582817 -0.757178 -0.052895
0.029817 0.402535 0.100986 0.100936 0.312148 0.944207
-0.049491 -0.739062 -0.124156 0.2132 0.336057 -0.909485
0.205754 -0.087578 0.050135 0.922175 -0.042962 0.378671
0.005799 0.802563 -0.112628 -0.310527 0.279887 -0.906737
0.151881 0.353295 0.067344 0.679782 -0.117357 0.723584
0.145195 0.325499 0.071915 0.772649 0.00327 0.634185
0.08242 0.618742 -0.007017 0.93447 0.066192 0.343273
-0.038107 0.589498 -0.071578 -0.339909 0.881934 -0.290908
0.28484 0.334493 -0.095599 -0.629877 -0.76278 -0.141904
-0.014807 -0.417318 -0.070674 0.667724 0.145968 -0.729731
0.132004 -0.73205 0.017537 0.416422 0.355224 0.819598
-0.378147 0.296857 -0.038055 -0.716562 0.695641 0.044615
0.138645 -0.192974 0.095989 0.046447 -0.151054 0.986855
-0.137628 -0.185142 0.037613 -0.99189 -0.064838 0.092454
0.334377 0.373625 -0.050712 0.688244 0.364613 0.620502
0.171414 -0.264015 0.077355 0.40653 -0.064805 0.911164
0.008736 0.284962 -0.12908 0.128079 0.000346 -0.991667
0.063919 -0.571478 -0.06245 -0.723101 -0.107764 -0.682227
0.008768 -0.729835 -0.083461 0.732333 0.108027 -0.671821
-0.163865 0.496221 -0.082424 -0.469959 0.327324 -0.818811
0.131234 0.585648 -0.050901 0.552474 0.810211 0.163113
0.041558 -0.125717 -0.08623 -0.506822 -0.391563 -0.767529
-0.028306 0.714667 -0.023673 -0.901554 -0.398508 -0.139185
-0.14061 -0.147497 0.043139 -0.950555 -0.044844 0.307154
0.003474 0.837028 0.049674 -0.682415 0.36652 0.630483
-0.1257 -0.542248 0.007891 -0.868517 -0.158295 0.464464
0.213615 -0.133213 0.000821 0.99087 -0.124503 -0.000488
0.056124 0.865588 0.004307 0.317123 0.934952 0.143012
-0.165508 0.458724 -0.091382 -0.285755 0.151628 -0.945156
0.103772 -0.05051 0.123241 0.201197 -0.234758 0.946528
-0.045164 0.554078 -0.103898 -0.275171 0.486224 -0.827997
0.070683 0.043039 0.134409 0.227805 0.185021 0.953461
0.101972 -0.795086 0.051786 -0.293341 0.476778 0.82558
0.095362 -0.374123 -0.097164 -0.4368 -0.060099 -0.893439
-0.026954 -0.624619 0.023811 0.419297 -0.1234 0.898842
0.156522 0.216019 0.067617 0.77764 0.081035 0.62345
0.065483 -0.571342 0.007958 -0.628642 -0.027951 0.776833
0.178515 -0.436523 0.063772 0.551999 -0.042163 0.830262
-0.137836 0.558213 -0.018374 -0.334353 0.939459 -0.009506
-0.098574 -0.09164 0.108384 -0.548889 0.061451 0.83251
-0.031633 -0.22019 -0.089597 0.264753 -0.001994 -0.963959
-0.123474 -0.329042 -0.029761 -0.900264 0.011704 -0.432169
0.152346 -0.796625 0.031392 0.629689 0.44129 0.638088
-0.109057 0.298292 0.027244 -0.957041 0.003598 0.289276
0.314934 0.395247 -0.143504 0.181238 0.088788 -0.971613
-0.07274 -0.083204 -0.106563 -0.436671 -0.225979 -0.868071
-0.005092 -0.648917 -0.074585 0.599876 0.086828 -0.794745
0.106028 0.56998 -0.000382 0.397036 0.718533 0.570883
-0.086116 -0.633768 0.046358 0.237433 -0.358364 0.901285
-0.079888 0.516952 0.05162 -0.11856 0.504461 0.854461
0.192279 0.092547 -0.039945 0.929902 0.238146 -0.276271
0.10766 -0.340281 0.075989 -0.266107 -0.174759 0.94726
0.254598 0.453724 -0.004494 0.365146 -0.229483 0.901776
-0.129025 -0.163553 -0.029873 -0.853295 -0.143151 -0.50096
-0.014383 0.343221 -0.128915 0.004651 0.016632 -0.999587
-0.092475 -0.826645 0.068053 -0.576205 0.792169 0.152966
-0.485693 0.141567 0.071163 0.364556 0.465488 0.803973
-0.123166 -0.446902 0.049556 -0.859418 -0.187529 0.474047
-0.037552 0.821386 -0.002617 -0.913638 -0.140957 0.353752
0.004584 -0.248686 -0.063352 0.758213 -0.078184 -0.647173
-0.113933 -0.036305 -0.079921 -0.824618 -0.077151 -0.560336
0.277834 0.489986 -0.088743 0.644534 0.62359 -0.440864
-0.109907 -0.167922 0.102944 -0.670803 -0.018929 0.741247
-0.078958 -0.076857 0.11831 -0.450659 -0.027738 0.89075
0.036174 -0.301646 0.003619 -0.820889 -0.051563 0.513095
-0.114326 0.358869 0.032541 -0.916306 -0.250426 0.310707
0.099294 0.346137 0.099359 0.292982 0.113129 0.948271
0.086665 -0.644484 0.022163 -0.585198 0.435515 0.681096
0.444364 0.243784 -0.106179 0.61956 -0.308575 -0.721166
-0.091869 -0.856921 -0.046506 -0.629303 -0.759892 0.08064
0.060662 0.506374 0.062907 0.056072 0.51329 0.855779
0.628242 0.063507 0.019601 0.822622 0.495405 -0.226022
0.261648 0.51564 -0.054184 0.718767 0.695141 0.009401
0.165704 -0.56502 -0.091596 0.617497 -0.054409 -0.783639
0.095244 0.787897 -0.077095 0.891851 0.090675 -0.438964
0.088596 -0.835876 -0.051236 -0.999104 0.018507 -0.000412
-0.114137 0.202114 0.048285 -0.926339 0.032458 0.371606
-0.428351 0.227558 -0.050039 -0.662865 0.2252 -0.708142
0.055788 0.782931 -0.115332 0.391996 0.025152 -0.9186
-0.545487 0.071996 0.01614 0.791461 -0.412015 -0.444998
-0.017448 -0.333028 -0.073425 0.697037 -0.084546 -0.71185
-0.050577 -0.706358 0.014127 -0.285125 0.034803 0.953983
-0.163911 0.543162 -0.019722 -0.644565 0.763365 -0.028213
0.077207 -0.455232 -0.082264 -0.705862 0.034613 -0.707462
-0.003211 0.830839 0.045701 -0.661659 0.402206 0.631364
-0.024645 0.838909 -0.052232 -0.563301 0.763016 -0.314495
0.615818 0.065699 0.013653 -0.425629 -0.559744 -0.637057
0.024782 0.744108 -0.11494 -0.096576 -0.440606 -0.890664
0.117636 0.202535 -0.111141 0.52995 -0.30768 -0.789818
0.021167 0.41244 -0.127971 -0.030479 0.031945 -0.998672
0.249449 0.492239 -0.002806 0.591439 0.219841 0.77572
0.150553 0.427823 0.069592 0.677283 0.10723 0.727531
-0.124362 -0.593272 -0.002927 -0.943694 0.023131 0.329561
-0.025003 0.183974 0.119939 -0.526976 0.075243 0.843792
0.073126 -0.781263 0.03079 -0.545828 0.136302 0.814191
0.121118 -0.459321 0.052848 -0.598272 -0.095679 0.795047
0.476103 0.254089 -0.045875 0.713226 0.69522 0.081456
-0.13861 -0.062006 0.046459 -0.967729 0.042516 0.248163
0.080415 -0.211249 -0.090813 -0.44586 -0.181586 -0.87627
0.139304 -0.830717 0.152572 0.394095 0.899246 0.183519
-0.570329 0.027679 0.045047 -0.121555 -0.970098 0.013936
-0.039497 -0.862445 0.111785 0.254442 -0.956348 0.127644
0.108869 -0.203655 -0.103005 -0.143436 -0.176801 -0.973073
0.440057 0.289518 -0.058028 0.406079 0.803944 0.415553
0.143052 -0.400455 0.072982 -0.178314 -0.137991 0.972672
-0.021027 0.43897 0.095911 -0.130638 0.232855 0.96285
-0.001705 0.222893 0.125352 -0.339399 0.151714 0.92714
0.197395 -0.541881 -0.055959 0.908803 -0.00943 -0.409212
0.201823 -0.168463 0.040745 0.94508 -0.116024 0.299078
-0.127641 -0.322504 -0.014705 -0.99066 -0.002259 -0.132886
0.137623 -0.826568 0.118059 0.271141 0.95804 0.063528
0.086615 -0.755574 0.015937 -0.038191 -0.769548 0.635685
0.198205 -0.006712 0.057048 0.877291 -0.067104 0.464782
0.175159 -0.116485 0.093211 0.691564 -0.004602 0.722166
0.100874 0.46093 -0.146004 -0.089177 0.077175 -0.992945
0.025091 -0.641866 -0.047338 0.92393 0.083546 -0.365008
-0.002141 -0.594269 -0.069322 0.722023 0.00323 -0.691809
0.187837 -0.217173 -0.06253 0.630232 -0.036345 -0.774672
-0.124499 0.205006 0.014178 -0.901084 0.388825 0.178123
-0.084591 0.130979 0.084143 -0.669862 0.024042 0.741965
0.001796 0.641831 0.01848 -0.737092 -0.237148 0.632517
0.163915 -0.805515 0.022886 0.835812 0.304172 0.451929
-0.115276 0.428834 0.062197 -0.267216 -0.002889 0.962236
-0.10296 -0.826479 -0.069468 -0.963569 -0.185525 -0.14011
-0.032337 0.400451 0.1039 -0.148876 0.162004 0.973258
0.0044 -0.245675 0.093301 0.591984 -0.154302 0.786872
0.022545 -0.712363 -0.035905 0.942495 -0.13547 0.301539
-0.545085 0.062401 0.038336 0.550552 -0.831292 -0.059447
-0.224449 0.442294 0.024198 -0.712084 0.287011 0.639302
-0.134253 -0.4284 0.026609 -0.96544 -0.02366 0.252951
0.258639 0.510697 -0.025443 0.728532 0.556391 0.395541
0.114591 -0.374102 -0.10158 0.029009 0.04745 -0.993513
0.165842 -0.705234 0.006983 0.39825 -0.571181 0.71656
0.043525 0.807227 -0.114053 0.141935 0.381278 -0.90763
0.192244 0.370906 0.005335 0.964841 -0.138345 0.222089
0.065347 -0.201083 0.078105 -0.653153 -0.080028 0.752969
-0.028277 0.238324 -0.127766 -0.129082 -0.129772 -0.982122
-0.125679 0.022163 0.071276 -0.837382 0.211704 0.502181
0.127322 0.555366 0.004227 0.282365 0.719559 0.633565
0.167694 0.525782 -0.120948 0.201508 0.506945 -0.837664
-0.048114 -0.3525 -0.087655 0.104481 -0.086467 -0.988295
-0.018321 0.611004 -0.018551 -0.910772 0.266811 0.297015
0.002139 -0.827882 -0.038705 0.907513 -0.392903 0.138503
-0.136025 -0.540305 -0.033749 -0.995164 -0.03674 -0.054145
-0.011749 0.671446 -0.025147 -0.991658 -0.100714 -0.070454
0.015085 0.432239 0.096688 0.107962 0.148707 0.982937
0.142059 0.428552 0.074211 0.457978 0.12508 0.878795
-0.115428 0.395196 -0.097785 -0.689212 -0.248479 -0.6781
-0.066335 0.325245 -0.117086 -0.499772 -0.022602 -0.865814
0.10338 -0.006132 -0.153427 0.249844 -0.001242 -0.965227
0.065226 0.174532 -0.119202 -0.024573 0.110309 -0.991475
-0.09001 -0.34582 0.103494 -0.090817 -0.096785 0.98833
0.251575 0.369323 -0.049385 -0.658379 -0.653617 0.371681
-0.3581 0.229347 0.00933 0.141116 -0.179887 0.968944
0.017153 -0.264617 -0.04348 0.870896 -0.085559 -0.47815
-0.106746 -0.080658 0.100951 -0.701627 0.052627 0.710323
0.062574 0.578998 -0.100515 -0.006683 0.657604 -0.752901
0.083091 -0.060434 -0.138253 -0.121796 -0.370864 -0.920012
0.179402 0.510223 0.023602 0.42238 0.444653 0.789215
0.143675 0.529045 -0.124438 0.212246 0.518888 -0.827406
0.179918 -0.274782 0.073738 0.453424 -0.012685 0.890257
0.180573 -0.197632 0.084195 0.574797 -0.107579 0.807876
0.122253 0.261408 0.097429 0.523871 0.056772 0.84956
-0.012163 0.141091 -0.114756 -0.2239 0.49621 -0.836337
-0.03988 -0.721674 -0.116122 0.465311 0.22354 -0.855899
0.256007 0.519908 -0.03746 0.701293 0.682637 0.192984
-0.277736 0.401763 -0.067289 -0.498997 0.785156 -0.346684
0.534841 0.187313 0.020597 0.590085 -0.066665 0.725184
0.170577 0.168518 -0.057747 0.88749 0.045864 -0.442375
0.056867 -0.127186 -0.096879 -0.576788 -0.250615 -0.776991
-0.10585 0.208374 0.063659 -0.785146 0.026391 0.615794
0.347075 0.382926 -0.09573 0.900768 0.408874 0.105868
-0.287759 0.361214 -0.083605 -0.645439 0.424343 -0.630854
-0.064317 -0.235329 0.113535 -0.03518 -0.113601 0.992623
0.002201 -0.179493 -0.066808 0.745211 0.042859 -0.665093
0.172029 -0.198015 0.088915 0.381977 -0.11627 0.916143
0.194263 -0.332002 -0.034419 0.800863 0.085522 -0.590462
0.12808 -0.268469 0.08399 0.05301 -0.085501 0.994594
-0.337868 0.269335 -0.087907 -0.039538 -0.34878 -0.93452
-0.024739 0.387192 0.105816 -0.051186 0.0653 0.996533
-0.053486 -0.287806 -0.092166 -0.094471 -0.07422 -0.991188
0.556673 0.164528 0.00678 0.742761 0.668857 -0.027604
0.137273 0.226115 -0.102181 0.749228 -0.225953 -0.62156
-0.126666 -0.703331 -0.063496 -0.964779 -0.074123 -0.243364
-0.128147 -0.3393 -0.00417 -0.999251 0.007196 -0.029696
-0.020359 -0.182432 0.117052 0.465801 -0.11775 0.876798
0.104047 0.42796 0.087184 0.217675 0.242524 0.944385
0.169498 0.22646 0.05182 0.754325 0.066152 0.650801
0.598202 0.104088 0.008588 0.686497 0.349873 -0.614906
-0.002585 -0.735434 0.001346 0.635061 -0.374697 0.665979
-0.021555 -0.775124 0.012221 0.709814 0.586503 0.385187
0.034332 0.423621 -0.128629 -0.148923 0.047846 -0.986322
0.112518 0.139814 -0.115192 0.423418 0.247082 -0.870781
0.027949 -0.301363 0.029046 0.994706 -0.00723 0.102479
0.041279 0.428483 0.093755 0.116334 0.323225 0.938454
0.095767 -0.854338 -0.009518 -0.702239 -0.708137 0.021974
-0.084484 -0.672532 0.033075 0.167328 -0.352658 0.915656
0.063681 -0.528283 0.006541 -0.653869 -0.031466 0.754315
0.075113 -0.646812 0.014233 -0.488135 0.396817 0.766072
0.245386 0.371959 -0.112337 -0.613729 -0.716061 -0.313244
-0.016963 -0.278151 -0.080945 0.649978 -0.095973 -0.753611
0.40794 0.279322 -0.127592 0.154074 0.084345 -0.980435
0.165003 -0.792008 -0.094313 0.762004 0.178363 -0.618228
0.122459 -0.315693 0.080965 -0.05683 -0.067622 0.995394
0.054375 -0.470341 -0.058848 -0.772619 0.034737 -0.633113
0.188964 -0.038341 -0.072351 0.865328 -0.036836 -0.496961
0.086241 -0.845931 0.048113 -0.980224 0.173219 -0.053259
-0.041382 -0.170062 0.122812 0.043774 -0.056147 0.996583
0.060723 -0.668588 -0.042804 -0.824521 -0.188329 -0.527179
0.5938 0.057349 0.020232 0.944766 -0.272898 0.0849
0.072847 -0.775766 -0.0534 -0.866028 0.194886 -0.459933
0.027677 0.569866 -0.104223 -0.074751 0.413079 -0.907464
0.478453 0.210151 -0.069503 0.230129 -0.524965 -0.813063
0.632778 0.038164 0.107831 0.1092 -0.238766 0.938053
0.372363 0.270267 -0.045736 -0.590696 -0.450441 0.660703
0.080683 0.83809 -0.06378 0.679451 0.596784 -0.423728
0.407173 0.222213 -0.075395 -0.613582 -0.784832 0.081526
0.128866 0.018607 -0.140507 0.517494 0.035228 -0.854823
-0.094069 -0.672354 -0.101608 -0.508502 -0.033333 -0.859499
0.33785 0.414298 -0.063093 0.765936 0.484135 0.422031
0.109691 -0.855501 0.172394 -0.678125 0.276843 0.65028
0.285122 0.403523 -0.143402 -0.107184 0.1169 -0.984245
0.210113 -0.097863 0.037393 0.93894 -0.021898 0.343172
0.21227 -0.04024 0.024026 0.976519 0.025056 0.211784
0.169585 0.298521 -0.068284 0.858898 -0.248885 -0.446404
0.01734 -0.738635 -0.023837 0.920063 -0.120725 0.367861
0.031085 0.569692 0.026484 0.052027 -0.014504 0.997964
0.165625 0.032725 -0.105488 0.781063 0.09037 -0.616598
0.073455 -0.050334 -0.140947 -0.203646 -0.414901 -0.886037
-0.109077 -0.583055 0.032691 -0.905633 0.020846 0.42225
0.138155 -0.751815 -0.098929 0.396593 0.17575 -0.883751
0.062416 -0.654896 0.01274 -0.302206 0.296372 0.90443
0.201411 -0.220666 0.038226 0.952656 0.02773 0.302666
-0.445675 0.192816 -0.043515 -0.587062 0.252682 -0.766057
0.052688 -0.700655 0.006622 -0.99301 0.01986 0.11055
-0.071764 0.13651 -0.096268 -0.502315 0.24446 -0.826276
0.190944 0.34983 0.001275 0.972041 -0.055094 0.225484
-0.08233 0.33792 0.078696 -0.718845 -0.020588 0.691072
0.157338 0.437457 0.061963 0.740299 0.08407 0.66688
0.205483 -0.332192 -0.007133 0.993904 0.029203 -0.102592
0.16731 0.405876 -0.126938 0.282292 -0.399096 -0.869938
0.088463 -0.848657 -0.040596 -0.975052 -0.144576 0.113415
-0.016025 0.698887 -0.045306 -0.784405 -0.48948 -0.375961
0.076713 -0.425733 0.025142 -0.697524 -0.349624 0.625356
-0.127272 -0.737146 -0.037888 -0.993559 -0.017418 0.105012
-0.023627 0.761162 -0.088823 -0.782227 -0.218371 -0.581077
-0.036705 -0.620605 0.028219 0.340233 -0.150257 0.927518
0.008335 0.23324 -0.12746 0.098895 0.002291 -0.994999
0.379617 0.349321 -0.10607 0.71576 0.669952 -0.172276
0.244408 0.527103 -0.026941 0.671731 0.648615 0.352828
-0.075453 -0.398897 -0.07858 -0.354222 -0.052008 -0.932199
0.057764 0.556742 0.024071 0.203677 0.499828 0.840517
0.090589 -0.815461 0.052039 -0.845614 0.289804 0.424437
0.195685 -0.740232 -0.021664 0.923579 -0.3279 -0.131157
0.065147 -0.70992 -0.03625 -0.801212 -0.283559 -0.526349
0.0477 -0.491493 -0.014165 -0.948792 0.000772 0.302022
0.109313 0.025476 0.123258 0.420528 0.310868 0.85225
-0.12827 -0.327463 -0.00148 -0.999686 -0.006319 -0.019664
0.197568 0.046556 -0.043386 0.95079 0.097181 -0.290495
0.078283 -0.770741 0.017424 -0.000495 0.812229 0.581828
0.198817 -0.039184 -0.050023 0.943274 -0.008583 -0.329713
-0.128046 -0.37382 -0.020399 -0.994374 0.015008 -0.097577
0.38867 0.241503 -0.053285 -0.64343 -0.675663 0.345842
0.099926 -0.780711 -0.09755 -0.646838 0.411107 -0.636941
0.016558 -0.760277 -0.035692 0.909813 -0.231864 0.316667
-0.467172 0.134532 0.041834 0.73277 -0.612558 0.275595
0.337843 0.361478 -0.136908 0.280504 0.056796 -0.945767
0.142422 0.581764 -0.062537 0.255351 0.95446 -0.091948
0.582772 0.05782 -0.028059 -0.170928 -0.062321 -0.867202
0.430813 0.254281 -0.029542 -0.1442 0.355875 0.917986
0.331792 0.422524 -0.062364 0.770958 0.461695 0.438304
-0.46727 0.189472 -0.000239 -0.747624 0.66116 0.041256
-0.086811 0.574205 -0.041774 -0.342549 0.934356 -0.06991
-0.00944 0.547742 -0.113181 -0.021849 0.363119 -0.9301
0.164779 0.349399 -0.102681 0.672061 -0.31149 -0.671069
0.126301 -0.614505 0.036208 -0.055148 0.136612 0.986284
0.119829 0.503637 0.0513 0.281599 0.502983 0.816313
-0.529345 0.094966 0.084405 -0.576682 0.073805 0.743853
0.022714 -0.637542 -0.003576 0.864667 -0.118081 0.487054
-0.176824 0.526445 -0.045009 -0.599552 0.705224 -0.373569
0.042858 -0.250639 0.02962 -0.993651 -0.008268 0.112069
-0.044155 -0.431485 0.079613 0.236532 -0.226544 0.944018
0.148493 -0.749211 -0.091176 0.696508 0.154593 -0.700224
-0.031512 0.527979 -0.117617 -0.184141 0.401556 -0.895603
0.198112 0.460927 -0.134584 0.091022 -0.024283 -0.995232
-0.024739 -0.407848 0.078556 0.439541 -0.198989 0.873746
0.073854 -0.395047 -0.078357 -0.674152 -0.042273 -0.73734
0.177632 0.181334 -0.039116 0.926378 0.068286 -0.370087
0.0857 -0.416443 0.040204 -0.650841 -0.357818 0.668848
-0.564455 0.055823 0.036318 -0.96249 0.259563 0.00221
-0.096761 0.541643 -0.088597 -0.384073 0.594793 -0.705321
0.030835 -0.185713 0.034534 0.741699 -0.280169 0.573366
0.090327 0.723218 0.046638 0.984113 -0.005883 0.177207
0.074785 -0.496002 -0.080985 -0.698033 -0.012331 -0.715877
-0.101698 -0.101845 -0.079761 -0.709023 -0.106408 -0.696755
-0.067938 -0.669256 -0.109271 -0.068168 0.100333 -0.989636
0.064094 0.60702 -0.07655 0.205508 0.644317 -0.7357
0.172437 0.309338 -0.069776 0.840138 -0.291987 -0.456138
0.028301 0.17264 0.130646 0.014508 0.039146 0.998976
-0.036149 0.798129 -0.053586 -0.995874 -0.025221 -0.083637
-0.002465 -0.77839 -0.113921 0.836734 0.286045 -0.465986
0.048382 0.394275 0.101926 0.12465 0.316092 0.939563
-0.006514 -0.794573 -0.130073 0.818448 0.123137 -0.549675
0.184336 0.294907 -0.022068 0.970089 -0.206414 -0.11878
-0.470037 0.183466 0.013523 -0.641517 0.710269 0.259214
0.415424 0.312269 -0.069035 0.642156 0.693625 0.31383
0.17655 0.048747 -0.085157 0.819307 0.196127 -0.537873
0.041994 0.083757 -0.144938 -0.14033 0.224561 -0.964171
0.15898 -0.864192 0.10831 0.255193 -0.963977 0.016088
0.184091 -0.661649 0.015009 0.641174 -0.116416 0.753942
0.181486 -0.041686 -0.085607 0.850297 -0.090553 -0.517215
-0.352481 0.222283 0.005281 0.364819 -0.460401 0.792665
-0.043531 -0.863041 -0.103853 0.049457 -0.998067 -0.021845
0.105726 -0.175558 0.099195 -0.216373 -0.220729 0.947127
-0.114959 0.150638 -0.042613 -0.883465 0.14446 -0.445152
-0.388889 0.187631 -0.002014 0.666034 -0.738751 0.090689
0.115501 0.591294 -0.061374 0.417198 0.886268 -0.065355
0.186957 0.415518 -0.12645 0.244692 -0.393911 -0.885392
0.025813 -0.579118 -0.028109 0.958928 0.099186 -0.23747
0.062911 -0.307559 -0.073358 -0.787403 -0.009148 -0.616305
0.190993 -0.063743 0.073327 0.759955 0.073151 0.645471
0.177819 -0.414674 -0.069616 0.684563 0.069289 -0.725181
-0.129854 -0.510989 -0.051131 -0.863606 0.069135 -0.498467
-0.013473 0.825211 -0.08681 -0.463891 0.659366 -0.59074
0.143343 -0.714232 -0.089064 0.529262 0.05339 -0.84307
-0.335595 0.233041 0.0029 0.376383 -0.419907 0.819743
-0.192258 0.359796 -0.002841 0.457074 -0.721679 0.517917
0.420084 0.292066 -0.047696 0.321359 0.629235 0.706681
0.277138 0.455977 -0.014377 0.57964 0.147663 0.798706
0.130302 -0.612085 -0.09946 0.036392 -0.1337 -0.987435
-0.04333 -0.012029 -0.134973 -0.217895 -0.114035 -0.968357
0.083102 -0.434047 0.027485 -0.672909 -0.354409 0.648768
-0.403843 0.180724 -0.035912 0.478446 -0.83021 -0.271651
-0.003304 -0.067896 0.127463 0.178958 -0.134667 0.972872
0.193461 0.360317 -0.007549 0.980821 -0.099942 0.166904
0.007071 -0.464825 0.03624 0.753763 -0.090399 0.650301
0.184073 -0.617837 -0.070425 0.672093 -0.082053 -0.735717
0.205007 0.000526 -0.024382 0.969388 0.095924 -0.214542
0.001111 0.263574 0.122181 -0.372446 0.077756 0.924197
-0.136606 0.030804 0.042451 -0.966048 0.16441 0.191743
0.095735 -0.246355 -0.095626 -0.365953 0.019363 -0.928569
-0.099894 -0.070959 -0.088948 -0.70121 -0.233646 -0.673291
0.201647 -0.492815 -0.027683 0.986537 0.127101 -0.094864
-0.048259 -0.862837 -0.083082 0.044824 -0.997185 0.054484
0.144788 -0.26232 -0.085803 0.533301 -0.105971 -0.83911
0.058385 0.237824 -0.130216 -0.269598 -0.128345 -0.951754
-0.105323 -0.011547 -0.095612 -0.836104 -0.032216 -0.547245
0.188579 -0.199632 0.076115 0.830807 -0.10942 0.531388
0.610708 0.08579 0.007559 0.300013 0.226141 -0.919392
0.640928 0.044232 0.047115 0.933021 0.34696 -0.000369
-0.023374 0.704138 0.028685 -0.912823 -0.361291 0.188285
-0.072311 0.210828 -0.091906 -0.750085 -0.148551 -0.643539
0.202381 -0.419017 -0.000828 0.974648 -0.182965 0.120562
0.012744 -0.293434 -0.045213 0.79688 -0.092364 -0.595729
0.076539 -0.258962 -0.086058 -0.543362 0.038182 -0.838525
-0.052073 -0.073184 0.127008 -0.212888 -0.079681 0.971853
0.092877 -0.052923 -0.142126 -0.01448 -0.363915 -0.930668
0.104213 0.373848 -0.14532 0.121096 -0.037856 -0.99001
0.113475 -0.250225 0.087309 0.032993 -0.144372 0.988608
0.148251 -0.58617 0.041733 -0.004964 -0.122932 0.992005
0.109873 0.226595 0.105712 0.428983 0.064189 0.900918
0.0964 0.804901 -0.06742 0.935505 0.197813 -0.282088
-0.049267 -0.544727 -0.10172 0.19052 0.03726 -0.980101
0.619932 0.052417 0.098312 -0.813376 -0.461911 0.291426
-0.096994 -0.833249 -0.091322 -0.95388 -0.145145 -0.259203
-0.080791 -0.861423 -0.105329 -0.18155 -0.973861 -0.110433
0.158981 0.106715 -0.087884 0.753844 0.271711 -0.596665
-0.008128 0.664463 -0.037675 -0.857202 -0.172505 -0.472681
0.09848 -0.3611 -0.099313 -0.317098 -0.018 -0.941582
0.088226 -0.062693 0.120451 -0.034597 -0.313944 0.948199
0.059878 0.056448 0.131655 0.035868 0.145645 0.98659
0.184564 0.193287 -0.004842 0.965627 0.244494 -0.034594
0.015652 -0.435824 0.027406 0.846112 -0.055691 0.529084
0.158152 0.126192 -0.081189 0.766466 0.176931 -0.617216
0.004403 -0.53039 -0.061892 0.807695 0.044879 -0.587842
-0.036337 -0.055657 -0.122811 -0.05798 -0.380094 -0.922252
0.486077 0.195888 0.007986 0.558435 0.671347 0.43537
-0.03304 -0.551742 0.04282 0.372097 -0.211831 0.903282
0.11922 0.282797 0.09796 0.496955 0.041656 0.866078
-0.213658 0.361385 -0.089529 0.345168 -0.493161 -0.795162
0.15129 0.236588 -0.086151 0.819815 -0.114227 -0.560458
0.076858 -0.815089 -0.073377 -0.88289 -0.145193 -0.375318
-0.383614 0.194599 -0.051368 0.222279 -0.901209 -0.337032
-0.267794 0.337958 0.01007 -0.097836 -0.189376 0.974412
0.167902 -0.073773 0.096619 0.613671 0.053372 0.786596
0.020594 -0.682127 -0.063032 0.710762 0.123378 -0.688495
-0.0628 0.027908 -0.135364 -0.387159 0.063581 -0.900566
-0.01556 0.23004 0.118577 -0.458595 0.115348 0.881095
0.074968 0.627418 0.007807 0.814577 -0.120724 0.565847
-0.298803 0.316067 0.006377 -0.150021 0.038224 0.986643
0.138136 -0.385724 0.074377 -0.145953 -0.139638 0.977868
0.022662 -0.172986 0.068494 0.931924 -0.154456 0.32597
-0.082273 -0.802204 -0.128508 -0.718696 -0.176828 -0.671282
0.120741 0.442525 -0.14664 0.069006 -0.036142 -0.996535
-0.305487 0.265312 0.003646 0.381283 -0.217279 0.895594
0.162218 -0.051333 0.100136 0.602818 0.004982 0.797588
0.082974 0.28582 -0.140207 -0.065812 -0.066209 -0.993628
0.096644 -0.767095 -0.085544 -0.773935 0.230703 -0.57085
-0.136448 0.03854 0.028985 -0.979273 0.188218 0.070154
-0.045905 -0.802413 -0.149651 -0.190091 -0.022845 -0.970916
-0.054633 0.205547 -0.104421 -0.528815 -0.311004 -0.789195
0.522314 0.147067 -0.010841 -0.718257 -0.69545 -0.006904
-0.185973 0.407901 0.02767 0.182134 -0.333882 0.922449
0.042814 -0.400801 -0.021115 -0.994339 -0.096524 0.009708
-0.287158 0.380504 -0.016311 -0.923564 0.235228 0.244274
-0.047216 -0.558977 -0.101419 0.323245 0.000436 -0.94565
-0.101599 -0.821687 0.004036 -0.951773 0.244696 0.18471
0.130064 0.580671 -0.081706 0.326317 0.845458 -0.408573
-0.00604 -0.19361 0.109192 0.62534 -0.096122 0.774219
-0.163677 0.372652 -0.024782 0.688924 -0.718364 0.08612
0.295698 0.412419 -0.141884 0.077168 0.296363 -0.948076
-0.128117 -0.358629 0.026568 -0.997545 0.014493 0.067187
0.177048 0.146057 -0.045485 0.888638 0.017607 -0.456603
-0.035492 -0.85994 0.004032 0.411944 -0.891674 -0.148438
0.252516 0.495789 -0.108781 0.497444 0.570127 -0.653496
-0.115822 -0.004988 0.088645 -0.77537 -0.247905 0.576458
0.018256 -0.565357 0.002491 0.82312 -0.022167 0.553291
-0.106507 -0.260413 -0.053629 -0.822324 -0.025956 -0.568357
0.151748 -0.686607 0.023592 0.312359 -0.394352 0.86288
0.584866 0.047819 0.006952 -0.847747 -0.529603 -0.000922
-0.168684 0.487685 0.050286 -0.456677 0.170591 0.868501
-0.428199 0.238762 -0.026103 -0.730992 0.682101 0.005039
0.108605 -0.119609 -0.120047 -0.017074 -0.189663 -0.980825
0.064413 0.049622 -0.156934 -0.065787 0.309374 -0.947099
-0.346815 0.223223 -0.061176 0.460878 -0.720507 -0.505736
0.184093 -0.77126 -0.042963 0.943456 0.147696 -0.272496
-0.034257 0.295307 0.108083 -0.579504 0.070046 0.811082
0.148294 -0.027179 0.109322 0.562472 0.018213 0.822952
-0.05493 0.193974 -0.10024 -0.526635 -0.234407 -0.816872
-0.137561 0.441334 0.058089 -0.391356 -0.173332 0.885086
0.168956 -0.280285 -0.066264 0.605121 -0.1638 -0.778704
0.063353 0.680636 0.080527 0.61933 0.114367 0.775524
-0.012751 -0.297195 -0.074109 0.680869 -0.131121 -0.720464
0.186946 -0.34728 0.059951 0.860764 -0.077665 0.502816
-0.113483 0.185901 0.048984 -0.885064 -0.019642 0.462758
-0.380476 0.235811 -0.077109 -0.154154 -0.304069 -0.938354
0.106348 0.752801 -0.01819 0.971581 0.224206 -0.007621
-0.012576 0.687704 -0.038967 -0.887475 -0.32933 -0.317643
-0.10273 0.102347 -0.07531 -0.789491 0.162619 -0.588893
0.151333 -0.044672 -0.123574 0.685834 -0.201926 -0.698293
-0.013572 -0.401188 0.074214 0.489635 -0.202059 0.846279
0.081086 0.512381 -0.132661 -0.304529 0.32162 -0.895655
-0.160695 0.387204 -0.069027 0.669118 -0.624323 -0.401937
0.003561 -0.701622 0.00156 0.851 -0.180648 0.492956
0.073895 0.137735 0.126599 0.366082 0.062201 0.920356
-0.135474 -0.172494 0.063627 -0.957308 -0.005949 0.269751
0.075787 0.099406 -0.142543 0.088761 0.40708 -0.905701
-0.441073 0.17274 0.032395 0.080043 0.668839 0.738668
-0.142814 0.42929 0.05046 -0.638119 -0.350895 0.682093
-0.099939 -0.741683 -0.001076 -0.630085 0.464618 0.609456
0.093308 -0.855562 0.146383 -0.888905 0.228136 0.391043
0.152574 0.227796 -0.082315 0.801468 -0.11861 -0.58588
-0.232685 0.424641 -0.081444 -0.43924 0.504256 -0.74312
0.081922 0.847345 0.000367 0.871389 0.484734 0.068199
0.079719 0.787796 -0.099184 0.687536 0.079661 -0.721334
-0.042753 -0.86046 0.127657 0.344658 -0.91115 0.214509
-0.020525 0.69479 0.02944 -0.969906 -0.22246 0.094947
0.56719 0.08396 0.036701 -0.85675 -0.495178 0.131507
0.167994 0.248632 -0.058236 0.891416 0.02001 -0.45262
0.035921 -0.045158 0.129049 -0.198928 -0.380789 0.887399
0.184848 -0.561409 0.031425 0.715712 -0.139353 0.683484
-0.171529 0.365123 -0.024018 0.665782 -0.731152 0.142942
-0.021599 -0.841337 0.02826 0.990748 0.041066 0.058273
0.158906 0.116982 0.07666 0.575583 0.176429 0.797391
0.073845 0.672841 0.060702 0.847416 -0.501476 0.147608
-0.468996 0.18559 -0.02004 -0.788348 0.566799 -0.2268
0.042126 -0.237027 0.02479 -0.988502 -0.035529 0.144789
-0.339242 0.3201 -0.010057 -0.600223 0.52408 0.597216
-0.155775 0.383648 -0.047936 0.558654 -0.808624 -0.161764
0.010125 -0.529017 -0.053239 0.863493 0.05676 -0.501103
0.144745 0.56192 -0.009846 0.178169 0.756306 0.629111
0.15221 -0.322302 0.078475 0.221315 -0.050989 0.973407
0.024053 -0.693895 -0.029964 0.917365 -0.160746 0.360419
0.079406 -0.753781 -0.055688 -0.862625 0.161545 -0.474061
-0.005374 -0.709017 0.012348 0.771478 -0.259598 0.577329
0.168516 -0.86306 0.0718 0.295482 -0.944 -0.011117
0.267476 0.347422 -0.09156 -0.688712 -0.703936 -0.161925
0.563712 0.110005 0.052977 -0.636836 -0.014516 0.767057
-0.125064 -0.12795 0.081882 -0.827533 0.030109 0.560224
0.128898 -0.103669 0.113117 0.112052 -0.059282 0.991517
-0.537988 0.079103 0.021506 0.622116 -0.516911 -0.584882
0.083646 0.804206 0.045699 0.878058 0.265075 0.393988
-0.097102 0.572632 -0.028414 -0.381884 0.904063 0.011649
0.010741 -0.513429 -0.049864 0.841075 0.049184 -0.536892
-0.127766 0.002296 -0.055295 -0.925333 0.073116 -0.371174
0.056106 -0.724767 0.025641 -0.919669 -0.069475 0.356836
0.114057 -0.472138 0.046283 -0.654064 -0.06829 0.753267
0.127285 0.39594 0.084959 0.427837 0.103187 0.897286
-0.087874 -0.015895 0.112305 -0.555989 -0.244063 0.792047
0.084899 -0.600008 0.023332 -0.744318 -0.094429 0.660661
-0.07759 0.2163 0.086468 -0.572822 0.138552 0.807765
-0.457573 0.159502 -0.043178 -0.035388 -0.697344 -0.658068
-0.012465 -0.205205 -0.079788 0.567571 0.024846 -0.822728
0.078637 -0.03171 0.13004 0.059248 -0.082595 0.994356
0.190961 -0.489834 0.030524 0.959686 0.017557 0.280316
0.071743 -0.697723 -0.051599 -0.841636 -0.148669 -0.51789
0.16961 -0.025797 -0.105759 0.826221 -0.02861 -0.560426
-0.010445 -0.092017 -0.102846 0.416389 -0.395742 -0.814164
0.017814 -0.539447 0.006763 0.895699 -0.084451 0.433197
0.089211 0.168819 0.118513 0.421051 0.052406 0.903155
-0.050322 -0.416649 0.084171 0.234333 -0.227098 0.944438
0.044054 0.869667 -0.023893 0.1217 0.969578 -0.176618
-0.075929 -0.46965 0.078582 0.268718 -0.150406 0.950054
0.384181 0.24833 -0.109104 -0.77832 -0.450838 -0.428897
-0.102323 -0.539463 0.050107 -0.842052 -0.06152 0.535799
-0.053728 0.50829 0.061166 -0.181863 0.463747 0.866779
0.119684 -0.187131 0.098034 0.01774 -0.145716 0.988124
0.198765 -0.129438 -0.052651 0.854372 0.00893 -0.518848
0.260025 0.453928 -0.132053 0.164669 0.492114 -0.85372
0.207641 -0.177547 -0.014582 0.999722 -0.000441 -0.02268
0.285769 0.380066 -0.142248 -0.142841 -0.296273 -0.937906
-0.175316 0.365159 -0.01502 0.597571 -0.721902 0.348261
0.087037 -0.667005 -0.07571 -0.697754 -0.01117 -0.71476
0.148883 0.549469 -0.109712 0.251197 0.653315 -0.713781
0.166775 -0.744772 0.013138 0.315833 0.818908 0.476787
-0.113289 0.227042 0.041887 -0.952951 0.178791 0.237134
0.129427 -0.869483 0.040663 0.011376 -0.999304 -0.033458
0.055194 0.765467 0.072178 0.538929 -0.240103 0.804362
0.313052 0.422154 -0.131725 0.392226 0.536973 -0.745943
-0.014689 0.677391 0.032428 -0.761641 -0.613174 0.190898
0.021784 -0.744558 -0.0516 0.98035 -0.173592 -0.044073
0.578009 0.061131 -0.00889 -0.933511 -0.352434 -0.004419
0.167537 -0.615641 -0.083878 0.610152 -0.149817 -0.777299
-0.065125 -0.863319 0.004807 0.004251 -0.999387 -0.03449
0.046781 -0.304136 0.03889 -0.946757 -0.055629 0.315666
-0.40545 0.214956 0.014982 0.1587 0.186415 0.963585
-0.022859 0.515385 -0.122087 -0.048434 0.242267 -0.968929
-0.142928 -0.037177 0.008087 -0.988292 0.136281 0.013741
0.242349 0.371055 -0.078806 -0.702716 -0.711416 0.007826
-0.010142 0.621322 -0.002154 -0.905993 0.060372 0.400531
-0.00484 0.801597 -0.107862 -0.470822 0.291062 -0.830198
0.097437 0.164056 -0.115261 0.258063 0.160069 -0.952557
-0.448148 0.2111 -0.037337 -0.751177 0.36228 -0.529774
-0.010533 0.330499 -0.129343 0.045808 0.043037 -0.997568
0.337521 0.391049 -0.134666 0.569476 0.010265 -0.816245
0.109653 -0.690769 0.032933 0.34697 -0.063912 0.934135
0.126736 -0.725758 -0.097482 0.145287 0.170077 -0.969907
-0.084589 -0.085315 0.115167 -0.433935 0.000786 0.900535
0.064065 -0.046016 -0.140204 -0.293671 -0.413928 -0.861525
0.194701 0.025951 0.065488 0.853087 0.109232 0.509805
-0.135589 -0.058153 -0.035909 -0.945329 -0.008269 -0.319907
0.082388 -0.383174 -0.087149 -0.664918 -0.075622 -0.742376
-0.021122 -0.489311 -0.086459 0.657415 0.09255 -0.745766
0.191945 -0.738153 -0.031131 0.774506 -0.245146 -0.580903
-0.133693 0.040891 -0.026627 -0.95926 0.158568 -0.230057
-0.008761 -0.279417 -0.073546 0.688397 -0.117905 -0.71521
0.190222 0.170556 -0.011288 0.962567 0.209458 -0.147897
-0.130487 0.11001 0.004701 -0.993734 -0.088571 0.023414
-0.032453 -0.509602 0.053268 0.356719 -0.267696 0.89458
0.024828 -0.537256 -0.017104 0.982184 -0.078288 -0.081397
0.013159 -0.410214 -0.040274 0.822604 -0.030167 -0.567614
0.101006 0.402463 -0.145917 0.006957 0.001789 -0.999736
0.191823 0.470304 -0.135282 0.114176 0.022108 -0.993019
0.110529 0.045923 0.116599 0.431163 0.207351 0.874904
-0.24635 0.413042 -0.082095 -0.394923 0.561547 -0.725812
0.104038 -0.832618 0.147978 -0.766194 0.594545 0.179613
0.628589 0.066661 0.038622 0.856912 0.50542 -0.017202
-0.041078 -0.270593 0.105747 0.170675 -0.16775 0.970881
0.017382 -0.267685 0.072592 0.895684 -0.078225 0.428586
0.634662 0.053334 0.076044 0.920041 0.379845 0.091634
-0.055424 0.368982 -0.123636 -0.358929 -0.061483 -0.931267
0.106033 -0.491649 -0.103907 -0.346873 0.008386 -0.935923
-0.072752 -0.164963 -0.093528 -0.570411 -0.149257 -0.807065
-0.118122 0.312208 -0.008292 -0.979436 -0.093996 0.175967
0.587409 0.124624 0.010492 0.771041 0.584533 -0.176825
0.193405 0.100556 -0.028572 0.96725 0.123332 -0.211587
0.080194 0.646556 -0.040601 0.882353 0.160219 -0.433404
-0.037412 0.778912 -0.046432 -0.989907 0.078346 -0.116556
-0.134128 -0.567231 -0.039507 -0.994838 -0.075763 -0.028558
0.017433 -0.238695 0.077287 0.918109 -0.047909 0.38956
-0.122325 -0.279948 0.079658 -0.944644 -0.034906 0.321521
0.175011 -0.011937 -0.096175 0.829675 0.05559 -0.553809
0.083767 -0.49617 0.022206 -0.647772 0.049083 0.759921
0.118836 -0.315977 -0.097655 0.318121 0.027429 -0.945772
0.19173 -0.649162 -0.056236 0.746701 -0.207626 -0.630378
-0.016833 -0.095891 0.126653 0.13277 -0.128498 0.98265
0.117981 0.055943 0.110423 0.33746 0.229441 0.911801
-0.089472 0.209579 -0.069869 -0.783559 -0.067003 -0.615631
0.110156 0.584357 -0.088814 0.312408 0.743002 -0.585428
0.152981 -0.531767 -0.100925 0.507872 -0.02003 -0.861157
-0.100312 -0.3932 0.094192 -0.33645 -0.203793 0.909362
0.005378 0.357628 0.112218 -0.034019 0.125531 0.990726
-0.087042 -0.8633 0.093151 -0.021798 -0.999733 0.00086
-0.023349 0.480951 -0.12905 0.055422 0.101997 -0.993148
0.013458 0.0294 0.139927 -0.020633 0.174666 0.983313
-0.054826 -0.011773 -0.131567 -0.249956 -0.082099 -0.964735
0.066616 0.410202 0.095814 0.132704 0.240991 0.959355
-0.114857 0.304211 -0.000202 -0.974797 -0.15642 0.157713
0.142861 -0.456452 -0.101676 0.334015 0.138053 -0.932288
-0.135491 -0.017616 0.049456 -0.972403 0.072751 0.211495
-0.065584 0.057024 -0.124917 -0.407235 0.259514 -0.86044
-0.054999 -0.509273 -0.100109 0.034321 0.086063 -0.995391
-0.010232 0.167368 0.127344 -0.3227 -0.012293 0.940195
0.344293 0.346911 -0.046017 0.437502 0.246295 0.863214
-0.464611 0.185316 -0.029323 -0.679322 0.514651 -0.504162
0.027132 0.842515 -0.086598 -0.113352 0.800289 -0.556576
-0.047747 0.209418 -0.111042 -0.557123 -0.318886 -0.766407
0.009369 0.186692 -0.116971 0.139442 -0.133335 -0.980208
0.007904 -0.015419 -0.140964 -0.10556 -0.280158 -0.954098
0.174721 -0.510555 0.052437 0.621406 -0.202578 0.752766
0.135464 -0.008349 0.114307 0.413341 -0.200896 0.885195
0.111701 0.015287 -0.149083 0.47148 -0.027792 -0.880717
-0.109692 -0.004119 0.098201 -0.766375 -0.184606 0.611702
0.200658 -0.317197 0.034307 0.93628 -0.06028 0.345624
-0.011832 0.576041 -0.097215 -0.114005 0.556649 -0.822526
-0.130444 0.114436 -0.004936 -0.991372 -0.015983 -0.094808
0.096311 -0.704455 -0.08505 -0.693712 0.053644 -0.718122
-0.06948 -0.577178 0.052592 0.406918 -0.229036 0.883777
0.402439 0.257118 -0.126127 -0.1507 -0.243047 -0.953819
-0.125434 -0.243942 0.078676 -0.882774 -0.066988 0.464119
0.353005 0.398192 -0.099727 0.941317 -0.318244 0.016208
-0.121729 -0.649486 -0.080288 -0.808751 0.006882 -0.587541
0.204611 -0.510947 -0.027475 0.977346 0.101321 -0.159216
0.056695 0.408088 0.097486 0.094425 0.198652 0.974857
-0.423989 0.240655 -0.047478 -0.774177 0.525331 -0.320644
0.076369 -0.405617 -0.080376 -0.685495 -0.014597 -0.727882
-0.243227 0.311592 -0.064656 0.708125 -0.578891 -0.39822
0.01031 0.538144 0.046409 0.19249 0.747685 0.631801
0.041289 0.520722 0.055812 0.095192 0.557331 0.823176
-0.288298 0.395011 -0.025696 -0.782329 0.568584 0.221507
0.093807 -0.437779 0.03568 -0.636407 -0.366309 0.678604
-0.090349 0.419904 0.075725 -0.637674 0.08674 0.765217
0.065291 0.423987 -0.138079 -0.297763 0.0454 -0.953017
0.021485 0.241365 -0.125541 0.077075 0.01737 -0.996268
0.066399 -0.80526 -0.004015 -0.91961 -0.355877 0.153181
0.207066 0.538158 -0.004473 0.296027 0.669309 0.680453
0.097754 -0.107805 -0.121872 -0.151435 -0.287748 -0.94356
-0.221607 0.444537 -0.07484 -0.496811 0.508037 -0.702736
0.184706 -0.426064 0.056559 0.823682 -0.038736 0.564487
0.14771 -0.184291 0.096465 0.111716 -0.115938 0.986404
-0.028271 0.600692 -0.048659 -0.692152 0.714914 -0.054774
0.0795 0.814228 -0.091774 0.661518 0.407598 -0.62567
-0.000653 -0.632924 -0.069901 0.615382 0.061179 -0.785715
-0.045487 0.090431 0.115912 -0.471229 0.123058 0.873217
0.017433 -0.719423 -0.071151 0.883645 0.058245 -0.457121
0.202069 -0.000737 -0.034613 0.915935 0.118764 -0.376008
-0.097647 -0.834217 0.085238 -0.664476 0.734962 0.123628
0.049015 -0.145859 -0.083387 -0.724692 -0.222321 -0.650432
-0.137663 -0.199992 0.033525 -0.997452 -0.03595 0.054915
0.085014 0.016148 -0.158246 0.145864 -0.129081 -0.980084
0.065479 0.125385 -0.131214 0.030312 0.400772 -0.914832
0.010944 0.410145 0.101594 0.159979 0.223646 0.961339
-0.168375 0.527833 -0.055065 -0.584818 0.658789 -0.471676
-0.045004 0.333637 0.100069 -0.305509 -0.148795 0.936475
-0.129176 -0.601932 -0.059682 -0.987649 -0.014847 -0.144722
0.000988 0.058063 0.136798 -0.226382 0.081709 0.967152
0.195856 0.131894 0.025141 0.873894 0.005307 0.483936
-0.147662 0.442863 -0.096307 -0.287766 -0.10551 -0.947852
-0.21076 0.477578 -0.054526 -0.64909 0.536086 -0.539514
-0.125005 0.098585 0.035511 -0.934869 -0.001253 0.354174
0.046113 -0.589728 -0.027529 -0.977116 -0.029709 0.112578
0.190017 0.329149 -0.041687 0.971983 -0.176432 -0.136479
0.632885 0.060215 0.032226 0.823299 0.565734 -0.034346
0.01374 -0.040184 0.129622 0.337927 -0.225649 0.911684
-0.113656 0.371233 -0.091067 -0.683704 -0.232855 -0.691056
0.184035 -0.127447 -0.070695 0.734262 -0.058607 -0.67609
-0.003754 0.276237 0.119515 -0.324511 0.073731 0.942828
-0.050908 -0.827517 0.121367 0.424869 0.866796 0.197699
-0.025977 -0.004036 -0.138344 -0.140851 -0.087583 -0.98588
0.070754 -0.23904 -0.082241 -0.646526 -0.04292 -0.76102
-0.033499 0.409706 0.101477 -0.236868 0.309638 0.92013
-0.089377 -0.437938 0.083772 -0.09471 -0.184797 0.976217
-0.091796 -0.458247 0.080653 -0.135736 -0.137698 0.978544
0.121554 0.464441 -0.145951 0.052155 0.075672 -0.995494
0.213022 -0.019659 0.016302 0.990873 0.087607 0.078716
-0.055108 0.346329 0.09927 -0.471478 -0.100348 0.874188
0.112964 -0.074924 0.1174 0.026518 -0.318491 0.938071
-0.001523 0.468671 -0.127881 0.129967 0.046877 -0.990324
-0.002833 0.636652 0.010301 -0.815082 -0.118275 0.561693
-0.105568 -0.390713 -0.060111 -0.716836 -0.098454 -0.690058
0.592919 0.11739 0.007383 0.235163 0.832153 -0.430366
0.0085 -0.515933 0.023298 0.757821 -0.181136 0.626492
0.182344 0.397868 -0.118032 0.300605 -0.510675 -0.804057
0.051368 -0.501207 -0.007676 -0.87636 -0.007482 0.481167
0.099476 -0.863547 0.021035 -0.616179 -0.74638 -0.209613
0.622336 0.074889 0.018689 0.858549 0.482554 -0.162398
-0.077036 -0.863555 0.035722 -0.038052 -0.999238 -0.005908
0.191826 0.347222 -0.056361 0.911981 -0.337265 -0.219727
0.077982 0.589108 -0.090765 0.087737 0.71172 -0.648085
-0.058744 0.003458 -0.131744 -0.271297 -0.08574 -0.958491
0.196041 -0.4494 -0.052871 0.888154 0.102644 -0.432368
0.132927 -0.86992 0.08423 0.006005 -0.999907 0.010047
0.02428 0.611886 0.027014 -0.214772 -0.098162 0.968879
0.022772 0.577485 0.026686 -0.122364 0.040289 0.991053
0.30297 0.467608 -0.069241 0.80202 0.592216 0.023865
0.06042 -0.273872 -0.069924 -0.810149 0.009547 -0.586134
0.17457 -0.165912 -0.075954 0.707419 -0.05095 -0.704669
0.399033 0.227329 -0.079092 -0.608529 -0.782813 0.120044
-0.011806 -0.171743 0.114564 0.477661 -0.137255 0.866976
-0.000367 -0.319432 -0.0575 0.73418 -0.06847 -0.675422
-0.001794 0.762915 0.068808 -0.361183 -0.220658 0.883096
-0.042808 0.354736 0.104643 -0.218802 -0.106188 0.964958
-0.128339 -0.65064 -0.051265 -0.999285 -0.017696 0.024487
-0.407387 0.265002 -0.042214 -0.788872 0.609069 -0.058378
0.170216 -0.207593 0.087904 0.366802 -0.168557 0.911217
0.55719 0.094582 0.002145 -0.75206 -0.658853 0.00031
-0.047008 -0.843481 0.142288 0.822288 0.303571 0.47426
0.007288 -0.783817 -0.097585 0.874216 0.164548 -0.454253
-0.036006 -0.047295 0.130889 -0.108321 -0.140236 0.983809
0.196149 0.089995 0.004164 0.963092 0.223178 0.13575
-0.037288 -0.474202 -0.093326 0.375791 0.115501 -0.917682
0.068163 0.766941 0.06947 0.3693 -0.376372 0.825559
-0.018964 0.364088 0.106645 -0.09325 0.005903 0.994261
0.181033 -0.335321 -0.049611 0.734975 0.052472 -0.6759
0.564036 0.08654 0.001599 -0.789209 -0.613154 0.013055
-0.061567 0.580135 -0.017687 -0.206229 0.882178 0.39092
-0.025491 0.753692 -0.082494 -0.821871 -0.284445 -0.488522
0.152669 0.096149 0.083251 0.388363 0.224604 0.881435
0.003565 0.076998 0.135884 -0.278559 0.069189 0.94491
0.022672 -0.22566 0.059519 0.928857 -0.023083 0.366322
-0.128345 -0.316791 1.5e-05 -0.999818 -0.008581 -0.0164
0.076324 0.761347 0.063098 0.704222 0.034819 0.688453
-0.135953 -0.019379 -0.032334 -0.983107 0.027565 -0.175599
-0.000884 0.331623 -0.128378 0.120605 0.033068 -0.991945
