0.214107 -0.067024 0.015748 0.999084 0.025606 0.032404
0.052366 -0.436727 -0.053915 -0.800022 0.028888 -0.599186
-0.04923 0.541236 -0.10865 -0.304757 0.455445 -0.835784
0.110081 -0.826257 0.119689 -0.263387 0.962929 0.033449
0.137177 -0.156917 -0.104868 0.418118 -0.136121 -0.894354
0.168327 0.023093 -0.102694 0.806893 0.03383 -0.58896
0.226013 0.54954 -0.046702 0.443198 0.885426 0.134673
0.105932 -0.587799 0.032112 -0.314957 -0.15813 0.93516
-0.13943 0.031568 0.020294 -0.93684 0.334831 0.087994
-0.083579 0.204933 -0.077539 -0.779972 -0.025703 -0.624265
0.058821 -0.748653 0.011574 -0.983263 -0.16101 0.054206
-0.122771 -0.093692 0.0832 -0.80807 0.034664 0.587433
0.19173 -0.649162 -0.056236 0.746701 -0.207626 -0.630378
-0.027587 0.525879 0.056143 -0.147609 0.539879 0.828215
-0.064073 -0.143636 0.121786 -0.132713 -0.060398 0.98849
-0.123451 0.377696 -0.076129 -0.906571 -0.27508 -0.313957
0.036458 -0.006864 0.140353 0.282914 -0.549852 0.778695
0.202898 0.403381 -0.073161 0.924442 -0.379451 0.019221
-0.15723 0.549118 -0.014314 -0.503449 0.854805 0.024158
0.249282 0.452229 -0.133631 0.045678 0.290205 -0.954128
-0.012164 -0.378149 -0.062784 0.699327 -0.013328 -0.713834
-0.107434 0.278478 0.032722 -0.985977 -0.007947 0.16435
0.125185 -0.815842 0.074935 0.110662 0.923261 0.361489
-0.020015 0.271466 -0.130919 -0.054523 -0.050983 -0.996473
-0.144997 0.427672 -0.093092 -0.118981 -0.462659 -0.864129
-0.009374 0.322904 0.113351 -0.110604 0.073943 0.991015
0.551827 0.169603 -0.000632 0.80969 0.579342 -0.028316
0.109461 -0.646264 -0.091719 -0.408149 -0.076017 -0.909724
-0.001019 -0.384918 0.068582 0.725387 -0.157847 0.669519
0.26519 0.367994 -0.032878 -0.551106 -0.490982 0.673033
0.055115 0.557172 -0.113281 -0.137871 0.455327 -0.878974
0.163943 0.451862 -0.140012 0.235548 -0.06045 -0.969489
-0.446548 0.149326 0.025745 0.759204 -0.615045 0.192322
-0.073187 -0.723629 -0.120932 -0.327305 0.230487 -0.910586
-0.079727 0.116352 0.088809 -0.613927 0.196406 0.7615
-0.124317 0.196408 -0.012087 -0.891475 0.202403 -0.403877
0.096311 -0.704455 -0.08505 -0.693712 0.053644 -0.718122
-0.014992 -0.505056 -0.082624 0.690496 0.067265 -0.720088
0.133593 -0.293279 -0.090658 0.512164 -0.033141 -0.857754
-0.013123 0.800802 -0.102918 -0.563798 0.272799 -0.774821
-0.144349 -0.126949 0.017596 -0.999676 -0.002378 0.017087
0.178962 0.566806 -0.050554 0.273864 0.952231 0.028622
-0.227653 0.471404 -0.019734 -0.784717 0.616745 0.042594
0.182191 0.178281 -0.030266 0.897424 0.137597 -0.417456
-0.06888 -0.547344 0.058759 0.354262 -0.188446 0.915902
0.081138 0.659972 0.009357 0.941663 -0.17197 0.270227
0.159614 -0.383001 -0.07854 0.534716 0.197766 -0.821543
-0.040496 -0.862732 -0.090123 0.105726 -0.99239 0.045885
0.160529 -0.834594 0.077272 0.81219 0.580604 0.033684
-0.287158 0.380504 -0.016311 -0.923564 0.235228 0.244274
0.191574 0.337445 -0.00938 0.986925 -0.139422 0.080621
0.02428 0.611886 0.027014 -0.214772 -0.098162 0.968879
-0.340243 0.219855 -0.037717 0.616023 -0.776089 -0.07983
0.185571 0.302377 0.003123 0.976883 -0.119651 0.173896
-0.035803 0.796187 -0.006416 -0.995978 -0.002222 0.087987
0.188027 0.076991 0.056862 0.855027 0.19705 0.478941
-0.068267 -0.861729 -0.05787 0.001458 -0.999248 0.036279
0.180047 0.310361 0.02158 0.900995 0.013732 0.427352
0.165293 0.180138 -0.065357 0.823202 0.055517 -0.561337
0.544157 0.122126 0.010657 -0.85909 -0.498613 0.044842
0.077179 -0.113306 0.088421 -0.664087 -0.060482 0.743616
0.144071 -0.715635 0.011562 0.399689 -0.240855 0.873367
-0.025337 0.285623 0.112741 -0.296885 0.009933 0.952476
-0.05105 0.097282 0.112098 -0.487816 0.15216 0.859107
0.066601 0.082896 0.13024 0.050815 0.017261 0.991979
0.003805 0.7544 -0.112864 -0.438725 -0.271312 -0.853304
0.618528 0.085861 0.028303 0.869602 0.490936 -0.046759
0.165069 -0.843961 -0.008852 0.994979 0.022884 -0.074292
-0.017208 0.206277 -0.122837 -0.205572 -0.379541 -0.901029
-0.115901 -0.492881 -0.068326 -0.748174 0.097749 -0.655672
0.11165 -0.869963 0.070917 0.004815 -0.999977 0.002103
0.166315 0.331782 0.05083 0.766071 -0.013395 0.639446
-0.057718 -0.233548 -0.092388 -0.116583 0.028203 -0.990181
0.007352 0.020121 0.141367 -0.095566 0.166525 0.98097
0.053307 -0.680965 -0.025201 -0.951135 -0.076868 -0.279925
3.4e-05 -0.399435 -0.055364 0.624414 0.099111 -0.77465
-0.084798 -0.330126 -0.075887 -0.592838 0.018484 -0.804463
-0.01236 0.313376 0.113646 -0.11639 0.078011 0.989747
0.106612 -0.864877 -0.027721 -0.345482 -0.900821 0.242288
0.047509 0.094509 -0.143288 -0.10876 0.238836 -0.963974
0.169586 -0.81851 -0.030035 0.785233 -0.617429 0.039205
-0.008281 -0.738024 -0.103115 0.64154 0.238139 -0.727706
-0.046508 -0.172643 -0.095496 0.172131 -0.060431 -0.982894
0.174095 -0.735668 -0.003582 0.25351 0.547191 0.786636
-0.352481 0.222283 0.005281 0.364819 -0.460401 0.792665
-0.04199 -0.076822 0.128295 -0.10439 -0.062358 0.991608
-0.014383 0.343221 -0.128915 0.004651 0.016632 -0.999587
0.052383 -0.291281 0.048962 -0.768758 -0.090996 0.631531
-0.112771 0.280819 -0.039094 -0.994627 -0.101683 -0.015902
0.388885 0.240381 -0.10288 -0.664346 -0.670938 -0.32479
0.023476 -0.127125 -0.045281 -0.157461 -0.650219 -0.721621
0.199492 -0.541279 0.000974 0.938568 -0.037279 0.342962
0.130138 -0.826935 0.1508 0.190079 0.968876 0.136583
0.112876 -0.711504 -0.095331 -0.227293 0.099385 -0.961704
-0.035489 -0.737108 -0.118993 0.283042 0.356764 -0.888173
-0.234022 0.437579 0.01481 -0.726245 0.388992 0.565778
0.10216 0.737895 -0.035874 0.903503 -0.203616 -0.369462
-0.118521 -0.012264 -0.074476 -0.838872 0.005136 -0.542822
0.148558 0.221177 0.076862 0.766627 0.066249 0.638559
-0.044669 -0.859805 -0.049604 0.208416 -0.973391 0.074544
0.108326 -0.462426 0.041887 -0.677809 -0.051349 0.73337
-0.111921 0.307006 0.017294 -0.967656 -0.038675 0.246795
0.181033 -0.335321 -0.049611 0.734975 0.052472 -0.6759
-0.125829 -0.334717 0.040771 -0.992056 -9.7e-05 0.124931
0.281372 0.428661 -0.013041 0.395949 0.076066 0.913161
0.098739 -0.168531 0.09874 -0.35311 -0.176186 0.917407
0.276432 0.46861 -0.01708 0.684762 0.159946 0.710914
0.027272 -0.346359 -0.002535 0.995894 -0.050246 -0.061063
0.121698 -0.013377 -0.146718 0.414071 0.009482 -0.907548
0.095767 -0.854338 -0.009518 -0.702239 -0.708137 0.021974
0.014105 -0.026953 -0.137369 -0.014161 -0.37818 -0.92533
0.155474 -0.351884 0.076271 0.235621 -0.052576 0.970146
-0.125526 0.076486 0.039977 -0.939197 0.200102 0.27822
-0.045104 -0.234521 -0.092168 0.104738 0.040836 -0.993056
-0.131071 -0.095713 0.070075 -0.841258 0.003425 0.540521
-0.118764 0.30587 -0.041903 -0.978616 -0.18931 -0.064174
-0.015218 0.729289 0.060348 -0.73869 0.003252 0.672665
0.270241 0.358055 -0.038452 -0.396132 -0.70757 0.577911
0.204672 0.012973 0.045744 0.967303 0.022494 0.243859
0.276964 0.47571 -0.10723 0.458661 0.667823 -0.584042
0.091754 -0.446593 0.029816 -0.658017 -0.285133 0.696753
-0.038526 0.587387 -0.019676 -0.387492 0.813629 0.418415
0.266728 0.48285 -0.108778 0.522872 0.575052 -0.628232
-0.065756 -0.847841 -0.136704 -0.392422 -0.317244 -0.858265
-0.113884 -0.397172 0.081718 -0.724941 -0.223121 0.645477
0.020607 -0.247651 -0.03925 0.929075 -0.060183 -0.364263
0.145103 -0.459114 0.066564 -0.302521 -0.137674 0.937645
-0.082777 -0.792161 -0.12859 -0.7005 0.10736 -0.698866
0.045066 -0.57167 -0.024944 -0.983395 -0.069975 0.122792
0.007904 -0.015419 -0.140964 -0.10556 -0.280158 -0.954098
-0.055424 0.368982 -0.123636 -0.358929 -0.061483 -0.931267
-0.091642 -0.447781 -0.081757 -0.541829 0.215113 -0.810216
-0.123754 -0.63427 -0.002681 -0.969971 -0.120357 0.207408
0.531288 0.137411 -0.007154 -0.752228 -0.65858 -0.018173
-0.554246 0.060339 0.085981 0.191314 -0.489365 0.762522
0.626014 0.041555 0.055647 -0.828182 -0.559497 -0.031779
0.174869 -0.810518 -0.031785 0.931437 -0.353348 0.04644
-0.01195 -0.816511 0.020167 0.962302 -0.069405 0.187652
-0.145007 0.414109 -0.084549 0.336648 -0.724773 -0.590812
0.09327 0.106955 0.120587 0.358475 0.056153 0.930344
0.387094 0.238039 -0.092071 -0.640431 -0.742372 -0.187857
-0.012345 -0.801093 0.011428 0.952922 0.16398 0.253892
0.134414 -0.642945 -0.095542 0.148218 -0.089887 -0.984522
0.093428 -0.584073 -0.088169 -0.605225 -0.12686 -0.785862
-0.122759 -0.625983 0.004316 -0.955897 -0.040063 0.287751
0.022427 0.815124 -0.110921 -0.09545 0.544249 -0.827529
-0.100767 0.120183 0.070876 -0.704889 0.156184 0.6858
0.171983 -0.674413 -0.066377 0.683244 -0.20884 -0.699012
0.520525 0.167177 0.020706 -0.296205 0.214673 0.916179
0.179634 0.178848 0.043333 0.84871 0.082894 0.522204
0.098327 -0.793041 -0.104108 -0.735811 0.3135 -0.596132
0.196343 -0.196297 -0.055978 0.771711 -0.028374 -0.632629
-0.128141 0.385551 -0.034572 -0.996618 -0.079362 -0.001882
0.153706 0.4141 0.067994 0.702026 0.044837 0.710405
0.145131 -0.816932 -0.112456 0.406809 -0.213933 -0.880452
0.102515 -0.072532 0.117686 -0.066944 -0.466186 0.876665
-0.108524 0.22175 -0.047097 -0.833 -0.259411 -0.487456
-0.159743 0.535155 -0.053039 -0.490752 0.74039 -0.457717
-0.43177 0.169373 -0.049957 0.352439 -0.654468 -0.655481
-0.044362 -0.019528 0.130393 -0.21152 -0.27217 0.91385
0.194294 -0.286334 0.055364 0.906289 -0.064454 0.416849
0.059566 0.667445 -0.060574 0.621636 -0.164523 -0.761523
0.139804 -0.330607 -0.086746 0.625692 0.030063 -0.777527
0.054472 -0.236644 0.061877 -0.7642 -0.164167 0.62366
0.065479 0.125385 -0.131214 0.030312 0.400772 -0.914832
-0.445675 0.192816 -0.043515 -0.587062 0.252682 -0.766057
0.000288 -0.74194 -0.005278 0.546352 -0.490832 0.676771
-0.032888 -0.861356 -0.116957 0.219699 -0.953346 -0.191882
0.145124 0.297292 -0.108186 0.782479 -0.096811 -0.614976
0.176021 0.35513 0.038688 0.842903 -0.104096 0.526792
0.520783 0.208766 -0.019701 0.18128 0.9387 0.283552
-0.11364 -0.02496 -0.081817 -0.831215 -0.055447 -0.553014
-0.083003 0.101785 0.093605 -0.598567 0.201178 0.7745
-0.297178 0.269707 -0.083957 0.386842 -0.543842 -0.742794
0.186412 -0.767125 -0.032284 0.943847 -0.078205 -0.281234
0.097728 0.224082 0.111736 0.367661 0.090025 0.923498
-0.11441 -0.306292 -0.041825 -0.864637 0.055405 -0.498499
-0.124499 0.205006 0.014178 -0.901084 0.388825 0.178123
-0.114364 -0.50978 -0.072473 -0.737857 0.112202 -0.665277
0.155164 0.082634 -0.101165 0.683216 0.250212 -0.683565
-0.021708 0.563907 0.017742 -0.058363 0.74928 0.65071
0.182916 0.247543 0.004126 0.999759 -0.012131 0.015891
0.063984 0.260335 -0.135014 -0.314552 -0.088841 -0.943349
0.041777 0.629871 -0.068017 0.032298 0.331934 -0.937887
-0.006805 0.804452 0.061911 -0.606449 0.437629 0.657509
-0.04431 0.421795 0.096219 -0.209865 0.237051 0.947653
0.152887 0.494874 -0.136139 0.154501 0.268319 -0.950276
0.168916 0.246434 0.050628 0.714065 0.063662 0.696901
0.054379 0.137752 0.130138 0.115474 0.037658 0.992588
-0.138278 -0.478531 -0.025433 -0.968653 0.037195 -0.240448
0.151333 -0.044672 -0.123574 0.685834 -0.201926 -0.698293
-0.096899 0.438098 0.068069 -0.532518 0.073284 0.831786
0.005196 -0.323468 0.074957 0.646849 -0.201144 0.735495
0.203628 0.042296 0.037018 0.954503 0.188506 0.229068
0.083497 0.627644 -0.012279 0.95501 0.069261 0.277242
-0.136591 0.029838 -0.020327 -0.977355 0.113062 -0.17409
0.160523 -0.863816 0.118249 0.261768 -0.963744 0.02939
0.017429 -0.196062 0.081708 0.920752 -0.056765 0.367694
0.172245 -0.809819 -0.01124 0.937239 -0.263228 0.176056
0.099922 0.052612 -0.150466 0.400186 0.225991 -0.885451
0.065833 0.164934 -0.120425 0.009372 0.096825 -0.994802
0.145617 0.486415 0.053761 0.32842 0.526864 0.783119
-0.029279 0.242648 0.112038 -0.283216 0.026337 0.95856
0.604957 0.101176 0.051768 0.831239 0.551558 0.05563
-0.033024 -0.574244 0.037024 0.421892 -0.274721 0.861798
0.026841 -0.506214 -0.01573 0.987105 0.007032 -0.154422
-0.116222 0.566149 -0.016053 -0.198985 0.978055 0.05174
0.072955 0.855932 -0.03671 0.599034 0.776913 -0.188928
0.12306 -0.074644 -0.13093 0.242856 -0.304715 -0.919852
-0.093695 0.411137 0.073678 -0.636818 0.053203 0.768873
0.109992 -0.01435 -0.151016 0.289484 -0.078168 -0.951788
-0.288298 0.395011 -0.025696 -0.782329 0.568584 0.221507
0.18151 -0.144007 0.087171 0.636126 -0.012046 0.771128
-0.054347 -0.188867 -0.095346 -0.074448 -0.092191 -0.991962
0.051831 0.09374 0.13219 0.141882 -0.367975 0.916723
0.187616 0.513155 0.019578 0.259914 0.390908 0.881427
0.605658 0.100892 0.039835 0.835292 0.547533 0.003513
-0.074599 -0.526082 -0.099397 -0.228157 0.113627 -0.966164
0.010109 0.036521 -0.151614 -0.162716 0.161255 -0.972454
-0.025858 0.838619 0.009885 -0.708317 0.351186 0.592196
-0.06309 -0.268651 -0.091039 -0.273214 -0.034834 -0.960228
0.029574 -0.127082 0.083617 0.777836 -0.341707 0.525592
0.114593 -0.085857 0.114376 -0.151417 -0.143891 0.972971
0.147454 -0.015519 0.108982 0.538712 0.103011 0.835647
-0.011759 0.649873 -0.018807 -0.999301 -0.000299 -0.021478
0.118516 -0.283368 -0.098087 0.291658 -0.026489 -0.954472
-0.135746 0.023677 0.049655 -0.939739 0.153886 0.296179
0.231927 0.51824 -0.000631 0.559784 0.524193 0.63503
0.192206 -0.394389 -0.052047 0.785956 0.032189 -0.61228
0.093667 -0.238431 0.087339 -0.226693 -0.15992 0.960318
0.025007 0.323183 -0.126153 -0.025816 0.02566 -0.997951
0.139464 -0.246793 0.08513 0.115812 -0.134982 0.983484
0.070562 0.240642 -0.134654 -0.223724 -0.159482 -0.960956
0.145458 0.092894 0.089778 0.658958 0.238845 0.706897
-0.002044 0.375049 0.107556 -0.111162 0.184452 0.975241
0.198723 -0.290793 -0.028513 0.878404 -0.089055 -0.469362
-0.030975 0.031058 -0.144737 -0.148432 0.076653 -0.985114
0.005536 -0.742802 -0.089139 0.732058 0.10934 -0.671533
-0.115469 0.072223 0.074005 -0.844653 0.336636 0.4129
-0.111826 -0.803104 -0.079404 -0.951043 -0.203235 -0.221153
-0.044802 -0.4905 0.063595 0.331366 -0.286772 0.898404
0.064229 -0.115441 -0.106167 -0.471863 -0.319488 -0.814546
-0.260849 0.297964 -0.008438 0.565273 -0.595622 0.568742
-0.069851 -0.318077 0.105108 0.099048 -0.081767 0.991612
-0.121996 0.361361 -0.062128 -0.977801 -0.179824 -0.088075
0.159061 -0.066948 0.102844 0.544661 0.036301 0.836778
0.204319 0.017894 -0.025306 0.969279 -0.015532 -0.24032
-0.030787 -0.41676 0.078989 0.335294 -0.180218 0.924484
0.145717 -0.193873 -0.096801 0.479073 -0.109885 -0.870047
0.012744 -0.293434 -0.045213 0.79688 -0.092364 -0.595729
0.548282 0.112258 0.003972 -0.948945 -0.3143 0.022893
0.112428 -0.825947 0.132184 -0.234795 0.965408 0.045377
0.564036 0.08654 0.001599 -0.789209 -0.613154 0.013055
0.147551 -0.18216 -0.096971 0.498349 -0.060354 -0.864539
-0.378818 0.193048 -0.021166 0.478495 -0.877262 -0.003186
-0.023253 -0.117849 -0.09915 0.452875 -0.268982 -0.849731
0.030712 -0.035258 0.130554 -0.361347 -0.226155 0.89914
-0.115492 -0.172943 -0.048529 -0.814564 -0.137916 -0.563025
0.0085 -0.515933 0.023298 0.757821 -0.181136 0.626492
0.29181 0.330707 -0.067703 -0.596874 -0.765652 0.217471
-0.044702 -0.674587 -0.105628 0.405112 0.18448 -0.894627
-0.014443 -0.108746 -0.097306 0.499572 -0.350324 -0.791186
-0.027734 0.223534 -0.125521 -0.200184 -0.199726 -0.958956
0.293895 0.480394 -0.076648 0.69479 0.672288 -0.245474
0.198205 -0.006712 0.057048 0.877291 -0.067104 0.464782
0.598202 0.104088 0.008588 0.686497 0.349873 -0.614906
0.040217 0.373091 -0.130368 -0.317308 -0.028126 -0.945793
0.404197 0.226241 -0.1095 -0.617302 -0.654726 -0.424572
-0.104196 -0.519321 0.048237 -0.825981 -0.051186 0.56039
-0.020768 0.769971 -0.094953 -0.759996 -0.146431 -0.632743
-0.268919 0.278686 -0.064238 0.730385 -0.587224 -0.339544
-0.114504 0.232086 0.0286 -0.966649 0.217451 0.131086
-0.076509 0.427188 -0.123579 -0.313855 -0.184453 -0.931194
0.054406 -0.073889 -0.124458 -0.365865 -0.40798 -0.836394
-0.555362 0.077428 0.05475 -0.894833 0.445598 0.018155
0.522514 0.19563 0.01955 -0.120793 0.69342 0.675725
-0.02731 0.794177 0.026373 -0.90684 0.140949 0.395927
0.204923 0.034162 -0.018885 0.975319 0.087262 -0.197217
0.147389 -0.289858 0.081465 0.136289 -0.068886 0.988069
-0.06082 -0.613265 0.039668 0.441866 -0.161844 0.882112
0.159918 -0.491454 -0.097979 0.499508 0.038786 -0.862848
0.104047 0.42796 0.087184 0.217675 0.242524 0.944385
0.060394 -0.149522 0.075956 -0.64122 0.050442 0.765546
0.07048 -0.76502 0.012068 0.352356 0.137792 0.906027
0.253772 0.422489 -0.011039 0.095743 -0.273158 0.950239
0.064642 -0.186891 -0.087726 -0.63321 -0.220237 -0.73895
0.05761 0.31627 -0.135641 -0.38005 -0.031488 -0.924377
-0.381731 0.279198 -0.078201 -0.47518 0.466106 -0.744708
0.014304 -0.792535 -0.071859 0.909717 -0.381723 -0.084491
0.040576 0.822798 -0.10437 0.09626 0.643025 -0.759037
-0.020408 -0.392787 -0.07057 0.618424 0.058184 -0.782585
0.031051 0.279064 -0.127412 -0.052621 -0.039616 -0.997631
-0.278225 0.299512 -0.091304 0.400242 -0.384568 -0.827977
0.109249 0.732637 -0.022207 0.828784 -0.340553 -0.360329
0.085814 -0.587655 -0.081729 -0.659283 -0.113793 -0.743151
-0.393186 0.281291 -0.033903 -0.716487 0.691589 0.083037
-0.089507 -0.828816 0.091637 -0.553859 0.823882 0.114079
0.074708 -0.822101 0.004944 -0.541965 -0.798826 0.130369
-0.077238 0.163002 0.08937 -0.638427 -0.009557 0.769603
-0.154484 0.386235 -0.006643 0.636002 -0.693045 0.335017
0.106723 -0.597854 -0.095205 -0.436516 -0.104704 -0.893095
0.213332 -0.068848 0.025612 0.987422 0.037473 0.142591
0.183549 -0.248255 0.071665 0.612045 -0.060726 0.785313
0.064323 0.261286 0.121605 0.24686 0.068607 0.96578
-0.296731 0.249035 -0.05601 0.56085 -0.792464 -0.226453
0.242349 0.371055 -0.078806 -0.702716 -0.711416 0.007826
-0.034523 -0.288262 0.100573 0.340555 -0.20899 0.915866
0.087473 0.158859 -0.119197 0.202767 0.183797 -0.960957
-0.340711 0.296606 2.6e-05 -0.199296 0.272531 0.940798
0.021173 -0.542793 -0.004104 0.937628 -0.095831 0.330691
0.140786 -0.06905 -0.124887 0.586829 -0.250073 -0.770079
0.210884 0.41801 -0.113966 -0.184246 -0.871128 -0.439019
-0.032839 0.723363 -0.004601 -0.94819 -0.196429 0.185824
0.140891 -0.869437 0.106941 0.06455 -0.996606 0.019455
-0.178982 0.485371 0.044695 -0.402535 0.161961 0.899879
0.06237 -0.325837 -0.072213 -0.782782 -0.0282 -0.621561
0.064319 -0.168657 0.079666 -0.613992 -0.029542 0.787362
-0.125709 -0.618683 -0.003406 -0.919026 -0.062347 0.354519
0.17771 -0.178467 -0.072485 0.647589 -0.005829 -0.760492
-0.088619 -0.80748 0.03342 -0.843197 0.393865 0.363138
0.026397 0.159437 0.131298 -0.018279 0.049308 0.998293
-0.302331 0.347597 -0.080814 -0.545829 0.578028 -0.602239
-0.060246 -0.567149 0.051266 0.346393 -0.185119 0.9195
-0.264006 0.395545 0.009572 -0.595988 0.35158 0.717527
-0.123426 0.055972 0.060541 -0.922679 0.224335 0.310274
0.1237 0.544774 -0.120644 0.183796 0.520105 -0.833239
-0.122325 -0.279948 0.079658 -0.944644 -0.034906 0.321521
-0.522837 0.119902 0.040539 -0.793133 0.60685 -0.042995
-0.072512 -0.136668 0.119796 -0.299255 0.043353 0.952632
-0.103238 -0.245132 -0.059397 -0.796345 -0.045891 -0.601148
0.041116 0.658688 0.072245 0.132877 -0.97552 0.174793
-0.020312 -0.835608 -0.061702 0.831015 -0.525283 -0.012061
-0.050813 -0.468324 0.071786 0.26378 -0.233929 0.934507
0.150062 -0.757229 0.02522 0.005457 -0.180905 0.967178
0.165047 0.131368 -0.070709 0.83912 0.15113 -0.521544
-0.176141 0.389285 -0.089085 0.485298 -0.460205 -0.733622
0.025357 -0.374965 -0.01146 0.975513 -0.032481 -0.205101
0.097781 -0.819091 0.069213 -0.613587 0.690112 0.354582
0.021504 0.847645 -0.078584 -0.166639 0.803599 -0.569007
-0.138865 -0.450486 -0.002555 -0.993885 -0.007471 0.067317
-0.08262 0.493635 0.061911 -0.259014 0.418612 0.869195
0.16428 -0.81878 0.014624 0.867789 -0.453647 0.194664
-0.010176 -0.58911 -0.077684 0.680914 -0.031434 -0.731442
-0.377344 0.268653 0.004625 -0.260477 0.383506 0.883222
-0.370439 0.303752 -0.036966 -0.662219 0.743866 0.083775
0.018103 -0.667557 -0.005571 0.870716 -0.225524 0.435729
-0.134253 -0.4284 0.026609 -0.96544 -0.02366 0.252951
0.067714 -0.439345 0.009127 -0.590318 -0.240133 0.767826
0.018239 0.585883 0.024282 -0.318529 0.10577 0.937138
-0.415654 0.230715 0.011021 -0.268438 0.381596 0.880094
0.206373 -0.048476 -0.025451 0.97224 0.005555 -0.231114
0.331792 0.422524 -0.062364 0.770958 0.461695 0.438304
0.186207 0.177137 0.02801 0.920531 0.223675 0.312866
-0.039005 0.306631 0.102453 -0.5281 0.130352 0.837825
-0.362419 0.309724 -0.035286 -0.625658 0.766392 0.136194
0.106303 0.324242 -0.140386 0.400844 -0.098885 -0.910726
-0.070304 0.025609 0.118341 -0.384783 0.36477 0.845615
0.177223 0.169718 0.048466 0.816184 0.099542 0.567883
0.126365 -0.822208 0.096026 0.082777 0.969314 0.223631
-0.061471 -0.159483 -0.09766 -0.13325 -0.156581 -0.976533
-0.053391 -0.432332 -0.089123 -0.005153 0.229124 -0.972433
0.512317 0.203532 -0.001904 0.069148 0.906269 0.403325
-0.109689 0.260099 0.027529 -0.963076 0.113866 0.240739
0.057231 -0.127071 0.069785 -0.748891 0.208939 0.62215
-0.100648 -0.21593 -0.065169 -0.7626 -0.039639 -0.645332
-0.083703 0.015863 -0.120137 -0.63185 -0.082574 -0.768654
0.190215 0.1757 0.004032 0.980578 0.189835 -0.002858
0.042662 -0.165281 0.049933 -0.937 -0.120844 0.322389
0.182306 0.219518 0.019611 0.994792 0.054777 0.080423
0.164751 -0.775205 0.027086 0.446219 -0.023672 0.86896
-0.220789 0.473421 0.008344 -0.84804 0.413386 0.327942
0.025597 -0.454265 0.0015 0.983479 0.020534 0.149224
-0.002353 -0.215868 -0.072404 0.617669 0.025336 -0.783163
-0.216751 0.450888 0.02883 -0.666745 0.264359 0.695781
0.099057 0.52662 0.043516 0.284454 0.537482 0.792413
0.027239 -0.201525 0.047477 0.974028 0.001996 0.225755
-0.028762 -0.528373 0.046984 0.373337 -0.257818 0.890484
0.002186 -0.546973 0.021556 0.732117 -0.158046 0.662431
-0.041286 0.005847 -0.136826 -0.18609 -0.124006 -0.973282
0.076858 -0.815089 -0.073377 -0.88289 -0.145193 -0.375318
0.116657 -0.83768 0.174804 -0.47175 0.498284 0.698206
-0.189922 0.450922 -0.087072 -0.277771 0.351934 -0.893765
0.053476 -0.401606 -0.055959 -0.764761 -0.013528 -0.644114
0.066825 -0.379486 -0.072417 -0.740503 -0.052718 -0.66903
-0.027388 -0.830005 0.066569 0.939948 0.285335 0.168129
-0.287503 0.297021 0.00412 0.198777 -0.290523 0.93352
-0.045072 -0.049899 -0.124346 -0.15987 -0.417133 -0.89251
0.632328 0.038784 0.013421 -0.88588 -0.352773 -0.269979
-0.023322 -0.415343 -0.07702 0.498309 0.225409 -0.836931
-0.317503 0.263814 0.005537 0.101229 -0.08343 0.988258
-0.112064 0.264767 -0.033194 -0.999638 -0.019293 -0.014969
-0.103184 -0.846617 0.111697 -0.889894 0.320088 0.218201
0.167489 0.507835 0.031965 0.489165 0.439478 0.74854
-0.286732 0.346392 -0.091942 -0.413919 0.303953 -0.856068
-0.120435 0.338364 -0.0554 -0.998171 -0.039925 -0.042468
-0.014345 0.24087 0.117739 -0.456876 0.095461 0.883507
-0.057732 -0.808852 -0.145388 -0.398858 -0.07368 -0.910846
0.201218 -0.160406 0.046349 0.942477 -0.160305 0.289729
-0.102842 0.218006 0.066218 -0.738402 0.099545 0.662764
-0.110448 0.458445 -0.115423 -0.444739 0.07308 -0.892157
0.167902 -0.073773 0.096619 0.613671 0.053372 0.786596
-0.088185 0.183546 -0.073557 -0.69709 0.057705 -0.714402
-0.073278 0.232343 -0.098853 -0.672976 -0.289862 -0.679356
0.016933 -0.049886 0.124943 0.45362 -0.354858 0.81483
-0.108846 -0.461045 0.06829 -0.805478 -0.195126 0.559342
-0.05506 -0.694305 -0.114148 0.130425 0.267005 -0.953686
-0.281348 0.281016 -0.008169 0.479914 -0.593833 0.643823
-0.337868 0.269335 -0.087907 -0.039538 -0.34878 -0.93452
-0.160983 0.480838 0.055034 -0.244082 0.108333 0.962233
-0.116945 0.079494 0.064816 -0.872041 0.290108 0.391405
-0.191871 0.370662 0.010902 0.371081 -0.613663 0.694391
0.084602 -0.560881 -0.084852 -0.580784 -0.070413 -0.801148
0.182285 -0.160503 -0.069073 0.667403 -0.06591 -0.741391
0.098433 0.766183 0.01924 0.982829 0.014781 0.180769
-0.485693 0.141567 0.071163 0.364556 0.465488 0.803973
-0.388889 0.187631 -0.002014 0.666034 -0.738751 0.090689
0.199374 -0.553491 -0.04947 0.952419 -0.018191 -0.299675
0.153234 0.257887 0.067653 0.783294 0.072527 0.617353
-0.055704 -0.864287 0.071784 -0.004001 -0.999987 0.00119
0.185435 -0.154418 0.083541 0.700245 -0.018395 0.711094
0.090968 0.826568 -0.04578 0.898542 0.414023 -0.080022
-0.028392 -0.097766 -0.106945 0.238599 -0.290223 -0.92577
0.189948 0.560586 -0.069465 0.395789 0.845547 -0.32667
-0.067075 -0.563872 -0.103194 -0.054272 0.031265 -0.997209
-0.068965 0.436106 -0.127491 -0.207331 -0.135527 -0.968353
-0.106363 -0.216115 0.104835 -0.554459 -0.061486 0.822148
-0.125156 0.195674 0.021228 -0.935328 0.204157 0.284744
0.125011 -0.86969 0.094582 -0.014384 -0.999744 0.017478
0.205478 -0.227499 0.01788 0.995705 -0.044748 0.074839
-0.141844 -0.07022 0.036397 -0.970127 0.027729 0.234366
0.180863 -0.367598 0.067039 0.658845 -0.074976 0.731943
0.075609 0.251028 -0.136586 -0.146148 -0.10604 -0.982545
-0.014338 0.1102 0.127689 -0.350658 0.212861 0.910124
0.628745 0.064638 0.070803 0.851477 0.513729 0.077838
0.197529 -0.018432 0.060567 0.863048 0.093484 0.493864
-0.43377 0.17819 0.026737 0.059094 0.573787 0.811289
0.158659 0.282009 0.058723 0.735139 0.014415 0.677204
0.024131 -0.126701 0.09178 0.810329 -0.274071 0.517851
0.071846 0.669097 0.048745 0.735165 -0.6732 0.055234
0.023389 0.830036 -0.098532 -0.082613 0.700272 -0.708609
-0.089429 0.563315 0.006477 -0.1077 0.857832 0.497492
0.009053 0.863064 0.014999 -0.177646 0.980451 0.060823
-0.495332 0.113818 0.008325 0.063901 -0.770486 -0.624879
0.029245 -0.301729 -0.005129 0.989993 -0.091778 -0.088609
0.200786 -0.428834 -0.001988 0.987581 -0.134594 0.07538
0.175328 -0.071285 -0.0897 0.812629 -0.073958 -0.577823
-0.039585 0.040455 0.127583 -0.338944 0.163776 0.923265
0.039079 0.015335 0.142144 0.059444 0.176941 0.982313
0.010078 0.100185 0.135845 -0.075222 0.129221 0.986801
0.047366 0.811607 0.075618 0.216339 0.434965 0.874018
-0.354288 0.294415 -0.085551 -0.491451 0.328084 -0.803754
0.025467 -0.299467 0.047996 0.94853 -0.035511 0.306831
0.186476 0.433489 0.040616 0.554622 0.019343 0.829522
-0.080284 0.309172 -0.107209 -0.652064 -0.049316 -0.756101
0.501266 0.189576 0.005867 -0.319394 0.609549 0.698658
-0.018108 0.709024 0.053695 -0.884153 -0.16473 0.43332
-0.003681 -0.54992 -0.073398 0.779704 -0.017461 -0.625838
0.554565 0.110212 0.04308 -0.84684 -0.336388 0.399207
0.102882 0.74946 -0.041434 0.945613 -0.204182 -0.2466
0.035556 -0.326624 -0.001462 -0.942121 -0.084683 0.295609
0.011489 0.863272 -0.032226 -0.155983 0.98436 -0.065878
0.064746 0.861076 -0.039109 0.441953 0.868263 -0.188841
-0.423989 0.240655 -0.047478 -0.774177 0.525331 -0.320644
0.632407 0.027239 0.033808 -0.913039 -0.348647 -0.113104
-0.096761 0.541643 -0.088597 -0.384073 0.594793 -0.705321
-0.457059 0.193972 -0.032167 -0.747797 0.348089 -0.558755
0.014814 0.783464 0.083395 -0.289618 0.082272 0.943637
0.120868 0.460794 0.074137 0.21527 0.338173 0.915834
0.09163 -0.724429 -0.080101 -0.805752 -0.073484 -0.584539
-0.163924 0.446425 -0.093492 -0.231142 0.137379 -0.962944
0.014223 0.52667 -0.120529 -0.007869 0.217974 -0.974871
-0.105466 0.370534 -0.098599 -0.628246 -0.242625 -0.738618
0.248295 0.375945 -0.043123 -0.586557 -0.672201 0.448592
0.118974 -0.780561 0.040229 0.076343 0.673379 0.728709
0.205456 0.452464 0.025156 0.627813 0.036858 0.776912
-0.024936 0.604267 -0.04038 -0.722996 0.690315 0.019413
0.079804 0.592565 0.002652 0.723762 0.114275 0.677874
-0.138018 -0.152885 0.051595 -0.972624 -0.028193 0.226293
-0.567894 0.038771 -0.010564 0.46861 0.440981 -0.528513
-0.082666 -0.0426 0.116705 -0.5482 -0.026626 0.835686
0.159467 -0.823805 0.034449 0.967884 0.109377 0.145366
0.05856 -0.287608 -0.067571 -0.81529 0.002413 -0.578961
-0.123187 -0.318183 0.062138 -0.986836 -0.065299 0.147139
0.033489 0.84716 -0.080991 -0.008898 0.876464 -0.458164
0.162963 -0.737568 0.004273 0.291293 0.781626 0.550788
-0.104633 -0.359238 -0.061214 -0.736335 0.07611 -0.672084
-0.029789 0.715643 -0.013729 -0.946934 -0.301646 -0.079186
0.097914 -0.857404 -0.10897 -0.761842 -0.053561 -0.637556
0.085559 -0.750127 -0.066704 -0.864723 0.035426 -0.500165
0.033432 0.361847 0.111156 0.035015 0.219679 0.97322
0.016407 -0.408254 0.032615 0.913567 -0.144137 0.375537
0.216305 0.40385 -0.054192 -0.873425 -0.463063 0.133604
-0.125731 0.403776 0.040063 -0.811618 -0.49575 0.297298
-0.113619 0.380688 -0.094497 -0.694749 -0.238848 -0.678179
-0.079207 -0.732185 -0.119785 -0.475782 0.142258 -0.866884
0.027957 -0.095479 -0.089014 -0.732805 -0.460457 -0.49841
-0.151561 0.487694 0.056348 -0.2452 0.1997 0.947506
-0.017633 0.686698 0.039941 -0.890556 -0.348741 0.266654
-0.122194 0.024468 -0.064202 -0.89349 0.086726 -0.439515
0.014277 0.300316 -0.128021 0.113292 0.040005 -0.992719
-0.144193 -0.081493 0.011774 -0.999838 0.009944 0.005869
-0.000927 0.551066 0.031047 0.074277 0.777192 0.62269
0.090792 -0.862661 -0.053283 -0.720233 -0.628073 0.174477
-9.3e-05 0.212232 0.127426 -0.198554 0.11138 0.972734
-0.045696 -0.159549 0.122804 -0.055525 0.008415 0.998234
0.008996 0.227922 0.127878 -0.136404 0.055064 0.988183
0.157338 0.437457 0.061963 0.740299 0.08407 0.66688
0.052945 0.826972 -0.098468 0.218695 0.631261 -0.743065
-0.07436 -0.306343 0.106151 0.064656 -0.073447 0.995049
-0.109083 0.560143 0.006731 -0.143771 0.863794 0.481121
0.046795 -0.497662 -0.046089 -0.884281 -0.053615 -0.457476
-0.041087 -0.340146 0.0964 0.257527 -0.100256 0.960748
0.158664 0.004789 -0.116107 0.724355 0.110365 -0.680191
-0.401153 0.271705 -0.055489 -0.818614 0.538361 -0.185431
-0.023321 -0.685674 0.026199 -0.152266 0.034959 0.987122
-0.090767 -0.406094 -0.06978 -0.573365 -0.018746 -0.819031
0.145065 -0.445426 -0.098892 0.394769 0.176736 -0.90114
-0.003754 0.276237 0.119515 -0.324511 0.073731 0.942828
0.447838 0.201347 -0.086877 0.679757 -0.560856 -0.289536
0.171596 0.515759 0.025731 0.410688 0.437566 0.799334
0.197394 -0.601615 0.005747 0.964159 -0.049544 0.253103
0.028128 -0.334435 0.00367 0.998552 -0.049552 -0.003761
0.077447 0.55755 -0.116548 -0.095422 0.564917 -0.819197
-0.065847 -0.331924 -0.086265 -0.292088 -0.045089 -0.955213
0.229232 0.513093 -0.111498 0.458643 0.578778 -0.673368
0.196688 -0.626695 -0.001024 0.968585 -0.089519 0.228121
0.111026 0.173525 -0.109942 0.399734 0.086065 -0.910709
0.611334 0.094031 0.054267 0.76575 0.642706 0.023116
-0.027057 0.744747 0.038802 -0.969462 -0.005247 0.239333
0.165555 -0.48649 0.063826 0.384213 -0.166832 0.89863
0.17291 0.189786 0.05155 0.799141 0.079952 0.595311
-0.08781 -0.727127 -0.113297 -0.620512 0.134077 -0.770171
0.088966 0.569795 -0.108527 0.043139 0.639542 -0.76638
0.070945 -0.013263 0.134495 0.139177 -0.333998 0.931791
-0.208555 0.440387 -0.085012 -0.374509 0.420017 -0.826149
0.083513 -0.852809 0.071858 -0.978952 -0.013544 -0.069445
-0.104821 -0.681838 -0.094706 -0.565059 -0.049342 -0.822931
0.205427 -0.263602 -0.001855 0.999673 -0.000341 -0.023327
-0.128602 0.135412 -0.002441 -0.998263 0.045994 -0.017051
-0.069249 0.31251 -0.115069 -0.53336 -0.010261 -0.845588
0.041712 -0.136915 0.058042 -0.088778 -0.531095 0.806929
-0.059917 -0.490874 -0.098113 -0.035114 0.101003 -0.992653
0.119829 0.503637 0.0513 0.281599 0.502983 0.816313
0.298987 0.356864 -0.134193 -0.31352 -0.388628 -0.864099
-0.36187 0.217137 0.005804 0.329965 -0.372216 0.865398
0.083356 -0.859584 0.086993 -0.905541 -0.399392 -0.043575
-0.087202 0.404721 0.079258 -0.626851 0.004344 0.778859
-0.010467 0.811162 0.052549 -0.805197 0.336637 0.47929
-0.066685 -0.835434 0.154846 0.215736 0.819775 0.506838
0.076539 -0.258962 -0.086058 -0.543362 0.038182 -0.838525
0.311943 0.411193 -0.032238 0.71638 0.238339 0.652453
-0.146993 0.518544 0.04579 -0.214672 0.475353 0.850624
-0.135589 -0.058153 -0.035909 -0.945329 -0.008269 -0.319907
-0.085743 -0.257057 0.110726 -0.158019 -0.040989 0.986504
-0.033965 0.4211 0.098024 -0.144252 0.229991 0.962158
0.163718 0.561525 -0.014975 0.243492 0.750556 0.613973
0.017081 -0.086316 -0.09049 -0.060257 -0.700715 -0.691666
-0.088243 -0.861349 -0.079951 -0.161396 -0.984791 -0.009063
0.07463 -0.247855 -0.084498 -0.590279 -0.000887 -0.804841
0.343064 0.293008 -0.115361 -0.529849 -0.636547 -0.556942
0.101584 0.774926 0.008283 0.940977 -0.030953 0.328181
-0.035492 -0.85994 0.004032 0.411944 -0.891674 -0.148438
0.18094 -0.525429 0.043449 0.74661 -0.143941 0.645559
-0.009567 -0.599913 -0.07684 0.683205 -0.008619 -0.729995
0.134844 0.49185 0.053704 0.280939 0.553039 0.784219
0.2062 -0.024958 -0.025566 0.972042 0.023135 -0.231221
0.098108 0.775795 0.018767 0.960394 0.058401 0.269368
0.105245 -0.041076 0.124878 0.39605 -0.165111 0.902083
0.437902 0.284444 -0.109982 0.673371 0.4103 -0.61376
0.107612 -0.79082 -0.109667 -0.416626 0.420255 -0.798947
0.056695 0.408088 0.097486 0.094425 0.198652 0.974857
-0.076882 -0.142581 -0.094549 -0.463854 -0.127165 -0.875078
0.157227 0.075062 0.08807 0.225264 0.296358 0.925288
0.199846 -0.603811 -0.03226 0.997331 -0.063062 -0.031614
0.189073 -0.711228 -0.040745 0.71272 -0.039703 -0.698994
0.062167 -0.686242 0.024924 -0.636113 0.287271 0.7047
-0.102065 -0.55432 0.048346 -0.846424 -0.051852 0.529801
-0.119026 -0.635042 -0.083143 -0.724093 0.050687 -0.683075
0.177632 0.181334 -0.039116 0.926378 0.068286 -0.370087
0.158631 -0.042357 -0.11698 0.701747 -0.168118 -0.690608
0.127041 -0.406842 -0.100926 0.267788 0.070662 -0.958144
-0.117916 0.233851 -0.015882 -0.930971 0.357567 -0.028127
0.004403 -0.53039 -0.061892 0.807695 0.044879 -0.587842
0.120957 0.307731 -0.132009 0.584349 -0.045051 -0.810245
0.405791 0.26791 -0.128087 0.0019 -0.068506 -0.994936
0.061321 -0.047165 0.127791 0.045699 -0.380431 0.92344
0.32909 0.410432 -0.132398 0.437941 0.561412 -0.700137
-0.054089 -0.030901 0.12856 -0.205078 0.080627 0.975012
-0.142263 0.022532 0.005161 -0.987872 0.068728 -0.093911
-0.098989 0.548335 0.025879 -0.016443 0.753836 0.65634
0.123102 0.250492 -0.124846 0.654037 -0.167682 -0.737609
0.01432 -0.533162 -0.045655 0.84724 0.046832 -0.528643
-0.163941 0.527927 0.02904 -0.528283 0.664763 0.527182
-0.098556 -0.814889 -0.102662 -0.800752 -0.338301 -0.490693
-0.315405 0.341933 -0.009739 -0.5511 0.574146 0.595041
-0.30324 0.296187 0.005969 0.03612 -0.039699 0.996081
0.095688 -0.118275 -0.118732 -0.228479 -0.224832 -0.945276
0.114279 0.497823 -0.139188 -0.030886 0.325499 -0.942994
0.562896 0.088652 0.022518 -0.775343 -0.629461 0.038199
-0.071764 0.13651 -0.096268 -0.502315 0.24446 -0.826276
0.200515 0.403335 -0.01511 0.961026 -0.236126 0.134163
-0.121694 -0.456745 -0.054841 -0.771402 0.13561 -0.621447
0.164328 -0.825786 -0.036434 0.769667 -0.638017 0.021533
-0.255966 0.316069 -0.083596 0.595628 -0.424602 -0.679287
0.578176 0.093026 0.064389 -0.188227 -0.191686 0.941946
-0.079051 -0.862329 -0.07587 -0.069772 -0.996747 0.031612
0.046134 -0.351032 0.025414 -0.891148 -0.175335 0.406481
0.113435 -0.462433 -0.104709 -0.176939 0.063564 -0.979554
0.379186 0.295452 -0.040307 0.109146 0.301114 0.940224
0.035895 0.133497 0.132084 0.076924 0.02439 0.996526
-0.08512 0.337179 -0.105904 -0.58331 -0.087704 -0.807456
0.098438 0.27217 0.106933 0.337248 0.073031 0.93745
0.199669 0.395108 -0.04107 0.978519 -0.190676 0.023781
-0.106231 -0.403056 0.087394 -0.608122 -0.221251 0.737088
-0.055505 -0.055142 -0.120652 -0.189843 -0.314074 -0.929775
0.30185 0.459242 -0.101497 0.598962 0.649025 -0.468715
-0.135491 -0.017616 0.049456 -0.972403 0.072751 0.211495
0.019438 -0.688707 -0.018509 0.874871 -0.175679 0.451044
0.015984 0.494885 -0.123121 0.032452 0.051755 -0.997208
0.079113 -0.749013 0.024069 0.074226 -0.378018 0.917819
0.151194 -0.693697 -0.083929 0.640532 -0.018544 -0.767345
-0.403415 0.17813 -0.013547 0.495706 -0.867727 -0.030565
0.249714 0.392097 -0.132624 -0.439791 -0.279041 -0.852977
-0.012432 -0.389816 0.07671 0.569101 -0.218962 0.792533
0.24127 0.382258 -0.041198 -0.557338 -0.733069 0.389621
0.03686 -0.119467 0.081196 0.641543 -0.576308 0.496313
-0.087177 -0.844175 0.149542 -0.750695 0.386581 0.511284
0.046861 0.865858 0.013491 0.220765 0.942527 0.241264
0.076365 -0.34216 0.061586 -0.534727 -0.284271 0.792765
-0.092178 -0.121104 -0.085195 -0.650302 -0.0905 -0.753928
-0.10434 -0.040935 -0.093464 -0.798903 -0.135357 -0.585134
0.553469 0.16757 0.022471 0.696643 0.711083 0.073981
-0.0142 -0.792209 -0.137261 0.572847 0.252514 -0.759731
0.330496 0.295452 -0.069153 -0.649427 -0.650121 0.392056
-0.120292 -0.187436 0.091835 -0.8072 0.004237 0.590096
-0.191685 0.518044 -0.010162 -0.6541 0.746404 0.095236
0.102176 0.378445 0.095826 0.264038 0.091921 0.958851
-0.059341 -0.244379 0.112523 0.040532 -0.111884 0.99223
0.149867 -0.108008 -0.11049 0.579515 -0.168241 -0.795153
-0.02216 -0.647162 -0.088709 0.611593 0.028842 -0.789934
-0.133033 -0.514341 0.001382 -0.854079 -0.174862 0.484466
-0.029313 0.431597 0.096376 -0.142918 0.230575 0.96249
-0.504807 0.137338 0.074217 -0.482877 0.657073 0.400318
-0.065262 -0.574631 -0.103491 -0.014275 0.02205 -0.998761
0.027102 0.102384 -0.138153 -0.162068 0.293896 -0.941585
-0.124712 -0.757433 -0.043625 -0.939215 -0.339128 0.004073
-0.125445 -0.020156 -0.062302 -0.871919 -0.003771 -0.488872
0.199393 -0.525842 0.00307 0.944396 -0.026382 0.326384
0.503781 0.225841 -0.060074 0.645855 0.747491 -0.140801
0.138319 -0.215962 -0.096408 0.416742 -0.144921 -0.894466
-0.127539 0.179081 -0.009313 -0.976691 0.046145 -0.192627
-0.384976 0.288005 -0.062145 -0.69587 0.682325 -0.221958
0.131677 -0.447251 0.062222 -0.574147 -0.212591 0.788787
0.196394 -0.706874 -0.011225 0.951832 -0.026107 0.276413
-0.042093 -0.695076 -0.110292 0.349324 0.281179 -0.892732
-0.129851 -0.246719 -0.008548 -0.948646 -0.017986 -0.314285
0.044296 0.863111 0.029944 0.098912 0.963057 0.239833
-0.099876 -0.605285 -0.094993 -0.477107 0.069707 -0.875191
0.072507 0.483363 0.074041 0.091147 0.444049 0.891117
0.010161 -0.695432 -0.006511 0.776309 -0.237531 0.583637
-0.093461 0.566411 -0.060579 -0.409667 0.822197 -0.3934
0.139908 0.349416 -0.124013 0.641218 -0.211227 -0.7374
-0.00084 -0.025992 -0.137203 -0.040364 -0.300786 -0.952277
-0.070748 -0.861351 -0.119945 -0.142172 -0.966367 -0.199976
-0.383443 0.215467 0.011815 0.170523 0.020912 0.983315
0.594262 0.056952 0.010579 0.983797 -0.138942 -0.026092
0.421754 0.264216 -0.034228 -0.020985 0.348677 0.93581
-0.135504 -0.058462 0.06032 -0.93777 0.028636 0.334496
0.105421 -0.43917 0.04562 -0.613838 -0.382867 0.690285
-0.559398 0.044953 0.014635 0.900987 -0.417468 -0.075074
0.001831 -0.195469 0.102776 0.615997 -0.10081 0.781229
0.155892 -0.781316 -0.097602 0.572725 0.387061 -0.722472
-0.515616 0.080762 0.07778 0.67071 -0.72068 0.173653
0.207781 -0.170414 -0.004386 0.999918 0.003633 0.002006
-0.060056 0.358403 -0.121233 -0.365642 -0.044186 -0.929656
0.202976 -0.573431 -0.027383 0.961362 -0.23338 -0.11062
0.392391 0.272526 -0.127792 -0.118498 -0.184788 -0.971728
-0.078284 -0.024434 0.118688 -0.50455 0.036675 0.862234
0.156991 0.345194 0.061124 0.687176 -0.101808 0.718541
-0.091397 0.018275 0.10969 -0.568845 0.296772 0.766289
-0.073409 -0.863872 0.04934 -0.03452 -0.999325 -0.010206
0.187116 0.327587 -0.051056 0.856976 -0.357078 -0.371543
0.303649 0.415116 -0.023375 0.588438 0.121981 0.798293
-0.027102 -0.841616 0.088997 0.964325 0.163006 0.174552
-0.250755 0.395524 0.018521 -0.437254 0.141094 0.884021
0.187717 0.006682 -0.070075 0.83845 0.135101 -0.526484
0.105129 0.75426 -0.030003 0.989261 0.076703 -0.086271
-0.047456 -0.663851 -0.104993 0.365811 0.123904 -0.921352
0.174441 0.550008 -0.004243 0.221665 0.727351 0.649244
-0.070085 0.461037 0.079876 -0.266773 0.349808 0.897878
-0.134395 -0.482893 -0.039186 -0.922706 0.041106 -0.382459
-0.074258 -0.863119 -0.000792 -0.013808 -0.999137 -0.03664
-0.014689 0.677391 0.032428 -0.761641 -0.613174 0.190898
0.137273 0.226115 -0.102181 0.749228 -0.225953 -0.62156
0.183798 0.032104 -0.077417 0.88035 0.046469 -0.471476
0.130302 -0.612085 -0.09946 0.036392 -0.1337 -0.987435
0.036825 0.158072 -0.118541 -0.099333 -0.018073 -0.993999
0.128683 -0.603031 0.035123 -0.196176 -0.028122 0.975648
0.165962 0.078307 0.084669 0.682749 0.262117 0.676805
0.007916 -0.412376 -0.048564 0.773494 -0.005897 -0.632936
-0.011329 0.67704 -0.036695 -0.958476 -0.145692 -0.227682
-0.147052 0.398201 -0.063123 0.588413 -0.761234 -0.262885
-0.073388 -0.158874 0.119466 -0.21044 -0.089115 0.971437
0.018197 0.669141 -0.064439 -0.393321 -0.295728 -0.861571
-0.123409 -0.5772 -0.073258 -0.777581 0.043492 -0.626562
-0.128207 -0.012611 -0.055884 -0.922398 0.019433 -0.382831
0.10941 -0.86414 -0.016793 -0.37823 -0.922066 0.061803
0.24021 0.373243 -0.090129 -0.706433 -0.707477 -0.015694
-0.437215 0.156902 0.019999 0.531427 -0.822511 0.185877
-0.039103 0.7481 -0.009768 -0.957511 0.068635 0.239143
0.138565 0.342375 0.079932 0.680904 -0.023298 0.729605
-0.363 0.253318 -0.083828 0.00495 -0.268159 -0.961695
-0.013497 0.17714 -0.114284 -0.294198 -0.205774 -0.928984
0.629084 0.035874 0.078653 -0.862138 -0.479766 0.004097
-0.10735 0.147538 -0.057399 -0.82154 0.166014 -0.54522
0.198179 0.07008 0.03493 0.952187 0.232672 0.187377
-0.025618 0.479729 0.080449 -0.101166 0.422894 0.897443
0.028436 -0.241418 0.036908 0.982226 -0.014096 0.186431
0.144682 -0.825866 0.097062 0.293647 0.94107 0.150767
0.172205 0.1497 -0.055167 0.863961 0.016835 -0.502898
-0.069902 -0.379831 0.095547 0.164827 -0.228638 0.95914
-0.047747 0.209418 -0.111042 -0.557123 -0.318886 -0.766407
0.037003 0.626507 0.030556 0.032192 -0.450037 0.886621
-0.10781 -0.248213 0.102329 -0.607432 -0.023257 0.78903
-0.08047 -0.010603 -0.121199 -0.569948 -0.081431 -0.816505
0.58906 0.071857 -0.010674 0.731132 0.316766 -0.581295
0.172703 0.162831 0.055922 0.745907 0.093194 0.658996
-0.079726 -0.860243 -0.115996 -0.315685 -0.890513 -0.270139
0.05498 0.191864 -0.115784 -0.239947 -0.030902 -0.960734
-0.318238 0.29603 0.004994 -0.152892 0.072565 0.984939
-0.013557 0.559973 0.021826 -0.017017 0.705447 0.701498
-0.072511 -0.509589 -0.098222 -0.189326 0.083753 -0.977786
0.150544 0.344701 -0.113231 0.649309 -0.238114 -0.721634
0.189828 -0.473294 0.03458 0.957738 -0.051352 0.278325
-0.006296 -0.346847 0.08085 0.623977 -0.05558 0.774906
-0.117493 0.205938 0.0381 -0.918403 0.152745 0.362329
0.088963 0.710727 -0.05235 0.820202 -0.474392 -0.31235
0.05012 -0.293733 -0.055674 -0.822455 -0.014716 -0.568597
0.165329 -0.717924 -0.069523 0.811918 -0.051584 -0.581302
0.128902 0.076418 -0.127465 0.553641 0.260141 -0.789804
0.121553 -0.468095 -0.106037 -0.04662 0.08272 -0.993011
-0.001085 0.436217 0.097253 0.026472 0.170292 0.984539
0.070044 -0.609214 -0.064958 -0.675668 -0.019766 -0.73691
-0.097734 -0.849802 -0.042421 -0.802931 -0.590009 -0.049473
-0.06539 -0.862912 -0.005859 0.004032 -0.999248 -0.038431
-0.036731 0.548301 -0.109331 -0.24615 0.492963 -0.833515
-0.101464 -0.719864 -0.097887 -0.776094 0.022642 -0.630069
0.043363 -0.239479 0.03612 -0.986488 -0.033225 0.155
-0.044697 0.344086 0.102329 -0.158261 -0.107982 0.980707
0.115529 0.28042 -0.133877 0.476909 -0.04345 -0.874472
0.052843 -0.452247 -0.00299 -0.735877 -0.032684 0.671235
0.087235 0.703232 -0.044319 0.770274 -0.498241 -0.365133
0.233374 0.469084 0.007851 0.768857 0.003712 0.639338
0.554542 0.155303 0.043036 -0.25243 0.10147 0.957381
0.083133 0.07263 -0.15089 0.159571 0.248317 -0.95035
0.021797 0.725645 -0.104484 -0.147652 -0.538963 -0.828104
-0.09333 0.195916 0.076013 -0.672915 -0.003888 0.739479
-0.460092 0.147541 0.049185 0.656499 -0.297621 0.658803
-0.11864 -0.095826 -0.060328 -0.772412 -0.118441 -0.623186
0.032258 0.612984 -0.076001 -0.059679 0.375105 -0.91775
-0.081465 0.555744 0.017686 -0.050221 0.767295 0.639241
0.201244 0.014815 0.055007 0.917833 0.075976 0.386387
-0.128681 -0.573277 -0.015208 -0.969988 -0.083693 0.227768
0.02906 0.447532 0.091709 0.164955 0.21462 0.961987
0.026726 -0.669983 -0.030686 0.990536 -0.070366 0.102309
-0.013267 -0.806639 0.019389 0.941045 0.207401 0.258147
-0.036863 -0.459732 -0.091047 0.35057 0.121993 -0.927228
0.145196 0.025008 -0.12754 0.767791 0.078772 -0.60124
0.155369 -0.740612 0.012591 0.283751 0.774132 0.565306
0.091601 -0.850247 0.0014 -0.805842 -0.562645 -0.066964
0.274392 0.469484 -0.115592 0.481527 0.627713 -0.611211
0.13123 0.383134 0.084284 0.478795 0.057481 0.875869
0.169822 -0.818603 -0.044462 0.780021 -0.625429 0.00735
0.42275 0.305683 -0.067112 0.538327 0.762096 0.340551
-0.164866 0.539053 0.008437 -0.631547 0.722558 0.275145
-0.251212 0.358434 0.017543 0.042069 -0.195711 0.976304
0.159114 0.470954 0.053271 0.600589 0.246275 0.758046
0.150663 0.261722 -0.093211 0.862799 -0.094236 -0.496084
0.131501 0.254314 -0.118354 0.688033 -0.208096 -0.694451
-0.002337 -0.384522 -0.054881 0.605975 0.080985 -0.791022
0.205622 -0.077632 0.051634 0.908253 0.013131 0.413348
-0.084497 -0.632935 -0.104789 -0.235438 0.069771 -0.96799
0.021638 0.735782 0.096639 -0.873846 0.110532 0.442815
-0.264123 0.417027 -0.011849 -0.724464 0.620393 0.284008
0.197795 0.368061 -0.066195 0.970369 -0.186343 -0.125718
-0.128242 -0.347599 0.015685 -0.999059 0.026152 0.0316
-0.415655 0.221333 0.014097 -0.148543 0.247613 0.953629
-0.257447 0.427133 -0.017932 -0.751627 0.624967 0.210845
-0.09162 -0.759955 -0.110938 -0.691303 -0.028132 -0.717506
0.492951 0.193873 0.000659 0.015518 0.813877 0.453642
0.35836 0.356968 -0.062534 0.617932 0.567214 0.54434
0.012755 -0.118458 -0.063374 0.665622 -0.384617 -0.633942
0.028756 -0.251055 0.034344 0.98139 -0.031635 0.188206
0.083535 -0.625349 -0.075498 -0.654646 -0.080849 -0.751357
-0.018814 -0.66126 0.025269 -0.073781 0.058274 0.994172
-0.101322 0.534171 -0.092612 -0.372797 0.573792 -0.728922
-0.12589 -0.268962 0.071497 -0.939438 -0.117485 0.321423
0.104518 -0.754708 0.021732 -0.186322 -0.497264 0.811674
0.001592 0.160138 0.129475 -0.119108 0.009172 0.992753
0.144301 -0.665914 -0.088927 0.460451 -0.060185 -0.884063
0.046812 -0.007168 0.138297 0.067364 -0.425604 0.901066
-0.109205 -0.611322 0.03445 -0.902774 -0.001669 0.429765
-0.025796 0.300991 -0.130882 -0.108573 0.036856 -0.99229
-0.51204 0.087699 0.084796 0.797984 -0.41485 0.408706
-0.107132 -0.840018 -0.006224 -0.961578 0.19156 -0.10791
-0.10613 -0.507756 0.047463 -0.8025 -0.192923 0.56453
0.47764 0.184168 -0.002076 -0.590328 -0.782757 0.191363
0.080883 -0.261016 0.080001 -0.399901 -0.133568 0.90333
0.164449 0.212844 0.058262 0.73954 0.065503 0.669724
-0.105419 -0.441472 0.077159 -0.742801 -0.112946 0.65934
0.218438 0.414288 -0.120608 -0.679298 -0.444002 -0.580898
-0.082846 -0.496717 -0.094364 -0.416594 0.116907 -0.895255
0.039784 0.124647 0.132322 0.081694 0.062899 0.994376
-0.005061 -0.098244 -0.096293 0.538709 -0.383973 -0.748902
-0.058158 -0.068546 -0.115297 -0.222396 -0.274284 -0.935139
0.087069 -0.737973 -0.070106 -0.860457 -0.073335 -0.503417
0.265156 0.460582 -0.126832 0.27461 0.515354 -0.811029
0.568799 0.151166 0.014968 0.740751 0.67146 -0.011365
0.079601 -0.792459 -0.07322 -0.841597 0.22424 -0.489729
-0.103305 -0.6761 0.02831 -0.473265 -0.357952 0.789938
0.477071 0.190429 0.006537 -0.635537 -0.429806 0.626515
0.458043 0.241724 -0.093828 0.60329 -0.254047 -0.752066
-0.131808 -0.169992 0.072286 -0.824047 0.015682 0.564347
0.177408 -0.410612 0.066625 0.60494 -0.086875 0.78567
-0.073204 -0.038427 -0.120392 -0.482479 -0.247083 -0.833014
-0.117125 -0.643622 0.019335 -0.89618 -0.060291 0.439133
0.154108 0.119801 -0.088406 0.74777 0.218726 -0.625834
-0.122894 -0.224269 0.085893 -0.861304 -0.044678 0.506119
-0.1047 -0.631307 0.041121 -0.815145 -0.113736 0.55514
-0.395548 0.222869 -0.069188 -0.32669 -0.233377 -0.913449
0.131234 0.585648 -0.050901 0.552474 0.810211 0.163113
-0.119575 0.356518 0.009965 -0.973779 -0.170194 0.145002
-0.079329 -0.310278 -0.080012 -0.572739 -0.037934 -0.818548
0.035917 0.062504 -0.149854 -0.18592 0.267492 -0.945039
0.163662 -0.599007 0.033985 0.416832 -0.401699 0.81414
-0.187012 0.357035 -0.013634 0.523351 -0.778975 0.338778
0.187824 -0.50052 0.037581 0.886873 -0.123662 0.443398
0.074765 0.780755 -0.104105 0.628091 0.030274 -0.775304
0.196754 -0.397623 0.029687 0.942555 -0.036666 0.331636
-0.421475 0.237938 0.002418 -0.580859 0.56328 0.577988
0.03454 0.672111 0.094611 0.036623 0.17041 0.976299
-0.058735 -0.771799 -0.135602 -0.255175 0.378643 -0.886642
0.642495 0.033127 0.065218 0.980783 0.178728 0.068276
-0.021204 0.694486 0.004417 -0.945309 -0.319656 -0.027407
-0.015867 0.080776 -0.136113 -0.15527 0.216243 -0.963908
-0.083301 -0.792366 0.028483 -0.683947 0.464377 0.561983
0.012884 -0.78306 -0.037783 0.878759 -0.280555 0.384017
0.208767 0.511103 -0.122317 0.219808 0.499464 -0.835478
-0.00604 -0.19361 0.109192 0.62534 -0.096122 0.774219
-0.030624 0.132336 -0.114963 -0.278269 0.474815 -0.834806
0.445356 0.202762 -0.096469 0.848514 -0.287607 -0.38474
0.165374 -0.627299 -0.083067 0.533012 -0.154802 -0.831424
0.016882 0.793066 0.08091 -0.212069 0.289179 0.930948
