0.06195 0.52986 -0.125254 -0.17194 0.130829 -0.974325
-0.037412 0.778912 -0.046432 -0.989907 0.078346 -0.116556
-0.327234 0.297355 -0.09405 -0.142622 0.006802 -0.98936
0.186121 -0.385672 0.057898 0.840527 -0.029315 0.539688
0.511478 0.217694 -0.064646 0.452981 0.304981 -0.749528
-0.2246 0.451337 -0.06729 -0.576974 0.565586 -0.588673
0.192103 0.10605 0.03192 0.977292 -0.075144 0.191258
0.354871 0.272327 -0.075443 -0.674307 -0.720762 0.157969
-0.052119 -0.505924 0.062012 0.385406 -0.25327 0.887217
0.203261 0.028014 -0.02795 0.948725 0.091298 -0.298141
0.203944 -0.078624 -0.036462 0.93367 0.067392 -0.351058
0.188585 0.552956 -0.013082 0.289825 0.758411 0.582403
0.349053 0.376219 -0.077132 0.676021 0.679886 0.282712
0.146644 -0.644095 -0.090638 0.425144 -0.144569 -0.893127
-0.518739 0.111537 0.091455 0.020514 0.173048 0.856934
0.196507 -0.649539 -0.009479 0.96714 -0.091983 0.233304
-0.037069 0.449808 -0.132083 0.023011 -0.03687 -0.997534
0.098739 -0.127577 -0.117615 -0.244727 -0.214314 -0.943192
0.086388 0.524857 0.048793 0.188127 0.545747 0.816048
0.123551 0.503756 -0.137419 0.044835 0.256795 -0.96486
-0.062718 0.212104 0.096511 -0.468047 0.093793 0.878313
0.618528 0.085861 0.028303 0.869602 0.490936 -0.046759
-0.091739 -0.145859 -0.082548 -0.694148 -0.121487 -0.709448
0.006875 -0.604297 -0.060356 0.735037 0.054385 -0.67556
0.208187 -0.150403 0.009993 0.972245 -0.214599 0.040954
-0.111619 0.439684 0.062841 -0.163926 0.019417 0.986114
-0.057152 -0.036263 -0.127101 -0.265407 -0.287891 -0.918827
0.042301 -0.322502 0.014943 -0.972513 -0.030493 0.224803
0.369101 0.355778 -0.07729 0.668046 0.651146 0.358767
0.173069 0.43255 -0.135453 0.178545 -0.220612 -0.957826
0.045669 -0.421447 -0.007341 -0.929288 -0.109668 0.342392
-0.421716 0.244611 -0.012905 -0.703169 0.699978 0.11321
-0.050523 -0.862408 -0.005563 0.104704 -0.991955 -0.056369
0.156212 -0.554778 0.045976 0.091085 -0.350893 0.931836
-0.116626 0.060264 0.081347 -0.799357 0.243089 0.529084
-0.136428 -0.521528 -0.032018 -0.996077 -0.003946 -0.068175
0.03926 -0.179114 0.034385 -0.499437 -0.384226 0.726167
0.633134 0.045771 0.001981 -0.444324 -0.067978 -0.838875
-0.002355 -0.414813 0.060996 0.76436 -0.203144 0.611746
0.013458 0.0294 0.139927 -0.020633 0.174666 0.983313
0.097643 -0.007237 0.129397 0.282573 -0.250304 0.925065
-0.106827 0.419788 -0.112372 -0.442074 -0.229163 -0.86133
-0.064101 -0.628532 -0.10577 0.066471 0.069069 -0.994339
0.061011 -0.500214 -0.066655 -0.738622 -0.025677 -0.673473
0.102064 0.473152 0.073901 0.204417 0.402806 0.890285
0.272576 0.504532 -0.061516 0.711363 0.702741 -0.005789
0.097208 0.712009 -0.021164 0.851513 -0.499046 -0.125129
-0.005581 0.396261 -0.129158 0.05308 6.2e-05 -0.998552
-0.06248 -0.842788 0.160069 0.472637 0.290306 0.812648
0.083438 -0.453531 0.020005 -0.664253 -0.147156 0.731957
0.099616 -0.138325 0.10276 -0.561146 -0.053838 0.825844
0.129674 0.02977 -0.139399 0.546957 0.105911 -0.829535
0.173349 0.329285 0.040671 0.87612 -0.00286 0.478648
-0.001424 0.580288 -0.095491 -0.070821 0.56929 -0.817976
-0.119564 -0.762521 -0.018256 -0.923307 -0.263326 0.268796
0.121115 -0.860374 0.178851 -0.098175 -0.94996 0.289352
-0.034257 0.295307 0.108083 -0.579504 0.070046 0.811082
-0.015294 0.393424 -0.129524 0.023569 -0.009224 -0.999657
-0.104255 0.555937 0.016131 -0.069212 0.821492 0.563851
-0.059359 -0.469279 -0.095776 -0.003698 0.11512 -0.992396
0.129056 0.575268 -0.089599 0.362621 0.745587 -0.558203
-0.5199 0.123407 0.054962 -0.744453 0.667047 0.01162
-0.122804 -0.582475 0.001487 -0.927666 -0.038402 0.369475
-0.135474 -0.172494 0.063627 -0.957308 -0.005949 0.269751
0.037811 -0.081452 0.111916 0.078242 -0.55046 0.828148
0.106629 0.581767 -0.016991 0.342528 0.75294 0.557479
0.01457 -0.184897 -0.051098 0.831764 0.066583 -0.550993
0.602881 0.10508 0.023467 0.898925 0.409387 -0.102156
-0.046497 0.364713 -0.126592 -0.266229 -0.034919 -0.962729
0.084992 -0.822536 0.032593 -0.756779 -0.598319 0.202382
0.201133 0.126344 -0.002059 0.934048 -0.243754 -0.194788
0.303708 0.356602 -0.034617 0.107678 -0.494348 0.853993
-0.096443 -0.219409 0.109608 -0.249629 -0.059914 0.966334
0.186765 0.16159 -0.02707 0.86979 0.099599 -0.481256
0.04241 0.678859 0.090481 0.161714 0.261659 0.946394
0.186615 -0.437155 0.052146 0.882491 -0.085333 0.461691
0.187072 -0.525366 0.034534 0.838988 -0.08389 0.537263
0.071717 0.582672 -0.097286 0.025518 0.679698 -0.726719
0.343719 0.371656 -0.132564 0.56826 0.289167 -0.769402
-0.476114 0.122412 0.00606 0.463595 -0.803099 -0.354593
0.098069 -0.546926 -0.097516 -0.565237 -0.102064 -0.817946
-0.12589 -0.268962 0.071497 -0.939438 -0.117485 0.321423
0.093487 -0.866849 -0.07517 -0.693609 -0.719076 -0.025526
-0.013866 0.629132 -0.031649 -0.88667 0.384297 -0.214567
-0.121533 -0.314523 -0.032044 -0.841312 0.068052 -0.535752
0.011416 -0.204713 0.091636 0.828722 -0.082666 0.552906
-0.028084 0.593921 -0.020066 -0.647224 0.651682 0.393415
-0.451292 0.212503 -0.016404 -0.775755 0.626914 0.05134
0.177574 0.565629 -0.071812 0.286087 0.912501 -0.288684
0.098772 0.792083 -0.066259 0.935744 0.105765 -0.334892
0.126986 -0.869992 -0.073626 0.023489 -0.999615 0.014349
-0.102891 0.324062 -0.088967 -0.726763 -0.146047 -0.668906
0.086805 0.790159 -0.091834 0.846425 0.091246 -0.523762
0.086971 0.549134 0.032376 0.074103 0.784915 0.600054
0.034946 0.86248 -0.053671 0.000535 0.959688 -0.277254
0.434265 0.301089 -0.082 0.631449 0.766438 0.075506
-0.032451 -0.136191 0.124367 -0.004558 -0.06992 0.997327
-0.144396 -0.112125 0.015767 -0.999906 -0.00056 0.012094
-0.001634 -0.799704 -0.12123 0.862981 0.014482 -0.49651
0.080415 -0.211249 -0.090813 -0.44586 -0.181586 -0.87627
0.085656 0.836945 0.015936 0.76144 0.580805 0.280647
0.082312 0.128247 0.123405 0.409234 0.050325 0.908474
0.149929 0.389968 0.072222 0.634508 -0.004636 0.770717
0.085173 -0.477586 0.02174 -0.631787 0.09001 0.769581
0.117364 0.557482 -0.112585 0.219356 0.606155 -0.762908
0.054177 0.651504 -0.062794 0.448139 0.016218 -0.887553
-0.02583 0.289861 -0.131182 -0.11871 -0.002546 -0.991851
-0.013807 0.140352 0.125991 -0.428521 0.026219 0.897239
-0.127766 0.002296 -0.055295 -0.925333 0.073116 -0.371174
0.058436 -0.166602 -0.087053 -0.64761 -0.186447 -0.738282
0.289049 0.335835 -0.111415 -0.6247 -0.632514 -0.45621
0.157328 -0.860414 -0.035394 0.579814 -0.779841 0.159468
0.061378 -0.036095 -0.143958 -0.258308 -0.392324 -0.88279
0.008768 -0.729835 -0.083461 0.732333 0.108027 -0.671821
-0.079727 0.116352 0.088809 -0.613927 0.196406 0.7615
0.093102 0.727418 0.030066 0.951097 -0.057102 0.297269
-0.127759 -0.728613 -0.044148 -0.998095 -0.010014 0.030408
-0.096761 0.541643 -0.088597 -0.384073 0.594793 -0.705321
-0.075857 -0.596183 0.051212 0.469807 -0.207123 0.857686
-0.020112 -0.801956 0.036225 0.924365 0.274787 0.263993
-0.080284 0.309172 -0.107209 -0.652064 -0.049316 -0.756101
-0.129185 0.074394 -0.007432 -0.981981 0.157894 -0.022854
-0.006748 0.018968 0.139387 -0.175597 0.164553 0.970437
0.092384 -0.801288 -0.099202 -0.806802 0.182054 -0.559142
0.189849 0.468409 0.032744 0.462513 0.214865 0.859345
0.105375 -0.556567 -0.100972 -0.464098 -0.121448 -0.875933
0.207139 -0.178415 0.012708 0.997323 -0.00962 0.07044
-0.141844 -0.07022 0.036397 -0.970127 0.027729 0.234366
-0.052325 -0.717989 0.015771 -0.528171 0.343832 0.774792
-0.090052 0.573982 -0.020595 -0.188381 0.972378 0.109224
-0.026356 -0.853379 0.003931 0.70111 -0.689945 -0.162499
0.054787 0.192297 0.128527 0.098585 0.013564 0.994979
0.253631 0.438249 -0.007162 0.327565 -0.189268 0.924822
-0.082458 0.431372 0.080216 -0.586402 0.128621 0.799272
0.024037 0.839191 0.060829 -0.212563 0.599995 0.769168
0.027173 0.58427 -0.095817 -0.073293 0.534212 -0.841833
-0.036863 -0.459732 -0.091047 0.35057 0.121993 -0.927228
-0.047035 0.214919 0.105009 -0.522179 0.04552 0.851422
-0.061861 0.583268 -0.040134 -0.429435 0.894858 0.031497
0.074294 0.665206 0.026948 0.830033 -0.411285 0.366096
0.612721 0.091072 0.074706 0.734993 0.672519 0.079104
-0.089429 0.563315 0.006477 -0.1077 0.857832 0.497492
0.201244 0.014815 0.055007 0.917833 0.075976 0.386387
0.172247 0.347511 0.043235 0.827068 -0.060837 0.558017
-0.07003 -0.125852 0.120366 -0.25176 -0.003489 0.967515
0.134973 0.202146 -0.097835 0.672668 -0.134597 -0.725433
0.130449 0.37303 0.085361 0.479244 0.052829 0.875832
-0.087202 0.404721 0.079258 -0.626851 0.004344 0.778859
-0.12243 -0.568656 0.004987 -0.902112 -0.123781 0.412527
-0.017654 0.850854 -0.028233 -0.599999 0.785743 -0.137667
0.057656 0.204173 -0.11997 -0.222561 -0.3924 -0.892097
0.022707 -0.4774 -0.023094 0.903361 0.048149 -0.426011
-0.137943 -0.065182 -0.026831 -0.963388 0.005479 -0.267388
0.111137 -0.864835 -0.005563 -0.299892 -0.944546 -0.07268
-0.105419 -0.441472 0.077159 -0.742801 -0.112946 0.65934
0.192205 0.394368 0.017749 0.959872 -0.098344 0.258044
0.553951 0.14178 0.044096 -0.433103 0.204199 0.877011
-0.118935 0.516634 0.050921 -0.04819 0.475784 0.877579
-0.045702 0.202803 0.106162 -0.483429 0.01937 0.874736
0.126322 -0.219997 -0.099838 0.228769 -0.110843 -0.966139
0.130917 0.210608 0.095005 0.513216 0.05404 0.856517
0.120261 0.030797 -0.144651 0.480903 0.101201 -0.870274
0.056867 -0.127186 -0.096879 -0.576788 -0.250615 -0.776991
-0.423649 0.211257 -0.054589 -0.528132 0.06194 -0.846837
-0.152028 0.453279 -0.095756 -0.284696 0.029444 -0.956853
-0.034689 0.787908 0.007549 -0.983951 0.051017 0.170352
0.165015 0.510728 -0.128872 0.139772 0.350379 -0.924411
0.032898 0.052659 -0.151677 -0.15235 0.234287 -0.960045
-0.053233 0.395268 -0.126442 -0.255353 -0.076385 -0.962565
-0.135953 -0.019379 -0.032334 -0.983107 0.027565 -0.175599
0.325617 0.44178 -0.092768 0.709661 0.684411 -0.158468
0.076539 -0.258962 -0.086058 -0.543362 0.038182 -0.838525
0.198339 -0.501652 -0.051502 0.952381 0.016085 -0.29616
0.172368 -0.625351 0.020238 0.302228 0.065794 0.950413
0.082388 -0.383174 -0.087149 -0.664918 -0.075622 -0.742376
-0.019084 -0.101383 -0.102783 0.378909 -0.323663 -0.862528
-0.043105 -0.444214 -0.090552 0.194042 0.182829 -0.961645
0.075243 0.803635 -0.100477 0.675589 0.197434 -0.710013
0.571014 0.104067 0.059129 -0.626684 0.031519 0.774014
0.176021 0.35513 0.038688 0.842903 -0.104096 0.526792
-0.072512 -0.136668 0.119796 -0.299255 0.043353 0.952632
0.210257 0.490129 0.019031 0.239081 0.200027 0.94726
0.089922 0.460166 0.081251 0.124593 0.286522 0.949396
-0.27468 0.278603 -0.016614 0.607019 -0.64382 0.463474
-0.017106 -0.730782 -0.106762 0.539889 0.346673 -0.765505
0.141463 -0.095833 -0.118234 0.495953 -0.163445 -0.852022
0.008889 0.833561 -0.091082 -0.260551 0.730914 -0.629931
-0.120206 0.329635 -0.051395 -0.997571 -0.044465 -0.047076
0.161993 0.142358 -0.072666 0.75355 0.10308 -0.649036
-0.135973 0.050161 0.012472 -0.994638 0.097138 0.011077
-0.04201 -0.306659 0.099703 0.276382 -0.115386 0.952772
-0.224429 0.339482 -0.076797 0.497782 -0.658859 -0.561412
0.358076 0.363424 -0.123504 0.717849 0.484848 -0.493684
-0.089899 -0.197488 -0.077281 -0.689981 -0.025768 -0.72333
-0.016202 -0.671527 -0.087078 0.637868 0.172492 -0.750015
0.074708 -0.822101 0.004944 -0.541965 -0.798826 0.130369
0.190428 0.138786 -0.022376 0.81977 0.041745 -0.567722
0.033039 0.647607 0.042299 -0.110293 -0.604134 0.783754
-0.091393 0.044952 -0.105663 -0.705684 0.243771 -0.665105
-0.112283 0.255652 -0.007752 -0.998966 0.037016 -0.002027
-0.251558 0.377884 -0.096917 -0.101538 0.166875 -0.978509
-0.193011 0.360724 -0.074179 0.561342 -0.662548 -0.493498
0.135824 0.365306 0.082365 0.574376 0.029168 0.816216
-0.132183 -0.581783 -0.037545 -0.983426 -0.156937 0.069418
-0.11217 0.253827 -0.029868 -0.998126 0.048498 -0.012729
-0.276766 0.274094 -0.070765 0.622292 -0.556481 -0.549734
0.008476 -0.748005 -0.016227 0.601276 -0.431177 0.665431
0.101034 -0.859054 -0.019393 -0.631716 -0.762231 0.126416
0.277834 0.489986 -0.088743 0.644534 0.62359 -0.440864
0.116657 -0.83768 0.174804 -0.47175 0.498284 0.698206
0.003984 0.704666 -0.080559 -0.51394 -0.562683 -0.63856
0.209265 0.416639 -0.020294 0.39193 -0.851212 0.186373
-0.387712 0.248262 0.009446 -0.092252 0.240714 0.963658
-0.016169 0.760388 0.05506 -0.791682 0.071505 0.604972
0.043449 -0.0216 0.134692 0.077497 -0.220281 0.967699
0.220682 0.41993 -0.00983 -0.158689 -0.821869 0.524927
0.062781 -0.787351 0.018183 -0.663816 -0.616371 0.408648
0.064094 0.60702 -0.07655 0.205508 0.644317 -0.7357
0.213041 -0.032981 0.004686 0.99252 -0.000736 -0.107083
-0.020885 0.697223 -0.014877 -0.867665 -0.38338 -0.052037
0.022452 0.700593 0.089705 -0.445748 -0.195338 0.861836
-0.050385 -0.791534 -0.14683 -0.22636 0.327294 -0.904064
0.05626 -0.528784 -0.001125 -0.754401 -0.024182 0.654167
-0.029937 0.841192 -0.002019 -0.675804 0.713753 0.169583
0.18807 -0.168761 0.080367 0.759925 -0.045102 0.641614
-0.013757 0.780007 0.060394 -0.887244 0.031358 0.454689
0.066895 -0.675307 -0.049657 -0.774584 -0.133728 -0.617474
-0.010748 0.001926 0.142303 -0.175698 0.378443 0.903875
-0.136868 -0.115715 0.055393 -0.962746 -0.00746 0.268823
-0.111794 0.217977 -0.03883 -0.900134 -0.150544 -0.406874
-0.014689 0.677391 0.032428 -0.761641 -0.613174 0.190898
-0.021535 0.817115 0.023775 -0.866823 0.261246 0.423136
0.155021 -0.862805 0.01447 0.268159 -0.95974 -0.083285
0.052388 0.685129 -0.071817 0.316272 -0.478342 -0.812686
0.099476 -0.863547 0.021035 -0.616179 -0.74638 -0.209613
0.154555 0.024046 -0.118597 0.746545 0.063484 -0.646662
0.106028 0.56998 -0.000382 0.397036 0.718533 0.570883
0.166315 0.331782 0.05083 0.766071 -0.013395 0.639446
0.096326 -0.757355 -0.082919 -0.764578 0.04465 -0.642204
-0.076823 -0.861443 -0.039546 -0.048072 -0.998178 -0.025933
-0.116622 0.338582 -0.074727 -0.878083 -0.207602 -0.427669
0.083497 0.627644 -0.012279 0.95501 0.069261 0.277242
-0.126896 0.529208 -0.083508 -0.357518 0.599036 -0.715216
0.127706 -0.152837 -0.108924 0.278775 -0.203619 -0.937042
-0.113656 0.371233 -0.091067 -0.683704 -0.232855 -0.691056
-0.077009 -0.647639 -0.106967 -0.123538 0.063732 -0.989347
0.592025 0.057657 -0.005428 0.942039 -0.183454 -0.233904
0.387677 0.342053 -0.090754 0.698286 0.709663 0.059406
0.012884 -0.78306 -0.037783 0.878759 -0.280555 0.384017
-0.012746 -0.117006 -0.092481 0.581038 -0.298144 -0.756262
-0.27023 0.325392 0.008223 0.093909 -0.169958 0.977223
-0.049882 0.314159 -0.124588 -0.419476 0.00574 -0.907648
-0.114119 -0.410409 0.077318 -0.743593 -0.20672 0.635114
0.028913 -0.290486 0.021148 0.993477 -0.040733 0.102229
-0.094623 0.44301 -0.121087 -0.266843 -0.109923 -0.956986
-0.06644 -0.113552 -0.10335 -0.298063 -0.151734 -0.940507
-0.066069 0.480497 0.072594 -0.185172 0.400959 0.895165
-0.363836 0.210274 -0.056993 0.457828 -0.735623 -0.495186
-0.126039 -0.737222 -0.060028 -0.974743 -0.031782 -0.21369
-0.084589 -0.085315 0.115167 -0.433935 0.000786 0.900535
0.046321 -0.411571 -0.002011 -0.89318 -0.180639 0.401153
-0.132055 0.433427 0.060106 -0.29347 -0.160188 0.936844
0.093667 -0.238431 0.087339 -0.226693 -0.15992 0.960318
0.402217 0.230775 -0.05444 -0.602925 -0.718224 0.345021
0.141198 0.049284 -0.125534 0.636644 0.291456 -0.713516
-0.031247 -0.857232 0.108726 0.833704 -0.34866 0.351676
0.129855 -0.128191 -0.115053 0.322414 -0.269252 -0.905988
0.047772 -0.369661 -0.047792 -0.851632 -0.00827 -0.523359
-0.10038 -0.574056 -0.092629 -0.523389 0.041246 -0.851077
0.017153 -0.264617 -0.04348 0.870896 -0.085559 -0.47815
0.17206 -0.656542 -0.071767 0.58643 -0.222459 -0.77873
-0.474794 0.140614 0.063241 0.760438 -0.207604 0.604783
0.045035 -0.217176 0.049761 -0.938892 -0.082927 0.316654
-0.037941 -0.863011 0.101095 0.204793 -0.968176 0.065625
0.122992 0.226791 0.098907 0.543317 0.041309 0.838374
0.025597 -0.454265 0.0015 0.983479 0.020534 0.149224
-0.073924 -0.815757 0.06348 -0.386588 0.749169 0.502037
-0.120728 0.364376 -0.074512 -0.957571 -0.159835 -0.227804
0.157338 0.437457 0.061963 0.740299 0.08407 0.66688
-0.070481 -0.854941 -0.131071 -0.391943 -0.61816 -0.668313
0.158361 0.574469 -0.047364 0.307676 0.947885 0.056303
0.204207 -0.505635 -0.012075 0.975323 0.103064 0.158638
0.187511 -0.048649 -0.073238 0.827981 -0.068343 -0.55649
0.076365 -0.34216 0.061586 -0.534727 -0.284271 0.792765
0.119717 -0.865664 0.14906 -0.07196 -0.986651 0.145792
-0.232339 0.415289 -0.087495 -0.33038 0.437772 -0.834862
-0.054053 -0.478083 0.070265 0.35309 -0.295193 0.887707
0.143806 0.060316 0.100955 0.698943 0.213156 0.679376
0.392391 0.272526 -0.127792 -0.118498 -0.184788 -0.971728
-0.097639 -0.636497 -0.099368 -0.495318 0.072544 -0.86481
0.132527 -0.494361 -0.107976 0.113034 0.042616 -0.992168
-0.1282 -0.150989 0.078702 -0.887733 0.019233 0.45845
0.017579 -0.391263 0.037135 0.92786 -0.15098 0.338744
0.240333 0.418108 -0.009953 0.204743 -0.505744 0.823008
0.046445 -0.516213 -0.016679 -0.673198 0.024669 0.687472
0.228379 0.494918 0.012457 0.50042 0.12186 0.85246
0.32276 0.420507 -0.127656 0.453128 0.607844 -0.650459
0.077689 0.237589 0.119345 0.420951 0.080393 0.90275
-0.197311 0.455914 -0.082199 -0.378025 0.41558 -0.824981
-0.107434 0.278478 0.032722 -0.985977 -0.007947 0.16435
0.19828 0.085253 -0.009355 0.980749 0.194312 0.006581
-0.280772 0.355724 -0.092062 -0.510336 0.247403 -0.818989
-0.080853 0.317994 0.079008 -0.550973 -0.031804 0.833462
0.509453 0.170975 0.018208 -0.010307 0.180556 0.932682
-0.105778 -0.586729 0.041585 -0.93562 0.031209 0.350495
-0.004451 0.244793 0.121564 -0.367497 0.080108 0.926436
0.06768 -0.497121 -0.07384 -0.711915 -0.009144 -0.701803
-0.134665 0.047982 0.032745 -0.968848 0.185326 0.150174
-0.074047 -0.863493 0.014719 -0.020283 -0.999661 -0.014126
0.199769 -0.579402 -0.043632 0.986109 -0.032581 -0.160824
0.305094 0.346025 -0.132342 -0.392478 -0.337748 -0.854722
0.00897 0.684933 0.081383 -0.63466 0.022662 0.767883
-0.111826 -0.803104 -0.079404 -0.951043 -0.203235 -0.221153
0.014003 -0.503542 -0.043785 0.845042 0.027095 -0.533429
-0.135589 -0.058153 -0.035909 -0.945329 -0.008269 -0.319907
-0.326363 0.22667 -0.02549 0.663716 -0.747139 0.006775
-0.036844 0.789984 -0.046157 -0.995444 0.026986 -0.089616
-0.113136 -0.726973 -0.080135 -0.8209 -0.092936 -0.561683
0.213477 -0.079313 0.025312 0.989417 -0.008862 0.133335
-0.072498 0.360675 -0.116284 -0.42691 -0.106374 -0.897421
0.108605 -0.119609 -0.120047 -0.017074 -0.189663 -0.980825
0.208334 -0.04011 0.036903 0.952979 0.030094 0.30139
0.022904 0.54174 0.038517 0.09037 0.71702 0.690122
-0.087866 0.321456 0.07232 -0.839396 0.00144 0.525904
0.313281 0.455733 -0.085186 0.708626 0.699501 -0.088208
0.085263 0.24187 0.11432 0.423255 0.06979 0.901926
0.132252 0.410809 -0.14203 0.330628 -0.166499 -0.926173
0.090839 0.615205 -0.037617 0.85257 0.500972 0.063902
-0.12489 -0.339361 -0.027392 -0.928132 0.071205 -0.362065
0.026607 0.592352 -0.090333 -0.066726 0.591832 -0.803259
0.0094 0.12266 0.131223 -0.122352 0.041195 0.989374
0.085816 -0.847754 -0.062864 -0.982711 0.175555 0.031151
0.007416 0.851566 -0.066114 -0.366745 0.77934 -0.507539
-0.112555 -0.849428 0.054479 -0.947085 -0.084707 0.015221
0.177936 -0.540727 -0.081694 0.697843 -0.036048 -0.71534
0.104934 -0.516933 0.036052 -0.547772 0.014641 0.833925
0.584522 0.065701 -0.02117 0.400165 0.473816 -0.684584
-0.018323 0.356608 -0.128865 -0.009988 -0.007394 -0.999857
-0.263363 0.339203 -0.09586 0.159742 -0.159903 -0.972905
0.09745 0.131301 0.117414 0.463843 0.035276 0.884511
0.132921 -0.669852 0.030124 0.117184 -0.133023 0.984109
0.372363 0.270267 -0.045736 -0.590696 -0.450441 0.660703
0.064854 -0.498037 0.007644 -0.586729 0.040261 0.808427
-0.045431 0.224527 -0.118604 -0.525645 -0.249959 -0.81062
0.130578 -0.634081 0.03332 0.299407 -0.146825 0.941907
0.196484 0.108712 -0.018092 0.959179 -0.102853 -0.238914
0.120408 0.041815 -0.142553 0.484265 0.20781 -0.849226
-0.397222 0.222254 0.013198 0.11318 0.085341 0.989567
0.540023 0.150502 -0.026525 0.462275 -0.117365 -0.871876
-0.062292 0.554207 0.022294 -0.187543 0.743349 0.641962
-0.120147 0.134127 0.038762 -0.926894 0.074876 0.366937
-0.030643 0.76343 -0.078197 -0.815634 -0.244274 -0.51701
-0.122771 -0.093692 0.0832 -0.80807 0.034664 0.587433
-0.018028 0.071468 -0.137849 -0.184916 0.229166 -0.955006
-0.071976 -0.855952 0.156869 -0.077674 -0.715187 0.671867
-0.006296 -0.346847 0.08085 0.623977 -0.05558 0.774906
-0.080189 0.568112 -0.070755 -0.478861 0.713347 -0.508818
0.200385 0.061669 0.02942 0.966151 0.215865 0.139147
0.103809 -0.329101 -0.100169 -0.089361 0.018237 -0.989263
0.011489 0.863272 -0.032226 -0.155983 0.98436 -0.065878
-0.095516 -0.34516 -0.068366 -0.64088 0.076512 -0.762531
-0.087049 0.379285 -0.112031 -0.414421 -0.180833 -0.89163
0.136527 0.022298 -0.135164 0.615726 0.053271 -0.784175
-0.041382 -0.170062 0.122812 0.043774 -0.056147 0.996583
0.114817 0.517203 -0.134191 0.032365 0.417507 -0.904536
0.247973 0.392491 -0.02435 -0.275865 -0.605557 0.74413
0.109877 0.169844 0.108769 0.543182 0.058469 0.836379
0.143417 0.142979 -0.094652 0.697764 0.145052 -0.701075
0.088884 0.768673 -0.089806 0.825318 -0.023511 -0.561374
0.194305 0.371018 -0.005015 0.974609 -0.135619 0.177733
0.180966 -0.263796 0.07309 0.524511 -0.019804 0.847481
-0.204934 0.416264 -0.094472 -0.167117 0.222917 -0.959388
0.017602 -0.636831 -0.054771 0.68257 0.148752 -0.715282
-0.138299 -0.495525 -0.015069 -0.983516 -0.174613 0.014994
0.028436 -0.241418 0.036908 0.982226 -0.014096 0.186431
0.056687 -0.358366 -0.061397 -0.79663 -0.051242 -0.602219
0.007294 0.788804 0.08002 -0.405969 0.253682 0.873095
0.192022 0.448481 0.035736 0.556501 0.126565 0.82052
0.150663 0.261722 -0.093211 0.862799 -0.094236 -0.496084
-0.089748 0.390735 0.076585 -0.60725 -0.07512 0.790904
-0.060628 0.131145 -0.10328 -0.381557 0.277379 -0.880658
0.207462 -0.017613 -0.017789 0.974074 0.055402 -0.21828
0.087667 -0.852673 -0.081469 -0.973432 0.044418 -0.169982
-0.282466 0.383387 -0.004059 -0.882531 0.148245 0.434754
0.112768 0.497224 0.057552 0.28395 0.470481 0.833928
0.290696 0.439715 -0.130848 0.381199 0.489881 -0.780977
0.0508 0.633907 -0.06603 0.180691 0.254006 -0.944379
-0.073388 -0.158874 0.119466 -0.21044 -0.089115 0.971437
-0.118456 -0.517935 -0.069342 -0.752235 0.13649 -0.643877
-0.049784 -0.863459 0.114323 0.093405 -0.990594 0.070482
-0.078048 -0.854454 -0.125169 -0.63205 -0.488394 -0.599072
0.169167 0.192387 -0.056771 0.879544 0.045099 -0.473221
0.081251 -0.395094 0.045273 -0.673927 -0.26986 0.687309
0.484948 0.227044 -0.006231 0.289627 0.096408 0.939027
0.057278 0.576209 0.020057 0.377563 0.031803 0.923588
0.094604 -0.200784 0.093059 -0.289846 -0.143106 0.945418
-0.061267 0.117481 0.100659 -0.542103 0.12392 0.829716
0.12234 -0.525042 0.045441 -0.474861 -0.107836 0.872138
0.341629 0.282174 -0.079218 -0.621142 -0.757841 0.187339
0.105434 0.094537 0.113603 0.476969 -0.181003 0.85837
-0.068045 -0.534963 -0.101785 -0.129226 0.070622 -0.986632
0.145103 -0.459114 0.066564 -0.302521 -0.137674 0.937645
0.089078 0.697018 0.031991 0.97087 -0.234759 0.039639
-0.20369 0.431426 0.040083 -0.199386 -0.194231 0.947731
-0.031633 -0.22019 -0.089597 0.264753 -0.001994 -0.963959
-0.115243 -0.208261 0.09756 -0.706174 -0.018346 0.707554
0.064207 0.314127 0.11446 0.285555 0.14814 0.946446
0.05887 -0.363535 0.036615 -0.688973 -0.355939 0.625159
0.19134 -0.306731 0.058101 0.901993 -0.081602 0.421719
-0.062123 -0.131464 0.122472 -0.243442 0.013467 0.969566
0.027586 -0.609218 -0.026631 0.994718 0.026575 -0.065994
0.362112 0.265333 -0.076531 -0.786413 -0.605607 0.120204
0.18601 0.328935 0.011289 0.923621 -0.121871 0.36273
0.023447 -0.024535 -0.138414 -0.108089 -0.421401 -0.90031
-0.03504 0.83697 -0.009426 -0.779917 0.613182 0.104391
-0.340164 0.260534 -0.084304 0.056481 -0.404109 -0.910913
-0.010189 -0.487684 0.047618 0.600301 -0.248558 0.759018
0.129862 -0.662475 -0.094203 0.10477 -0.048977 -0.989235
0.156342 -0.465194 -0.096823 0.452934 0.133174 -0.881505
0.072342 0.321562 -0.141631 -0.302326 -0.061302 -0.94739
0.12813 -0.219145 0.091257 0.0824 -0.170482 0.981849
-0.013253 -0.538196 0.035916 0.556339 -0.18094 0.81028
-0.288298 0.380554 -0.066385 -0.898619 0.313124 -0.2827
0.094823 -0.094326 0.104698 -0.433997 -0.181709 0.881945
0.053186 0.660135 0.070509 0.233731 -0.961346 0.136473
-0.005121 -0.001594 -0.142467 -0.162829 -0.156444 -0.973789
0.038373 0.670506 -0.067886 0.050565 -0.285627 -0.95459
-0.143101 -0.045203 -0.002605 -0.994479 0.041428 -0.078218
-0.055993 0.40355 0.096892 -0.247474 0.129257 0.959542
0.15917 -0.566656 0.042942 0.108153 -0.155259 0.978467
-0.192107 0.505376 0.022361 -0.653481 0.596555 0.465055
0.212979 0.493154 -0.128957 0.199948 0.275882 -0.938644
0.198494 -0.103878 -0.051277 0.882657 0.037676 -0.467623
-0.023635 -0.006757 0.144726 -0.186647 -0.092311 0.94257
0.345603 0.407528 -0.070562 0.823294 0.397132 0.3958
-0.045004 0.333637 0.100069 -0.305509 -0.148795 0.936475
0.243167 0.526398 -0.083786 0.606848 0.643784 -0.464531
0.15158 -0.818514 0.053126 0.692857 0.642189 0.297787
-0.113769 0.086876 -0.061726 -0.870107 0.165548 -0.464074
-0.127923 0.160689 0.0095 -0.993149 -0.05342 0.084208
0.580185 0.069209 0.041562 -0.802601 -0.41281 0.411179
0.207256 -0.188893 -0.023477 0.996928 -0.01614 -0.076037
0.035556 -0.326624 -0.001462 -0.942121 -0.084683 0.295609
0.181266 -0.221858 0.079164 0.623052 -0.179031 0.756235
0.054535 0.5739 -0.103683 -0.045086 0.556116 -0.828369
0.05473 -0.65245 -0.037551 -0.881083 -0.151323 -0.447888
-0.126905 0.387369 -0.072235 -0.970489 -0.158741 -0.168705
0.128925 0.178436 0.097671 0.5218 0.023226 0.852475
0.301568 0.326708 -0.114906 -0.604211 -0.641996 -0.462283
0.191804 -0.182613 0.072219 0.907679 -0.057188 0.406071
-0.061138 -0.191751 0.120287 -0.242557 -0.083202 0.963133
-0.020552 -0.323021 -0.077447 0.683037 -0.09567 -0.724016
0.039256 0.04546 -0.154508 -0.16153 0.290475 -0.942169
0.206809 -0.007279 -0.017334 0.981405 0.090184 -0.168887
0.20111 -0.331886 0.030899 0.935691 -0.055112 0.348041
-0.419403 0.22662 -0.057393 -0.586644 0.00617 -0.807353
-0.025383 -0.476173 0.061477 0.413774 -0.322528 0.849507
-0.042268 0.235863 0.106872 -0.506343 0.024883 0.860468
0.132627 -0.338035 -0.092213 0.499131 0.046862 -0.865001
0.097775 -0.49753 0.031726 -0.570204 -0.013903 0.821158
-0.11497 0.326472 -0.071395 -0.864544 -0.216052 -0.452661
-0.000482 0.274349 -0.130098 0.134136 -0.037243 -0.990095
-0.046567 -0.213529 -0.092108 0.083001 -0.053077 -0.994478
0.205717 -0.316069 0.011375 0.996141 -0.004046 0.070134
0.153362 -0.615264 -0.092205 0.477093 -0.164124 -0.863364
0.167427 -0.56088 0.042365 0.279155 -0.197664 0.934588
0.087714 -0.734162 0.034476 0.071376 -0.373282 0.920698
-0.415655 0.221333 0.014097 -0.148543 0.247613 0.953629
0.08845 0.39987 0.09519 0.165913 0.206347 0.963853
0.067943 -0.024985 0.131567 0.071827 -0.160819 0.983519
0.019011 -0.44947 0.0197 0.906702 -0.009624 0.418097
-0.349395 0.321464 -0.05845 -0.576546 0.806745 -0.101038
0.03937 -0.055278 0.124987 -0.143978 -0.480181 0.864241
0.098525 0.083363 -0.143264 0.388323 0.284601 -0.872246
0.086956 0.828764 0.021633 0.870216 0.312971 0.365459
-0.1102 -0.230086 -0.04945 -0.855036 -0.030749 -0.516865
0.076796 -0.617424 -0.070461 -0.664722 -0.054925 -0.745052
-0.201973 0.403005 -0.096861 -0.085328 0.065853 -0.992388
0.292705 0.367873 -0.021838 0.058166 -0.498472 0.845546
-0.126667 -0.532589 0.008771 -0.892089 -0.126361 0.430179
-0.093486 -0.030841 -0.106348 -0.679861 -0.116949 -0.723896
0.285122 0.403523 -0.143402 -0.107184 0.1169 -0.984245
0.297227 0.368352 -0.138769 -0.170314 -0.408275 -0.896334
0.548077 0.16969 0.031288 0.165775 0.731357 0.600051
-0.012021 -0.393385 -0.063705 0.636652 0.103695 -0.763801
-0.138865 -0.450486 -0.002555 -0.993885 -0.007471 0.067317
-0.036168 -0.688761 -0.105162 0.450248 0.269162 -0.851182
0.180863 -0.367598 0.067039 0.658845 -0.074976 0.731943
0.091402 -0.578374 0.028099 -0.409331 -0.094934 0.903592
0.087558 -0.841762 -0.070207 -0.98385 0.15142 -0.079325
0.174721 -0.510555 0.052437 0.621406 -0.202578 0.752766
-0.291656 0.393251 -0.043651 -0.957084 0.166897 0.027924
-0.51199 0.081883 0.056478 0.591879 -0.803388 -0.008443
0.036352 -0.232682 0.01448 0.499311 -0.201288 0.639699
0.100162 -0.03117 0.127605 0.233872 -0.072807 0.968521
0.012099 -0.670333 -0.066839 0.581942 0.209547 -0.785297
-0.134021 -0.257886 0.013022 -0.987291 -0.122105 -0.092759
0.176085 0.310897 0.033129 0.960395 0.001234 0.277836
-0.036399 -0.16455 -0.093422 0.371199 -0.116746 -0.92093
0.158718 -0.113723 -0.101911 0.636902 -0.183911 -0.748199
-0.136591 -0.494544 -0.002714 -0.960678 -0.146145 0.229951
0.016409 -0.33028 0.059817 0.843468 -0.200523 0.494524
-0.018102 0.679539 -0.013322 -0.868651 -0.455097 -0.1667
0.020607 -0.247651 -0.03925 0.929075 -0.060183 -0.364263
-0.151561 0.487694 0.056348 -0.2452 0.1997 0.947506
0.295824 0.338783 -0.049553 -0.392625 -0.665905 0.629471
0.068305 0.517429 0.056591 0.068558 0.534933 0.840208
0.031725 0.772611 0.088637 -0.108714 0.089412 0.983323
0.054947 0.862901 -0.045792 0.174389 0.96292 -0.20038
0.039315 -0.203617 0.023654 -0.975866 -0.098285 0.194846
-0.415365 0.252438 -0.043708 -0.782898 0.610068 -0.104147
-0.129965 -0.592296 -0.054958 -0.991568 -0.047013 -0.115007
0.173843 -0.395815 0.069584 0.496751 -0.022621 0.863866
-0.040665 -0.041159 -0.129188 -0.138441 -0.362375 -0.919536
0.475896 0.24992 -0.026345 0.323726 0.819847 0.456384
0.083282 -0.411274 -0.086846 -0.675294 0.004675 -0.736297
-0.128085 0.38924 -0.004644 -0.993259 -0.098448 0.038343
-0.122451 0.002355 0.083806 -0.799879 -0.144246 0.558149
-0.25217 0.399374 -0.088507 -0.329659 0.489986 -0.804635
0.139874 0.575292 -0.083271 0.351837 0.801453 -0.480865
0.101282 -0.360239 0.068284 -0.419153 -0.300692 0.856486
-0.077085 0.393038 -0.118643 -0.331103 -0.128134 -0.93442
0.052075 0.106255 -0.139514 -0.055066 0.437456 -0.896605
-0.147507 0.389985 -0.032305 0.743739 -0.665265 -0.05792
0.182465 -0.33626 0.06859 0.793375 -0.058433 0.604828
-0.000299 -0.488135 0.038551 0.66647 -0.226691 0.709915
0.193048 -0.211852 0.062841 0.947836 -0.035588 0.314216
0.182792 0.183353 0.035139 0.935622 0.128773 0.314759
0.052264 -0.460535 -0.055632 -0.796051 0.034491 -0.603182
0.04346 -0.283821 0.030485 -0.986469 -0.01767 0.161774
0.201316 -0.353761 0.023314 0.95344 -0.134376 0.269411
-0.093157 0.488041 0.061785 -0.176608 0.351318 0.917843
0.166318 -0.524395 -0.093133 0.655581 -0.036781 -0.754148
-0.339121 0.329835 -0.051074 -0.65677 0.752094 -0.047122
0.046781 -0.304136 0.03889 -0.946757 -0.055629 0.315666
-0.36059 0.2962 -0.004904 -0.330878 0.592354 0.729417
-0.093454 0.225968 0.073341 -0.608672 0.128748 0.782802
0.507179 0.1717 -0.046202 0.101159 -0.538774 -0.831411
0.207066 -0.205817 -0.005486 0.998914 -0.043677 0.006474
0.046525 -0.395198 0.006726 -0.862684 -0.246979 0.432087
0.198187 0.116127 -0.00935 0.983093 -0.072374 -0.147146
0.075307 -0.184454 0.086179 -0.51656 -0.021111 0.855448
-0.092964 0.317363 0.061463 -0.876994 0.091251 0.467481
0.096931 -0.82585 0.083403 -0.610508 0.740871 0.224672
-0.081969 -0.103904 0.116284 -0.426134 0.009471 0.902782
0.014385 0.113566 0.132699 -0.095767 0.281059 0.953927
0.182156 0.050418 0.075644 0.775173 0.253534 0.578383
-0.229393 0.469099 -0.030339 -0.786972 0.611012 -0.07965
-0.362419 0.309724 -0.035286 -0.625658 0.766392 0.136194
0.149969 0.126719 0.081871 0.657656 0.034042 0.751759
0.141731 -0.806623 -0.1153 0.394461 0.076961 -0.903076
0.024423 -0.245945 0.055381 0.932261 -0.009624 0.36048
-0.048484 -0.468636 -0.095005 0.124463 0.110884 -0.98524
-0.12827 -0.327463 -0.00148 -0.999686 -0.006319 -0.019664
-0.027293 -0.799583 -0.147585 0.443012 0.109085 -0.882716
0.341718 0.370328 -0.056802 0.640529 0.47709 0.593567
-0.046152 -0.629137 0.029999 0.375165 -0.25094 0.890927
0.11486 -0.85469 -0.119133 -0.315506 -0.022466 -0.923348
0.110534 -0.148413 -0.112368 0.043525 -0.24171 -0.968896
0.093488 -0.328118 0.073183 -0.365234 -0.11022 0.918252
0.042662 -0.165281 0.049933 -0.937 -0.120844 0.322389
0.171179 -0.460121 0.064704 0.400066 -0.109466 0.908078
0.584866 0.047819 0.006952 -0.847747 -0.529603 -0.000922
0.137608 -0.346047 -0.089098 0.587498 0.046619 -0.804753
-0.029789 0.715643 -0.013729 -0.946934 -0.301646 -0.079186
0.111405 -0.86433 0.153754 -0.084489 -0.9844 0.152992
0.397166 0.332333 -0.084284 0.687451 0.715286 0.102374
0.069274 0.334231 0.110784 0.317731 0.17866 0.929741
0.136806 0.042366 -0.131708 0.641119 0.217574 -0.734005
0.161004 -0.447073 -0.090652 0.570241 0.204504 -0.795182
-0.121364 -0.481167 0.035365 -0.815924 -0.259408 0.516558
0.119122 0.570549 -0.010165 0.363796 0.715305 0.595798
0.197543 -0.717434 -0.018963 0.993116 -0.006053 0.048063
0.131234 0.585648 -0.050901 0.552474 0.810211 0.163113
-0.12381 -0.564336 -0.071493 -0.753382 0.094211 -0.650075
-0.084567 0.238637 0.078159 -0.628377 0.079185 0.773443
-0.060336 -0.426201 0.083943 0.184373 -0.23963 0.953003
0.119056 -0.824524 0.124983 -0.078563 0.994119 0.028226
-0.028518 -0.626515 -0.092678 0.538415 0.002805 -0.841764
-0.360854 0.2584 0.008759 0.056543 0.13525 0.988678
-0.065147 -0.713675 0.012157 0.003024 -0.075258 0.994497
0.006775 0.650138 -0.056326 -0.585231 0.036651 -0.801987
0.023669 -0.161087 0.072005 0.868247 -0.238652 0.434394
0.15087 -0.121633 -0.106042 0.569663 -0.278931 -0.771257
0.552227 0.100818 -0.0048 -0.879761 -0.465601 -0.005143
0.079627 -0.606253 0.015917 -0.748134 -0.148614 0.645917
-0.023281 -0.847158 -0.069066 0.815893 -0.566274 0.063998
0.130511 -0.2288 0.089367 0.082191 -0.167994 0.982335
-0.10835 0.543394 0.030847 -0.033867 0.720233 0.69277
-0.116081 -0.067083 0.090528 -0.743278 0.02436 0.668257
0.204829 -0.236934 -0.024586 0.993776 -0.080143 -0.071613
0.319348 0.380953 -0.031686 0.7407 -0.213746 0.630171
-0.125866 -0.3169 0.046277 -0.988734 -0.065644 0.133092
0.573225 0.141225 0.037478 0.800627 0.581675 0.137815
0.034915 -0.31142 -3e-05 -0.955405 -0.059548 0.28844
-0.118316 0.353102 -0.077414 -0.933606 -0.145886 -0.322949
0.203628 0.042296 0.037018 0.954503 0.188506 0.229068
-0.51575 0.128259 0.037611 -0.761796 0.647285 -0.01134
-0.016474 0.108792 -0.128126 -0.174814 0.299769 -0.937728
0.328136 0.364101 -0.139272 0.170919 -0.086182 -0.97921
-0.571207 0.038165 0.04725 -0.98257 0.15207 0.034204
0.098963 0.301433 -0.140487 0.14614 -0.104604 -0.983241
0.104592 -0.481481 0.037512 -0.635379 -0.039548 0.770969
0.431262 0.211892 -0.04918 -0.534363 -0.741962 0.39389
-0.488974 0.160138 -0.023607 -0.781739 0.538065 -0.307056
0.597598 0.069365 0.046635 -0.300938 -0.920346 0.170072
0.35109 0.37331 -0.125036 0.694452 0.432175 -0.574338
0.407173 0.222213 -0.075395 -0.613582 -0.784832 0.081526
-0.120445 -0.700152 -0.027146 -0.88387 -0.118587 0.430056
0.230936 0.485156 0.010844 0.62688 0.042097 0.767839
0.062574 0.578998 -0.100515 -0.006683 0.657604 -0.752901
0.286086 0.489788 -0.05382 0.737266 0.651498 0.168003
-0.109238 -0.470446 0.06375 -0.778875 -0.295463 0.552326
0.231937 0.492259 -0.123512 0.364763 0.42695 -0.827353
-0.035696 0.741034 -0.04177 -0.893746 -0.261455 -0.362467
-0.124232 -0.468 -0.053651 -0.797045 0.102933 -0.594871
0.205427 -0.263602 -0.001855 0.999673 -0.000341 -0.023327
0.110529 0.045923 0.116599 0.431163 0.207351 0.874904
-0.026027 -0.280648 0.099486 0.333349 -0.254921 0.906585
0.437446 0.212174 -0.040164 -0.690366 -0.477583 0.518203
0.555011 0.103424 0.03623 -0.844597 -0.438493 0.301747
-0.044702 -0.674587 -0.105628 0.405112 0.18448 -0.894627
0.409282 0.298964 -0.049343 0.333641 0.582297 0.736802
0.188579 -0.747234 0.002251 0.659281 0.232995 0.61604
0.114384 0.113027 -0.123725 0.484054 0.379033 -0.78783
-0.098913 -0.688813 -0.098517 -0.582108 0.016303 -0.811921
-0.043274 0.177408 -0.102645 -0.468587 -0.278295 -0.834053
0.093299 -0.419815 0.045093 -0.628483 -0.361557 0.688538
0.054227 -0.606986 -0.010051 -0.823499 -0.004084 0.564288
-0.021488 -0.842526 -0.035094 0.918738 -0.391358 -0.006844
0.111916 0.266839 0.102655 0.413699 0.050746 0.907255
-0.083797 0.481856 0.066291 -0.294905 0.309651 0.902557
0.179758 -0.770954 -0.053721 0.769976 0.538651 -0.337642
0.025067 -0.083598 0.112287 0.290831 -0.326459 0.88641
-0.02516 0.717802 0.039867 -0.942677 -0.16272 0.283651
-0.06996 0.478411 -0.127956 -0.180204 0.141714 -0.971894
-0.034192 0.316199 0.104808 -0.527109 0.125237 0.837699
0.059286 -0.003036 0.140116 0.080514 -0.401289 0.909872
-0.078811 -0.459772 0.080478 0.139529 -0.123508 0.980881
0.220067 0.549748 -0.034766 0.454183 0.865314 0.190922
-0.076882 -0.142581 -0.094549 -0.463854 -0.127165 -0.875078
0.027197 -0.223758 0.046293 0.974138 -0.027233 0.224151
-0.112105 -0.553692 0.031006 -0.882434 -0.105679 0.458206
-0.127035 -0.074768 0.076576 -0.833556 0.020239 0.551847
0.063657 0.365798 -0.139215 -0.385463 -0.019582 -0.922074
0.06001 -0.447391 0.002696 -0.529073 -0.060361 0.843576
0.021825 0.02805 -0.15476 -0.188363 -0.008692 -0.969142
0.095845 -0.322752 -0.098108 -0.304522 0.010749 -0.947878
-0.39352 0.260748 -0.075604 -0.639291 0.109285 -0.743094
-0.021555 -0.775124 0.012221 0.709814 0.586503 0.385187
0.019201 -0.426685 -0.025966 0.970895 0.018489 -0.224488
-0.067302 0.189303 -0.091353 -0.577916 -0.155499 -0.800124
0.072847 -0.775766 -0.0534 -0.866028 0.194886 -0.459933
0.18776 0.311165 -0.002132 0.97127 -0.157104 0.171723
0.038758 -0.024128 -0.142171 -0.241642 -0.388063 -0.888794
-0.058594 -0.179958 -0.095278 -0.14852 -0.104632 -0.978159
-0.091818 -0.053438 -0.101978 -0.632431 -0.229235 -0.739817
0.396646 0.237654 -0.049082 -0.521057 -0.732198 0.428949
0.020251 -0.356049 -0.027385 0.915114 -0.017213 -0.401402
-0.143341 -0.134594 -0.001911 -0.983686 -0.044513 -0.164754
0.107637 -0.271644 0.08377 -0.034355 -0.13953 0.988803
0.063081 0.551231 -0.117883 -0.16808 0.479548 -0.858435
0.007023 -0.819682 -0.074266 0.875377 -0.476614 -0.023713
0.078193 0.092982 0.127317 0.441714 -0.015313 0.896671
0.378023 0.290353 -0.129658 -0.063687 -0.153745 -0.980163
-0.125113 -0.524204 0.013864 -0.845021 -0.123701 0.519629
0.63001 0.034697 0.089487 -0.872032 -0.445976 0.048461
0.086978 0.700388 0.052326 0.891911 -0.253838 0.363311
0.567178 0.098098 -0.016575 0.526947 0.171618 -0.776965
0.154049 -0.663766 -0.083136 0.567679 -0.110566 -0.815663
-0.173776 0.531896 0.006702 -0.642013 0.726618 0.242467
0.174386 -0.142521 -0.079019 0.702444 -0.097888 -0.704823
-0.537217 0.070295 0.030653 0.578528 -0.692235 -0.426484
0.073681 -0.434591 0.016883 -0.704875 -0.309858 0.637687
0.099299 -0.683893 0.035398 0.074823 0.055674 0.993434
0.197751 -0.367178 0.03067 0.952013 -0.076178 0.296172
0.248821 0.460945 -0.000502 0.275965 -0.125403 0.952309
0.07048 -0.76502 0.012068 0.352356 0.137792 0.906027
-0.021611 0.354664 0.106063 -0.185916 0.00412 0.979124
0.107991 -0.870529 -0.083186 -0.038242 -0.995499 0.002172
0.121788 -0.165486 -0.108244 0.203623 -0.151805 -0.965383
0.188044 0.323273 0.003505 0.961599 -0.115944 0.242332
-0.019561 0.688449 -0.009539 -0.993092 -0.103136 -0.018743
-0.122412 -0.613405 0.005634 -0.915495 0.052415 0.396466
-0.012477 0.738956 -0.093644 -0.727448 -0.328311 -0.600214
0.019676 -0.094715 0.111265 0.587242 -0.257112 0.766296
-0.108784 -0.525319 -0.081311 -0.678443 0.108897 -0.72639
0.155467 0.049684 0.097037 0.311058 0.31272 0.892138
-0.128488 -0.293781 0.030111 -0.997254 -0.060286 0.038275
-0.044771 -0.454442 -0.092754 0.211483 0.149896 -0.963419
-0.028143 0.843772 -0.026097 -0.633015 0.767413 -0.096682
0.020181 0.123712 0.132287 -0.07343 0.020016 0.99534
0.029287 0.426954 0.095735 0.133385 0.186081 0.973053
0.04223 -0.359766 0.003963 -0.971001 -0.095932 0.214779
-0.282638 0.355221 0.006003 -0.53813 0.167627 0.82221
0.075347 0.14315 -0.124476 0.088109 0.336548 -0.934814
-0.103965 -0.122082 0.107308 -0.613053 0.068839 0.782904
0.046299 -0.192235 0.057436 -0.879107 -0.067368 0.464783
-0.183701 0.388166 0.019337 0.29266 -0.476637 0.827514
0.38867 0.241503 -0.053285 -0.64343 -0.675663 0.345842
0.013236 0.074248 -0.143057 -0.158565 0.226359 -0.960729
-0.506251 0.143109 0.037551 -0.783188 0.621724 0.00578
-0.085972 0.539911 0.035171 -0.026257 0.678238 0.733913
-0.06206 0.197389 0.097898 -0.442968 0.047473 0.894875
0.102364 0.75654 0.001538 0.931475 0.030818 0.35357
0.17613 -0.066303 0.088858 0.691685 0.040688 0.721003
0.009719 -0.792942 -0.094235 0.950802 -0.023118 -0.297042
-0.081082 -0.648627 0.039596 0.30591 -0.271481 0.909075
0.096849 -0.830612 0.102468 -0.669739 0.719345 0.168234
-0.093719 -0.228891 -0.072241 -0.73007 -0.038213 -0.682264
0.203171 -0.220299 -0.044048 0.922629 -0.072918 -0.375498
-0.021532 0.566881 -0.101686 -0.121552 0.587473 -0.799797
-0.000426 -0.063646 -0.116768 0.248766 -0.584372 -0.77168
-0.139903 0.010642 0.001086 -0.971954 -0.202091 -0.114839
0.119736 -0.729594 0.022398 0.427328 0.283482 0.842346
0.190215 0.1757 0.004032 0.980578 0.189835 -0.002858
-0.070995 -0.001457 -0.128315 -0.420807 -0.052613 -0.903207
0.089347 -0.541928 -0.09145 -0.639364 -0.093472 -0.762336
-0.113429 0.289389 -0.016542 -0.980756 -0.187934 0.043613
0.170665 0.234577 -0.053392 0.883628 0.020151 -0.467683
0.037326 0.002414 0.143581 0.079024 -0.078132 0.982347
-0.109689 0.260099 0.027529 -0.963076 0.113866 0.240739
0.048244 -0.236707 -0.055314 -0.814407 -0.146123 -0.561135
0.387123 0.336719 -0.071889 0.577487 0.697333 0.415215
-0.384103 0.290542 -0.05009 -0.706535 0.705083 -0.052426
0.006726 -0.480304 0.033734 0.731997 -0.165548 0.659033
-0.108652 -0.420957 -0.056841 -0.720973 0.22576 -0.6534
0.052843 -0.452247 -0.00299 -0.735877 -0.032684 0.671235
-0.040583 0.082233 0.119462 -0.350701 0.101808 0.92807
-0.220789 0.473421 0.008344 -0.84804 0.413386 0.327942
0.123068 -0.447842 0.056122 -0.565208 -0.223194 0.791554
0.196088 -0.183612 -0.056194 0.770471 0.016422 -0.634317
0.109536 -0.104652 -0.123652 0.024966 -0.312455 -0.948183
0.11408 0.488788 -0.142699 -0.015286 0.289672 -0.954317
-0.209313 0.481082 0.021013 -0.725413 0.432663 0.525945
-0.037775 0.125328 -0.11621 -0.343167 0.425284 -0.836512
0.062399 0.063478 -0.15303 -0.06801 0.191597 -0.979092
0.005091 0.273743 0.122936 -0.277218 0.116776 0.952381
-0.108481 0.516157 0.051376 0.010604 0.473071 0.880828
-0.48756 0.165737 0.016656 -0.742133 0.666306 0.032467
0.199819 -0.440201 -0.005026 0.995464 -0.065304 0.05859
0.28941 0.36399 -0.134319 -0.295336 -0.52586 -0.794227
-0.09449 0.428044 0.071323 -0.640598 0.096036 0.761632
0.194919 -0.475422 0.015003 0.952149 -0.000642 0.305097
0.146487 -0.419788 0.071825 -0.218235 -0.098563 0.969964
-0.056555 -0.561862 -0.103192 0.08298 0.013693 -0.995163
0.162697 0.565745 -0.083255 0.332353 0.805912 -0.48557
0.066152 0.098722 0.130778 0.192534 -0.031903 0.973751
0.308576 0.360525 -0.137756 -0.176728 -0.29779 -0.937267
0.582218 0.131641 0.01903 0.77672 0.627108 -0.047736
0.070916 -0.731023 -0.035888 -0.87318 -0.105259 -0.468627
0.094671 0.795836 0.022152 0.911955 0.125675 0.387923
-0.014125 0.58341 -0.091325 -0.153674 0.640044 -0.752481
0.313052 0.422154 -0.131725 0.392226 0.536973 -0.745943
-0.054831 0.217748 0.099571 -0.520758 0.097752 0.848035
-0.105568 -0.390713 -0.060111 -0.716836 -0.098454 -0.690058
0.194754 -0.159831 0.065473 0.908295 -0.036372 0.413268
-0.010533 0.330499 -0.129343 0.045808 0.043037 -0.997568
0.350111 0.361402 -0.058309 0.594179 0.543322 0.587732
0.01355 -0.282726 0.076321 0.804681 -0.090016 0.585938
-0.128141 0.385551 -0.034572 -0.996618 -0.079362 -0.001882
-0.127539 0.179081 -0.009313 -0.976691 0.046145 -0.192627
-0.090767 -0.406094 -0.06978 -0.573365 -0.018746 -0.819031
0.1237 0.544774 -0.120644 0.183796 0.520105 -0.833239
-0.115933 -0.646369 -0.087318 -0.669558 0.04498 -0.739892
0.064783 -0.449723 -0.068963 -0.741717 0.024802 -0.670249
0.491814 0.236322 -0.030042 0.663206 0.742428 0.083751
-0.026827 0.558006 0.026394 0.057771 0.827266 0.555274
-0.278225 0.299512 -0.091304 0.400242 -0.384568 -0.827977
-0.547671 0.060464 0.049158 0.66131 -0.740459 0.007073
-0.021293 -0.841462 -0.01421 0.940475 -0.327524 -0.010167
-0.002644 0.008992 0.141674 -0.157718 0.201752 0.965366
0.019145 0.350303 -0.126668 0.003819 -0.039996 -0.99776
0.044886 0.863777 -0.044641 0.07376 0.978955 -0.185769
0.058298 0.645941 0.032832 0.598317 -0.409007 0.684999
-0.392379 0.280707 -0.061138 -0.737463 0.636468 -0.215756
0.004767 0.2111 -0.126303 0.051672 -0.23595 -0.969767
-0.301074 0.340922 0.000647 -0.411469 0.366672 0.83165
0.064904 -0.141395 0.079024 -0.64204 0.049847 0.764727
0.042322 -0.22567 0.030172 -0.991192 -0.045292 0.120186
-0.121676 -0.76004 -0.061745 -0.950801 -0.198026 -0.229083
0.028373 0.685643 -0.074595 -0.077095 -0.519306 -0.845117
-0.183855 0.485651 -0.074413 -0.510115 0.415508 -0.750583
0.095445 -0.129874 0.100237 -0.558427 -0.036708 0.828712
-0.094301 0.496268 -0.115017 -0.353172 0.303454 -0.884312
0.335803 0.297978 -0.059701 -0.583668 -0.634402 0.506401
0.082521 0.298713 -0.141377 -0.094369 -0.108839 -0.985951
0.186581 0.301339 -0.007812 0.977158 -0.207702 0.035025
0.102507 0.596909 -0.040806 0.587362 0.770804 0.229612
0.010305 -0.255438 0.086415 0.780896 -0.103152 0.61277
-0.008124 0.442852 -0.129362 0.10155 -0.006782 -0.994772
0.083473 0.649049 -0.028849 0.969208 0.058701 -0.225732
0.610708 0.08579 0.007559 0.300013 0.226141 -0.919392
-0.036233 0.512699 0.062522 -0.160202 0.531349 0.831779
-0.207571 0.492553 -0.043156 -0.711676 0.559365 -0.421825
0.183298 0.351395 0.023577 0.915428 -0.101361 0.388151
-0.532059 0.106217 0.044093 -0.821632 0.54907 -0.130416
0.078174 -0.777832 -0.064386 -0.839569 0.202065 -0.504116
-0.124783 0.370043 -0.058149 -0.931481 -0.343042 -0.113898
0.175295 -0.802341 -0.07355 0.959568 -0.174781 -0.194283
-0.143207 -0.055037 -0.003407 -0.994504 0.024106 -0.091273
0.263638 0.442319 -0.136494 0.065074 0.316763 -0.940445
0.046975 -0.466948 -0.013928 -0.866629 -0.074085 0.493363
-0.095531 -0.863045 0.032924 -0.12134 -0.982001 -0.019476
0.080862 -0.373253 -0.086686 -0.665457 -0.075012 -0.742333
-0.126356 -0.277719 0.066213 -0.961705 -0.093394 0.251631
-0.129501 -0.415852 0.04225 -0.948694 0.006802 0.312024
0.04229 -0.35943 -0.037519 -0.876795 -0.038993 -0.474656
-0.037898 -0.104477 0.127596 -0.052541 -0.07186 0.994596
0.258639 0.510697 -0.025443 0.728532 0.556391 0.395541
-0.002367 -0.668813 0.02 0.686097 -0.118871 0.717036
-0.4037 0.178507 0.008202 0.562404 -0.818828 0.108604
0.169447 0.270974 -0.056029 0.902545 -0.094483 -0.418733
0.177568 0.194701 -0.038035 0.92815 0.026852 -0.370994
0.027942 -0.274534 0.032824 0.990368 -0.035449 0.133268
-0.059875 0.045344 0.115827 -0.39262 0.214763 0.890352
-0.085504 -0.587646 0.05857 0.140096 -0.202484 0.96476
0.014972 -0.212531 0.084287 0.85674 -0.062492 0.511641
0.04814 -0.623014 -0.027999 -0.987141 -0.075098 -0.058993
-0.314299 0.349191 -0.020131 -0.60541 0.713802 0.342551
-0.095786 -0.661772 0.03637 -0.176664 -0.33185 0.916813
0.029904 -0.164345 0.049746 0.898319 -0.269722 0.341762
0.173292 -0.141591 0.093444 0.597488 -0.080458 0.797319
0.205547 -0.404095 -0.007413 0.992277 -0.112025 -0.003015
0.135809 -0.628873 -0.096582 0.182527 -0.114371 -0.973458
0.267325 0.38458 -0.138482 -0.385024 -0.256122 -0.884509
0.198389 0.368137 -0.05655 0.996254 -0.073656 -0.029232
0.143851 -0.549874 0.048056 -0.10387 -0.208523 0.968441
-0.027294 0.459769 0.08837 -0.141141 0.321333 0.93541
0.080194 0.646556 -0.040601 0.882353 0.160219 -0.433404
-0.124554 0.083264 -0.039337 -0.940154 0.109741 -0.321779
0.034225 -0.286412 0.0027 -0.29001 -0.486708 0.485328
0.108448 -0.778064 -0.10267 -0.472406 0.434108 -0.766485
0.047024 0.068965 -0.15023 -0.184328 0.260513 -0.946907
-0.091748 -0.277616 -0.070911 -0.728831 -0.028052 -0.683843
0.091188 -0.071402 0.117274 -0.077537 -0.580531 0.808897
0.070826 -0.822892 -0.022199 -0.458146 -0.887175 -0.005639
-0.12852 -0.307826 0.012206 -0.999809 -0.017136 0.004097
0.154341 0.31354 -0.099246 0.778458 -0.164061 -0.605328
-0.066533 0.534261 -0.10662 -0.275116 0.450819 -0.848502
-0.402496 0.182273 0.018193 0.620379 -0.500855 0.495298
-0.092475 -0.826645 0.068053 -0.576205 0.792169 0.152966
0.081642 0.767785 -0.098512 0.759419 -0.04345 -0.612038
-0.072269 -0.438254 0.083057 0.119383 -0.199916 0.972272
-0.023253 -0.117849 -0.09915 0.452875 -0.268982 -0.849731
-0.272098 0.411389 -0.02804 -0.732786 0.676002 0.068669
0.150658 0.538379 -0.117666 0.279693 0.57194 -0.769116
-0.130963 -0.566032 -0.021188 -0.952443 -0.13017 0.272122
0.197165 0.381202 -0.013504 0.986657 -0.113933 0.111457
-0.554938 0.053318 0.012419 0.803127 -0.505258 -0.290498
0.005164 0.82423 -0.098962 -0.351773 0.624 -0.693308
0.580273 0.132576 0.009119 0.778341 0.612145 -0.136843
