0.161993 0.142358 -0.072666 0.75355 0.10308 -0.649036
-0.284853 0.393938 -0.01497 -0.815995 0.384844 0.354582
0.025441 -0.083938 -0.096265 -0.436814 -0.659923 -0.602702
-0.129273 0.012411 -0.048286 -0.937241 0.04456 -0.344884
-0.120445 -0.700152 -0.027146 -0.88387 -0.118587 0.430056
0.193046 -0.468952 0.022094 0.966783 -0.054071 0.248497
0.141334 -0.236717 0.086764 0.110181 -0.223288 0.968287
0.006051 0.025602 -0.152067 -0.168309 -0.125886 -0.967152
-0.072269 -0.438254 0.083057 0.119383 -0.199916 0.972272
0.267562 0.509318 -0.068725 0.703738 0.705298 -0.078577
0.11691 -0.516098 0.043299 -0.524819 -0.052108 0.849183
0.057914 -0.645841 -0.045373 -0.826482 -0.169204 -0.536722
0.018751 -0.55792 -0.039884 0.914902 0.048241 -0.397884
0.11291 -0.413044 -0.102253 -0.121425 0.040036 -0.987674
0.177393 -0.02506 0.086485 0.691848 0.057534 0.719448
-0.056929 -0.838292 0.151701 0.559575 0.532347 0.610622
-0.045104 -0.234521 -0.092168 0.104738 0.040836 -0.993056
0.305243 0.394284 -0.144737 0.069682 0.033472 -0.992731
0.039077 0.22982 0.128276 0.028926 0.042897 0.998627
-0.125731 0.403776 0.040063 -0.811618 -0.49575 0.297298
-0.461051 0.135101 0.023469 0.67435 -0.725191 0.13844
0.106224 -0.539163 -0.103124 -0.405108 -0.065732 -0.910478
0.106865 -0.003247 0.128218 0.317697 -0.215798 0.922936
-0.085872 -0.766003 -0.117007 -0.708502 0.18703 -0.676904
0.191559 -0.577906 0.018792 0.818537 -0.087176 0.564907
0.20549 -0.257889 0.007053 0.999947 0.006145 0.004068
0.020411 -0.32219 -0.028611 0.920923 -0.002172 -0.389502
0.185231 0.552955 -0.0882 0.312687 0.751396 -0.580739
0.096777 -0.857955 0.013158 -0.759663 -0.634511 -0.136704
0.02166 0.331723 0.117434 -0.173501 0.314149 0.930827
0.152964 -0.664065 0.028144 0.171104 -0.140474 0.97507
0.022545 -0.712363 -0.035905 0.942495 -0.13547 0.301539
0.132984 0.199666 0.094802 0.552231 0.057682 0.829939
0.097795 0.737694 0.016617 0.979449 -0.104175 0.171907
-0.059665 -0.147604 -0.099824 -0.125843 -0.178264 -0.971229
0.399411 0.306303 -0.123681 0.319221 0.282171 -0.885984
0.025813 -0.579118 -0.028109 0.958928 0.099186 -0.23747
0.1371 0.09071 0.098194 0.58074 0.161066 0.794508
-0.070691 -0.301654 -0.086429 -0.504181 -0.087668 -0.85557
0.019145 0.350303 -0.126668 0.003819 -0.039996 -0.99776
0.032927 0.468093 -0.126942 -0.135216 0.065683 -0.988498
0.252516 0.495789 -0.108781 0.497444 0.570127 -0.653496
0.088867 0.054866 -0.153221 0.217243 0.204667 -0.953064
-0.095214 -0.58773 0.055975 -0.428852 -0.090779 0.892748
0.147893 -0.049502 0.109183 0.497474 -0.029065 0.866115
0.189392 0.107562 -0.039016 0.885523 0.259893 -0.378495
-0.108923 -0.796514 -0.00464 -0.841009 -0.309597 0.432992
-0.074653 -0.268693 -0.086142 -0.577143 -0.035893 -0.814207
-0.117548 -0.442379 0.060714 -0.83402 -0.186753 0.518991
0.216287 0.404441 -0.101555 -0.823449 -0.489928 -0.1565
-0.213519 0.358339 0.008216 0.250413 -0.548169 0.797141
-0.276766 0.274094 -0.070765 0.622292 -0.556481 -0.549734
-0.103889 0.240466 0.058697 -0.852976 0.172167 0.477046
-0.143437 -0.048333 0.006702 -0.999499 0.024978 -0.002214
0.165165 -0.859074 0.013384 0.790479 -0.557873 -0.219041
-0.129187 0.405053 -0.070868 -0.881419 -0.376027 -0.24551
-0.234415 0.357936 -0.094963 0.192026 -0.29449 -0.934988
0.072342 0.321562 -0.141631 -0.302326 -0.061302 -0.94739
-0.073204 -0.038427 -0.120392 -0.482479 -0.247083 -0.833014
-0.013253 -0.538196 0.035916 0.556339 -0.18094 0.81028
-0.076842 0.240402 0.083898 -0.617625 0.055242 0.784425
0.199846 -0.603811 -0.03226 0.997331 -0.063062 -0.031614
0.152081 0.365537 0.068909 0.669388 -0.072325 0.739213
-0.009875 -0.639967 -0.077687 0.661974 0.038138 -0.748322
-0.075643 0.194034 -0.085526 -0.691417 -0.082723 -0.717035
0.012351 0.21508 0.128605 -0.048419 0.057334 0.996774
0.096486 0.413418 -0.145615 -0.062768 0.003765 -0.997427
0.248968 0.481396 -0.000943 0.493925 0.091364 0.860484
-0.214525 0.33643 -0.015971 0.58928 -0.740402 0.321212
-0.021204 0.694486 0.004417 -0.945309 -0.319656 -0.027407
0.055707 -0.152901 -0.088633 -0.663539 -0.193235 -0.722398
0.033831 0.615266 0.027435 0.01878 -0.147675 0.987006
0.130978 0.543173 0.016102 0.238688 0.676731 0.695567
-0.005077 -0.107535 -0.090909 0.620997 -0.40195 -0.668931
0.552227 0.100818 -0.0048 -0.879761 -0.465601 -0.005143
0.113139 -0.679929 0.032256 0.198616 -0.01517 0.97793
0.198112 0.460927 -0.134584 0.091022 -0.024283 -0.995232
0.018557 0.229274 -0.126387 0.094173 -0.007283 -0.99459
-0.085755 0.005156 -0.118358 -0.62226 -0.027743 -0.7822
-0.035132 -0.427446 0.078055 0.333259 -0.249331 0.909234
0.049356 0.618037 0.025985 0.27829 -0.189348 0.933517
0.033557 -0.227112 0.021813 0.866866 -0.151864 0.472105
-0.053925 -0.863128 0.126929 0.116386 -0.984905 0.09552
-0.016466 0.713281 -0.063273 -0.917249 -0.249278 -0.274179
-0.103582 -0.626992 -0.095084 -0.550349 0.075971 -0.829956
0.141642 0.492558 -0.138366 0.169669 0.281052 -0.944442
-0.097555 0.30571 -0.090896 -0.724475 -0.115998 -0.678404
0.016803 0.859331 0.037672 -0.339327 0.797811 0.497191
0.072796 -0.464559 0.010321 -0.584973 0.03936 0.806624
0.198723 -0.290793 -0.028513 0.878404 -0.089055 -0.469362
0.024232 -0.586147 -0.035138 0.901202 0.113259 -0.405517
0.130633 -0.256663 0.084953 0.101393 -0.119586 0.987548
0.12048 0.247781 0.099293 0.527057 0.057294 0.847683
-0.045628 0.375728 -0.12718 -0.229507 -0.03646 -0.971458
0.163532 0.291925 0.054113 0.692728 -0.026216 0.720556
0.075784 -0.399309 0.038067 -0.676644 -0.325134 0.660352
-0.130015 -0.577775 -0.058066 -0.965615 -0.009463 -0.255042
0.01233 -0.611785 0.009948 0.636222 0.088396 0.764544
0.155198 -0.729769 0.003555 0.509212 0.171393 0.814165
0.388845 0.251667 -0.042855 -0.601165 -0.419574 0.679636
0.049015 -0.145859 -0.083387 -0.724692 -0.222321 -0.650432
0.207775 -0.096474 -0.029282 0.933956 0.058581 -0.351971
0.016582 -0.588904 -0.04763 0.795185 0.067356 -0.601787
0.138789 0.292988 -0.115296 0.767043 -0.067358 -0.637983
0.205427 -0.263602 -0.001855 0.999673 -0.000341 -0.023327
0.368877 0.339224 -0.056684 0.515357 0.548866 0.655245
0.167 0.04662 -0.100175 0.776523 0.22769 -0.587251
-0.068622 -0.115596 0.120883 -0.211302 -0.034252 0.97667
0.043944 -0.499602 -0.031981 -0.998167 -0.003307 -0.022715
-0.136742 -0.181897 0.051163 -0.994979 -0.045863 0.087697
-0.015644 -0.809007 0.029019 0.871188 0.348319 0.345685
-0.116997 0.347531 0.015907 -0.961665 -0.141267 0.234089
0.175563 -0.346664 -0.056641 0.709264 0.094444 -0.697709
-0.035903 0.781011 9.4e-05 -0.992589 0.061799 0.104387
-0.181003 0.470186 -0.082905 -0.380702 0.312707 -0.869075
0.2062 -0.024958 -0.025566 0.972042 0.023135 -0.231221
-0.046038 0.16201 0.108869 -0.58716 0.109135 0.801872
-0.047995 -0.613833 0.033681 0.394063 -0.129885 0.909817
-0.260639 0.328192 -0.092095 0.381518 -0.304491 -0.86936
-0.353466 0.312734 -0.020215 -0.651867 0.711653 0.259653
-0.004346 -0.507721 0.036691 0.62131 -0.221428 0.751302
0.178174 0.489199 0.031408 0.537204 0.350043 0.763944
0.198002 -0.508317 0.008974 0.954743 -0.008462 0.296756
0.206734 -0.187094 0.017214 0.993931 -0.013084 0.104696
0.056345 -0.635564 -0.045916 -0.830463 -0.14478 -0.537425
-0.529016 0.110582 0.069204 -0.834731 0.545984 0.067389
-0.128242 -0.347599 0.015685 -0.999059 0.026152 0.0316
0.192977 -0.610232 0.012968 0.766574 -0.142931 0.613693
0.052123 -0.211212 0.063625 -0.779373 -0.086862 0.61878
-0.461362 0.138642 -0.010758 0.361243 -0.850341 -0.380699
-0.036731 0.548301 -0.109331 -0.24615 0.492963 -0.833515
-0.256128 0.288992 -0.050074 0.76111 -0.636637 -0.102212
-0.005876 -0.2275 0.103548 0.510262 -0.143375 0.84455
0.37064 0.359494 -0.099 0.712826 0.699932 -0.005949
0.082398 0.212278 0.11936 0.417965 0.084266 0.903018
0.08553 -0.826235 -0.06062 -0.554372 -0.829709 -0.057649
0.05856 -0.287608 -0.067571 -0.81529 0.002413 -0.578961
0.191174 0.406147 0.027175 0.949922 -0.104133 0.288004
0.299735 0.472238 -0.059628 0.831019 0.529887 0.161633
-0.02387 -0.465171 0.064835 0.428695 -0.275813 0.858484
-0.380419 0.292413 -0.025379 -0.678829 0.708399 0.18483
0.043211 0.372567 0.106927 0.103089 0.247954 0.958686
0.161749 -0.78746 0.020919 0.520915 -0.490462 0.667892
0.036352 -0.232682 0.01448 0.499311 -0.201288 0.639699
-0.142263 0.022532 0.005161 -0.987872 0.068728 -0.093911
0.139464 -0.246793 0.08513 0.115812 -0.134982 0.983484
-0.168459 0.472923 -0.087453 -0.385841 0.236435 -0.891272
0.108346 -0.799223 -0.114428 -0.44096 0.300727 -0.837615
-0.209969 0.381896 0.02213 0.105916 -0.517476 0.84905
0.061932 0.419596 0.094384 0.196676 0.302699 0.930173
-0.005511 -0.311186 0.084849 0.326629 -0.117384 0.929942
-0.033647 -0.825345 0.080664 0.613049 0.72328 0.272103
0.072224 0.602221 -0.078921 0.199525 0.677099 -0.707926
0.012943 -0.599507 -0.053016 0.752232 0.072826 -0.654593
0.050029 -0.644544 -0.018459 -0.990343 -0.125317 -0.029335
-0.038534 -0.813782 0.061662 0.376975 0.71198 0.547847
-0.014889 -0.708564 0.022129 0.631171 -0.212265 0.744302
-0.133108 0.402174 -0.021432 -0.16734 -0.975562 0.005412
-0.307693 0.349487 -0.072543 -0.598196 0.677609 -0.413322
-0.143534 -0.065639 -0.002989 -0.994729 0.020388 -0.091272
0.186623 -0.474852 0.043623 0.915407 -0.075051 0.395123
0.118113 0.589862 -0.049063 0.322636 0.941308 0.082639
-0.017078 0.589715 -0.084669 -0.248233 0.689098 -0.675682
0.464921 0.223688 -0.080091 0.484838 -0.333684 -0.803593
-0.12874 -0.62714 -0.030175 -0.996279 -0.041533 0.068774
0.013094 -0.383423 0.049377 0.856066 -0.131577 0.499366
0.154883 -0.860043 -0.025111 0.554949 -0.818891 0.125869
0.242625 0.469031 -0.129506 0.213483 0.313035 -0.924994
-0.067215 0.178341 -0.090047 -0.501508 -0.072932 -0.859798
0.090849 -0.552042 -0.091225 -0.659869 -0.118571 -0.741785
0.018068 -0.551235 0.003236 0.886935 -0.054467 0.437158
0.096893 0.568002 0.005377 0.165896 0.745498 0.638465
-0.137851 -0.194062 0.014519 -0.996271 -0.047303 -0.065712
0.464899 0.251175 -0.089597 0.782667 -0.062195 -0.584043
0.128257 -0.159289 0.105666 0.102943 -0.281906 0.95263
0.197004 -0.554975 0.006941 0.945233 0.011221 0.326023
-0.061267 0.117481 0.100659 -0.542103 0.12392 0.829716
0.112768 0.497224 0.057552 0.28395 0.470481 0.833928
-0.058184 -0.864255 0.08164 0.000203 -0.999972 0.003031
0.186719 -0.687905 -0.045842 0.655568 -0.188991 -0.730357
-0.063299 0.240299 0.09252 -0.542739 0.081522 0.835254
0.148883 0.549469 -0.109712 0.251197 0.653315 -0.713781
-0.055501 0.065149 0.113755 -0.393397 0.120017 0.909213
0.640928 0.044232 0.047115 0.933021 0.34696 -0.000369
0.065675 0.71183 0.079473 0.580378 -0.025585 0.810182
-0.002598 0.139881 -0.117697 -0.122063 0.446227 -0.88523
0.055725 0.350443 -0.135997 -0.356507 -0.035588 -0.933471
0.013853 0.840095 -0.085058 -0.243036 0.72217 -0.64601
-0.114415 -0.239812 -0.04054 -0.889688 -0.021627 -0.455781
0.038657 -0.318923 0.00579 -0.89331 -0.074696 0.434975
-0.327857 0.340089 -0.043277 -0.685884 0.726783 -0.014695
0.165933 0.03367 0.096829 0.519622 0.146168 0.83821
0.050158 -0.474996 -0.00907 -0.875282 -0.033073 0.478825
-0.314014 0.237891 -0.015035 0.623225 -0.763237 0.163349
-0.052059 -0.558921 0.049927 0.370455 -0.173613 0.912014
0.061963 -0.296712 -0.072277 -0.799297 -0.009026 -0.600726
-0.127514 -0.477234 0.02619 -0.869775 -0.197272 0.45188
-0.363541 0.306102 -0.023428 -0.587695 0.766973 0.257134
-0.186855 0.366689 0.002419 0.496774 -0.677052 0.541861
-0.095543 -0.512036 0.064829 -0.834116 -0.101704 0.535647
-0.129362 -0.284547 0.012399 -0.995761 -0.086597 -0.015967
-0.050203 -0.063437 -0.11888 -0.166082 -0.311495 -0.934501
-0.167034 0.519464 0.035171 -0.513233 0.596656 0.614202
-0.132342 -0.01619 0.058525 -0.898961 0.118413 0.42159
-0.135066 -0.251516 0.031546 -0.996566 -0.075471 0.019417
-0.093536 -0.244699 -0.071275 -0.739318 -0.054176 -0.671048
-0.097641 -0.057425 0.107127 -0.571501 0.020925 0.81902
0.149619 -0.21856 -0.089727 0.519734 -0.130113 -0.844079
-0.039121 -0.841991 0.127714 0.866358 0.252311 0.420509
-0.113141 0.285743 -0.048638 -0.988723 -0.131146 -0.05836
-0.123195 -0.544759 -0.068203 -0.802109 0.110064 -0.586548
0.165574 0.3526 0.053829 0.791895 -0.088304 0.604115
0.144071 -0.582431 -0.101599 0.324243 -0.146595 -0.934349
0.607035 0.065642 0.047259 -0.485119 -0.863394 -0.030249
0.161935 0.493019 0.04254 0.453016 0.391813 0.795738
0.266265 0.497794 -0.094222 0.618703 0.581735 -0.527963
0.19936 -0.477561 -0.005448 0.991903 0.045635 0.113373
0.16793 0.572627 -0.050707 0.382118 0.894588 0.080621
0.090567 -0.839899 0.105711 -0.872847 0.47383 0.114922
0.037003 0.626507 0.030556 0.032192 -0.450037 0.886621
0.203261 0.028014 -0.02795 0.948725 0.091298 -0.298141
-0.492593 0.157104 0.045392 -0.653615 0.729532 0.189752
0.148699 -0.865613 0.021838 0.280551 -0.953345 -0.10976
0.080067 0.333079 -0.143558 -0.139386 -0.046262 -0.988027
-0.139883 -0.159491 0.04168 -0.95093 -0.14427 0.268033
0.088088 -0.837734 0.008056 -0.99473 0.01109 -0.002273
0.068645 0.452087 0.085733 0.137589 0.335451 0.931542
0.043299 -0.382215 0.001328 -0.981717 -0.079667 0.168321
0.00997 -0.538637 -0.054709 0.86749 0.041653 -0.495666
0.071051 -0.227629 -0.083312 -0.616442 -0.085379 -0.782063
0.15158 -0.818514 0.053126 0.692857 0.642189 0.297787
-0.024425 -0.364346 -0.075598 0.580481 -0.101161 -0.806956
0.077814 0.552291 0.022974 -0.066292 0.831968 0.532631
0.147297 -0.389507 0.075314 -0.067174 -0.107731 0.990676
0.205478 -0.394065 -0.016941 0.99178 -0.038082 -0.113508
-0.0252 -0.384773 -0.073894 0.548377 -0.025593 -0.830854
-0.082586 -0.482056 0.0791 0.137767 -0.118778 0.95815
0.001871 0.05715 -0.144707 -0.130737 0.193412 -0.972329
-0.100198 -0.750805 0.007805 -0.589105 0.517018 0.620587
-0.058268 0.420919 -0.127563 -0.184125 -0.112229 -0.975321
0.618735 0.052094 0.049174 -0.774084 -0.628872 -0.024342
0.602698 0.070154 0.075549 -0.736934 -0.585415 0.283218
0.046781 -0.304136 0.03889 -0.946757 -0.055629 0.315666
-0.0409 -0.834109 0.12113 0.626332 0.685417 0.36366
0.574421 0.071009 -0.004181 -0.869863 -0.4609 -0.127332
0.020754 0.40767 0.10045 0.140421 0.276612 0.950008
-0.223098 0.412878 -0.091316 -0.242538 0.319298 -0.915386
-0.041194 0.030581 0.128595 -0.319396 0.165845 0.928827
0.014048 0.661177 0.073322 -0.34637 -0.90614 0.216492
0.201388 -0.580911 -0.013775 0.984645 -0.090754 0.143111
-0.1102 -0.230086 -0.04945 -0.855036 -0.030749 -0.516865
0.20012 -0.438656 -0.020322 0.998118 -0.048394 -0.026609
0.187072 -0.525366 0.034534 0.838988 -0.08389 0.537263
0.484604 0.186123 -0.053572 -0.113516 -0.457688 -0.866236
0.119786 -0.416552 0.06355 -0.372063 -0.198646 0.904752
0.20325 -0.03778 0.050488 0.883205 0.020646 0.467829
-0.01137 0.344156 0.111296 -0.28986 0.071206 0.943326
0.178962 0.566806 -0.050554 0.273864 0.952231 0.028622
0.415821 0.228605 -0.04184 -0.43054 -0.49379 0.727139
0.158224 -0.674921 -0.078858 0.630451 -0.076153 -0.771944
-0.103344 0.511012 -0.106299 -0.350074 0.386843 -0.851585
0.099085 0.71296 0.000216 0.831888 -0.504596 0.002384
-0.134332 -0.130095 -0.029388 -0.890376 -0.111897 -0.436999
0.04025 -0.182871 -0.052776 -0.905148 -0.205258 -0.371431
-0.10296 -0.826479 -0.069468 -0.963569 -0.185525 -0.14011
-0.127251 0.141427 -0.016698 -0.97523 0.096366 -0.188497
0.012253 -0.36869 0.053984 0.846852 -0.137301 0.513427
0.254598 0.453724 -0.004494 0.365146 -0.229483 0.901776
0.049849 0.455796 -0.131796 -0.417141 0.078857 -0.902794
-0.152028 0.453279 -0.095756 -0.284696 0.029444 -0.956853
0.079379 -0.738479 -0.053467 -0.904107 -0.010854 -0.425936
0.242958 0.375901 -0.05115 -0.584458 -0.71626 0.380907
0.057818 -0.228584 0.067186 -0.702448 -0.133977 0.698447
-0.058954 -0.41427 -0.084016 -0.142444 0.22402 -0.960502
-0.228147 0.435404 -0.076954 -0.470628 0.502585 -0.725185
-0.092178 -0.121104 -0.085195 -0.650302 -0.0905 -0.753928
-0.307238 0.302224 -0.096682 -0.053869 -0.068308 -0.995728
-0.123254 -0.749047 -0.064592 -0.869356 -0.176068 -0.446292
-0.029313 0.431597 0.096376 -0.142918 0.230575 0.96249
0.105141 0.788681 -0.014247 0.998093 0.038798 0.03891
0.140057 0.308839 0.079166 0.732184 0.051739 0.679116
0.103673 0.543029 -0.124426 0.073428 0.520007 -0.850147
0.103825 -0.837522 -0.112303 -0.52414 -0.042841 -0.849979
0.184073 -0.617837 -0.070425 0.672093 -0.082053 -0.735717
0.01875 -0.059282 0.121382 0.280982 -0.185689 0.928641
0.127822 -0.824217 -0.11605 0.239816 -0.071512 -0.955394
-0.038004 0.045431 -0.140163 -0.294862 0.28896 -0.909797
0.119122 0.570549 -0.010165 0.363796 0.715305 0.595798
0.155821 -0.148683 0.101651 0.528694 -0.291892 0.795427
0.111377 -0.295362 -0.099111 0.119768 -0.006221 -0.988744
0.632778 0.038164 0.107831 0.1092 -0.238766 0.938053
0.07762 -0.790139 0.028102 -0.706721 -0.210279 0.665855
0.420735 0.274742 -0.038844 0.056223 0.456851 0.886543
0.209676 -0.078751 -0.020172 0.935158 0.099768 -0.338341
0.100874 0.46093 -0.146004 -0.089177 0.077175 -0.992945
-0.117125 -0.643622 0.019335 -0.89618 -0.060291 0.439133
-0.262981 0.41869 -0.059066 -0.684806 0.674494 -0.263335
-0.072278 0.113535 0.095612 -0.561481 0.237384 0.78331
-0.200962 0.342272 -0.038898 0.643834 -0.763866 -0.022646
-0.187012 0.357035 -0.013634 0.523351 -0.778975 0.338778
0.103305 -0.785392 0.045895 -0.144904 0.593894 0.783646
0.034194 -0.286474 -0.025478 -0.950807 -0.115555 -0.270654
-0.012278 0.372497 0.106939 -0.067346 0.075962 0.993758
0.143579 0.457108 0.067453 0.443296 0.276726 0.847468
0.045102 -0.152339 -0.075899 -0.775188 -0.243339 -0.579985
0.004088 -0.37596 -0.048702 0.659228 0.049632 -0.750037
-0.105176 -0.819001 -0.030977 -0.927078 -0.333421 0.081198
-0.006039 -0.263391 0.095541 0.464687 -0.211873 0.858617
0.44487 0.233087 -0.100615 0.6261 -0.297864 -0.718294
0.554542 0.155303 0.043036 -0.25243 0.10147 0.957381
-0.289532 0.288082 0.001226 0.37178 -0.417683 0.824669
0.088966 0.569795 -0.108527 0.043139 0.639542 -0.76638
-0.040224 -0.799907 0.057198 0.149681 0.425691 0.878613
0.198026 -0.029394 -0.05229 0.936997 0.020342 -0.346453
-0.136428 -0.521528 -0.032018 -0.996077 -0.003946 -0.068175
-0.110601 -0.136091 0.101919 -0.688459 0.066482 0.722127
-0.128259 -0.60825 -0.018489 -0.993442 -0.000211 0.113263
0.047037 0.009071 0.142629 0.078018 0.118251 0.988683
0.078193 0.092982 0.127317 0.441714 -0.015313 0.896671
0.142184 0.438433 0.072822 0.436839 0.135284 0.888043
-0.112418 -0.270858 -0.043795 -0.870748 -0.004392 -0.491098
-0.106825 -0.774431 -0.002367 -0.738272 0.115368 0.662746
0.363477 0.366443 -0.100271 0.700681 0.712227 -0.005388
0.205399 -0.301157 -0.008406 0.991607 -0.009876 -0.123847
0.094632 -0.50584 -0.097446 -0.557181 -0.020469 -0.83006
0.105025 -0.507901 -0.103428 -0.374568 -0.011148 -0.926181
-0.061213 0.33182 0.093086 -0.619673 -0.061174 0.781884
0.198187 0.116127 -0.00935 0.983093 -0.072374 -0.147146
-0.100177 -0.773157 -0.10298 -0.733484 0.110833 -0.670207
0.035737 0.540467 0.039054 -0.000776 0.706778 0.707018
0.074886 0.191789 0.123409 0.44203 0.042437 0.893024
-0.1355 -0.399402 0.008969 -0.982921 0.169719 0.051501
0.081062 -0.199872 -0.094236 -0.404139 -0.233716 -0.883861
0.092007 0.732755 0.03814 0.973824 -0.067167 0.21407
0.09421 -0.70888 0.035894 0.160747 -0.029435 0.985446
0.109586 0.256948 0.104261 0.365954 0.052253 0.928972
-0.017106 -0.730782 -0.106762 0.539889 0.346673 -0.765505
-0.559759 0.046771 0.002936 0.964851 -0.16326 -0.178648
0.020425 -0.030537 0.128633 0.094951 -0.17431 0.956621
0.010171 -0.203303 -0.059091 0.778995 0.034655 -0.624461
0.021878 0.714893 -0.096826 -0.172445 -0.600387 -0.779565
-0.229554 0.433599 0.022514 -0.716683 0.294277 0.629835
-0.026501 -0.774544 0.020867 0.660775 0.644286 0.379728
0.037189 0.27067 -0.127282 -0.120172 -0.074542 -0.988995
-0.232208 0.463412 -0.037942 -0.742823 0.628926 -0.221457
0.077598 -0.695092 0.033622 -0.264762 0.186373 0.945512
0.012961 -0.62647 -0.057201 0.684031 0.120311 -0.719378
0.192945 0.348961 -0.00962 0.984332 -0.084698 0.152142
0.087874 -0.242184 -0.091888 -0.448096 -0.02423 -0.893552
-0.03742 0.78959 -0.021747 -0.994581 0.07294 0.070959
-0.120826 -0.497777 0.02816 -0.81019 -0.241753 0.533923
0.564528 0.154372 -0.005705 0.849947 0.443712 -0.269119
0.079985 -0.303301 0.071168 -0.428673 -0.184197 0.882662
0.080615 -0.635101 -0.071805 -0.657036 -0.083976 -0.748582
-0.080502 -0.318768 0.105714 0.034725 -0.065696 0.996202
-0.213658 0.361385 -0.089529 0.345168 -0.493161 -0.795162
-0.109862 0.200909 0.057482 -0.856761 -0.021416 0.513092
-0.11488 -0.163357 -0.05152 -0.794776 -0.127935 -0.593125
-0.397206 0.185957 -0.041537 0.389319 -0.870047 -0.300765
0.142274 0.227107 0.083313 0.729407 0.070587 0.680063
-0.135649 -0.463206 0.012736 -0.962168 -0.077835 0.254039
0.013035 -0.675314 -0.00046 0.828748 -0.271821 0.482201
0.157039 -0.017342 0.103299 0.560718 0.09629 0.821166
-0.029441 0.099348 -0.12828 -0.21102 0.259311 -0.942232
-0.089401 0.312059 0.069922 -0.866907 0.03017 0.496279
-0.083387 -0.243596 -0.081207 -0.594168 -0.041074 -0.802398
-0.255334 0.335685 0.009946 0.029475 -0.372557 0.925034
0.199937 -0.45843 -0.028532 0.999214 0.002459 -0.033975
0.029245 -0.301729 -0.005129 0.989993 -0.091778 -0.088609
0.027729 0.009219 0.142885 -0.010918 0.128347 0.991617
-0.079209 -0.446054 0.082327 0.081174 -0.149466 0.984501
0.01475 0.654679 0.038984 -0.586057 -0.673136 0.446697
0.04449 0.415501 0.096774 0.041664 0.197656 0.979083
-0.119501 0.12456 0.042603 -0.898854 0.127505 0.41704
-0.11222 -0.844829 0.028655 -0.932421 0.275206 -0.01899
0.242831 0.480185 -0.12484 0.35069 0.430891 -0.831445
0.632885 0.060215 0.032226 0.823299 0.565734 -0.034346
0.195285 -0.206479 -0.056225 0.728511 -0.06686 -0.681647
0.132169 0.539651 -0.121549 0.176901 0.476272 -0.86107
0.172062 -0.860661 0.11985 0.538112 -0.805143 0.128459
0.197062 0.35796 -0.028936 0.986862 -0.10706 0.110122
-0.004636 -0.24317 -0.073786 0.685088 -0.057225 -0.724494
0.057357 0.498072 0.067287 0.051303 0.467943 0.881921
0.180065 0.563492 -0.026351 0.308868 0.864661 0.37544
0.026602 -0.341834 0.027281 0.987668 -0.065104 0.135315
-0.183801 0.509654 -0.057313 -0.643061 0.520706 -0.559704
-0.07041 0.222365 -0.097907 -0.691818 -0.251838 -0.676081
-0.066227 0.448615 -0.129287 -0.170981 -0.066221 -0.98235
0.201815 -0.086624 -0.042451 0.894536 0.048164 -0.442586
-0.008262 -0.805517 0.000126 0.929604 0.137887 0.341007
0.548077 0.16969 0.031288 0.165775 0.731357 0.600051
0.053144 -0.549964 -0.005499 -0.814058 -0.002293 0.579869
0.194472 0.394294 0.007836 0.965393 -0.106721 0.23617
0.623788 0.046015 0.090504 -0.867505 -0.492269 0.057289
0.020539 -0.211498 -0.041958 0.930152 -0.009889 -0.361412
-0.107394 -0.356213 0.094368 -0.701771 -0.112173 0.696727
0.114835 0.235533 0.103198 0.468415 0.054085 0.880206
-0.067302 0.189303 -0.091353 -0.577916 -0.155499 -0.800124
0.070667 -0.284776 -0.083059 -0.680134 0.013038 -0.731989
0.049382 -0.616388 -0.03775 -0.926118 -0.123409 -0.341237
0.191024 0.382389 -0.0987 0.696573 -0.486871 -0.522068
0.294085 0.327211 -0.099116 -0.686741 -0.717234 -0.11015
0.243543 0.532761 -0.070559 0.680546 0.710294 -0.176312
0.323551 0.360792 -0.038289 0.47338 0.055887 0.874154
-0.018132 0.249813 -0.129721 -0.039309 -0.066252 -0.996585
0.073905 -0.033174 -0.148392 -0.170679 -0.399109 -0.898854
0.186103 -0.087827 0.081244 0.714637 0.030081 0.698744
-0.102246 -0.593839 0.050699 -0.757668 -0.051106 0.63006
0.096841 0.605385 -0.03652 0.888124 0.430645 0.137532
0.067785 -0.747227 0.027496 0.026025 -0.540076 0.791382
-0.37209 0.228992 0.010463 0.090373 -0.015038 0.995276
-0.032867 -0.856307 -0.006745 0.566151 -0.806195 -0.16599
-0.130252 -0.078957 -0.0453 -0.856489 -0.060464 -0.51182
-0.018474 0.616563 -0.039813 -0.867667 0.427805 -0.240172
-0.079727 0.116352 0.088809 -0.613927 0.196406 0.7615
-0.10475 -0.233901 -0.057855 -0.844563 -0.040807 -0.533747
-0.121277 0.215742 -0.002815 -0.970176 0.221103 -0.037209
-0.030766 0.034679 0.130373 -0.222803 0.195754 0.953491
-0.13522 0.41626 0.047545 -0.521835 -0.712304 0.455675
-0.138545 -0.172777 0.039647 -0.975566 -0.133241 0.170489
0.167902 -0.073773 0.096619 0.613671 0.053372 0.786596
0.199194 0.389878 -0.052353 0.993627 -0.109211 0.01721
0.201604 -0.02319 0.05314 0.890146 0.065418 0.450429
0.184024 0.289108 -0.004782 0.99116 -0.127976 0.014482
-0.102912 -0.120725 -0.075653 -0.709261 -0.096787 -0.696033
0.078166 -0.804879 -0.075058 -0.884121 0.103012 -0.455622
0.199159 -0.589569 -0.046856 0.985032 -0.017283 -0.171398
0.192171 -0.356828 0.047556 0.92286 -0.054619 0.380726
-0.027148 0.084264 -0.133222 -0.256536 0.314713 -0.912888
-0.038207 0.591487 -0.060476 -0.435217 0.873933 -0.17235
-0.177394 0.378248 0.007048 0.507487 -0.625306 0.592146
0.359397 0.307485 -0.131606 -0.098337 -0.243004 -0.962558
-0.109692 -0.004119 0.098201 -0.766375 -0.184606 0.611702
0.080206 -0.506531 0.019952 -0.63287 0.041185 0.773135
-0.11007 -0.102958 0.10019 -0.720651 0.078843 0.68863
0.282984 0.38451 -0.019062 -0.231371 -0.212723 0.938066
0.161461 -0.447208 0.069589 0.174216 -0.11602 0.970686
0.024884 -0.369171 0.022282 0.963544 -0.112017 0.233979
0.085037 -0.849902 0.103783 -0.884214 0.445548 0.07567
0.197236 -0.581896 -0.055384 0.924077 -0.020897 -0.374063
0.164036 -0.417614 -0.08187 0.575851 0.127313 -0.807112
0.082953 -0.675133 -0.070929 -0.778793 -0.016594 -0.626165
0.310456 0.454499 -0.097576 0.61314 0.668335 -0.420276
-0.013643 0.837641 0.026522 -0.875566 0.147976 0.448274
-0.128615 -0.362483 -0.008979 -0.999282 0.007854 -0.030555
-0.477266 0.176383 0.004849 -0.683476 0.728568 0.032126
0.059566 0.667445 -0.060574 0.621636 -0.164523 -0.761523
0.183311 -0.784281 -0.038997 0.973212 -0.219445 -0.022563
-0.128266 -0.062788 0.073578 -0.843613 0.028822 0.53578
0.132627 -0.338035 -0.092213 0.499131 0.046862 -0.865001
-0.405637 0.224352 -0.065407 -0.419287 -0.145146 -0.895582
-0.134763 -0.163679 -0.018504 -0.908799 -0.132052 -0.385711
0.043113 -0.316985 0.022903 -0.990283 -0.019751 0.134644
-0.127405 -0.448753 -0.045246 -0.826934 0.18563 -0.529605
0.018648 -0.206047 0.07701 0.95275 -0.031032 0.301368
-0.033888 -0.493694 -0.094284 0.3981 0.107191 -0.905863
0.118102 0.470766 0.070678 0.285321 0.467675 0.835516
0.344296 0.320545 -0.041708 0.018013 -0.080304 0.993221
0.37042 0.320591 -0.047455 0.296251 0.403919 0.865382
-0.123701 -0.406011 -0.036151 -0.813186 -0.019923 -0.580342
-0.127202 0.380494 -0.061915 -0.977165 -0.173199 -0.099432
0.008438 -0.235446 -0.060549 0.768614 -0.07742 -0.634594
0.15966 -0.82965 0.053706 0.893773 0.442884 0.06293
0.086241 -0.845931 0.048113 -0.980224 0.173219 -0.053259
-0.056988 -0.703758 -0.117257 -0.038069 0.21409 -0.970832
-0.130536 0.051766 -0.032064 -0.95704 0.13591 -0.255676
0.087688 0.200908 0.117939 0.443115 0.058446 0.893207
0.099917 -0.621682 -0.088803 -0.549828 -0.073683 -0.830287
0.194087 -0.542143 0.016455 0.929927 -0.063246 0.361637
-0.206658 0.33826 -0.03013 0.615236 -0.780135 0.099288
0.210681 -0.051632 0.031698 0.937296 0.069708 0.341307
-0.206312 0.49735 0.006821 -0.756871 0.589691 0.273561
-0.011749 0.671446 -0.025147 -0.991658 -0.100714 -0.070454
0.387123 0.336719 -0.071889 0.577487 0.697333 0.415215
-0.011194 -0.106969 0.123957 0.257052 -0.185016 0.948197
0.202702 -0.264484 -0.027552 0.944976 -0.105551 -0.306428
0.119006 0.216999 -0.115936 0.583771 -0.335971 -0.738381
0.622336 0.074889 0.018689 0.858549 0.482554 -0.162398
0.009389 -0.499128 -0.051411 0.844473 0.032224 -0.534144
0.082982 -0.216357 0.087341 -0.407971 -0.137622 0.898579
0.084992 -0.822536 0.032593 -0.756779 -0.598319 0.202382
0.03824 -0.146676 -0.069529 -0.838756 -0.324595 -0.43569
-0.013087 -0.716963 0.017816 0.684768 -0.223444 0.693094
0.156239 0.395817 0.066027 0.70853 0.013285 0.705525
-0.125221 0.155569 -0.017792 -0.922452 0.054602 -0.37823
-0.021341 -0.848367 0.036762 0.983133 -0.069215 0.026631
-0.013223 0.27186 0.11627 -0.356492 0.05493 0.932019
0.348413 0.407849 -0.117358 0.767425 0.444449 -0.449477
-0.001037 0.662751 -0.048424 -0.766577 -0.090298 -0.6315
-0.193011 0.360724 -0.074179 0.561342 -0.662548 -0.493498
0.187156 -0.770125 -0.021292 0.954699 -0.288836 -0.033701
0.160829 -0.3186 0.076318 0.251805 -0.041003 0.966828
-0.026557 -0.370016 0.08774 0.322734 -0.158514 0.930673
0.096066 0.318567 0.103772 0.259931 0.083759 0.959441
0.098826 -0.575625 -0.093773 -0.582224 -0.128618 -0.802751
0.077551 -0.0829 0.104779 -0.114302 -0.760511 0.636826
0.171462 -0.43409 -0.079167 0.649837 0.17413 -0.739226
0.210883 -0.093664 -0.020216 0.934129 0.072186 -0.34955
-0.144396 -0.112125 0.015767 -0.999906 -0.00056 0.012094
-0.075651 -0.388615 -0.079483 -0.353243 -0.093989 -0.928571
0.027363 0.072981 0.134489 0.106162 0.108081 0.98742
-0.132393 -0.199947 -0.01101 -0.904178 -0.111123 -0.412355
-0.015416 0.450614 -0.130013 0.111944 0.010803 -0.993473
0.063681 -0.528283 0.006541 -0.653869 -0.031466 0.754315
-0.51575 0.128259 0.037611 -0.761796 0.647285 -0.01134
0.196041 -0.4494 -0.052871 0.888154 0.102644 -0.432368
-0.088934 0.435675 0.074492 -0.621665 0.11372 0.774831
-0.395557 0.200628 0.015895 0.2806 0.078207 0.938296
-0.083019 -0.372641 -0.077262 -0.47269 -0.034939 -0.880083
-0.050529 -0.861955 -0.068597 0.073227 -0.993525 0.074199
-0.052119 -0.505924 0.062012 0.385406 -0.25327 0.887217
-0.084612 -0.156069 -0.087052 -0.616298 -0.176363 -0.766527
0.204279 -0.563547 -0.027337 0.985633 -0.097643 -0.106122
-0.00646 -0.012642 -0.140067 -0.135336 -0.220111 -0.965553
-0.136925 0.557877 -0.007265 -0.3135 0.935677 0.110421
-0.007361 0.363752 0.10944 -0.269534 0.290938 0.917673
-0.136615 -0.410296 0.007675 -0.995194 0.08369 0.048467
0.074713 0.521048 -0.129167 -0.123611 0.155985 -0.979768
0.135809 -0.628873 -0.096582 0.182527 -0.114371 -0.973458
-0.031633 -0.22019 -0.089597 0.264753 -0.001994 -0.963959
0.16587 -0.663362 -0.074522 0.604505 -0.188434 -0.773198
0.109249 0.732637 -0.022207 0.828784 -0.340553 -0.360329
0.055703 -0.297868 -0.063461 -0.831545 -0.013597 -0.555013
0.113277 -0.253097 -0.099529 0.028468 -0.006557 -0.993649
-0.011797 -0.668779 0.02537 0.216417 -0.029251 0.962206
-0.109151 0.208792 -0.041959 -0.854087 -0.016843 -0.516763
-0.114522 -0.006534 -0.081066 -0.855286 0.012501 -0.517862
0.190758 -0.754396 -0.01969 0.949199 -0.257004 -0.139607
-0.008859 0.007626 -0.143172 -0.169995 -0.193267 -0.966006
-0.061011 0.575396 -0.008698 -0.186439 0.863299 0.464543
0.100795 -0.869409 0.111168 -0.197104 -0.975034 0.04769
0.013776 0.696221 0.084089 -0.557795 0.046866 0.825908
-0.102693 0.42214 0.065351 -0.429403 0.079717 0.895046
0.003941 -0.781679 -0.020247 0.807131 -0.134305 0.570579
-0.090767 -0.406094 -0.06978 -0.573365 -0.018746 -0.819031
0.175921 0.290305 -0.04856 0.934587 -0.169576 -0.311848
0.076858 -0.815089 -0.073377 -0.88289 -0.145193 -0.375318
0.132004 -0.73205 0.017537 0.416422 0.355224 0.819598
-0.027747 -0.822165 0.060177 0.80048 0.143306 0.45618
-0.041087 -0.340146 0.0964 0.257527 -0.100256 0.960748
-0.034202 0.225988 0.11115 -0.357939 0.053578 0.928774
-0.071621 0.170203 0.093887 -0.63155 0.002607 0.774598
0.201106 0.071103 -0.009809 0.980574 0.190627 -0.036029
-0.025274 -0.33621 -0.079694 0.587202 -0.094869 -0.801934
0.150545 0.248909 0.072096 0.775372 0.061399 0.628248
0.199948 -0.467229 -0.017813 0.999721 -0.00243 0.017233
-0.282638 0.355221 0.006003 -0.53813 0.167627 0.82221
0.62539 0.04596 0.106096 -0.466371 -0.39689 0.695742
-0.053149 -0.641766 -0.105053 0.254236 0.068586 -0.963122
0.143675 0.529045 -0.124438 0.212246 0.518888 -0.827406
-0.050322 -0.416649 0.084171 0.234333 -0.227098 0.944438
0.001125 0.602774 -0.078379 -0.254703 0.660675 -0.704303
0.083493 -0.624724 0.013596 -0.744331 -0.171673 0.643779
-0.064828 -0.51124 0.066057 0.375503 -0.226934 0.898198
-0.312321 0.312374 -0.09535 -0.194589 0.184571 -0.962951
0.096311 -0.704455 -0.08505 -0.693712 0.053644 -0.718122
0.263773 0.357163 -0.046995 -0.619949 -0.662999 0.414339
0.022672 -0.22566 0.059519 0.928857 -0.023083 0.366322
-0.094591 0.350876 -0.1013 -0.57844 -0.146675 -0.802159
0.236814 0.505789 -0.111946 0.493602 0.552429 -0.671507
-0.027226 -0.745972 0.004789 0.344197 -0.577091 0.685747
0.164623 -0.847194 0.139841 0.876018 0.42922 0.207317
-0.028959 0.80908 -0.082948 -0.871625 0.157777 -0.455979
-0.107811 -0.3218 -0.053385 -0.785118 0.052111 -0.616889
-0.081389 -0.680654 -0.107306 -0.32432 0.077869 -0.940573
0.057539 -0.180614 -0.082847 -0.710007 -0.190897 -0.676452
-0.066409 0.354197 0.092551 -0.398061 -0.099412 0.901938
0.01355 -0.282726 0.076321 0.804681 -0.090016 0.585938
-0.121996 0.361361 -0.062128 -0.977801 -0.179824 -0.088075
0.181432 -0.207204 0.081717 0.596658 -0.148598 0.785067
-0.128393 -0.441601 0.03957 -0.921059 -0.100883 0.375906
-0.071379 -0.77394 -0.131133 -0.500383 0.351038 -0.789879
0.17457 -0.165912 -0.075954 0.707419 -0.05095 -0.704669
-0.52369 0.117479 0.084257 -0.683053 0.696967 0.115224
0.043429 0.608082 0.025772 0.199707 -0.113289 0.968894
-0.019835 -0.248248 0.105258 0.305264 -0.177175 0.934243
0.027517 0.093089 0.134854 0.080656 -0.185543 0.975805
0.075853 -0.746191 -0.047286 -0.898216 0.075982 -0.431055
-0.265835 0.288139 -0.014088 0.629138 -0.627734 0.454584
-0.489428 0.163331 0.004755 -0.776628 0.629589 -0.019252
-0.291792 0.255826 -0.065047 0.52592 -0.785861 -0.307576
-0.10822 -0.722529 -0.088705 -0.818706 -0.058354 -0.57024
0.018634 0.683407 -0.071469 -0.40171 -0.512825 -0.756683
-0.089085 -0.830726 0.108493 -0.46617 0.860522 0.139525
0.187717 0.006682 -0.070075 0.83845 0.135101 -0.526484
0.189981 0.075561 -0.053345 0.886119 0.12737 -0.444221
0.187435 -0.257567 -0.056813 0.723986 -0.183114 -0.664963
0.145103 -0.835204 0.161527 0.465257 0.844239 0.255001
0.007352 0.020121 0.141367 -0.095566 0.166525 0.98097
0.16428 -0.81878 0.014624 0.867789 -0.453647 0.194664
0.102364 0.75654 0.001538 0.931475 0.030818 0.35357
0.125232 0.238105 0.096906 0.54539 0.042072 0.837007
0.060394 -0.149522 0.075956 -0.64122 0.050442 0.765546
0.023689 -0.447787 -0.01602 0.903757 0.15737 -0.394347
0.13324 -0.869923 0.065144 0.01703 -0.999753 -0.008954
0.020041 -0.504933 0.009213 0.851123 -0.065748 0.520003
-0.042906 -0.133684 0.124375 -0.021627 -0.099474 0.994665
0.20048 -0.024322 -0.043605 0.950645 0.02868 -0.307796
-0.493414 0.137855 -0.023795 -0.321167 -0.585746 -0.66001
0.028061 -0.330452 0.017447 0.997886 -0.036037 0.048799
0.197989 -0.328358 0.039307 0.920553 -0.06868 0.384442
0.017206 -0.373186 0.043519 0.88045 -0.115043 0.443856
0.13446 -0.237755 -0.095072 0.437326 -0.144841 -0.885961
0.055797 0.80456 0.076518 0.377768 0.37901 0.843245
0.20515 -0.243615 0.012184 0.999224 -0.002169 0.03683
-0.29085 0.278868 -0.003681 0.630767 -0.364216 0.62035
-0.137164 0.0382 0.010001 -0.967866 0.24762 0.003352
-0.066024 -0.663902 0.029472 0.293937 -0.255678 0.920713
0.157207 0.361232 -0.113764 0.579169 -0.297819 -0.758537
-0.114608 0.203786 -0.030896 -0.908822 0.062396 -0.411506
-0.119788 0.122879 -0.040354 -0.890694 0.032468 -0.451162
0.08603 -0.653652 -0.07544 -0.693596 -0.056791 -0.717899
0.205847 -0.231098 -0.008317 0.998028 -0.060833 -0.014484
0.104592 -0.481481 0.037512 -0.635379 -0.039548 0.770969
-0.130235 0.117465 0.011095 -0.987465 0.087098 0.12327
0.052283 -0.311484 -0.0585 -0.814982 0.005868 -0.579392
0.200385 0.061669 0.02942 0.966151 0.215865 0.139147
-0.035298 -0.564749 0.040754 0.416583 -0.219824 0.881968
-0.058744 0.003458 -0.131744 -0.271297 -0.08574 -0.958491
0.143766 0.037167 0.108983 0.591452 0.23111 0.770693
0.166322 -0.220431 -0.078388 0.559878 -0.06218 -0.825844
0.178584 0.157514 0.049245 0.776277 0.133695 0.615231
0.035518 0.783168 0.086229 0.012251 0.394987 0.91643
0.135684 -0.868141 -0.037014 0.05404 -0.99395 0.0848
0.161829 -0.330695 -0.069337 0.650824 0.004421 -0.758829
0.09106 0.751778 0.046001 0.92668 -0.016858 0.372787
-0.000319 0.78194 -0.114247 -0.407453 0.082902 -0.908585
0.102038 -0.42858 0.04838 -0.587029 -0.377007 0.716033
0.425054 0.222857 -0.108398 0.214085 -0.357769 -0.894133
-0.072624 0.0781 -0.113853 -0.573609 0.269501 -0.77256
-0.034328 -0.126 0.125234 0.011221 -0.090735 0.995149
0.057292 -0.497036 0.001345 -0.667573 -0.019138 0.74359
-0.337964 0.227802 -0.058798 0.504385 -0.712454 -0.484161
0.164286 -0.839634 0.006555 0.931236 0.35788 -0.019797
-0.076086 0.555389 -0.088021 -0.4203 0.614172 -0.667598
0.110724 -0.133294 -0.117342 0.023704 -0.284855 -0.955896
-0.014125 0.58341 -0.091325 -0.153674 0.640044 -0.752481
-0.082183 0.180658 0.085321 -0.64435 -0.005214 0.764695
-0.130207 -0.036734 -0.05019 -0.922869 -0.030928 -0.383795
-0.049285 -0.02207 -0.13199 -0.246398 -0.157732 -0.955476
0.149923 0.383728 -0.126323 0.499973 -0.250369 -0.827693
-0.051203 0.395186 0.09913 -0.317433 0.130869 0.937839
0.095384 -0.861358 0.029764 -0.685024 -0.692391 -0.205159
-0.125133 0.110898 0.032767 -0.91949 0.102949 0.378907
-0.110131 -0.851903 0.00487 -0.791623 -0.555199 -0.117213
0.089952 -0.850155 -0.092483 -0.970639 0.049159 -0.233071
0.013936 -0.609446 -0.053225 0.728811 0.097803 -0.67748
-0.147372 0.478831 0.059062 -0.262509 0.108881 0.957673
0.105162 0.790083 -0.024198 0.996575 0.053809 -0.000296
-0.033388 0.215383 0.112114 -0.376474 0.045307 0.921427
0.058114 -0.742139 0.018827 -0.959597 -0.240474 0.129729
0.109989 0.244826 0.104716 0.390413 0.057794 0.917204
0.197228 -0.237811 0.052369 0.923374 0.04103 0.379519
0.195525 -0.495788 0.015546 0.937457 0.05652 0.342406
-0.046605 -0.124595 0.124956 -0.101717 -0.068418 0.991391
-0.110568 -0.812054 -0.03642 -0.849472 -0.513598 0.115807
0.061181 -0.51829 0.004676 -0.687232 -0.031173 0.725315
0.17358 -0.035901 -0.098456 0.849562 -0.081228 -0.519269
0.195461 -0.411916 0.031624 0.949777 -0.063215 0.305927
0.091814 -0.824751 -0.10121 -0.882766 -0.062406 -0.441885
0.023859 -0.593012 -0.003718 0.877897 0.045975 0.467561
-0.216664 0.463976 -0.061758 -0.6494 0.517431 -0.512204
0.155134 -0.229139 -0.08448 0.522688 -0.129174 -0.842501
0.051522 -0.655565 -0.003194 -0.990359 -0.000939 0.120252
0.604957 0.101176 0.051768 0.831239 0.551558 0.05563
0.19811 0.109038 -0.002325 0.979659 -0.196056 -0.018932
-0.174347 0.534718 -0.015808 -0.596855 0.799287 0.016907
-0.007165 -0.136351 0.118246 0.536859 -0.158072 0.822906
-0.070085 0.461037 0.079876 -0.266773 0.349808 0.897878
0.053082 0.868751 -0.015855 0.418391 0.894495 -0.059985
-0.10278 0.444747 0.064295 -0.324139 0.018078 0.943056
-0.06806 0.448509 0.083911 -0.26488 0.280174 0.920085
0.085313 0.245543 -0.137025 -0.037416 -0.128106 -0.990717
0.096326 -0.757355 -0.082919 -0.764578 0.04465 -0.642204
-0.068352 0.26199 -0.11198 -0.524245 -0.15577 -0.836958
0.522263 0.147529 0.001646 -0.727121 -0.684897 0.043467
0.001187 -0.683074 0.012417 0.772937 -0.193211 0.600308
0.489134 0.194083 -0.058471 -0.107403 -0.461129 -0.878424
-0.117072 0.556646 0.011646 -0.17128 0.700659 0.618071
0.206284 -0.131567 -0.037436 0.935745 -0.009033 -0.351564
0.313921 0.307342 -0.088141 -0.703115 -0.71056 0.001091
0.036857 0.440613 0.091544 0.159497 0.184007 0.968588
0.057529 -0.740668 0.003395 -0.973523 -0.208392 -0.074136
0.142517 -0.869061 0.04457 0.155754 -0.980809 -0.043612
0.174869 -0.810518 -0.031785 0.931437 -0.353348 0.04644
0.152196 0.417958 -0.136213 0.248832 -0.224054 -0.941651
-0.075204 0.547838 0.027728 -0.068891 0.739802 0.668673
-0.005048 0.101229 0.132762 -0.28934 0.129013 0.946867
-0.014338 0.1102 0.127689 -0.350658 0.212861 0.910124
-0.432377 0.212433 -0.049296 -0.52057 0.10037 -0.847556
-0.476114 0.122412 0.00606 0.463595 -0.803099 -0.354593
0.164894 -0.824311 -0.069531 0.771708 -0.634847 -0.036228
0.122569 0.071655 -0.132947 0.549369 0.244976 -0.798572
0.084694 -0.012767 0.131664 0.222308 -0.276543 0.927137
0.175177 -0.859614 0.077893 0.912912 -0.360451 -0.006477
0.186721 0.410272 0.038226 0.803811 -0.106116 0.580767
-0.259316 0.291339 -0.020879 0.680859 -0.66318 0.30994
0.02146 0.056159 -0.148661 -0.214777 0.297698 -0.930014
0.041222 0.091306 0.132606 0.136351 -0.416088 0.894898
-0.274206 0.305812 0.004264 0.245883 -0.347735 0.902272
-0.042507 0.135737 -0.109189 -0.323693 0.452389 -0.829904
-0.13555 -0.197772 -0.00142 -0.97246 -0.085059 -0.21167
-0.178982 0.485371 0.044695 -0.402535 0.161961 0.899879
-0.291288 0.37024 -0.069066 -0.854723 0.41723 -0.293211
-0.09001 -0.34582 0.103494 -0.090817 -0.096785 0.98833
0.003201 0.660854 0.041908 -0.42187 -0.897063 0.069215
0.093894 -0.779964 0.039058 -0.152368 0.859918 0.487078
-0.121103 0.397397 0.046351 -0.911775 -0.284633 0.294767
-0.034435 0.792715 -0.070371 -0.97973 0.013242 -0.199028
-0.06644 -0.113552 -0.10335 -0.298063 -0.151734 -0.940507
-0.129128 0.10019 0.007689 -0.995269 -0.091249 0.02078
-0.416015 0.24736 -0.003361 -0.614974 0.662536 0.399028
0.019438 -0.688707 -0.018509 0.874871 -0.175679 0.451044
0.056635 0.429381 -0.135583 -0.311155 0.031831 -0.9493
0.197594 0.456987 0.030497 0.594799 0.144663 0.788873
0.150452 0.046888 -0.117952 0.678453 0.275152 -0.681083
-0.073826 0.500946 0.061099 -0.209606 0.413785 0.885321
-0.393623 0.183711 -0.011795 0.587472 -0.808011 -0.005099
0.191369 0.095697 0.032232 0.990063 0.016052 0.122809
0.028656 -0.005804 -0.146423 -0.170153 -0.21343 -0.958532
-0.189922 0.450922 -0.087072 -0.277771 0.351934 -0.893765
0.156143 -0.729582 -0.079155 0.712795 0.015487 -0.700289
-0.01907 0.770816 0.048829 -0.879866 0.030134 0.465627
-0.152898 0.383354 -0.025271 0.745672 -0.664597 0.028976
-0.24635 0.413042 -0.082095 -0.394923 0.561547 -0.725812
-0.264305 0.420018 -0.0252 -0.76708 0.632191 0.095793
-0.135797 0.001669 -0.027883 -0.987669 0.043303 -0.143525
0.002145 0.029446 0.138855 -0.136224 0.151811 0.978373
0.084119 0.410989 0.092935 0.160103 0.262095 0.950815
0.223002 0.538512 -0.088249 0.376778 0.735633 -0.562396
0.178862 0.547258 -0.098995 0.289444 0.731733 -0.616945
0.04729 -0.547858 -0.040889 -0.842219 -0.022527 -0.538542
0.054195 0.387312 -0.136174 -0.304242 0.007856 -0.952255
0.032754 -0.064528 0.119484 -0.120824 -0.287262 0.948606
0.266824 0.469314 -0.009059 0.655024 0.064359 0.7499
0.156835 0.09206 -0.096087 0.724333 0.219676 -0.653476
-0.083621 0.172398 -0.07831 -0.622151 0.071221 -0.779395
-0.162767 0.380385 -0.005158 0.545054 -0.738022 0.397558
0.597417 0.066995 0.009032 0.896384 -0.3705 -0.187308
0.130578 -0.634081 0.03332 0.299407 -0.146825 0.941907
0.053389 -0.584088 -0.007608 -0.86922 -0.107798 0.480836
0.136108 -0.087558 -0.122572 0.459046 -0.218526 -0.857476
0.027295 -0.604301 -0.015392 0.992691 0.008128 0.116553
-0.010494 -0.687428 -0.086154 0.65349 0.210402 -0.727064
-0.526286 0.069617 0.06072 0.208984 -0.974801 0.034941
0.163693 -0.840918 -0.019559 0.981435 0.187244 -0.006261
0.026559 -0.370439 -0.002581 0.996916 -0.021592 -0.0554
0.447731 0.278172 -0.049828 0.428953 0.688829 0.568799
0.198409 0.372021 -0.043338 0.999509 -0.0156 0.02527
0.205893 -0.335357 0.005265 0.99903 -0.007236 0.02499
0.177701 0.126488 -0.04958 0.852457 0.232215 -0.465637
-0.042346 0.295302 0.102477 -0.546421 0.125141 0.828009
0.508916 0.222385 -0.04915 0.456142 0.860117 0.056471
0.186975 0.103394 0.050731 0.877915 0.144912 0.448846
-0.029301 -0.668198 0.024088 -0.206486 -0.022208 0.972996
-0.108849 0.34035 0.03524 -0.886784 -0.225184 0.402874
0.584996 0.073816 0.050368 -0.060271 -0.506625 0.814157
-0.012679 -0.767032 -0.119036 0.644851 0.436347 -0.625752
0.179758 -0.770954 -0.053721 0.769976 0.538651 -0.337642
0.087103 -0.771137 -0.075321 -0.788605 0.268714 -0.551189
-0.020354 0.492347 -0.127582 0.047763 0.137874 -0.989198
-0.007112 0.063145 0.133621 -0.37041 0.215087 0.903068
0.157338 0.437457 0.061963 0.740299 0.08407 0.66688
-0.004733 0.151739 0.128811 -0.20883 0.011073 0.975494
0.065889 -0.62215 -0.060449 -0.70114 -0.081343 -0.707524
-0.068437 -0.826999 0.121345 -0.144544 0.980681 0.126113
0.271375 0.389332 -0.020458 -0.199269 -0.404279 0.890243
-0.1341 -0.139745 0.065732 -0.90119 0.03083 0.419245
0.15129 0.236588 -0.086151 0.819815 -0.114227 -0.560458
0.185856 -0.189884 0.080527 0.674824 -0.059113 0.731112
0.095883 0.738976 0.026763 0.962693 -0.12375 0.237766
-0.058457 -0.528764 -0.101673 0.023385 0.063818 -0.996129
0.421213 0.210616 -0.087495 -0.648862 -0.757994 -0.026923
0.503456 0.162783 -0.0128 -0.606773 -0.794679 0.005082
0.245386 0.371959 -0.112337 -0.613729 -0.716061 -0.313244
-0.026422 -0.859698 0.07578 0.807814 -0.559754 0.055699
0.171957 -0.259311 -0.069397 0.527697 -0.204098 -0.824161
0.035343 -0.319041 -0.021568 -0.992146 -0.016567 -0.119747
0.42275 0.305683 -0.067112 0.538327 0.762096 0.340551
-0.104324 -0.666625 0.031527 -0.571753 -0.284499 0.755004
0.132501 -0.479084 0.058151 -0.486353 -0.099352 0.867659
0.086438 0.779313 -0.093835 0.791743 0.038437 -0.608572
0.142499 -0.869384 -0.078175 0.186043 -0.97188 -0.024433
-0.005244 -0.653786 0.023539 0.521641 -0.015097 0.846433
0.199884 0.393281 -0.071593 0.97901 -0.191897 0.002138
0.081598 0.842698 -0.054622 0.733978 0.635111 -0.240163
0.181486 -0.041686 -0.085607 0.850297 -0.090553 -0.517215
-0.036197 0.470697 -0.130873 0.028584 0.114576 -0.992761
-0.097362 0.23379 -0.072351 -0.724701 -0.417296 -0.547306
0.108269 -0.232465 0.089793 -0.037053 -0.147785 0.987943
0.141395 -0.274048 0.082918 0.057953 -0.058227 0.996462
0.145224 0.119208 0.086231 0.697584 0.013326 0.716219
0.204018 0.053671 0.021208 0.954942 0.260927 0.132616
-0.113487 0.182987 -0.038047 -0.895743 0.08078 -0.436981
-0.016674 -0.176746 -0.082934 0.587904 -0.023596 -0.80849
-0.105466 0.370534 -0.098599 -0.628246 -0.242625 -0.738618
-0.028518 -0.626515 -0.092678 0.538415 0.002805 -0.841764
0.059023 -0.744668 -0.005256 -0.984522 -0.108895 -0.126438
-0.015218 0.602032 -0.071172 -0.399754 0.73981 -0.53818
0.064343 -0.793496 0.009028 -0.776361 -0.521888 0.335766
0.55719 0.094582 0.002145 -0.75206 -0.658853 0.00031
-0.091152 -0.816507 0.038361 -0.803214 0.509402 0.299049
0.193436 0.14089 0.028909 0.869651 0.053518 0.489028
0.139038 0.11152 0.092822 0.670022 0.089609 0.736176
0.026576 -0.518515 -0.007719 0.979307 -0.094187 0.168572
0.02184 -0.23598 0.061401 0.942953 -0.005392 0.330627
-0.116123 -0.481026 -0.066258 -0.745999 0.102617 -0.657539
0.530514 0.139206 -0.017584 -0.701559 -0.694878 -0.130611
0.013159 -0.410214 -0.040274 0.822604 -0.030167 -0.567614
0.503241 0.164873 0.008468 -0.601053 -0.776953 0.184006
-0.106018 0.481394 0.061767 -0.0875 0.155787 0.981371
0.193222 -0.341308 -0.037578 0.752471 0.183232 -0.628313
0.124492 -0.234112 -0.098963 0.239974 -0.112672 -0.96295
0.204768 -0.534009 -0.033087 0.983921 0.011353 -0.176348
-0.027582 -0.180188 -0.089202 0.414255 -0.019617 -0.908463
0.060721 0.072938 -0.151087 -0.083773 0.240639 -0.965844
0.13153 -0.143023 0.109471 0.191096 -0.19635 0.960938
-0.027003 0.737391 -0.066216 -0.873929 -0.356149 -0.324711
0.044299 -0.383226 -0.040963 -0.942942 -0.002223 -0.326417
0.052688 -0.700655 0.006622 -0.99301 0.01986 0.11055
0.048487 -0.158121 0.064361 -0.806904 -0.024298 0.589601
-0.013887 -0.47975 0.052879 0.589015 -0.257232 0.76535
-0.053391 -0.432332 -0.089123 -0.005153 0.229124 -0.972433
-0.035139 0.327979 0.103248 -0.478722 0.012749 0.870733
-0.077552 0.008544 -0.123847 -0.573574 -0.040004 -0.817585
0.031468 0.37184 0.107977 0.0476 0.199027 0.977979
0.198019 -0.248754 -0.044199 0.88107 -0.142311 -0.447249
-0.101099 -0.002967 0.108693 -0.635463 -0.034793 0.748639
0.148404 -0.345615 0.078275 0.18756 -0.034839 0.981427
-0.0257 0.470238 0.08422 -0.134863 0.39638 0.907241
0.092151 -0.737363 -0.079184 -0.841794 -0.072152 -0.534516
0.380953 0.255085 -0.048573 -0.668163 -0.505223 0.543259
0.060381 -0.603539 -0.002986 -0.713704 -0.120825 0.687403
-0.109048 0.180114 0.056789 -0.814067 -0.037669 0.579537
-0.395313 0.183997 -0.030356 0.505167 -0.847653 -0.150713
-0.06066 0.42194 0.091737 -0.208869 0.222153 0.950951
0.110937 -0.627818 -0.093939 -0.444754 -0.086763 -0.889952
0.360663 0.327547 -0.133785 0.169599 0.011015 -0.98506
0.165044 -0.3929 -0.077424 0.561362 0.178052 -0.807563
0.124064 -0.238146 0.088448 0.084804 -0.155875 0.984045
0.052209 -0.053218 -0.133086 -0.352836 -0.432335 -0.829631
0.153804 -0.849327 -0.094378 0.868018 -0.067118 -0.487117
0.234343 0.47694 -0.128698 0.204966 0.29333 -0.93345
-0.011237 0.710847 0.062743 -0.704291 -0.109623 0.701168
0.178483 -0.498992 -0.082466 0.719847 0.002969 -0.694038
0.278654 0.340016 -0.066032 -0.466686 -0.850285 0.221641
0.043611 0.595453 0.024976 0.270472 -0.023342 0.955783
-0.134241 -0.394276 -0.000554 -0.917622 0.355602 -0.042785
0.084483 -0.826193 -0.004146 -0.480199 -0.870062 0.049371
-0.103716 0.41019 -0.111722 -0.438929 -0.213688 -0.866658
-0.233192 0.317159 -0.039095 0.733919 -0.679136 -0.000893
0.154453 0.448845 0.062833 0.627846 0.153817 0.760854
