0.04536 0.362738 0.109651 0.17274 0.361853 0.914463
0.138799 0.168376 -0.095132 0.606904 0.074976 -0.789703
-0.02019 -0.834579 0.003773 0.865138 -0.442381 0.072404
0.191945 -0.738153 -0.031131 0.774506 -0.245146 -0.580903
0.591308 0.060157 0.031915 0.906449 -0.32622 0.261764
0.165158 0.415192 -0.131179 0.287153 -0.374089 -0.881727
0.093668 0.247071 0.111264 0.341657 0.080326 0.936269
0.24021 0.373243 -0.090129 -0.706433 -0.707477 -0.015694
0.023756 0.562822 0.02669 -0.015908 0.10788 0.993543
-0.047868 -0.863917 0.097999 0.045474 -0.998572 0.022533
0.186431 0.452932 -0.135752 0.146803 -0.052993 -0.9877
0.052264 -0.460535 -0.055632 -0.796051 0.034491 -0.603182
-0.116306 0.008725 0.092115 -0.785922 0.090153 0.61076
-0.097161 0.260445 -0.086292 -0.748076 -0.170087 -0.639765
0.004551 0.493121 -0.124145 0.159785 0.122792 -0.978194
-0.535266 0.102251 0.070283 -0.736792 0.66833 0.096375
-0.084813 -0.728067 0.009121 -0.436681 -0.182402 0.846775
0.112282 -0.169473 -0.108572 0.006935 -0.177465 -0.980596
0.01326 -0.433683 -0.038634 0.835441 -0.003004 -0.54916
0.198179 0.07008 0.03493 0.952187 0.232672 0.187377
0.149353 0.371525 -0.122832 0.587435 -0.244837 -0.770309
0.171609 -0.848907 0.08179 0.740218 0.671922 0.012457
0.047995 0.221674 -0.125515 -0.127791 -0.270098 -0.951907
0.522314 0.147067 -0.010841 -0.718257 -0.69545 -0.006904
-0.064598 -0.500054 0.068473 0.4102 -0.200609 0.889043
0.104592 -0.481481 0.037512 -0.635379 -0.039548 0.770969
-0.01581 0.286328 -0.131527 0.002227 -0.008723 -0.999677
0.148404 -0.345615 0.078275 0.18756 -0.034839 0.981427
0.033678 0.837399 0.063049 0.004494 0.574443 0.809261
0.179735 -0.438621 -0.072866 0.684469 0.179459 -0.706517
-0.076509 0.427188 -0.123579 -0.313855 -0.184453 -0.931194
-0.118937 0.154478 -0.033414 -0.886418 0.128006 -0.441
0.179402 0.510223 0.023602 0.42238 0.444653 0.789215
-0.001092 -0.561744 -0.069508 0.77288 -0.039062 -0.633308
-0.126364 -0.496443 0.020112 -0.845973 -0.200057 0.492734
0.177 0.542068 0.002875 0.248899 0.653512 0.714395
0.180201 0.062788 -0.074177 0.819361 0.179819 -0.543954
0.545857 0.122221 0.025337 -0.819095 -0.546739 0.168209
0.095384 -0.861358 0.029764 -0.685024 -0.692391 -0.205159
0.194579 0.523828 -0.116307 0.180557 0.641141 -0.745827
0.175816 -0.664048 0.019947 0.488221 -0.115907 0.863935
-0.127165 -0.379363 0.035508 -0.988539 0.047254 0.133931
0.326725 0.381096 -0.043807 0.809187 -0.048124 0.582392
-0.018315 0.848013 -0.037896 -0.552638 0.804063 -0.215974
-0.27118 0.290588 -0.006501 0.48518 -0.577936 0.653414
0.071868 0.420493 0.091902 0.157428 0.252702 0.954353
0.158975 -0.860353 0.00516 0.492748 -0.830044 -0.187341
0.20758 -0.149997 0.022825 0.983335 -0.162516 0.071427
0.010118 -0.80436 -0.053816 0.960382 -0.236901 0.139011
0.160246 0.314583 0.056983 0.661457 0.020357 0.749228
0.11244 -0.194008 0.097105 -0.044531 -0.128765 0.990064
0.155413 0.483576 0.051011 0.454108 0.40244 0.792969
-0.371285 0.300933 -0.025995 -0.629356 0.746326 0.207146
-0.128466 0.393187 -0.052555 -0.970422 -0.163581 -0.010384
0.122501 -0.086186 -0.127672 0.199799 -0.257854 -0.944139
0.201823 -0.168463 0.040745 0.94508 -0.116024 0.299078
0.185092 -0.072249 0.08074 0.706289 0.068975 0.704335
0.018994 0.637602 0.031757 -0.454038 -0.390883 0.794349
0.073204 -0.272938 0.073784 -0.533323 -0.16415 0.827331
0.144071 -0.582431 -0.101599 0.324243 -0.146595 -0.934349
0.402217 0.230775 -0.05444 -0.602925 -0.718224 0.345021
0.177168 0.385605 -0.111597 0.43238 -0.501361 -0.748586
0.24329 0.384535 -0.124552 -0.616837 -0.444339 -0.647495
-0.099665 -0.826996 0.02381 -0.867244 0.475848 0.12884
-0.233192 0.317159 -0.039095 0.733919 -0.679136 -0.000893
-0.098836 0.321594 0.049233 -0.885311 0.016106 0.461083
0.027272 -0.346359 -0.002535 0.995894 -0.050246 -0.061063
-0.12489 -0.339361 -0.027392 -0.928132 0.071205 -0.362065
0.179765 -0.53052 -0.080557 0.703852 -0.034432 -0.709442
0.187917 -0.27465 -0.04982 0.756797 -0.210788 -0.618619
-0.144195 -0.138819 0.011632 -0.999158 -0.025296 -0.022284
0.200408 -0.54068 -0.046264 0.953014 -0.012051 -0.302468
0.076434 -0.536771 -0.079758 -0.712629 -0.07129 -0.697882
-0.023207 0.590746 -0.00943 -0.610586 0.566463 0.550797
0.567434 0.141184 -0.006876 0.633084 0.179168 -0.735963
0.199681 -0.411619 -0.034143 0.96466 -0.060693 -0.251709
-0.137448 -0.4244 0.006591 -0.996869 0.025818 0.062981
0.198644 -0.671849 -0.02585 0.994306 -0.021511 -0.043897
0.073447 0.324531 0.110815 0.321523 0.126654 0.937387
0.088198 -0.693439 0.035923 -0.096499 0.088202 0.989626
0.026559 -0.370439 -0.002581 0.996916 -0.021592 -0.0554
0.014223 0.52667 -0.120529 -0.007869 0.217974 -0.974871
0.046299 -0.192235 0.057436 -0.879107 -0.067368 0.464783
-0.004441 0.406861 -0.129042 0.063731 0.003419 -0.997924
-0.1047 -0.631307 0.041121 -0.815145 -0.113736 0.55514
-0.020809 0.216321 -0.125457 -0.186031 -0.221233 -0.956411
0.047768 0.644112 -0.064384 0.155658 0.109205 -0.972803
0.022773 -0.313992 0.051287 0.885334 -0.094418 0.453898
-0.176375 0.373099 -0.07068 0.630713 -0.645236 -0.43103
0.125062 -0.327723 -0.095259 0.419557 0.032131 -0.907159
0.09106 0.751778 0.046001 0.92668 -0.016858 0.372787
0.161749 -0.78746 0.020919 0.520915 -0.490462 0.667892
0.163149 -0.274309 0.079823 0.271403 -0.094861 0.957393
-0.139865 -0.053983 0.040866 -0.96755 0.077425 0.240028
0.373634 0.249463 -0.078363 -0.72866 -0.678831 0.084382
-0.135474 -0.172494 0.063627 -0.957308 -0.005949 0.269751
0.03203 0.536322 -0.118933 -0.091669 0.313325 -0.94074
0.169594 -0.813443 -0.002569 0.929522 -0.315736 0.173831
0.421375 0.274035 -0.12524 0.370131 0.122608 -0.920276
-0.112126 0.273583 -0.045953 -0.998065 -0.055195 -0.02756
0.034736 0.578259 -0.099809 -0.073598 0.536901 -0.840093
-0.096206 -0.565993 0.056353 -0.735217 -0.054654 0.65916
-0.130252 -0.078957 -0.0453 -0.856489 -0.060464 -0.51182
-0.039995 -0.371988 -0.082963 0.335795 -0.177811 -0.923992
0.262919 0.51237 -0.076629 0.676506 0.696313 -0.231804
-0.098508 -0.861833 0.109796 -0.361052 -0.906864 0.100439
0.12751 -0.285652 -0.093784 0.401261 -0.026096 -0.915258
-0.098298 0.274845 -0.087177 -0.756555 -0.068343 -0.649971
-0.104401 -0.708145 -0.094208 -0.71911 -0.009487 -0.693586
0.315732 0.442179 -0.108751 0.551953 0.679862 -0.481489
-0.056752 -0.396689 0.089457 0.164515 -0.151044 0.974658
0.195404 0.447222 -0.133962 0.145364 -0.108318 -0.982967
0.088463 -0.848657 -0.040596 -0.975052 -0.144576 0.113415
0.096368 0.322578 -0.143004 0.15825 -0.092179 -0.980273
-0.102323 -0.539463 0.050107 -0.842052 -0.06152 0.535799
0.189105 -0.514308 -0.069759 0.832883 0.011772 -0.553253
-0.017106 -0.730782 -0.106762 0.539889 0.346673 -0.765505
0.620834 0.049358 0.070828 -0.815481 -0.574335 0.000689
0.1984 -0.378778 0.026438 0.953043 -0.025391 0.300506
0.193167 -0.170615 0.070412 0.931594 -0.00102 0.362771
0.105259 -0.130852 0.107205 -0.601371 -0.051816 0.796392
-0.090763 0.265432 -0.093986 -0.686306 -0.124938 -0.716412
-0.112983 0.193807 -0.037051 -0.893895 0.086814 -0.439583
0.163361 0.076175 -0.094057 0.73549 0.239484 -0.633699
0.174826 0.055275 0.082426 0.731568 0.255844 0.630226
0.065483 -0.571342 0.007958 -0.628642 -0.027951 0.776833
-0.128328 0.118139 0.020485 -0.972992 0.073414 0.213974
-0.039963 -0.863699 0.09121 0.104737 -0.993432 0.034236
0.054947 0.862901 -0.045792 0.174389 0.96292 -0.20038
-0.303469 0.361698 -0.028528 -0.691203 0.690869 0.199576
0.244971 0.521503 -0.019056 0.640692 0.612612 0.459246
0.00268 -0.794847 -0.111613 0.90966 0.054696 -0.403847
-0.035298 -0.564749 0.040754 0.416583 -0.219824 0.881968
-0.181061 0.500985 0.038569 -0.564619 0.461932 0.681505
-0.020885 0.697223 -0.014877 -0.867665 -0.38338 -0.052037
0.522939 0.189846 -0.050337 0.149106 -0.493265 -0.851541
-0.114242 0.311769 0.008724 -0.975566 -0.066703 0.209043
0.285814 0.405031 -0.01414 0.126724 -0.063409 0.981021
0.577123 0.072 -0.016509 -0.730624 0.255659 -0.419443
0.043679 0.384649 -0.132231 -0.402903 -0.007254 -0.912845
0.016409 -0.33028 0.059817 0.843468 -0.200523 0.494524
-0.073409 -0.863872 0.04934 -0.03452 -0.999325 -0.010206
0.155787 -0.863387 -0.05565 0.546219 -0.837353 0.013291
0.014048 0.661177 0.073322 -0.34637 -0.90614 0.216492
-0.0257 0.470238 0.08422 -0.134863 0.39638 0.907241
-0.116123 -0.481026 -0.066258 -0.745999 0.102617 -0.657539
-0.011093 -0.070334 -0.114816 0.200688 -0.490015 -0.847634
0.158906 0.116982 0.07666 0.575583 0.176429 0.797391
-0.091628 -0.612784 -0.099847 -0.450541 0.097069 -0.887407
-0.4818 0.112912 0.028302 0.834287 -0.543549 0.002107
0.143191 0.276935 -0.10764 0.810233 -0.096189 -0.577374
0.394612 0.231333 -0.094257 -0.650847 -0.732169 -0.158551
-0.501365 0.141881 -0.016016 -0.878272 0.097557 -0.40046
-0.290801 0.386155 -0.036536 -0.99404 0.051077 0.088857
0.025369 0.02699 0.140218 0.050136 0.258412 0.964135
0.200381 0.495828 0.020369 0.305748 0.2412 0.920735
0.323683 0.323078 -0.046337 -0.415121 -0.502878 0.756094
-0.033837 -0.381933 0.087612 0.27105 -0.18407 0.942885
0.130578 -0.634081 0.03332 0.299407 -0.146825 0.941907
0.212367 -0.107308 -0.018767 0.953279 0.062221 -0.277926
0.104403 -0.837181 0.157235 -0.765302 0.452512 0.44757
0.11065 -0.425699 0.055948 -0.532361 -0.303885 0.788032
0.063774 -0.601667 -0.059145 -0.6962 -0.025363 -0.717385
-0.051773 -0.380656 -0.084144 0.118669 -0.14851 -0.977724
0.196584 -0.72458 -0.026868 0.978547 -0.072184 -0.17062
-0.0454 -0.713179 -0.116854 0.445127 0.250056 -0.859298
0.460069 0.193803 -0.015391 -0.559857 -0.806623 0.133181
0.191778 -0.228692 -0.05793 0.698756 -0.088018 -0.709433
0.011274 -0.265732 -0.052023 0.786933 -0.118429 -0.605067
-0.12434 -0.262753 -0.023763 -0.853654 0.035652 -0.51935
0.062636 0.820744 0.062759 0.491013 0.514938 0.70218
0.025467 -0.299467 0.047996 0.94853 -0.035511 0.306831
-0.293338 0.252167 -0.029942 0.707961 -0.684335 0.162276
0.086334 -0.708065 -0.074948 -0.799976 -0.02624 -0.59689
0.276964 0.47571 -0.10723 0.458661 0.667823 -0.584042
0.211404 0.557402 -0.05475 0.46213 0.879379 -0.055536
0.201722 -0.296746 0.03478 0.9408 -0.066797 0.331982
-0.032578 0.271468 -0.129351 -0.177804 -0.038175 -0.98191
0.196987 -0.175344 0.057599 0.960072 -0.050423 0.273181
-0.121971 -0.654734 -0.008257 -0.985098 -0.122931 0.118323
0.000207 -0.13963 0.112197 0.576359 -0.157382 0.801865
-0.025529 -0.669969 -0.093473 0.533422 0.174754 -0.826602
0.056124 0.865588 0.004307 0.317123 0.934952 0.143012
0.067688 0.830475 -0.088297 0.446419 0.646202 -0.616466
0.209235 0.411461 -0.095043 0.078173 -0.88952 -0.131268
0.087507 0.748559 0.054859 0.835332 0.089919 0.537396
0.078523 0.08238 0.127105 0.471138 0.02626 0.880806
0.087913 0.62728 -0.025569 0.962681 0.20773 0.103434
-0.014443 -0.108746 -0.097306 0.499572 -0.350324 -0.791186
-0.035635 0.453649 0.088884 -0.145602 0.266516 0.952326
-0.106393 0.260141 -0.072255 -0.897115 -0.116651 -0.422942
0.163027 -0.735348 -0.070055 0.799676 -0.090652 -0.592005
0.059585 0.699964 -0.078141 0.416392 -0.5672 -0.708067
-0.005092 -0.648917 -0.074585 0.599876 0.086828 -0.794745
-0.057507 0.062966 -0.127452 -0.366863 0.23724 -0.896777
0.021173 -0.542793 -0.004104 0.937628 -0.095831 0.330691
0.174416 0.489272 -0.134585 0.103865 0.257175 -0.959241
0.115381 -0.870374 -0.091646 0.017745 -0.999551 -0.0173
-0.114129 -0.050942 -0.07717 -0.800854 -0.124462 -0.585158
-0.021453 -0.839395 -0.083692 0.915231 -0.360667 -0.022731
-0.12391 0.060521 -0.049247 -0.917792 0.121647 -0.376833
-0.071764 0.13651 -0.096268 -0.502315 0.24446 -0.826276
0.337521 0.391049 -0.134666 0.569476 0.010265 -0.816245
-0.102236 -0.582814 0.050128 -0.817705 0.059274 0.558889
0.108768 0.406236 0.089817 0.203315 0.127159 0.970726
-0.070481 -0.854941 -0.131071 -0.391943 -0.61816 -0.668313
-0.020496 0.333509 -0.129191 -0.032756 0.04575 -0.998131
0.006144 -0.507912 -0.057216 0.779584 0.050507 -0.623555
0.094643 -0.865756 0.058666 -0.614922 -0.780104 -0.065575
-0.048938 -0.239185 0.112445 0.093976 -0.161743 0.982013
-0.090776 -0.8633 0.075636 -0.023772 -0.999707 0.002345
0.051204 0.603907 -0.081868 0.100009 0.690904 -0.692399
-0.112416 -0.126493 0.099486 -0.692277 0.041219 0.719895
0.071846 0.669097 0.048745 0.735165 -0.6732 0.055234
0.095265 -0.773733 0.028348 -0.261598 0.756113 0.574347
0.00978 -0.738307 -0.012615 0.751241 -0.203796 0.623121
0.190714 0.327873 -0.029751 0.992757 -0.113647 -0.03618
0.02207 -0.524587 -0.02767 0.906221 -0.044149 -0.41527
0.184566 0.313668 0.010451 0.939378 -0.083038 0.328625
-0.20336 0.366799 0.011383 0.159964 -0.558054 0.813566
-0.000364 0.861612 -0.026542 -0.440972 0.888572 -0.083352
0.178387 0.121067 0.057297 0.773189 0.15686 0.613704
-0.029178 -0.055041 0.130511 -0.068572 -0.092864 0.992974
-0.284586 0.400808 -0.057618 -0.512551 0.842564 -0.151526
-0.109168 0.189785 0.057549 -0.826821 -0.053421 0.559761
-0.094425 -0.391343 -0.068852 -0.55843 -0.116483 -0.819264
-0.052204 -0.26785 0.108375 0.176266 -0.212305 0.960761
-0.03323 0.324402 -0.128637 -0.123614 0.034993 -0.990703
0.639133 0.042947 0.076462 0.928644 0.332322 0.142101
0.200605 0.53395 0.001605 0.253395 0.63743 0.727264
0.17457 -0.165912 -0.075954 0.707419 -0.05095 -0.704669
-0.109692 -0.004119 0.098201 -0.766375 -0.184606 0.611702
-0.007734 0.48174 0.080857 -0.029358 0.462247 0.88557
-0.246113 0.437455 -0.006955 -0.811576 0.493464 0.311918
0.14966 -0.810921 0.045437 0.599075 0.520565 0.607345
0.027363 0.072981 0.134489 0.106162 0.108081 0.98742
0.190015 0.349842 -0.066073 0.866651 -0.384136 -0.314849
0.198726 0.147608 -0.005262 0.947106 0.220946 -0.202242
0.171979 -0.043825 0.091949 0.690366 0.017241 0.723249
-0.495332 0.113818 0.008325 0.063901 -0.770486 -0.624879
0.025754 -0.698252 -0.039073 0.983997 -0.109972 0.133905
-0.118687 -0.550772 -0.075398 -0.759395 0.122926 -0.638005
0.177228 -0.162003 0.089562 0.533031 -0.044812 0.843901
0.389909 0.305567 -0.127946 0.306913 0.192018 -0.929427
0.640244 0.044356 0.017835 0.887976 0.455365 -0.054053
0.10903 0.351029 -0.14256 0.336766 -0.106017 -0.934902
0.05437 0.329432 0.114563 0.205354 0.187192 0.960264
-0.022203 -0.437559 -0.08131 0.600064 0.113859 -0.787713
0.01425 -0.599657 0.007141 0.606934 0.087965 0.789279
0.562498 0.146317 0.046473 0.05171 0.382659 0.917451
0.405464 0.324221 -0.082508 0.675468 0.728602 0.096601
-0.120195 -0.190252 -0.037762 -0.850454 -0.101697 -0.515844
0.512349 0.196884 0.01114 -0.253602 0.838711 0.474035
-0.056929 -0.838292 0.151701 0.559575 0.532347 0.610622
0.013559 0.86286 0.023618 -0.143774 0.975204 0.115584
0.03915 0.114767 0.133388 0.032255 0.173515 0.983667
-0.019502 0.304705 0.113649 -0.180599 0.057585 0.978725
0.052688 -0.700655 0.006622 -0.99301 0.01986 0.11055
0.021068 -0.491918 0.008385 0.884502 -0.019063 0.465472
-0.002683 0.840328 0.041513 -0.616276 0.362643 0.690883
0.18058 -0.793792 -0.056648 0.899388 -0.379558 -0.049168
-0.134305 -0.494274 -0.040794 -0.920444 0.051979 -0.376893
-0.131749 -0.251857 0.058398 -0.952149 -0.149602 0.260216
0.173349 0.329285 0.040671 0.87612 -0.00286 0.478648
-0.100455 0.079528 -0.085124 -0.732516 0.205565 -0.648394
0.030329 0.60094 -0.084124 -0.069373 0.593849 -0.801537
-0.081132 0.298569 -0.105723 -0.527518 -0.05775 -0.827416
0.184311 0.193669 0.009043 0.969423 0.231866 0.036409
-0.084307 -0.682407 0.029032 0.137219 -0.367962 0.914809
-0.08512 0.337179 -0.105904 -0.58331 -0.087704 -0.807456
-0.138867 -0.015117 0.015648 -0.998294 0.051299 0.026481
-0.227887 0.365072 -0.095691 0.173509 -0.206075 -0.960466
0.021809 -0.457929 0.012597 0.899251 -0.029787 0.435342
0.013094 -0.383423 0.049377 0.856066 -0.131577 0.499366
-0.202169 0.478407 0.030323 -0.643788 0.281583 0.710646
0.071721 0.79604 -0.10542 0.600208 0.122996 -0.78798
-0.033275 -0.216946 0.114643 0.16265 -0.191919 0.967105
0.250045 0.526814 -0.065828 0.699791 0.705676 -0.092909
-0.120797 0.543476 0.029787 -0.083314 0.73698 0.669906
0.180678 0.378304 -0.10489 0.510188 -0.4784 -0.713416
0.169663 -0.848718 0.029021 0.939636 0.251965 -0.171604
0.148558 0.221177 0.076862 0.766627 0.066249 0.638559
0.177745 0.278834 0.029268 0.937893 0.009934 0.3449
-0.092516 0.159401 -0.072835 -0.733983 0.181159 -0.636847
0.33382 0.288231 -0.093413 -0.670683 -0.725095 -0.147822
0.203261 0.028014 -0.02795 0.948725 0.091298 -0.298141
-0.102606 -0.103522 0.106874 -0.591841 0.084622 0.800311
-0.044702 -0.674587 -0.105628 0.405112 0.18448 -0.894627
0.44487 0.233087 -0.100615 0.6261 -0.297864 -0.718294
0.190944 0.34983 0.001275 0.972041 -0.055094 0.225484
0.020425 -0.030537 0.128633 0.094951 -0.17431 0.956621
0.184848 -0.561409 0.031425 0.715712 -0.139353 0.683484
0.004718 0.102577 -0.134214 -0.143262 0.29706 -0.942615
-0.296731 0.249035 -0.05601 0.56085 -0.792464 -0.226453
0.519529 0.176265 0.016108 -0.226474 0.49109 0.833339
0.104981 0.792363 -0.035313 0.987225 0.11682 -0.028909
0.116513 0.533545 0.030411 0.370273 0.586024 0.720414
0.081779 0.122523 -0.130655 0.151417 0.399424 -0.900527
-0.014336 -0.162691 -0.082046 0.589245 -0.088914 -0.802269
0.192491 -0.338849 0.049787 0.915884 -0.073236 0.394108
0.062968 0.605628 0.017498 0.538253 -0.04959 0.840559
-0.142134 0.016221 0.015445 -0.990548 -0.115877 -0.015321
0.203719 -0.52478 -0.035728 0.96051 0.051026 -0.26896
-0.021555 -0.775124 0.012221 0.709814 0.586503 0.385187
-0.005121 -0.001594 -0.142467 -0.162829 -0.156444 -0.973789
0.088443 -0.030744 0.129349 0.113133 -0.063363 0.991328
-0.114137 0.202114 0.048285 -0.926339 0.032458 0.371606
0.154083 0.27108 -0.087904 0.875125 -0.112178 -0.470259
0.086594 -0.844623 0.061574 -0.918286 0.394192 0.013849
0.20246 -0.096306 0.056738 0.852629 -0.042944 0.518678
0.197795 0.368061 -0.066195 0.970369 -0.186343 -0.125718
-0.042144 -0.580724 0.039435 0.493784 -0.315709 0.809183
0.201028 -0.515419 -0.001203 0.935295 -0.007491 0.352952
-0.021192 -0.045754 -0.128543 -0.039205 -0.443552 -0.894783
0.501465 0.216314 -0.009313 0.313104 0.560303 0.742111
0.065677 -0.642641 0.008796 -0.239173 0.379812 0.890493
-0.012324 0.617959 -0.048724 -0.760197 0.537374 -0.356513
0.131985 -0.529839 -0.108351 0.104694 0.017383 -0.992843
0.19125 0.036654 -0.062303 0.905534 0.0649 -0.418483
0.068225 -0.285348 0.067597 -0.687926 -0.154026 0.707397
-0.29938 0.277952 -0.088704 0.272182 -0.385226 -0.878734
0.049234 -0.583924 -0.016536 -0.904251 -0.095459 0.416027
0.055848 0.512188 -0.127912 -0.15403 0.119909 -0.979511
0.08365 0.67132 -0.018235 0.988178 -0.071479 -0.120512
0.002752 0.533639 -0.118624 0.001325 0.331312 -0.941581
-0.002696 -0.419521 -0.059696 0.716533 0.050353 -0.694326
0.069292 0.273747 -0.137534 -0.21645 -0.062717 -0.973418
0.137778 0.031733 -0.133079 0.651211 0.110494 -0.75019
-0.046463 -0.087354 -0.111729 -0.017319 -0.230561 -0.972572
-0.23241 0.396838 -0.09445 -0.084722 0.190439 -0.977735
0.461498 0.265816 -0.042178 0.520737 0.69374 0.462526
-0.387833 0.259483 0.005711 -0.242518 0.385009 0.884471
-0.374776 0.203802 -0.059974 0.447624 -0.691477 -0.562759
0.152662 -0.199005 -0.091484 0.731375 -0.111626 -0.635146
-0.037486 -0.115384 -0.104879 0.166425 -0.179317 -0.968529
0.133262 -0.826319 0.141038 0.235313 0.965877 0.087421
0.173892 -0.813854 -0.055943 0.867301 -0.476296 -0.010696
0.188564 -0.524614 -0.070808 0.800858 0.002113 -0.597438
0.161758 -0.831256 -0.001176 0.975369 0.016511 0.020836
0.03033 -0.142832 -0.053842 -0.897663 -0.329135 -0.288103
0.057096 0.148007 0.129344 0.12056 0.030211 0.992241
-0.042366 -0.114539 0.126272 -0.092922 -0.090334 0.988998
0.012755 -0.118458 -0.063374 0.665622 -0.384617 -0.633942
-0.13943 0.031568 0.020294 -0.93684 0.334831 0.087994
-0.076175 0.445755 -0.127168 -0.245457 -0.106123 -0.962751
-0.123735 -0.345434 0.057238 -0.984228 0.06132 0.165427
0.415543 0.220251 -0.110383 -0.046387 -0.593238 -0.777951
-0.127646 -0.348265 0.026338 -0.996166 0.0352 0.076631
0.174476 -0.75783 -0.050257 0.856947 0.243579 -0.453495
0.027915 0.761496 0.088888 -0.468893 0.252129 0.805835
0.016803 0.859331 0.037672 -0.339327 0.797811 0.497191
0.105822 -0.808989 -0.115131 -0.504286 0.057394 -0.848806
0.177489 -0.708377 -0.05233 0.783544 -0.037048 -0.617302
0.017806 0.724514 0.08884 -0.800357 0.080997 0.58572
-0.282587 0.310591 -0.096226 0.227461 -0.142386 -0.961053
0.204923 0.034162 -0.018885 0.975319 0.087262 -0.197217
0.189602 -0.015187 0.071464 0.770997 0.11831 0.623967
-0.004733 0.151739 0.128811 -0.20883 0.011073 0.975494
0.048996 0.705457 -0.086944 0.242312 -0.639539 -0.728355
-0.089552 -0.712047 -0.108329 -0.623849 0.181906 -0.759318
0.121631 -0.544481 -0.107573 -0.154985 -0.048434 -0.983489
0.468831 0.186983 -0.02598 -0.524616 -0.851077 0.000803
0.33378 0.427901 -0.076754 0.816548 0.54846 0.167668
0.186499 0.357973 0.017263 0.90498 -0.149379 0.397522
-0.105132 -0.778257 -0.096203 -0.843526 0.061505 -0.533334
-0.012892 0.181557 0.126453 -0.378366 0.026836 0.920341
0.24333 0.45185 -0.000582 0.353364 -0.137953 0.918791
-0.270246 0.381703 -0.089808 -0.471905 0.344514 -0.80926
-0.025365 -0.449331 -0.084655 0.524163 0.082452 -0.842941
0.059535 -0.617201 -0.054202 -0.77028 -0.0597 -0.634587
0.335861 0.316139 -0.044291 -0.328736 -0.37002 0.854357
0.450813 0.277365 -0.09876 0.719251 0.360274 -0.587505
0.119262 0.403009 0.087605 0.332721 0.129289 0.932457
-0.058694 0.499903 0.064525 -0.152517 0.411383 0.89835
0.063657 0.365798 -0.139215 -0.385463 -0.019582 -0.922074
0.193009 0.012688 -0.057671 0.918703 -0.005477 -0.391517
-0.123332 -0.603033 0.001209 -0.921819 0.083871 0.37804
0.190426 0.358042 0.006216 0.95791 -0.107315 0.263193
0.202722 0.048651 -0.020619 0.964241 0.119815 -0.224739
-0.007453 -0.354887 -0.061063 0.677676 -0.113638 -0.726318
-0.035136 -0.861192 -0.0818 0.305117 -0.933631 0.14402
0.205616 0.032349 0.034047 0.983883 0.085362 0.145937
-0.437215 0.156902 0.019999 0.531427 -0.822511 0.185877
-0.096043 -0.480377 -0.084055 -0.581181 0.125694 -0.802744
0.063919 -0.571478 -0.06245 -0.723101 -0.107764 -0.682227
0.01199 0.162375 0.130537 -0.072352 0.018884 0.996908
0.140226 -0.637223 0.030553 0.273585 0.022309 0.955916
0.486077 0.195888 0.007986 0.558435 0.671347 0.43537
-0.026073 0.407748 -0.129751 -0.007648 -0.014163 -0.999703
-0.229393 0.469099 -0.030339 -0.786972 0.611012 -0.07965
-0.114089 0.016541 -0.080787 -0.87467 0.039602 -0.482283
0.06366 -0.75197 -0.024942 -0.868475 0.15425 -0.468458
0.086805 0.790159 -0.091834 0.846425 0.091246 -0.523762
-0.143512 -0.143901 0.029485 -0.99302 -0.02748 0.110099
-0.124504 -0.328561 0.050311 -0.981982 -0.022903 0.186634
-0.082565 0.152842 0.084535 -0.663312 -0.00012 0.747928
0.02699 0.343529 0.114515 -0.045929 0.187025 0.980075
-0.074049 -0.036427 0.121535 -0.436708 0.020278 0.897821
0.187147 0.032154 0.075579 0.802494 0.205291 0.56009
0.040217 0.373091 -0.130368 -0.317308 -0.028126 -0.945793
0.12245 -0.07057 0.117013 0.295449 -0.125443 0.945559
0.052976 0.119703 -0.133902 -0.038218 0.42116 -0.90535
-0.048545 -0.591744 0.039061 0.481402 -0.291019 0.826746
0.047679 0.201154 -0.116589 -0.136328 -0.390903 -0.903482
0.194661 -0.51126 0.018505 0.93695 -0.019514 0.348777
-0.125875 -0.308228 0.051491 -0.982733 -0.116061 0.140375
0.055285 0.636682 0.030482 0.490444 -0.422489 0.756207
-0.09593 0.204505 -0.061887 -0.787244 0.046291 -0.611727
-0.072311 0.210828 -0.091906 -0.750085 -0.148551 -0.643539
0.023859 -0.593012 -0.003718 0.877897 0.045975 0.467561
0.148404 0.00511 -0.126814 0.677191 0.120987 -0.725704
-0.025836 -0.425737 0.075198 0.367519 -0.192376 0.908578
-0.072562 -0.368775 0.098125 0.134223 -0.184785 0.973497
0.020896 0.040154 -0.152807 -0.16754 0.19557 -0.966077
-0.025145 0.170517 -0.108136 -0.258319 -0.208607 -0.93775
-0.104096 -0.207567 -0.061246 -0.82763 -0.050123 -0.558783
-0.041732 0.823775 -0.024341 -0.975085 0.021724 0.03478
-0.112769 -0.689758 -0.087497 -0.658583 -0.10934 -0.74381
0.032997 0.413072 -0.128908 -0.133278 0.031317 -0.988791
-0.496267 0.153238 -0.014937 -0.773013 0.610855 -0.152421
0.124263 -0.647372 -0.095368 -0.05492 -0.092587 -0.992743
0.065376 -0.369622 -0.071467 -0.756235 -0.054875 -0.650145
-0.107177 0.171493 -0.052024 -0.852333 0.080517 -0.51667
-0.018964 0.364088 0.106645 -0.09325 0.005903 0.994261
0.164236 -0.798702 0.015752 0.823457 0.386877 0.409984
-0.018446 -0.433874 0.069587 0.58156 -0.178419 0.793075
-0.052068 -0.573677 -0.102562 0.195918 -0.006592 -0.978127
0.108872 0.013934 0.127719 0.353418 0.233463 0.902495
0.172466 -0.803794 -0.083214 0.887449 -0.184579 -0.408374
0.033557 -0.227112 0.021813 0.866866 -0.151864 0.472105
-0.127641 -0.322504 -0.014705 -0.99066 -0.002259 -0.132886
-0.097555 0.30571 -0.090896 -0.724475 -0.115998 -0.678404
0.16706 -0.651908 0.02541 0.395904 -0.017651 0.91418
-0.032896 -0.617756 -0.095137 0.475306 0.016206 -0.879182
-0.232339 0.415289 -0.087495 -0.33038 0.437772 -0.834862
0.121111 -0.86995 0.067099 -0.004018 -0.999968 0.000345
0.028061 -0.330452 0.017447 0.997886 -0.036037 0.048799
0.135882 -0.52042 -0.10743 0.186514 -0.000461 -0.979575
-0.121857 -0.041394 -0.066889 -0.853454 -0.087288 -0.513394
-0.134549 0.475067 -0.101917 -0.42743 0.106127 -0.897424
-0.068117 -0.270553 0.10987 0.061306 -0.144277 0.987467
-0.061331 -0.618443 -0.104875 0.097038 0.068465 -0.991857
-0.064514 -0.155138 0.121 -0.112716 -0.050248 0.991577
0.204076 -0.154286 -0.041837 0.930166 -0.008162 -0.360352
0.259975 0.367333 -0.123456 -0.491037 -0.668299 -0.554659
-0.173776 0.531896 0.006702 -0.642013 0.726618 0.242467
0.059898 -0.083124 0.105296 0.134743 -0.705171 0.695184
-0.007391 0.52243 -0.121374 -0.020975 0.191527 -0.981238
0.067915 -0.772318 -0.042391 -0.894017 0.164011 -0.414789
-0.080646 -0.403568 0.091665 0.10843 -0.210888 0.969879
0.019331 -0.238004 -0.043394 0.91306 -0.049646 -0.400428
-0.109592 -0.015469 0.094333 -0.747642 -0.100172 0.655706
-0.127035 -0.074768 0.076576 -0.833556 0.020239 0.551847
0.073131 0.263002 -0.137399 -0.174009 -0.081166 -0.980555
0.19889 0.008691 -0.041823 0.955152 0.029937 -0.292598
-0.127508 0.405642 -0.084742 -0.912896 -0.290865 -0.278724
0.147697 -0.859617 -0.101845 0.701901 -0.421364 -0.570659
0.397419 0.268998 -0.036842 -0.072933 0.115174 0.98217
-0.053801 0.430268 0.091059 -0.187075 0.228252 0.955035
0.464899 0.251175 -0.089597 0.782667 -0.062195 -0.584043
0.048955 0.478668 0.078532 0.119547 0.501106 0.855528
0.02045 -0.696489 -0.063802 0.841508 -0.013784 -0.536991
-0.083301 -0.792366 0.028483 -0.683947 0.464377 0.561983
-0.071101 0.3372 0.087095 -0.519745 -0.15402 0.840005
0.07447 -0.021157 -0.15301 -0.100453 -0.287786 -0.950449
-0.043872 -0.183954 -0.094523 0.167482 -0.053264 -0.982528
-0.072462 0.532226 0.042321 -0.086921 0.612407 0.785442
-0.041518 -0.651743 0.025122 0.194185 -0.109721 0.973987
0.158693 -0.697745 -0.077195 0.69859 -0.026132 -0.714485
-0.076215 -0.253136 0.111584 -0.064848 -0.055131 0.99613
-0.094623 0.44301 -0.121087 -0.266843 -0.109923 -0.956986
0.044886 0.863777 -0.044641 0.07376 0.978955 -0.185769
-0.545487 0.071996 0.01614 0.791461 -0.412015 -0.444998
0.254716 0.487707 -0.113927 0.473044 0.53993 -0.696151
0.14087 -0.69045 0.024819 0.23563 -0.342101 0.907247
0.164895 -0.094209 0.100684 0.615971 0.036228 0.786853
-0.011237 0.710847 0.062743 -0.704291 -0.109623 0.701168
0.341718 0.370328 -0.056802 0.640529 0.47709 0.593567
-0.160983 0.480838 0.055034 -0.244082 0.108333 0.962233
-0.120538 0.194464 -0.021167 -0.885217 0.134961 -0.443315
0.097825 0.312297 -0.141863 0.210923 -0.097604 -0.968013
0.048319 -0.573597 -0.015738 -0.895595 -0.103972 0.431887
0.062167 -0.686242 0.024924 -0.636113 0.287271 0.7047
0.353005 0.398192 -0.099727 0.941317 -0.318244 0.016208
-0.134342 0.538963 0.032443 -0.174077 0.706118 0.685825
0.161544 0.481958 -0.137784 0.17403 0.192785 -0.964369
-0.088185 0.183546 -0.073557 -0.69709 0.057705 -0.714402
-0.143551 -0.107786 -0.005753 -0.98852 -0.023738 -0.141929
0.121539 -0.022445 0.120385 0.353424 -0.016766 0.935193
0.138838 0.409774 0.078169 0.533544 0.080017 0.841597
0.131849 -0.376047 -0.095939 0.471545 0.110117 -0.873189
0.198312 -0.038869 0.061253 0.88287 0.028183 0.468299
0.052477 0.590894 0.021821 0.376843 -0.001355 0.926215
0.088 -0.185917 0.092059 -0.406 -0.047193 0.912072
0.195795 -0.358741 0.038692 0.906252 -0.09045 0.412288
0.492445 0.20304 -0.06305 0.042701 -0.388498 -0.920364
0.162765 -0.848287 -0.028617 0.927511 -0.364669 0.052884
-0.07274 -0.083204 -0.106563 -0.436671 -0.225979 -0.868071
0.078975 -0.68272 -0.065323 -0.813823 -0.034229 -0.579861
0.194147 -0.36822 0.040715 0.932171 -0.062014 0.356499
0.016882 0.793066 0.08091 -0.212069 0.289179 0.930948
-0.128129 -0.220253 -0.015818 -0.921126 -0.063371 -0.383478
0.037589 0.808129 0.079033 0.035603 0.353196 0.93207
0.07546 -0.673398 -0.061031 -0.788354 -0.084583 -0.609132
0.151475 -0.862603 -0.002115 0.333522 -0.938173 -0.075243
0.199255 -0.458254 -0.002434 0.993346 -0.02228 0.106129
0.017252 -0.514107 -0.03952 0.889008 0.04276 -0.453678
0.145065 -0.445426 -0.098892 0.394769 0.176736 -0.90114
-0.105871 -0.837664 0.053397 -0.716424 0.694813 0.060034
-0.109925 0.280246 0.020307 -0.978569 -0.010173 0.201764
-0.06392 -0.28129 -0.090249 -0.277349 -0.057593 -0.95628
-0.570223 0.02744 0.030441 -0.10945 -0.977029 0.08753
0.111685 0.432979 0.083875 0.228353 0.213859 0.948929
-0.121827 -0.296407 0.079245 -0.945398 -0.064406 0.314233
-0.146881 0.498084 -0.090668 -0.458234 0.293504 -0.838246
0.096066 0.318567 0.103772 0.259931 0.083759 0.959441
0.20129 -0.379533 -0.034815 0.92313 0.005816 -0.383509
-0.028666 0.731211 -0.053554 -0.887977 -0.342701 -0.284949
0.425421 0.235279 -0.113189 0.295052 -0.453369 -0.838229
-0.028271 0.600692 -0.048659 -0.692152 0.714914 -0.054774
-0.012342 0.768482 0.061094 -0.842162 -0.083466 0.526843
0.054094 0.304197 -0.133909 -0.378483 -0.033747 -0.924752
0.019102 -0.759073 -0.049424 0.990312 -0.111461 0.059362
-0.125581 -0.3187 -0.024361 -0.952224 0.017703 -0.296628
-0.103238 -0.245132 -0.059397 -0.796345 -0.045891 -0.601148
-0.186855 0.366689 0.002419 0.496774 -0.677052 0.541861
-0.287759 0.361214 -0.083605 -0.645439 0.424343 -0.630854
-0.128791 -0.395864 0.039032 -0.969619 0.136205 0.202148
-0.024593 0.730829 0.044973 -0.911815 -0.071409 0.387212
0.173154 -0.860074 0.048149 0.78374 -0.531877 -0.104331
0.044266 -0.254516 0.039724 -0.961162 -0.034837 0.259501
-0.043085 -0.322927 -0.089087 0.159308 -0.069086 -0.979249
-0.012373 -0.726719 0.014343 0.640514 -0.259426 0.720793
0.027347 -0.309864 0.034036 0.991784 -0.029897 0.121055
-0.12833 0.56014 -0.034207 -0.438849 0.865358 -0.221578
-0.0064 -0.755172 -0.012091 0.462148 -0.382003 0.783915
0.184252 0.020218 0.083372 0.758351 0.152921 0.630328
-0.02475 -0.03054 0.132763 -0.047268 0.149122 0.986112
-0.12199 -0.498038 -0.061312 -0.79812 0.076591 -0.597589
-0.128345 -0.316791 1.5e-05 -0.999818 -0.008581 -0.0164
0.121553 -0.468095 -0.106037 -0.04662 0.08272 -0.993011
-0.070602 -0.197831 -0.090033 -0.376963 -0.057039 -0.923347
-0.096305 -0.285492 0.106765 -0.258062 -0.055118 0.957617
0.063058 -0.088385 0.097701 0.116774 -0.802921 0.576963
0.072706 -0.173637 0.084994 -0.535603 -0.043395 0.843262
-0.287158 0.380504 -0.016311 -0.923564 0.235228 0.244274
-0.000986 -0.188938 -0.070556 0.643754 0.01349 -0.764981
-0.111164 -0.644922 0.029092 -0.858874 -0.06878 0.506864
0.123054 -0.471185 0.052891 -0.576481 -0.101452 0.810695
0.032493 -0.140125 0.069304 0.810922 -0.390334 0.434915
0.252127 0.518419 -0.025564 0.686223 0.607458 0.399642
-0.040223 -0.547099 -0.099245 0.319658 0.006087 -0.947188
0.140594 0.008446 -0.133009 0.619576 0.129804 -0.772863
0.045035 -0.217176 0.049761 -0.938892 -0.082927 0.316654
-0.065847 -0.331924 -0.086265 -0.292088 -0.045089 -0.955213
0.187962 -0.672028 -0.050694 0.705209 -0.296777 -0.642163
-0.485552 0.124429 -0.001077 0.194122 -0.781451 -0.591205
-0.453546 0.203278 0.004606 -0.708541 0.578565 0.393964
-0.105193 0.393057 -0.105655 -0.545821 -0.235332 -0.803271
0.085185 0.557559 0.019158 0.008268 0.791734 0.593063
-0.00154 0.284534 -0.130479 0.130008 -0.005318 -0.99099
0.082746 0.764849 0.056356 0.664841 -0.054267 0.741421
0.203628 0.042296 0.037018 0.954503 0.188506 0.229068
-0.112748 -0.189453 0.100252 -0.695914 0.003999 0.717704
-0.185477 0.378386 0.01347 0.423996 -0.577922 0.696525
-0.00944 0.547742 -0.113181 -0.021849 0.363119 -0.9301
-0.031347 0.791479 -0.079991 -0.88199 0.01861 -0.469289
-0.140524 0.546538 -0.054065 -0.504788 0.726094 -0.466403
0.027107 -0.13343 -0.051998 -0.938326 -0.25484 -0.232969
0.032002 0.658853 0.077038 -0.008532 -0.981867 0.186135
0.105996 -0.05979 0.120997 0.10744 -0.174583 0.975235
0.196343 -0.196297 -0.055978 0.771711 -0.028374 -0.632629
0.133802 0.251732 0.089668 0.663747 0.041743 0.746169
0.521165 0.148922 -0.022663 -0.709848 -0.699269 -0.076934
0.199045 -0.601041 -0.046481 0.988073 -0.023249 -0.150782
0.159092 -0.807083 0.03162 0.813639 0.278336 0.478296
0.179312 0.073669 -0.071885 0.817567 0.193455 -0.542072
-0.03652 0.520976 0.057421 -0.169213 0.536322 0.826282
-0.340243 0.219855 -0.037717 0.616023 -0.776089 -0.07983
-0.04479 -0.534633 0.051493 0.375836 -0.188546 0.906793
0.015031 -0.544859 -0.045663 0.841722 0.044196 -0.537918
0.09563 -0.675094 -0.083068 -0.614437 0.035806 -0.787958
-0.112555 -0.849428 0.054479 -0.947085 -0.084707 0.015221
0.077275 0.72548 0.06814 0.686439 0.10071 0.719715
0.135809 -0.628873 -0.096582 0.182527 -0.114371 -0.973458
0.075784 -0.399309 0.038067 -0.676644 -0.325134 0.660352
0.119682 0.019611 -0.145243 0.451197 0.009135 -0.891809
0.641578 0.029044 0.01345 0.568803 -0.563762 -0.287157
0.199549 -0.347318 -0.030118 0.87542 0.164547 -0.45401
0.267479 0.457201 -0.009758 0.447624 -0.031118 0.881327
0.387123 0.336719 -0.071889 0.577487 0.697333 0.415215
-0.018998 -0.053436 0.131105 0.030957 -0.141156 0.987284
0.027124 0.549675 0.031479 0.038169 0.572107 0.81875
0.044299 -0.383226 -0.040963 -0.942942 -0.002223 -0.326417
-0.172639 0.363714 -0.033828 0.672815 -0.737078 -0.029601
-0.109462 0.401751 -0.10527 -0.578615 -0.258456 -0.773472
-0.134589 -0.005614 0.050213 -0.941464 -0.107863 0.27609
-0.124232 -0.468 -0.053651 -0.797045 0.102933 -0.594871
0.203171 -0.220299 -0.044048 0.922629 -0.072918 -0.375498
-0.237841 0.327192 -0.002368 0.513569 -0.611059 0.59872
0.00198 0.485153 0.079244 0.003706 0.512476 0.857776
-0.14077 -0.089887 0.041763 -0.951586 0.036342 0.304441
0.470558 0.260685 -0.058793 0.718237 0.694692 0.034381
0.078452 -0.336626 -0.087852 -0.655267 -0.03523 -0.754545
0.018569 0.761411 0.077193 -0.745513 -0.059942 0.624469
0.105333 -0.311718 0.079208 -0.238194 -0.119987 0.959782
0.042202 0.05564 -0.152389 -0.13606 0.21408 -0.967259
0.106899 0.183601 -0.111548 0.364498 -0.100298 -0.921084
-0.12476 -0.140589 0.08354 -0.83228 0.08102 0.548192
-0.112314 0.0469 0.088889 -0.769355 0.090647 0.606957
-0.048111 0.589831 -0.046369 -0.172487 0.980983 0.004007
0.089794 -0.52744 0.027876 -0.548479 0.039895 0.834022
-0.527718 0.103904 0.028431 -0.761766 0.290066 -0.481923
0.213857 -0.116295 -0.012751 0.990043 0.001064 -0.131225
0.135124 -0.706113 -0.093094 0.429323 0.029471 -0.902009
0.020803 -0.622355 -0.048629 0.749652 0.163068 -0.637514
0.086801 -0.813679 -0.09428 -0.832153 0.116223 -0.539002
0.061963 -0.558327 -0.062062 -0.726608 -0.061855 -0.682839
0.008736 0.284962 -0.12908 0.128079 0.000346 -0.991667
0.038758 -0.024128 -0.142171 -0.241642 -0.388063 -0.888794
-0.075929 -0.46965 0.078582 0.268718 -0.150406 0.950054
-0.126212 0.447481 0.061382 -0.06934 -0.017847 0.994713
0.55083 0.105591 0.011829 -0.927944 -0.364771 0.052071
0.070667 -0.284776 -0.083059 -0.680134 0.013038 -0.731989
0.039906 -0.367067 -0.008571 -0.956959 -0.161783 0.240432
-0.106507 -0.260413 -0.053629 -0.822324 -0.025956 -0.568357
0.209265 0.416639 -0.020294 0.39193 -0.851212 0.186373
0.057731 -0.6768 -0.035615 -0.856951 -0.124702 -0.500058
0.436656 0.233431 -0.107602 0.499657 -0.353594 -0.784567
0.086615 -0.755574 0.015937 -0.038191 -0.769548 0.635685
-0.307238 0.302224 -0.096682 -0.053869 -0.068308 -0.995728
0.047869 0.340072 0.113795 0.149905 0.169299 0.973555
0.11058 -0.01213 0.124441 0.391953 -0.147339 0.888649
-0.026382 0.842341 -0.03969 -0.60562 0.75986 -0.231945
0.635555 0.053351 0.023843 0.894093 0.444159 -0.0496
-0.029789 0.715643 -0.013729 -0.946934 -0.301646 -0.079186
0.584866 0.047819 0.006952 -0.847747 -0.529603 -0.000922
0.175529 -0.798193 -0.014923 0.920643 -0.338717 0.180614
0.01457 -0.184897 -0.051098 0.831764 0.066583 -0.550993
0.065324 -0.326154 0.05721 -0.687767 -0.223546 0.686556
0.489142 0.227486 -0.072314 0.292081 -0.116691 -0.929969
-0.391 0.270955 -0.075862 -0.625526 0.365193 -0.67444
-0.012416 0.027244 -0.148147 -0.240081 -0.082947 -0.952604
-0.357128 0.315222 -0.055675 -0.664797 0.739527 -0.077267
0.145715 0.255637 -0.099428 0.803044 -0.113416 -0.584272
-0.105778 -0.541943 -0.086259 -0.625979 0.110131 -0.771327
0.068645 0.452087 0.085733 0.137589 0.335451 0.931542
0.242625 0.469031 -0.129506 0.213483 0.313035 -0.924994
0.087664 -0.298947 0.075091 -0.357612 -0.199457 0.912162
-0.008761 -0.279417 -0.073546 0.688397 -0.117905 -0.71521
0.101006 0.402463 -0.145917 0.006957 0.001789 -0.999736
-0.037915 -0.856081 -0.042404 0.544893 -0.833058 0.061257
-0.081513 0.270991 0.078218 -0.60271 0.051806 0.79617
0.149867 -0.108008 -0.11049 0.579515 -0.168241 -0.795153
0.15917 -0.566656 0.042942 0.108153 -0.155259 0.978467
-0.117461 -0.762632 -0.074211 -0.901536 -0.031759 -0.424597
-0.129185 0.074394 -0.007432 -0.981981 0.157894 -0.022854
-0.308936 0.31293 0.004815 -0.159199 0.089039 0.982931
0.07409 -0.785064 -0.059495 -0.874488 0.159725 -0.457028
-0.04201 -0.306659 0.099703 0.276382 -0.115386 0.952772
0.174672 0.32012 0.037912 0.92706 0.01982 0.372144
0.10722 -0.779027 0.039738 -0.009384 0.787704 0.608282
-0.150673 0.49749 0.05383 -0.249144 0.315936 0.914747
0.051516 0.063879 0.131446 0.135775 0.112956 0.982575
-0.272432 0.290127 -0.081576 0.573435 -0.522219 -0.629552
0.072342 0.321562 -0.141631 -0.302326 -0.061302 -0.94739
0.154978 0.540157 0.011302 0.146255 0.687067 0.710759
0.122569 0.071655 -0.132947 0.549369 0.244976 -0.798572
-0.471826 0.145477 -0.03152 0.251221 -0.859522 -0.441959
0.18094 -0.525429 0.043449 0.74661 -0.143941 0.645559
-0.080502 -0.318768 0.105714 0.034725 -0.065696 0.996202
-0.125445 -0.020156 -0.062302 -0.871919 -0.003771 -0.488872
-0.004856 -0.667683 -0.077303 0.520397 0.160328 -0.8376
0.075926 -0.691517 -0.059707 -0.843758 -0.08159 -0.529821
0.142687 -0.466287 -0.102998 0.232319 0.102969 -0.964731
-0.083001 -0.820608 0.067298 -0.381827 0.867806 0.29706
-0.031527 -0.04812 -0.126918 -0.047883 -0.446136 -0.89324
0.016402 -0.513443 0.014157 0.782296 -0.140618 0.602728
0.611077 0.093885 0.025558 0.771675 0.633424 -0.055648
-0.106843 0.18163 -0.050819 -0.847322 0.124383 -0.515719
0.474308 0.186637 -0.049622 -0.512769 -0.645085 -0.499563
0.175627 0.119995 -0.056656 0.848178 0.245077 -0.467917
-0.019907 -0.615009 -0.086423 0.666959 0.00679 -0.744006
-0.095543 -0.512036 0.064829 -0.834116 -0.101704 0.535647
-0.066081 0.286203 0.088237 -0.395413 -0.000926 0.908206
0.075696 0.29848 0.113237 0.367022 0.142473 0.918512
0.18015 -0.551679 0.038755 0.634311 -0.179662 0.747303
0.010078 0.100185 0.135845 -0.075222 0.129221 0.986801
0.14161 0.581883 -0.052926 0.244742 0.965147 0.027406
0.197564 0.073538 -0.034445 0.953585 0.105205 -0.268283
-0.191922 0.481554 0.038274 -0.661489 0.212947 0.718635
-0.032337 0.400451 0.1039 -0.148876 0.162004 0.973258
0.361309 0.265425 -0.089074 -0.772017 -0.627337 -0.069713
0.188912 -0.016432 -0.0722 0.872677 0.052108 -0.481691
0.171517 -0.103761 -0.090299 0.770276 -0.099693 -0.62977
-0.013208 -0.488054 -0.078804 0.694328 0.096355 -0.713155
0.057038 0.006475 0.141855 0.138682 0.041505 0.977808
0.02382 -0.34703 0.037545 0.890521 -0.21137 0.391947
0.544157 0.122126 0.010657 -0.85909 -0.498613 0.044842
-0.050974 0.49318 -0.126885 -0.102369 0.294948 -0.944176
0.142191 -0.38346 -0.090343 0.558079 0.163116 -0.813554
0.266551 0.489646 -0.018005 0.648029 0.456366 0.606604
-0.265835 0.288139 -0.014088 0.629138 -0.627734 0.454584
0.141777 0.252945 0.08161 0.727554 0.052697 0.683899
0.475573 0.224759 -0.00637 -0.294084 0.316719 0.874571
0.114992 0.300287 -0.135166 0.439149 -0.051813 -0.893695
-0.137854 -0.088038 0.051477 -0.969648 0.013581 0.242322
0.437902 0.284444 -0.109982 0.673371 0.4103 -0.61376
0.046702 -0.546925 -0.014848 -0.825166 -0.010324 0.558601
0.007845 0.82041 0.063834 -0.495281 0.464799 0.733628
0.013479 0.360454 -0.127295 0.039585 -0.036876 -0.998417
0.543105 0.190388 -0.002226 0.980009 0.098194 0.144378
0.072955 0.855932 -0.03671 0.599034 0.776913 -0.188928
-0.239956 0.32137 -0.071245 0.638916 -0.586645 -0.495571
0.145579 0.238012 0.078802 0.737505 0.054563 0.673049
-0.122451 0.002355 0.083806 -0.799879 -0.144246 0.558149
-0.095598 -0.742428 -0.107588 -0.749116 0.090388 -0.655263
-0.034395 -0.791714 0.046603 0.540915 0.640116 0.544509
0.43676 0.284049 -0.049286 0.283413 0.718777 0.604858
0.175921 0.290305 -0.04856 0.934587 -0.169576 -0.311848
-0.049019 -0.814501 -0.147735 -0.177363 -0.087138 -0.976706
-0.019084 -0.101383 -0.102783 0.378909 -0.323663 -0.862528
-0.121754 0.539541 -0.076446 -0.360412 0.680278 -0.637725
-0.084916 -0.47063 -0.089791 -0.451397 0.109457 -0.885011
0.156255 -0.238813 -0.082345 0.499987 -0.129494 -0.856265
-0.114504 0.232086 0.0286 -0.966649 0.217451 0.131086
0.135698 0.18714 0.093057 0.680129 0.031011 0.732411
0.018994 -0.728666 -0.068076 0.930287 0.022187 -0.361007
-0.048237 0.286912 0.099234 -0.579894 0.08192 0.810097
0.111043 -0.827026 0.142839 -0.330301 0.927126 0.089965
0.097863 -0.848545 0.151625 -0.883066 0.28386 0.368931
0.186537 0.087521 0.054409 0.897378 0.154813 0.410269
-0.094433 -0.457064 -0.08168 -0.559128 0.148124 -0.815623
-0.51052 0.130474 0.078536 -0.769021 0.597213 0.176677
-0.013788 -0.249704 -0.080933 0.571188 -0.026024 -0.820194
0.187837 -0.217173 -0.06253 0.630232 -0.036345 -0.774672
0.079931 0.648295 0.006658 0.894245 -0.146104 0.412313
0.309951 0.370415 -0.141259 -0.044874 -0.246393 -0.967444
-0.136925 -0.419414 -0.006856 -0.987896 0.081354 -0.125016
0.08777 -0.072949 -0.134172 -0.120552 -0.382323 -0.915518
0.425579 0.307338 -0.085465 0.587616 0.808551 0.016499
0.025114 0.733937 -0.110579 -0.100176 -0.48305 -0.868564
-0.114857 0.304211 -0.000202 -0.974797 -0.15642 0.157713
-0.081847 0.074234 0.099494 -0.509406 0.34991 0.780251
0.137807 -0.604553 -0.099488 0.191907 -0.153963 -0.965926
0.01902 0.814483 0.07285 -0.33062 0.452973 0.823287
0.18822 0.36221 -0.083956 0.746044 -0.473963 -0.466934
-0.100955 0.018108 -0.102046 -0.741328 0.054477 -0.667145
0.167695 -0.220536 0.086047 0.365183 -0.255331 0.893344
-0.04058 -0.095457 -0.110005 0.077884 -0.235504 -0.967694
-0.027347 0.34653 0.10516 -0.159092 -0.033276 0.983591
-0.043885 -0.408347 0.084322 0.256791 -0.198606 0.945683
0.131677 -0.447251 0.062222 -0.574147 -0.212591 0.788787
-0.059041 -0.863991 0.103679 0.001829 -0.999738 0.020647
-0.50961 0.085449 0.042071 0.590014 -0.748159 -0.257844
-0.018474 0.616563 -0.039813 -0.867667 0.427805 -0.240172
-0.008781 -0.436453 -0.066993 0.736597 0.046804 -0.674584
0.151691 0.566149 -0.01767 0.210904 0.813268 0.539008
-0.07581 -0.829677 0.1285 -0.252301 0.949796 0.178229
-0.278493 0.375059 -0.086329 -0.635907 0.290146 -0.713749
-0.214636 0.368734 0.01449 0.171021 -0.479707 0.859591
0.049894 0.433883 0.091636 0.072599 0.241967 0.966076
-0.063491 -0.681987 0.022232 0.239718 -0.359928 0.90134
0.182976 0.219729 -0.00496 0.999665 0.02069 -0.009118
-0.093461 0.566411 -0.060579 -0.409667 0.822197 -0.3934
-0.084405 -0.836042 0.141662 -0.461568 0.804851 0.369895
0.161822 0.515257 0.029683 0.293104 0.573755 0.748189
0.19145 -0.648347 0.007659 0.909848 -0.10478 0.401258
0.012961 -0.62647 -0.057201 0.684031 0.120311 -0.719378
0.069211 0.730348 0.07372 0.518027 0.193166 0.8289
-0.051627 0.150824 0.10673 -0.548336 0.100162 0.8299
-0.144128 -0.085301 0.002801 -0.999068 0.010884 -0.036018
-0.082991 -0.692112 -0.108076 -0.49843 0.15425 -0.850726
0.104156 -0.597945 0.030245 -0.197951 -0.040949 0.974891
0.224089 0.430395 0.00741 0.308304 -0.638151 0.700652
-0.564747 0.034226 0.021025 0.843236 -0.533688 0.006295
0.437698 0.201197 -0.089517 -0.449096 -0.880301 -0.015118
-0.038207 0.591487 -0.060476 -0.435217 0.873933 -0.17235
-0.154484 0.386235 -0.006643 0.636002 -0.693045 0.335017
0.169822 -0.818603 -0.044462 0.780021 -0.625429 0.00735
0.183201 -0.463862 0.054382 0.877853 -0.098759 0.468345
0.099037 -0.510139 0.032357 -0.52435 0.012772 0.85124
0.039686 0.074598 -0.146886 -0.185401 0.27312 -0.942724
0.190384 0.540083 0.00034 0.273573 0.642051 0.715042
0.180779 0.329196 -0.066957 0.830903 -0.354141 -0.427145
-0.108954 -0.63554 0.033472 -0.837982 -0.056941 0.542433
-0.100648 -0.21593 -0.065169 -0.7626 -0.039639 -0.645332
0.083712 -0.857953 0.114901 -0.947823 -0.134069 0.149151
-0.020552 -0.323021 -0.077447 0.683037 -0.09567 -0.724016
0.054548 0.675287 -0.0667 0.39356 -0.316966 -0.859726
-0.118119 0.343126 0.006969 -0.976638 -0.142031 0.16103
-0.109907 -0.167922 0.102944 -0.670803 -0.018929 0.741247
0.587409 0.124624 0.010492 0.771041 0.584533 -0.176825
0.047081 0.705001 0.089821 0.440633 -0.090535 0.890292
0.030646 -0.239813 0.026597 0.953786 -0.021688 0.292954
0.083789 -0.047885 -0.143725 -0.084063 -0.368315 -0.92496
-0.142431 -0.090566 -0.012523 -0.970219 0.000927 -0.232398
-0.119529 0.063588 0.071136 -0.939422 0.216777 0.258414
0.01373 -0.788937 -0.046789 0.894102 -0.37085 0.250343
0.125946 -0.835294 -0.117909 0.188236 0.013325 -0.980931
-0.079648 -0.7533 0.023949 -0.338876 -0.027832 0.863058
0.128719 -0.824005 0.106613 0.108549 0.986225 0.102583
0.197154 -0.49068 -0.055479 0.924778 0.01147 -0.372552
0.20561 -0.395258 -0.000188 0.993515 -0.02242 0.10818
0.011065 -0.328863 0.067675 0.753291 -0.218505 0.619837
0.185822 -0.736016 -0.004812 0.091381 0.494522 0.850316
0.016111 -0.044394 -0.128428 0.050758 -0.549419 -0.832668
0.152669 0.096149 0.083251 0.388363 0.224604 0.881435
-0.122412 -0.613405 0.005634 -0.915495 0.052415 0.396466
-0.002596 -0.429792 -0.059964 0.739832 0.019551 -0.672458
0.350111 0.361402 -0.058309 0.594179 0.543322 0.587732
0.176085 0.310897 0.033129 0.960395 0.001234 0.277836
-0.380185 0.19391 -0.000969 0.553271 -0.803237 0.200801
0.205549 -0.32805 0.013278 0.993125 -0.014639 0.104464
0.134246 0.48741 -0.141769 0.139551 0.304303 -0.939756
0.148986 0.249062 -0.09306 0.792002 -0.140055 -0.593463
-0.318238 0.29603 0.004994 -0.152892 0.072565 0.984939
-0.033834 -0.467174 0.06692 0.262333 -0.276344 0.924188
-0.014315 0.731509 -0.086149 -0.695766 -0.477377 -0.535962
0.082635 -0.548157 -0.08462 -0.699424 -0.087576 -0.709287
0.095767 -0.854338 -0.009518 -0.702239 -0.708137 0.021974
0.109172 -0.184619 0.097849 -0.103167 -0.142933 0.983314
-0.12588 0.089613 -0.032212 -0.955287 0.11537 -0.26524
-0.009526 -0.748303 -0.005388 0.282338 -0.748296 0.597813
0.076307 -0.481194 -0.082507 -0.702687 0.014661 -0.711297
0.343719 0.371656 -0.132564 0.56826 0.289167 -0.769402
0.024846 -0.326551 0.042092 0.932621 -0.11725 0.319257
0.345436 0.396234 -0.070607 0.740913 -0.583703 0.233695
-0.046154 0.257675 0.103434 -0.613832 0.046559 0.786473
0.092877 -0.052923 -0.142126 -0.01448 -0.363915 -0.930668
-0.072278 0.113535 0.095612 -0.561481 0.237384 0.78331
0.048487 -0.158121 0.064361 -0.806904 -0.024298 0.589601
-0.319942 0.23147 -0.033625 0.611022 -0.790413 -0.024026
-0.014767 -0.822189 0.028748 0.77352 -0.555009 0.231836
-0.10278 0.444747 0.064295 -0.324139 0.018078 0.943056
0.019928 -0.196613 0.071972 0.964294 -0.016099 0.263793
-0.451061 0.143949 -0.015295 0.448509 -0.832166 -0.298376
0.103809 -0.329101 -0.100169 -0.089361 0.018237 -0.989263
0.584996 0.073816 0.050368 -0.060271 -0.506625 0.814157
0.146644 -0.644095 -0.090638 0.425144 -0.144569 -0.893127
0.288704 0.422766 -0.016046 0.447279 0.204741 0.869553
-0.562534 0.052542 -0.004689 -0.413731 0.454019 -0.595604
-0.243334 0.30949 -0.017269 0.714836 -0.641908 0.273124
0.080914 0.675803 0.024078 0.876816 -0.409509 0.223726
-0.072078 -0.450453 -0.091647 -0.253483 0.224889 -0.938698
-0.184813 0.427197 0.035727 0.172443 -0.417968 0.889311
-0.11125 0.135451 0.056128 -0.808901 0.076129 0.581267
0.142169 -0.864979 -0.004666 0.186641 -0.980038 -0.041909
0.214192 -0.08664 0.018122 0.996475 0.008623 0.074193
-3.2e-05 0.253928 0.122338 -0.372984 0.064475 0.925589
-0.092067 -0.859822 0.135281 -0.441614 -0.848325 0.246191
-0.107751 -0.472021 -0.073407 -0.684144 0.120673 -0.719249
0.142192 -0.826646 -0.110726 0.453033 -0.14831 -0.874589
