-0.293004 0.261409 -0.011478 0.78655 -0.443341 0.407107
-0.106773 0.538742 -0.08578 -0.414121 0.605084 -0.67976
0.089189 0.192241 -0.118931 0.197133 -0.329391 -0.921072
0.054803 -0.478841 -5.4e-05 -0.664656 0.00107 0.740114
0.175159 -0.116485 0.093211 0.691564 -0.004602 0.722166
-0.050004 0.506039 -0.122523 -0.118966 0.294962 -0.947674
0.191448 0.168032 -0.001873 0.94846 0.287756 -0.03678
0.059583 -0.769496 0.009583 -0.991814 0.04483 0.108627
0.410114 0.320385 -0.090164 0.68965 0.722757 -0.002536
0.026229 0.194398 -0.114591 0.197735 -0.269809 -0.936679
-0.289517 0.318833 0.007771 -0.123821 -0.073604 0.98804
0.020329 0.751964 0.083784 -0.870981 0.211095 0.433218
0.061011 -0.500214 -0.066655 -0.738622 -0.025677 -0.673473
0.615818 0.065699 0.013653 -0.425629 -0.559744 -0.637057
0.2047 -0.235566 0.02316 0.99433 -0.025685 0.101768
0.125232 0.238105 0.096906 0.54539 0.042072 0.837007
-0.113109 -0.792955 -0.080377 -0.93842 -0.102791 -0.318291
0.198717 -0.604794 -0.003714 0.989262 -0.062316 0.127619
0.634708 0.044059 0.097189 0.930293 0.250762 0.229614
-0.137081 -0.203662 0.01124 -0.990289 -0.087854 -0.102037
0.010797 0.516639 0.062097 0.140315 0.533923 0.833173
0.192373 -0.503541 -0.063563 0.852276 0.013753 -0.522716
-0.095592 -0.622832 -0.099103 -0.464127 0.100198 -0.879558
0.163027 -0.735348 -0.070055 0.799676 -0.090652 -0.592005
0.047198 -0.362258 0.022468 -0.709576 -0.342365 0.594311
0.197032 -0.403483 -0.043866 0.924181 -0.038703 -0.376184
-0.126719 -0.180172 -0.029178 -0.871932 -0.140024 -0.468443
-0.068213 0.189915 0.095443 -0.478932 0.033481 0.876697
-0.045966 -0.357258 0.095533 0.258557 -0.184498 0.947444
0.109989 0.244826 0.104716 0.390413 0.057794 0.917204
0.12099 0.29467 0.096273 0.507053 0.068975 0.856449
-0.079726 -0.860243 -0.115996 -0.315685 -0.890513 -0.270139
0.105044 -0.861117 0.164565 -0.343805 -0.891392 0.259008
0.170665 0.234577 -0.053392 0.883628 0.020151 -0.467683
-0.3429 0.305917 -0.004149 -0.356033 0.392661 0.846851
0.016753 -0.320646 0.063125 0.837576 -0.149904 0.520339
0.16096 0.20308 -0.069365 0.775317 0.017761 -0.630875
-0.136793 0.013114 0.052071 -0.962641 0.080172 0.240379
-0.045628 0.375728 -0.12718 -0.229507 -0.03646 -0.971458
0.2759 0.364306 -0.029093 -0.339824 -0.541645 0.755048
-0.018028 0.071468 -0.137849 -0.184916 0.229166 -0.955006
0.166698 -0.847704 0.014223 0.972463 0.097135 -0.127874
0.146332 0.311263 0.071235 0.774297 0.047137 0.630873
0.189073 -0.711228 -0.040745 0.71272 -0.039703 -0.698994
-0.12583 -0.100074 -0.049638 -0.809608 -0.073977 -0.581604
-0.084567 0.238637 0.078159 -0.628377 0.079185 0.773443
0.141553 -0.172149 0.099214 0.161685 -0.276968 0.946305
-0.129783 0.068623 0.020029 -0.948415 0.287257 0.096149
0.475896 0.24992 -0.026345 0.323726 0.819847 0.456384
-0.062292 0.554207 0.022294 -0.187543 0.743349 0.641962
0.484948 0.227044 -0.006231 0.289627 0.096408 0.939027
0.567673 0.088194 -0.018985 0.074606 -0.212035 -0.917504
0.171983 -0.674413 -0.066377 0.683244 -0.20884 -0.699012
0.017536 0.319208 0.119477 -0.158142 0.170631 0.970088
-0.128669 -0.458073 0.032737 -0.89509 -0.177924 0.407172
0.334873 0.371815 -0.137362 0.372272 0.069737 -0.918969
-0.002687 0.852489 0.030075 -0.540416 0.725648 0.424834
0.110025 -0.379826 0.066569 -0.418907 -0.203996 0.884315
-0.321922 0.330282 -0.004748 -0.456668 0.498581 0.730954
-0.105925 -0.571009 0.03937 -0.911943 -0.00551 0.409529
-0.021611 0.354664 0.106063 -0.185916 0.00412 0.979124
0.142022 0.20518 0.085809 0.717351 0.05985 0.694052
-0.104681 0.352124 -0.094134 -0.653585 -0.197977 -0.730154
0.043454 -0.426137 -0.030107 -0.998768 -0.010824 -0.037042
-0.105314 0.497752 -0.110373 -0.404849 0.28683 -0.86573
-0.046997 -0.824718 0.099003 0.182404 0.961021 0.204029
-0.011174 0.658727 -0.028251 -0.975772 -0.028039 -0.189541
-0.074571 -0.638228 -0.10647 -0.083825 0.079209 -0.991648
0.12306 -0.074644 -0.13093 0.242856 -0.304715 -0.919852
0.013318 -0.764041 -0.081515 0.838242 0.113425 -0.531397
0.042206 -0.096467 0.099661 0.466051 -0.550318 0.690171
-0.052626 0.175666 -0.097265 -0.488494 -0.196185 -0.844687
0.10722 -0.779027 0.039738 -0.009384 0.787704 0.608282
0.12849 -0.031721 0.117214 0.410682 -0.057293 0.909957
-0.118083 -0.790364 -0.066721 -0.957647 -0.162929 -0.215811
0.086956 0.828764 0.021633 0.870216 0.312971 0.365459
0.07546 -0.756152 0.01675 0.112883 -0.638159 0.744338
-0.012649 0.473233 0.084321 -0.061815 0.454527 0.886606
-0.134581 -0.411583 -0.014745 -0.958384 0.083125 -0.269854
0.042494 0.335652 -0.129289 -0.328758 -0.031817 -0.939264
0.025412 -0.379704 0.015826 0.980915 -0.08308 0.171706
0.147389 -0.289858 0.081465 0.136289 -0.068886 0.988069
0.191826 0.347222 -0.056361 0.911981 -0.337265 -0.219727
0.175234 -0.377251 0.069691 0.442097 -0.044337 0.887667
-0.113936 0.238052 0.019905 -0.974545 0.208326 0.070512
0.436316 0.221873 -0.035808 -0.657044 -0.372672 0.639169
0.198931 -0.449558 -0.041074 0.987534 0.033317 -0.138156
-0.215625 0.399706 0.031175 -0.155387 -0.323993 0.929235
0.095307 0.406777 0.092088 0.169443 0.210602 0.96227
0.077402 -0.2923 -0.088076 -0.581414 0.007526 -0.81337
0.186121 -0.385672 0.057898 0.840527 -0.029315 0.539688
0.031562 0.038652 -0.155154 -0.192364 0.226279 -0.954612
-0.002644 0.008992 0.141674 -0.157718 0.201752 0.965366
0.360498 0.320603 -0.044583 0.217082 0.277859 0.934805
0.098433 0.766183 0.01924 0.982829 0.014781 0.180769
0.182253 -0.715639 -0.007984 0.061987 -0.344914 0.917946
-0.12815 0.504678 -0.097488 -0.383207 0.320884 -0.865329
-0.251374 0.377532 0.019359 -0.13665 -0.007563 0.986581
-0.119788 -0.056996 -0.0671 -0.845633 -0.119114 -0.520121
0.079744 0.346456 -0.144008 -0.159922 -0.023324 -0.985883
0.135014 -0.389691 -0.096103 0.464495 0.127619 -0.874584
0.165297 -0.501067 -0.094867 0.605283 -0.010402 -0.793785
-0.127766 0.002296 -0.055295 -0.925333 0.073116 -0.371174
0.535503 0.168283 0.026985 -0.352675 0.373077 0.835227
0.125886 0.283812 -0.12724 0.600384 -0.048577 -0.798089
0.58827 0.050152 -0.014242 0.818087 -0.476467 -0.127463
-0.001889 -0.403626 0.063943 0.730571 -0.208335 0.649707
0.107513 -0.213166 -0.101038 -0.199472 -0.113371 -0.970912
0.187921 0.532713 0.007236 0.268589 0.604161 0.750091
0.235296 0.378163 -0.082703 -0.709171 -0.704961 -0.005146
-0.115849 -0.22827 0.095761 -0.691455 -0.043335 0.721078
0.167902 -0.073773 0.096619 0.613671 0.053372 0.786596
-3.2e-05 0.253928 0.122338 -0.372984 0.064475 0.925589
-0.046075 -0.398792 0.086925 0.218673 -0.192813 0.956481
0.023432 0.294748 0.122819 -0.030689 0.106499 0.993712
-0.458323 0.201496 -0.017727 -0.846974 0.523435 -0.055063
0.295698 0.412419 -0.141884 0.077168 0.296363 -0.948076
0.203004 -0.232705 -0.039839 0.939616 -0.145597 -0.305115
0.283639 0.412945 -0.141993 -0.023045 0.142629 -0.986902
0.405104 0.323883 -0.102248 0.678731 0.702698 -0.199578
-0.042553 -0.342133 -0.087635 0.218893 -0.071304 -0.967606
-0.441073 0.17274 0.032395 0.080043 0.668839 0.738668
0.050104 -0.199604 0.062587 -0.809571 -0.080517 0.581104
0.022951 -0.136187 -0.038151 0.178751 -0.458823 -0.754883
-0.139817 -0.138179 0.046157 -0.948586 -0.014275 0.315815
0.198593 0.377671 -0.051498 0.999519 -0.024141 0.012657
0.492362 0.171008 -0.029064 -0.629742 -0.775891 -0.034511
0.171591 -0.199145 -0.077074 0.627465 -0.099152 -0.771927
-0.022163 -0.329666 0.09126 0.392322 -0.113257 0.911933
0.074704 0.260865 0.118527 0.377189 0.057824 0.922099
0.176098 0.532903 0.011161 0.304529 0.602015 0.737063
-0.23486 0.346446 0.010076 0.377595 -0.401647 0.832377
0.154239 -0.551559 -0.099587 0.520317 -0.03835 -0.853035
0.005127 0.394141 0.104844 0.047245 0.145917 0.987541
-0.170059 0.533756 -0.042299 -0.616725 0.716057 -0.321157
0.059255 -0.768617 -0.002522 -0.999359 0.020194 -0.016476
-0.090479 -0.522342 -0.093483 -0.511948 0.109602 -0.851963
-0.129377 -0.618519 -0.046427 -0.999819 -0.017896 0.000207
0.070833 -0.320436 0.064505 -0.560834 -0.148194 0.813379
0.144672 0.172183 0.084872 0.710597 0.026712 0.703082
-0.118925 -0.775176 -0.023136 -0.971403 -0.061753 0.22558
-0.050577 -0.706358 0.014127 -0.285125 0.034803 0.953983
-0.068191 -0.462613 0.077734 0.307331 -0.231172 0.922807
-0.101282 -0.572504 0.049338 -0.827831 0.066628 0.555703
0.177618 -0.422026 0.06514 0.598114 -0.077749 0.792881
0.095304 -0.285488 -0.097245 -0.305751 0.030783 -0.949416
-0.07868 0.045126 -0.118648 -0.667657 0.258699 -0.697989
-0.028287 -0.240262 -0.088879 0.340283 0.020918 -0.937277
0.321333 0.42601 -0.049859 0.736212 0.308947 0.596732
0.046739 -0.431329 -0.00753 -0.846098 -0.115582 0.510526
0.081737 0.637997 -0.002887 0.963116 -0.061233 0.251355
0.038216 -0.0723 -0.116968 -0.50256 -0.472588 -0.723482
-0.427094 0.188313 0.021767 -0.048964 0.348303 0.934937
-0.023349 0.480951 -0.12905 0.055422 0.101997 -0.993148
0.059053 -0.593228 -0.054788 -0.734605 -0.031117 -0.677695
0.187434 0.390007 0.029843 0.88442 -0.22468 0.408772
-0.070842 0.180345 0.094454 -0.547396 0.017319 0.833755
0.100132 -0.644314 -0.087442 -0.538198 -0.081887 -0.836817
0.012668 0.30849 0.120262 -0.153877 0.127571 0.979251
0.198638 -0.498694 0.006348 0.962712 0.046804 0.264902
0.013399 -0.09608 -0.082364 0.26175 -0.640383 -0.69498
0.073706 -0.640044 -0.064652 -0.691903 -0.121221 -0.711552
-0.105176 -0.819001 -0.030977 -0.927078 -0.333421 0.081198
-0.045378 -0.26092 0.108506 0.204953 -0.220478 0.953472
0.145065 -0.445426 -0.098892 0.394769 0.176736 -0.90114
0.460508 0.275279 -0.073247 0.741908 0.667596 -0.022682
-0.058158 -0.068546 -0.115297 -0.222396 -0.274284 -0.935139
0.081138 0.659972 0.009357 0.941663 -0.17197 0.270227
-0.205864 0.419964 0.036648 0.015398 -0.252695 0.963404
-0.482691 0.15742 -0.034075 -0.619248 0.478346 -0.620963
0.193405 0.100556 -0.028572 0.96725 0.123332 -0.211587
0.006726 -0.480304 0.033734 0.731997 -0.165548 0.659033
0.043793 -0.200041 0.048998 -0.962952 -0.04894 0.248466
-0.003231 0.714614 -0.083027 -0.571666 -0.566372 -0.590175
-0.111511 0.293578 0.016515 -0.983271 -0.060217 0.170703
-0.078811 -0.459772 0.080478 0.139529 -0.123508 0.980881
-0.251212 0.358434 0.017543 0.042069 -0.195711 0.976304
0.226575 0.548853 -0.062138 0.512266 0.834032 -0.199829
0.037189 0.27067 -0.127282 -0.120172 -0.074542 -0.988995
0.196939 -0.313684 0.044573 0.90173 -0.065934 0.424236
0.198654 -0.166559 0.053486 0.959569 -0.086051 0.266567
0.176364 0.520858 -0.121851 0.181818 0.519594 -0.834713
0.046843 -0.187037 -0.065259 -0.846549 -0.168635 -0.504686
-0.120949 -0.652423 0.00206 -0.981094 -0.123951 0.145512
0.038578 0.129002 -0.128128 -0.110103 0.422944 -0.899375
0.333127 0.43073 -0.096482 0.779624 0.612678 -0.093731
-0.130106 -0.589841 -0.029676 -0.985969 -0.097114 0.129951
0.075666 -0.70655 -0.055844 -0.867971 -0.158385 -0.468702
0.352573 0.288952 -0.050783 -0.604875 -0.521805 0.600889
-0.371685 0.303057 -0.046736 -0.688433 0.725076 -0.011166
0.578673 0.105537 0.064803 -0.345843 0.149932 0.915355
0.194446 0.082248 -0.040921 0.911987 0.165679 -0.36799
-0.012167 -0.062734 0.129221 0.113991 -0.112975 0.987017
-0.127755 -0.481867 -0.050661 -0.839927 0.07326 -0.537341
0.109948 -0.239383 -0.099465 -0.139524 -0.040571 -0.987557
-0.136011 0.557766 -0.028627 -0.367304 0.917158 -0.115508
0.252516 0.495789 -0.108781 0.497444 0.570127 -0.653496
0.05626 -0.528784 -0.001125 -0.754401 -0.024182 0.654167
0.206694 0.020967 0.026686 0.997915 0.029561 0.054699
0.073249 -0.1265 0.085025 -0.628811 0.022646 0.777138
0.064734 -0.23407 0.072988 -0.686906 -0.129741 0.715019
0.186623 -0.474852 0.043623 0.915407 -0.075051 0.395123
0.195378 -0.011818 -0.056688 0.879557 0.071191 -0.469982
0.301568 0.326708 -0.114906 -0.604211 -0.641996 -0.462283
0.203989 -0.368591 0.009033 0.964311 -0.024656 0.256523
0.143417 0.142979 -0.094652 0.697764 0.145052 -0.701075
-0.469716 0.171634 -0.03503 -0.590824 0.464331 -0.657911
0.26962 0.495084 -0.026437 0.708788 0.507876 0.483736
-0.030793 -0.786419 0.037764 0.567686 0.519378 0.637624
0.096705 -0.302328 0.07799 -0.407453 -0.214829 0.886787
-0.108224 -0.050733 -0.084785 -0.779644 -0.148013 -0.60832
-0.056721 -0.459949 -0.094738 0.025057 0.118729 -0.991924
-0.132313 -0.403666 0.028714 -0.962525 0.138218 0.229997
-0.30324 0.296187 0.005969 0.03612 -0.039699 0.996081
0.159614 -0.383001 -0.07854 0.534716 0.197766 -0.821543
0.12131 0.106453 -0.122389 0.526677 0.341037 -0.776637
0.055194 0.765467 0.072178 0.538929 -0.240103 0.804362
0.056677 0.865179 -0.026219 0.307478 0.934109 -0.156242
0.550756 0.104709 -0.01484 -0.91187 -0.321983 -0.157234
0.108448 -0.778064 -0.10267 -0.472406 0.434108 -0.766485
-0.168353 0.368874 -0.042547 0.693527 -0.698453 -0.160248
-0.039403 0.540476 0.042999 -0.207686 0.622547 0.754301
0.202114 -0.286535 0.035636 0.955069 -0.052577 0.291264
-0.077162 -0.419521 -0.079437 -0.414438 0.271544 -0.866208
-0.024293 0.199209 -0.118179 -0.260009 -0.412309 -0.872478
0.067114 0.806603 -0.105948 0.513157 0.293719 -0.80126
-0.137643 -0.077616 0.052035 -0.973145 0.006606 0.228471
0.104533 0.291327 0.10395 0.303712 0.080586 0.946794
0.543966 0.192358 -0.045753 0.712796 -0.54486 -0.285041
0.205736 -0.220999 -0.030443 0.994222 -0.048771 -0.092538
0.07048 -0.76502 0.012068 0.352356 0.137792 0.906027
0.166156 0.392142 0.056056 0.690853 -0.002176 0.722689
0.008732 -0.644024 0.014644 0.688278 -0.126726 0.712289
0.201556 -0.276556 -0.026131 0.897659 -0.12001 -0.423218
-0.068242 -0.097443 0.121269 -0.250106 -0.001776 0.968209
0.196665 -0.520541 0.012377 0.950109 -0.020114 0.310789
0.190717 -0.541569 -0.066829 0.814771 -0.028456 -0.578745
0.004304 0.118911 -0.127683 -0.11578 0.368319 -0.921948
-0.144195 -0.138819 0.011632 -0.999158 -0.025296 -0.022284
0.065194 -0.22094 -0.078802 -0.683374 -0.133781 -0.716599
0.037811 -0.081452 0.111916 0.078242 -0.55046 0.828148
-0.097083 -0.298508 -0.064777 -0.722719 -0.011422 -0.690931
0.099294 0.346137 0.099359 0.292982 0.113129 0.948271
0.054375 -0.470341 -0.058848 -0.772619 0.034737 -0.633113
-0.242279 0.425187 -0.074739 -0.474202 0.561357 -0.675714
0.632885 0.060215 0.032226 0.823299 0.565734 -0.034346
0.155732 0.525132 -0.124023 0.215792 0.581107 -0.781875
-0.074847 0.172564 -0.084934 -0.594968 0.018984 -0.803406
-0.076239 0.303604 0.081802 -0.58392 0.005615 0.811393
-0.128234 0.098237 -0.016209 -0.992031 0.005991 -0.118154
-0.119308 -0.211965 -0.034394 -0.865268 -0.096282 -0.491503
0.070739 -0.529174 -0.074762 -0.718672 -0.070637 -0.691734
-0.125829 -0.334717 0.040771 -0.992056 -9.7e-05 0.124931
-0.060307 0.297455 -0.119614 -0.436139 -0.028641 -0.899379
0.192993 -0.106066 0.073038 0.782504 -0.01808 0.62053
0.500783 0.228105 -0.036849 0.662422 0.745834 0.060208
0.05144 -0.668126 -0.004943 -0.998368 -0.023936 0.038716
0.199846 -0.603811 -0.03226 0.997331 -0.063062 -0.031614
-0.009875 -0.639967 -0.077687 0.661974 0.038138 -0.748322
-0.067302 0.189303 -0.091353 -0.577916 -0.155499 -0.800124
0.05598 -0.139361 0.071606 -0.638526 0.091804 0.763425
-0.570127 0.031047 -0.01805 0.300676 -0.369084 -0.572937
0.198119 0.361722 -0.04887 0.989983 -0.130112 -0.029321
0.013029 -0.391908 -0.040496 0.782179 0.038515 -0.62116
0.038456 0.549751 0.030704 0.062568 0.548297 0.830666
0.047091 0.156603 0.130363 0.121419 0.039586 0.991801
0.017809 -0.527841 0.009113 0.865203 -0.106533 0.480621
0.089234 -0.825917 0.050906 -0.98602 -0.032693 0.130148
0.052057 0.602972 0.022329 0.389187 -0.08666 0.916138
0.106634 0.744678 -0.027175 0.964035 0.076536 -0.235533
0.167507 -0.820752 -0.02035 0.810535 -0.583139 0.048311
-0.089562 -0.01443 -0.113398 -0.642202 -0.115646 -0.757432
0.321261 0.433059 -0.115087 0.539239 0.663257 -0.518712
0.013236 0.074248 -0.143057 -0.158565 0.226359 -0.960729
-0.07036 -0.588253 0.050026 0.425424 -0.220428 0.877617
-0.291656 0.393251 -0.043651 -0.957084 0.166897 0.027924
0.171157 0.210616 -0.052006 0.879747 0.002715 -0.475342
-0.004555 -0.024175 0.132906 -0.062884 -0.121224 0.987884
0.05189 -0.190775 0.066277 -0.787878 -0.09592 0.605826
-0.496267 0.153238 -0.014937 -0.773013 0.610855 -0.152421
-0.126882 -0.347767 -0.022306 -0.980254 0.070356 -0.17982
0.031725 0.772611 0.088637 -0.108714 0.089412 0.983323
-0.052607 -0.315052 -0.089983 -0.070397 -0.061715 -0.993453
0.137468 0.066956 0.104438 0.456222 0.225131 0.82952
-0.004441 0.406861 -0.129042 0.063731 0.003419 -0.997924
-0.437313 0.154793 0.00631 0.604681 -0.793128 0.069337
0.12597 -0.291095 0.082672 -0.001692 -0.05662 0.99827
0.199681 -0.411619 -0.034143 0.96466 -0.060693 -0.251709
0.130997 -0.69775 0.025067 0.278873 -0.335457 0.899101
-0.080015 0.231757 -0.090963 -0.697142 -0.326456 -0.637467
0.181249 0.35252 -0.084646 0.77855 -0.425793 -0.457671
-0.017764 -0.043162 0.132859 -0.026933 -0.213499 0.975637
-0.026002 -0.756781 -0.125007 0.404643 0.414323 -0.815025
-0.126907 -0.31285 0.037322 -0.993495 -0.054814 0.0993
0.144953 0.071274 0.095911 0.741587 0.210319 0.635031
-0.054488 -0.223563 -0.092584 -0.046632 0.011388 -0.998489
0.175612 -0.024807 -0.096148 0.841447 -0.004056 -0.539876
-0.015973 0.84548 -0.050998 -0.529165 0.788038 -0.312306
0.095735 -0.246355 -0.095626 -0.365953 0.019363 -0.928569
-0.134549 0.475067 -0.101917 -0.42743 0.106127 -0.897424
-0.111448 -0.436889 0.071117 -0.774161 -0.159764 0.611422
-0.135456 -0.422945 -0.015956 -0.962014 0.124125 -0.240647
-0.098104 -0.861275 0.008675 -0.332213 -0.922745 -0.086238
0.001931 0.588647 -0.089944 -0.116715 0.588798 -0.798862
0.06982 -0.807 0.007781 -0.882232 -0.303342 0.359458
0.050852 0.327337 -0.132952 -0.46155 -0.029859 -0.886383
-0.25217 0.399374 -0.088507 -0.329659 0.489986 -0.804635
0.059907 -0.768204 -0.01519 -0.994076 0.042076 -0.098062
-0.131804 0.019434 -0.041774 -0.897866 0.047354 -0.431859
0.188564 -0.524614 -0.070808 0.800858 0.002113 -0.597438
-0.117813 -0.791409 -0.025025 -0.922465 -0.298547 0.213752
0.161544 0.481958 -0.137784 0.17403 0.192785 -0.964369
0.137778 0.031733 -0.133079 0.651211 0.110494 -0.75019
0.193127 -0.378784 -0.049822 0.738538 0.093102 -0.660878
0.024884 -0.369171 0.022282 0.963544 -0.112017 0.233979
-0.085098 0.224839 -0.081177 -0.714607 -0.338128 -0.609998
-0.119769 -0.341945 0.078116 -0.953035 -0.013212 0.30164
-0.028025 -0.856748 0.012913 0.643752 -0.732891 -0.18517
0.060989 -0.789528 -0.027975 -0.981138 -0.026643 -0.170638
0.029788 0.507444 -0.123741 -0.108066 0.052787 -0.992102
0.104518 -0.754708 0.021732 -0.186322 -0.497264 0.811674
-0.037641 0.192365 0.111021 -0.512787 0.067982 0.855601
-0.068885 -0.808408 -0.13929 -0.566189 -0.136326 -0.80997
-0.030643 0.76343 -0.078197 -0.815634 -0.244274 -0.51701
0.182976 0.219729 -0.00496 0.999665 0.02069 -0.009118
0.038657 -0.318923 0.00579 -0.89331 -0.074696 0.434975
0.183053 -0.403939 0.061532 0.816009 -0.056223 0.575124
0.000207 -0.13963 0.112197 0.576359 -0.157382 0.801865
-0.120662 0.345823 -0.035833 -0.998404 -0.048161 0.010788
-0.564747 0.034226 0.021025 0.843236 -0.533688 0.006295
0.005114 0.108324 0.13333 -0.20583 0.286141 0.9329
-0.0651 -0.362208 0.098329 0.139934 -0.16965 0.975479
-0.019785 -0.835084 -0.028897 0.77086 -0.572513 0.013474
0.117838 -0.749815 0.028796 -0.142815 -0.375631 0.906511
-0.094301 0.496268 -0.115017 -0.353172 0.303454 -0.884312
-0.074327 0.161075 -0.086749 -0.542205 0.190071 -0.815165
0.0206 -0.61025 -0.045848 0.762964 0.128209 -0.63232
0.084275 0.841818 -0.043832 0.787472 0.605291 -0.11047
0.355386 0.286084 -0.119688 -0.527867 -0.541468 -0.651203
-0.03363 -0.328263 0.09566 0.285687 -0.112989 0.950868
-0.078546 -0.276885 -0.082787 -0.60024 -0.045762 -0.798399
0.151197 -0.13996 0.105322 0.312475 -0.152008 0.934734
-0.103924 0.479802 -0.115605 -0.443408 0.198374 -0.872664
-0.084621 -0.810111 0.04363 -0.650234 0.579342 0.485382
-0.315405 0.341933 -0.009739 -0.5511 0.574146 0.595041
0.134511 0.271723 0.087896 0.684345 0.04312 0.725791
-0.244653 0.430884 -0.067188 -0.56344 0.618271 -0.54364
-0.118848 -0.262658 -0.032444 -0.827851 0.003763 -0.560436
-0.117072 0.556646 0.011646 -0.17128 0.700659 0.618071
-0.034509 -0.852206 -0.131614 0.525631 -0.515642 -0.649101
0.199194 0.389878 -0.052353 0.993627 -0.109211 0.01721
0.036054 -0.342819 -0.014491 -0.99397 -0.086644 0.009142
0.035016 -0.143664 0.060096 0.793192 -0.395864 0.453241
-0.020768 0.769971 -0.094953 -0.759996 -0.146431 -0.632743
-0.195304 0.431007 -0.09258 -0.159178 0.277577 -0.947217
0.091289 -0.650832 0.028561 -0.488744 0.29595 0.820454
0.007155 -0.555985 0.014002 0.685176 -0.144327 0.712752
0.106224 -0.539163 -0.103124 -0.405108 -0.065732 -0.910478
0.093936 0.073021 0.119741 0.342703 0.110993 0.932017
-0.001634 -0.799704 -0.12123 0.862981 0.014482 -0.49651
-0.083819 -0.369047 0.099777 0.050485 -0.209933 0.974562
0.067653 -0.744829 -0.030177 -0.862075 0.091935 -0.496357
0.174686 0.20075 0.048096 0.787401 0.059261 0.612616
-0.192924 0.349428 -0.045165 0.627208 -0.772753 -0.087418
-0.12476 -0.140589 0.08354 -0.83228 0.08102 0.548192
-0.556624 0.072843 0.046255 -0.90339 0.428293 0.016012
0.342963 0.41767 -0.108835 0.69046 0.701319 -0.172548
0.42275 0.305683 -0.067112 0.538327 0.762096 0.340551
0.202197 -0.369902 -0.031993 0.926134 0.075322 -0.367018
-0.002044 0.375049 0.107556 -0.111162 0.184452 0.975241
0.192888 0.560068 -0.032801 0.346133 0.871353 0.268768
-0.039005 0.306631 0.102453 -0.5281 0.130352 0.837825
-0.092189 0.286661 -0.094706 -0.702602 -0.041883 -0.710264
0.053357 0.547074 -0.118682 -0.1543 0.450829 -0.876316
0.103809 -0.329101 -0.100169 -0.089361 0.018237 -0.989263
-0.162829 0.522231 -0.066722 -0.517775 0.594865 -0.614388
-0.548325 0.086569 0.068217 -0.876133 0.474538 0.071696
0.343997 0.341223 -0.136577 0.074393 -0.025502 -0.994113
0.188774 -0.328283 0.060298 0.871851 -0.094887 0.477113
0.455052 0.230459 -0.015482 -0.225581 0.360067 0.902379
0.078264 -0.101715 -0.118715 -0.323965 -0.388218 -0.862648
0.13927 -0.098791 0.112266 0.203403 -0.054933 0.976165
-0.132132 0.534685 -0.075922 -0.378729 0.669781 -0.637875
0.098412 -0.473167 -0.100169 -0.519897 0.034897 -0.853121
0.225848 0.485573 -0.128013 0.235674 0.287058 -0.92737
0.170719 -0.270879 -0.067017 0.579833 -0.197011 -0.790432
0.069583 -0.784124 -0.049953 -0.897064 0.123756 -0.421731
0.18714 0.371003 -0.093851 0.654395 -0.488015 -0.577355
-0.090921 -0.577417 0.059343 -0.30966 -0.133919 0.892452
-0.146993 0.518544 0.04579 -0.214672 0.475353 0.850624
0.039444 -0.25519 0.009968 -0.383115 -0.037466 0.836024
0.072968 -0.195352 -0.091662 -0.49372 -0.230428 -0.83505
0.195798 -0.427561 -0.048453 0.88768 0.099034 -0.442451
0.148344 -0.869011 0.070676 0.29687 -0.95454 -0.016795
-0.059054 -0.864012 0.041742 -0.004074 -0.999807 -0.019006
-0.0101 -0.328301 0.084891 0.562303 -0.094554 0.821452
-0.038534 -0.813782 0.061662 0.376975 0.71198 0.547847
0.005338 0.242694 -0.127873 0.128099 -0.034277 -0.991132
-0.016169 0.760388 0.05506 -0.791682 0.071505 0.604972
-0.135077 0.422985 -0.093244 -0.386428 -0.603065 -0.676532
0.141916 0.159384 -0.093545 0.66463 0.085676 -0.741755
-0.131563 -0.576334 -0.028737 -0.968538 -0.138301 0.204316
-0.127206 -0.381111 -0.027378 -0.973561 0.053992 -0.211145
-0.071008 0.407129 0.091525 -0.455908 0.089886 0.883531
0.083646 0.804206 0.045699 0.878058 0.265075 0.393988
0.036848 0.657265 -0.065664 0.003441 -0.119079 -0.991222
0.111311 0.321687 0.097877 0.357632 0.110174 0.926575
0.133419 -0.716889 -0.094761 0.374745 0.113592 -0.916501
-0.307164 0.261561 -0.082724 0.22051 -0.558816 -0.793002
0.146866 -0.829829 0.118907 0.406896 0.901482 0.126165
0.181927 -0.076576 -0.079711 0.820705 -0.03972 -0.569276
0.095084 0.589002 -0.087509 0.169971 0.771837 -0.612453
0.20132 0.400916 -0.049823 0.928526 -0.341303 0.020552
0.090849 -0.552042 -0.091225 -0.659869 -0.118571 -0.741785
0.00064 -0.809706 -0.114691 0.873495 -0.170934 -0.437075
0.170685 0.446306 0.048771 0.55374 0.116539 0.822746
0.013936 -0.609446 -0.053225 0.728811 0.097803 -0.67748
-0.12256 -0.625098 -0.07848 -0.775229 0.048462 -0.628674
-0.194125 0.427574 0.038531 0.174012 -0.44829 0.876009
0.066576 0.012147 0.139158 0.179896 0.137611 0.972392
0.017404 0.199866 0.129712 -0.020876 0.05588 0.99808
-0.094125 -0.826066 0.055994 -0.736444 0.666088 0.113395
-0.12579 0.185826 0.024434 -0.922821 0.109097 0.360563
0.005758 0.858459 -0.049242 -0.410585 0.824788 -0.385714
0.089861 0.83046 -0.003697 0.951269 0.301442 0.050254
0.182878 0.082213 0.063777 0.82528 0.160401 0.539093
0.098772 0.792083 -0.066259 0.935744 0.105765 -0.334892
0.138799 0.168376 -0.095132 0.606904 0.074976 -0.789703
0.041109 -0.096478 -0.103619 -0.535891 -0.468577 -0.700135
-0.231546 0.459375 -0.047733 -0.700252 0.620833 -0.351428
0.136548 -0.869288 -0.094419 0.185246 -0.967915 -0.124098
0.434285 0.204556 -0.073501 -0.46308 -0.88083 0.09156
0.20549 -0.257889 0.007053 0.999947 0.006145 0.004068
0.412268 0.236454 -0.117251 0.042162 -0.556548 -0.820786
0.125115 0.294499 -0.12839 0.584609 -0.044736 -0.810056
-0.040013 0.495408 -0.12716 -0.047594 0.238662 -0.968224
0.331393 0.389769 -0.051194 0.891583 -0.238912 0.370247
0.175203 -0.573338 0.036087 0.53483 -0.227819 0.811999
0.264649 0.350828 -0.05797 -0.686924 -0.692144 0.20696
0.088351 0.745956 -0.084682 0.784096 -0.262383 -0.556819
0.198618 0.061246 0.041091 0.953036 0.205467 0.217244
0.158125 -0.164599 0.097715 0.245844 -0.144869 0.956929
0.103473 0.516217 -0.134639 -0.037984 0.353261 -0.93298
-0.007937 -0.711936 -0.092577 0.560534 0.314327 -0.765947
-0.194329 0.350891 -0.016571 0.567267 -0.76223 0.308182
0.087103 -0.771137 -0.075321 -0.788605 0.268714 -0.551189
0.285122 0.403523 -0.143402 -0.107184 0.1169 -0.984245
-0.127166 -0.298459 0.049419 -0.989773 -0.107246 0.085616
0.15639 -0.025457 -0.121756 0.726764 -0.031762 -0.685578
0.04346 -0.283821 0.030485 -0.986469 -0.01767 0.161774
0.428046 0.283599 -0.044806 0.280068 0.545442 0.789116
0.082398 0.212278 0.11936 0.417965 0.084266 0.903018
-0.168459 0.472923 -0.087453 -0.385841 0.236435 -0.891272
0.092128 -0.105808 0.101362 -0.511369 -0.167797 0.842357
0.158975 -0.860353 0.00516 0.492748 -0.830044 -0.187341
-0.137879 -0.018521 -0.013607 -0.992645 0.058942 -0.088846
0.103336 0.763774 -0.050937 0.972392 -0.115994 -0.195124
-0.126025 0.046346 -0.048992 -0.914092 0.144791 -0.377307
0.308334 0.420857 -0.030459 0.802659 0.176514 0.564545
-0.391 0.270955 -0.075862 -0.625526 0.365193 -0.67444
0.021809 -0.457929 0.012597 0.899251 -0.029787 0.435342
-0.060924 -0.59163 -0.103592 0.085729 0.012739 -0.995455
0.03824 -0.146676 -0.069529 -0.838756 -0.324595 -0.43569
-0.112283 0.255652 -0.007752 -0.998966 0.037016 -0.002027
0.019806 -0.537088 -0.033258 0.956195 0.025325 -0.286293
0.184901 0.370655 0.026942 0.894746 -0.168138 0.412775
-0.052618 0.032782 0.122418 -0.405002 0.211328 0.887396
-0.055438 -0.863388 0.007492 0.036738 -0.998606 -0.036595
-0.487891 0.131836 0.073712 0.560039 -0.206255 0.780961
-0.093461 0.566411 -0.060579 -0.409667 0.822197 -0.3934
-0.123104 -0.034993 0.07894 -0.781917 0.099364 0.615064
0.177046 0.405612 0.047217 0.635084 -0.059811 0.769937
0.115318 -0.869554 0.102313 0.017445 -0.999629 0.019223
0.121553 -0.468095 -0.106037 -0.04662 0.08272 -0.993011
-0.080595 0.369703 0.082925 -0.720695 -0.048105 0.688987
-0.126144 -0.324246 0.039144 -0.992542 -0.031696 0.116957
-0.27468 0.278603 -0.016614 0.607019 -0.64382 0.463474
-0.120827 0.406886 -0.097103 -0.696278 -0.345223 -0.621041
-0.050322 -0.416649 0.084171 0.234333 -0.227098 0.944438
0.095688 -0.118275 -0.118732 -0.228479 -0.224832 -0.945276
0.061094 -0.507704 0.004798 -0.671986 0.001185 0.739943
0.165842 0.378342 0.056233 0.74307 -0.023983 0.667841
-0.036863 -0.459732 -0.091047 0.35057 0.121993 -0.927228
0.602044 0.108897 0.0456 0.838322 0.543764 0.037587
0.055116 0.177452 0.128744 0.091402 0.031624 0.995243
0.086801 -0.813679 -0.09428 -0.832153 0.116223 -0.539002
0.095198 0.263731 -0.138467 0.078996 -0.071963 -0.993023
-0.041078 -0.270593 0.105747 0.170675 -0.16775 0.970881
0.091144 0.506631 -0.1359 -0.101233 0.164799 -0.980363
-0.108588 0.096617 -0.067323 -0.827472 0.148156 -0.541175
-0.089552 0.333096 0.068783 -0.882214 -0.010321 0.469173
-0.082846 -0.496717 -0.094364 -0.416594 0.116907 -0.895255
0.03431 0.731277 -0.109301 -0.001783 -0.551729 -0.831811
0.147308 -0.738634 -0.090069 0.703929 0.178008 -0.679613
-0.350293 0.318742 -0.030164 -0.671219 0.721374 0.167974
0.096369 0.728224 0.019338 0.970929 -0.018839 0.228839
-0.113584 0.021129 0.091883 -0.80325 0.157402 0.573569
0.199625 -0.443756 -0.031941 0.997356 0.010965 -0.066294
-0.090816 -0.471046 0.079325 -0.238843 -0.155097 0.946168
0.108146 -0.142349 0.108037 -0.521463 -0.145734 0.839894
-0.111338 -0.182638 -0.05281 -0.817491 -0.091359 -0.56811
-0.138493 -0.460408 -0.002078 -0.991166 -0.034846 0.116739
0.025548 -0.67512 -0.052895 0.962051 0.041309 -0.252695
-0.125464 0.104998 -0.027823 -0.945711 0.059879 -0.31302
0.042814 0.789088 0.083272 0.073661 0.304574 0.948603
-0.095516 -0.34516 -0.068366 -0.64088 0.076512 -0.762531
0.293391 0.447187 -0.123435 0.470099 0.592713 -0.653291
-0.105545 -0.157152 0.107286 -0.658682 -0.05241 0.750528
-0.02396 -0.087624 0.128462 0.038589 -0.055794 0.997315
0.601027 0.087739 0.00396 0.439572 0.108829 -0.885728
0.017602 -0.636831 -0.054771 0.68257 0.148752 -0.715282
-0.108194 0.162603 0.057449 -0.807327 -0.005596 0.589649
0.09421 -0.70888 0.035894 0.160747 -0.029435 0.985446
-0.024897 0.582806 -0.003261 -0.490721 0.594032 0.632391
-0.074763 -0.57009 0.056829 0.420882 -0.168688 0.890923
0.109451 0.072027 0.112798 0.50994 0.137878 0.848524
0.163355 0.193855 -0.066756 0.793341 0.039197 -0.607013
0.184035 -0.127447 -0.070695 0.734262 -0.058607 -0.67609
0.150152 -0.570843 0.042736 0.008467 -0.119952 0.99242
0.102643 0.527304 -0.129772 0.007374 0.302641 -0.950747
0.024945 -0.196523 0.056444 0.95982 0.009093 0.279503
0.178355 0.140378 0.052434 0.755269 0.103008 0.647141
-0.080972 -0.512492 0.072703 0.208735 -0.212156 0.916634
-0.001092 -0.561744 -0.069508 0.77288 -0.039062 -0.633308
0.138513 -0.12231 0.110824 0.167965 -0.082318 0.981578
0.051522 -0.652189 -0.02638 -0.982382 -0.088693 -0.144382
0.212979 0.493154 -0.128957 0.199948 0.275882 -0.938644
-0.060603 -0.550888 0.055123 0.386796 -0.203578 0.898901
0.33134 0.397847 -0.044199 0.806283 -0.048229 0.578294
-0.101151 -0.072406 0.105621 -0.608846 0.041632 0.792154
-0.562534 0.052542 -0.004689 -0.413731 0.454019 -0.595604
-0.089374 -0.8264 0.077377 -0.444074 0.871225 0.161708
-0.201973 0.403005 -0.096861 -0.085328 0.065853 -0.992388
-0.280772 0.355724 -0.092062 -0.510336 0.247403 -0.818989
0.155206 0.558987 -0.008892 0.163964 0.756904 0.63255
0.052976 0.119703 -0.133902 -0.038218 0.42116 -0.90535
0.200845 -0.152531 0.051858 0.928237 -0.145111 0.340308
0.025496 -0.679645 -0.028799 0.956436 -0.113718 0.244184
-0.064797 -0.253272 0.111882 0.025455 -0.095977 0.994751
-0.016924 0.016897 -0.14421 -0.189055 -0.313063 -0.92918
-0.269898 0.405645 -0.006051 -0.722749 0.522175 0.451749
0.110081 -0.826257 0.119689 -0.263387 0.962929 0.033449
-0.017106 -0.730782 -0.106762 0.539889 0.346673 -0.765505
0.122992 0.226791 0.098907 0.543317 0.041309 0.838374
0.40794 0.279322 -0.127592 0.154074 0.084345 -0.980435
0.264493 0.491492 -0.102638 0.565573 0.563605 -0.601601
-0.021293 -0.841462 -0.01421 0.940475 -0.327524 -0.010167
0.580273 0.132576 0.009119 0.778341 0.612145 -0.136843
0.197795 0.368061 -0.066195 0.970369 -0.186343 -0.125718
-0.556381 0.06979 0.012132 -0.901511 0.407346 -0.102231
-0.488095 0.103885 0.038953 0.85183 -0.520537 -0.02869
-0.121971 -0.654734 -0.008257 -0.985098 -0.122931 0.118323
0.151881 0.353295 0.067344 0.679782 -0.117357 0.723584
0.194755 0.030591 -0.054819 0.912807 0.026129 -0.407287
0.014214 -0.339765 0.05959 0.8033 -0.154687 0.573849
-0.043525 -0.863507 0.028076 0.068329 -0.996454 -0.040943
0.001671 -0.151342 -0.067467 0.785961 -0.081098 -0.612163
0.393078 0.293995 -0.128683 0.170279 0.100946 -0.972173
0.373468 0.325023 -0.130176 0.390263 0.190709 -0.894261
-0.14677 0.552904 -0.015434 -0.52228 0.843903 0.017813
-0.014804 -0.444795 -0.07444 0.733745 0.054201 -0.677183
0.174937 0.33563 -0.081928 0.784681 -0.338802 -0.518172
-0.03377 0.771078 -0.072941 -0.947476 -0.065737 -0.294433
0.051212 -0.281787 -0.057191 -0.820188 0.014517 -0.571792
0.027101 0.527288 -0.120692 -0.037056 0.185466 -0.981521
-0.092465 -0.534076 0.065229 -0.563623 -0.131538 0.773865
-0.07797 0.580544 -0.041046 -0.453337 0.880568 -0.095781
0.205059 -0.384266 -0.021318 0.987266 0.00061 -0.152758
0.165555 -0.48649 0.063826 0.384213 -0.166832 0.89863
-0.10326 0.214975 -0.052426 -0.814528 -0.185382 -0.544154
-0.044882 0.493456 0.070299 -0.22979 0.503368 0.831913
0.411458 0.218676 -0.098161 -0.590713 -0.80335 -0.066807
0.195098 0.366539 -0.075575 0.821889 -0.440143 -0.359939
0.163096 0.272591 0.054076 0.742548 0.021385 0.669353
0.114513 -0.044841 0.121178 0.282137 -0.100809 0.953536
0.189483 -0.223365 0.069604 0.859756 -0.103481 0.495281
0.016706 -0.420067 -0.034061 0.888504 -0.024468 -0.444102
0.254343 0.404787 -0.016336 -0.176697 -0.376693 0.908298
0.07795 0.160694 -0.120284 0.106135 0.143707 -0.983604
0.334771 0.296258 -0.111197 -0.560991 -0.665835 -0.491208
-0.00242 0.175782 0.129002 -0.151399 -0.001911 0.986447
-0.013866 0.629132 -0.031649 -0.88667 0.384297 -0.214567
0.214469 -0.097409 0.012914 0.99914 -0.001519 0.033062
-0.504889 0.144793 0.017362 -0.783433 0.620251 -0.025611
-0.066186 -0.241547 -0.090549 -0.301939 -0.000577 -0.949782
0.122288 0.588744 -0.072078 0.365516 0.88227 -0.279029
0.062574 0.578998 -0.100515 -0.006683 0.657604 -0.752901
0.076713 -0.425733 0.025142 -0.697524 -0.349624 0.625356
0.115955 -0.308503 0.081132 -0.090033 -0.080239 0.992141
0.156122 0.445456 -0.141429 0.237041 -0.135164 -0.961909
-0.027474 0.279697 -0.130511 -0.129709 -0.037016 -0.990167
-0.032075 0.768779 0.021503 -0.918891 -0.034183 0.378053
0.159061 -0.066948 0.102844 0.544661 0.036301 0.836778
0.00842 -0.660421 0.011711 0.726637 -0.16007 0.666125
0.096612 -0.832979 0.111802 -0.6608 0.728941 0.144789
-0.082146 0.269292 -0.102466 -0.655597 -0.108224 -0.746946
0.19627 0.088592 -0.02943 0.946925 0.25345 -0.18764
-0.059532 0.348293 -0.121048 -0.391141 -0.032677 -0.919367
-0.108023 -0.305601 0.099039 -0.681016 -0.0506 0.729452
0.329104 0.367296 -0.043284 0.609721 0.183446 0.767825
0.026602 -0.341834 0.027281 0.987668 -0.065104 0.135315
-0.101627 -0.782717 0.003888 -0.641596 0.193911 0.739975
-0.050614 -0.862622 -0.115739 0.02755 -0.992432 -0.113744
0.180804 -0.750774 -0.038147 0.685796 -0.010645 -0.721573
0.312688 0.448507 -0.051463 0.740823 0.486449 0.458459
0.104981 0.792363 -0.035313 0.987225 0.11682 -0.028909
-0.068095 -0.230225 -0.090249 -0.303848 -0.006574 -0.948902
0.044099 -0.473301 -0.036429 -0.991553 -0.000816 -0.10254
-0.234344 0.450698 -0.057117 -0.661194 0.593319 -0.458196
0.053475 -0.321184 -0.060205 -0.820548 -0.008254 -0.571408
0.01326 -0.433683 -0.038634 0.835441 -0.003004 -0.54916
-0.064775 0.559511 -0.091048 -0.385297 0.596914 -0.703466
0.058114 -0.742139 0.018827 -0.959597 -0.240474 0.129729
0.062379 0.483035 -0.133138 -0.491402 0.325554 -0.799725
0.011416 -0.204713 0.091636 0.828722 -0.082666 0.552906
0.024933 0.656079 0.057972 -0.18546 -0.969425 0.152594
0.186721 0.410272 0.038226 0.803811 -0.106116 0.580767
0.028354 -0.147845 -0.040526 -0.913691 -0.23623 -0.328961
-0.102859 -0.492599 -0.081314 -0.619532 0.12862 -0.773063
0.0758 0.403501 0.096255 0.136463 0.212233 0.967198
0.089526 -0.827099 -0.092158 -0.924646 -0.291744 -0.209645
-0.062817 -0.639574 -0.10645 0.100577 0.074016 -0.991869
0.033872 0.864128 0.023692 -0.048134 0.98573 0.15292
0.175454 -0.363181 -0.060562 0.680588 0.191479 -0.702249
0.027077 -0.349783 0.01811 0.995271 -0.054095 0.069461
-0.152059 0.549062 0.003317 -0.412509 0.873906 0.239429
-0.136591 0.029838 -0.020327 -0.977355 0.113062 -0.17409
-0.027579 0.800411 -0.086905 -0.884085 0.054877 -0.459156
0.003977 -0.803523 -0.106894 0.936173 -0.097888 -0.333811
-0.079575 -0.124771 0.117672 -0.318634 -0.025299 0.947288
-0.095556 0.091359 0.084556 -0.548248 0.078371 0.818375
-0.103217 0.112312 -0.072141 -0.808597 0.123659 -0.572392
0.137273 0.226115 -0.102181 0.749228 -0.225953 -0.62156
-0.045996 0.188029 -0.103978 -0.456095 -0.241777 -0.855994
-0.179714 0.358781 -0.022022 0.606205 -0.754963 0.245287
-0.059187 -0.86278 -0.077786 0.009084 -0.998525 0.052389
0.198525 0.122511 0.017453 0.949571 -0.182903 0.250091
0.061837 -0.220755 0.072457 -0.683039 -0.103929 0.722815
0.079601 -0.792459 -0.07322 -0.841597 0.22424 -0.489729
-0.030658 -0.227571 0.112569 0.135659 -0.158082 0.977273
-0.042476 -0.304536 -0.090445 0.141093 -0.088228 -0.98107
-0.380476 0.235811 -0.077109 -0.154154 -0.304069 -0.938354
-0.060889 0.337485 -0.120163 -0.421036 -0.022687 -0.906376
0.327548 0.327785 -0.132328 -0.254996 -0.326675 -0.906222
0.142891 0.330071 -0.116778 0.694551 -0.174295 -0.697879
0.002238 0.493843 0.073963 0.016154 0.470846 0.88186
0.60529 0.092343 0.080692 -0.09345 0.532357 0.711221
0.045095 0.306488 -0.130045 -0.323286 0.002057 -0.943288
-0.013123 0.800802 -0.102918 -0.563798 0.272799 -0.774821
-0.120027 -0.772712 -0.060656 -0.98923 -0.065235 -0.123844
-0.119557 -0.025505 -0.072486 -0.849065 -0.032357 -0.526563
0.165625 0.032725 -0.105488 0.781063 0.09037 -0.616598
-0.1388 -0.451414 -0.012895 -0.993229 0.041173 -0.083041
0.024241 0.653456 0.046196 -0.248428 -0.821699 0.492439
-0.550583 0.06289 0.016098 0.857011 -0.412228 -0.302917
-0.173733 0.410767 0.027866 0.002076 -0.379772 0.923575
0.161969 -0.858054 -0.049755 0.870033 -0.456762 0.046643
0.161148 0.022672 -0.111743 0.71862 0.047298 -0.693781
0.16731 0.405876 -0.126938 0.282292 -0.399096 -0.869938
0.099146 -0.275161 -0.09815 -0.245781 0.031214 -0.96635
0.141654 -0.411499 0.071018 -0.260025 -0.124411 0.95621
-0.006613 0.231025 0.1224 -0.371082 0.121495 0.92057
-0.007027 0.313007 -0.130155 0.092224 0.060775 -0.99376
0.148928 0.574175 -0.077347 0.338281 0.868598 -0.355536
-0.136764 -0.012352 0.037956 -0.993229 0.0307 0.110823
-0.037795 0.584233 -0.082008 -0.360687 0.723518 -0.584268
0.312443 0.456903 -0.073983 0.724663 0.687901 0.020626
-0.010465 -0.769387 -0.009373 0.643836 0.301973 0.686013
-0.322357 0.342543 -0.019618 -0.64002 0.704152 0.294277
-0.109238 -0.470446 0.06375 -0.778875 -0.295463 0.552326
-0.088227 -0.56599 0.062038 -0.248692 -0.153055 0.912728
-0.079237 0.403476 0.085898 -0.649478 0.01786 0.759542
0.022416 0.784111 -0.12003 -0.102263 0.112217 -0.987148
-0.10881 0.330655 -0.083579 -0.78412 -0.174453 -0.594572
0.182746 0.063396 0.069126 0.788929 0.230535 0.568377
-0.112983 0.193807 -0.037051 -0.893895 0.086814 -0.439583
-0.020433 -0.586948 -0.087565 0.655023 -0.039871 -0.750743
0.159361 0.273331 -0.078534 0.890209 -0.115156 -0.44054
0.640928 0.044232 0.047115 0.933021 0.34696 -0.000369
0.203719 -0.52478 -0.035728 0.96051 0.051026 -0.26896
-0.058004 -0.21495 0.117435 -0.094418 -0.114848 0.983645
-0.014148 0.600066 -0.003355 -0.76299 0.293799 0.570825
0.02614 0.493989 -0.123253 -0.090184 0.051403 -0.992702
-0.451059 0.17275 0.033353 0.051047 0.722665 0.6892
-0.024542 -0.613974 0.02483 0.220084 -0.173277 0.958247
-0.001458 0.320816 -0.128886 0.12347 0.047708 -0.990927
-0.376738 0.240537 0.010675 0.053109 0.054783 0.997023
0.048232 0.747312 0.08593 0.836227 0.222576 0.494675
-0.072511 -0.509589 -0.098222 -0.189326 0.083753 -0.977786
0.094632 -0.50584 -0.097446 -0.557181 -0.020469 -0.83006
-0.26098 0.285336 -0.030665 0.70635 -0.673087 0.214892
0.192365 0.110178 -0.029469 0.921045 0.1188 -0.362237
0.027124 0.549675 0.031479 0.038169 0.572107 0.81875
-7.6e-05 -0.641327 0.021179 0.46609 -0.000886 0.884007
0.141633 -0.796667 -0.113281 0.408171 0.261656 -0.873523
-0.102878 0.297876 0.050401 -0.893696 0.197866 0.394482
0.205893 -0.335357 0.005265 0.99903 -0.007236 0.02499
-0.042218 0.458296 -0.131973 -0.019217 0.038629 -0.99763
0.1177 -0.399523 -0.102358 0.017272 0.038648 -0.997525
0.029904 -0.164345 0.049746 0.898319 -0.269722 0.341762
-0.071748 -0.314505 -0.084787 -0.452701 -0.041766 -0.888904
0.008456 -0.14306 0.105034 0.691338 -0.147366 0.704178
-0.042145 0.373585 0.105171 -0.22105 0.063813 0.968609
0.277606 0.499221 -0.068702 0.713788 0.695291 -0.076677
0.198561 0.152386 0.006801 0.934206 0.348746 0.05683
0.127976 0.568031 -0.099472 0.306973 0.68319 -0.662191
-0.133927 -0.243586 0.004065 -0.976316 -0.061313 -0.198555
-0.44259 0.194187 0.017715 -0.232677 0.503413 0.82776
0.14254 -0.260061 0.08368 0.061533 -0.066313 0.99575
0.10422 0.762593 -0.008009 0.989372 9.4e-05 0.090753
0.139259 -0.058415 0.112509 0.315148 -0.006282 0.948544
0.144303 -0.703494 -0.088264 0.524079 0.004598 -0.847838
0.201471 -0.276468 0.039017 0.952031 -0.05374 0.301169
0.19373 0.381894 0.006157 0.967976 -0.119906 0.219967
-0.007919 -0.380753 0.07676 0.588752 -0.22559 0.775575
0.164677 -0.284721 0.078131 0.300065 -0.098693 0.94856
-0.173776 0.531896 0.006702 -0.642013 0.726618 0.242467
0.002122 -0.719248 -0.001513 0.801575 -0.06402 0.593847
-0.049729 -0.003236 -0.133956 -0.29953 -0.089613 -0.949069
0.073397 0.806881 0.062535 0.774228 0.261813 0.57242
-0.12375 0.374779 0.006739 -0.949892 -0.262637 0.166085
0.099581 -0.868233 -0.051831 -0.369511 -0.910793 0.109876
-0.272432 0.290127 -0.081576 0.573435 -0.522219 -0.629552
-0.056651 -0.122274 0.123605 -0.207317 0.038746 0.976766
-0.381228 0.225496 -0.073718 -0.114506 -0.298066 -0.945365
0.116695 -0.607868 -0.09835 -0.264603 -0.097982 -0.958686
0.168643 -0.799473 0.006434 0.9013 -0.169187 0.365018
0.148294 -0.027179 0.109322 0.562472 0.018213 0.822952
-0.328347 0.239899 0.003495 0.291038 -0.36932 0.869766
-0.120302 -0.78449 -0.04121 -0.995683 -0.070517 0.026627
0.374969 0.260275 -0.112442 -0.59157 -0.600491 -0.536223
0.161762 -0.82839 -0.021344 0.957928 -0.271027 0.03086
0.146067 -0.678275 0.02726 0.173739 -0.181054 0.967414
0.042143 -0.199198 0.039406 -0.981808 -0.053116 0.181865
-0.02154 0.267326 0.11376 -0.275805 0.016203 0.960658
0.094386 -0.719297 0.035544 0.250096 -0.070267 0.962375
-0.183701 0.388166 0.019337 0.29266 -0.476637 0.827514
0.322448 0.321158 -0.126759 -0.417165 -0.508842 -0.740898
0.157114 -0.590251 0.039668 0.164105 -0.167709 0.969538
-0.171869 0.407182 -0.093873 0.228955 -0.167206 -0.958136
0.100347 0.282043 -0.139034 0.176955 -0.037069 -0.98282
0.122043 -0.763249 -0.100967 -0.258465 0.294971 -0.910452
0.049382 -0.616388 -0.03775 -0.926118 -0.123409 -0.341237
0.149353 0.371525 -0.122832 0.587435 -0.244837 -0.770309
-0.143534 -0.065639 -0.002989 -0.994729 0.020388 -0.091272
0.088062 0.289378 0.108927 0.372334 0.139382 0.916127
-0.010417 0.611395 -0.00029 -0.882116 0.08834 0.460427
0.069822 0.37977 0.102221 0.240963 0.220252 0.944126
-0.047035 0.214919 0.105009 -0.522179 0.04552 0.851422
0.2062 -0.024958 -0.025566 0.972042 0.023135 -0.231221
0.110983 0.061909 -0.142562 0.500986 0.193601 -0.842892
0.25451 0.515863 -0.084309 0.585758 0.68027 -0.439761
-0.135921 0.458313 -0.102601 -0.463895 0.047903 -0.88396
0.096831 -0.116502 0.102079 -0.550245 -0.119865 0.825871
-0.103344 -0.861197 0.085907 -0.5693 -0.789036 0.038491
0.192977 -0.610232 0.012968 0.766574 -0.142931 0.613693
0.057481 -0.702168 0.023468 -0.86767 0.199659 0.454944
-0.007848 -0.831758 -0.073798 0.043882 -0.998669 -0.01043
0.553951 0.14178 0.044096 -0.433103 0.204199 0.877011
-0.060066 -0.820668 0.084779 -0.188245 0.933549 0.304382
-0.135281 -0.107972 0.062921 -0.93021 -0.016108 0.361864
0.165374 -0.401278 0.073501 0.26119 -0.036568 0.961021
0.009037 -0.670292 0.008147 0.780793 -0.230987 0.578782
0.187534 -0.426724 -0.060617 0.788299 0.119872 -0.602916
-0.127692 0.074247 0.030789 -0.977033 0.150462 0.145411
0.203633 -0.391696 -0.027425 0.961215 -0.052486 -0.264833
0.055707 -0.1924 -0.076897 -0.746109 -0.22091 -0.62749
-0.045702 0.202803 0.106162 -0.483429 0.01937 0.874736
0.07481 0.104367 0.128384 0.330515 0.05576 0.939415
0.137177 -0.156917 -0.104868 0.418118 -0.136121 -0.894354
-0.039217 -0.064371 -0.119963 -0.056712 -0.321851 -0.944699
-0.328202 0.326206 -0.081416 -0.422003 0.651542 -0.626612
0.172264 0.375905 0.048303 0.772009 -0.086027 0.629602
-0.122212 -0.16084 0.088626 -0.829202 -0.020212 0.558489
0.124521 -0.546258 0.043914 -0.311449 -0.07884 0.946813
0.601834 0.105646 0.062455 0.752405 0.603703 0.25554
0.061194 -0.757994 0.017514 -0.749097 -0.248091 0.413789
0.075884 0.308133 -0.141146 -0.199458 -0.095112 -0.97492
0.025597 -0.454265 0.0015 0.983479 0.020534 0.149224
0.155821 -0.148683 0.101651 0.528694 -0.291892 0.795427
0.216352 0.445915 -0.132765 -0.084379 -0.180613 -0.979352
0.097531 -0.806394 -0.107425 -0.771927 0.112641 -0.623749
0.115501 0.591294 -0.061374 0.417198 0.886268 -0.065355
0.01458 0.148898 -0.115069 -0.147209 0.215929 -0.961231
0.157338 0.437457 0.061963 0.740299 0.08407 0.66688
-0.070572 0.125973 -0.099705 -0.541613 0.198087 -0.816484
-0.127473 0.081223 -0.027507 -0.983208 0.073553 -0.156712
0.417858 0.216627 -0.058025 -0.546444 -0.800906 0.230881
0.055848 0.512188 -0.127912 -0.15403 0.119909 -0.979511
0.000582 -0.482133 -0.062469 0.838838 0.057619 -0.521368
-0.262095 0.373478 0.017331 -0.303795 0.096116 0.944195
0.605658 0.100892 0.039835 0.835292 0.547533 0.003513
-0.014822 0.607425 -0.062325 -0.528173 0.690712 -0.490925
0.017956 -0.196741 -0.047215 0.881653 0.048905 -0.468626
0.022545 -0.712363 -0.035905 0.942495 -0.13547 0.301539
0.204133 -0.302672 0.025794 0.968837 -0.036066 0.235275
0.015519 -0.38263 -0.036988 0.823506 0.020009 -0.566571
-0.060551 0.088251 -0.118565 -0.495089 0.290094 -0.817998
0.201389 -0.335538 -0.022099 0.88983 0.109973 -0.441694
0.183847 -0.292259 0.070806 0.55248 -0.04729 0.827883
-0.037889 -0.603844 -0.097515 0.403661 0.012434 -0.914496
-0.129367 0.542747 -0.068341 -0.377782 0.722394 -0.578383
0.049586 0.835889 -0.091191 0.20797 0.676627 -0.704301
0.023859 -0.593012 -0.003718 0.877897 0.045975 0.467561
0.098739 -0.168531 0.09874 -0.35311 -0.176186 0.917407
-0.115034 -0.254497 0.095549 -0.792529 -0.032983 0.580373
0.026559 -0.370439 -0.002581 0.996916 -0.021592 -0.0554
0.0967 0.811616 -0.06016 0.918076 0.347377 -0.184173
0.191021 -0.416289 0.045383 0.933484 -0.037558 0.355101
-0.216811 0.470949 0.017683 -0.766564 0.365146 0.520163
0.003677 -0.128327 0.112139 0.575725 -0.180918 0.79701
-0.093342 -0.094403 -0.089069 -0.67511 -0.137986 -0.723633
-0.105616 -0.818875 -0.063095 -0.874819 -0.459186 -0.030788
0.313921 0.307342 -0.088141 -0.703115 -0.71056 0.001091
0.11408 0.488788 -0.142699 -0.015286 0.289672 -0.954317
0.171926 -0.784504 0.018503 0.591819 -0.506581 0.59537
-0.042097 0.153697 0.112506 -0.518979 0.073005 0.85116
-0.023339 0.57436 0.005514 -0.351888 0.646796 0.672869
0.51338 0.189489 -0.052683 0.221595 -0.367849 -0.902208
0.110914 0.551535 -0.118557 0.167129 0.568285 -0.802282
0.13123 0.383134 0.084284 0.478795 0.057481 0.875869
0.089018 -0.748245 0.02506 -0.060012 -0.62242 0.778922
0.132128 -0.869926 -0.083356 0.030121 -0.999487 -0.003118
0.233737 0.531239 -0.088842 0.523201 0.670288 -0.525172
-0.071101 0.3372 0.087095 -0.519745 -0.15402 0.840005
-0.079692 -0.093259 0.117573 -0.435138 -0.014681 0.89942
0.201196 -0.186592 -0.047951 0.867297 0.026694 -0.495701
-0.06309 -0.268651 -0.091039 -0.273214 -0.034834 -0.960228
0.069748 0.231074 -0.132406 -0.237795 -0.24395 -0.939739
0.096835 -0.265668 0.083652 -0.163918 -0.151085 0.97391
0.089794 -0.52744 0.027876 -0.548479 0.039895 0.834022
-0.123701 -0.406011 -0.036151 -0.813186 -0.019923 -0.580342
-0.382521 0.192103 -0.011438 0.472119 -0.880106 0.040914
0.020991 0.476823 0.082298 0.058218 0.411982 0.909038
0.296271 0.344173 -0.126158 -0.522598 -0.450193 -0.723104
0.010373 -0.395083 0.050201 0.851821 -0.184969 0.489377
-0.081969 -0.103904 0.116284 -0.426134 0.009471 0.902782
0.458923 0.19318 -0.030251 -0.415298 -0.907906 0.037604
-0.548536 0.087073 0.057219 -0.851924 0.522061 0.025837
0.05635 -0.01563 0.134444 0.073287 -0.332184 0.940278
0.034503 0.029351 -0.157246 -0.198376 0.032642 -0.965342
0.579133 0.105801 -0.006941 0.57534 0.081704 -0.81299
-0.475225 0.173317 0.028486 -0.439535 0.843713 0.244501
0.008736 0.284962 -0.12908 0.128079 0.000346 -0.991667
-0.135765 -0.439444 0.018166 -0.97853 -0.023122 0.197303
0.001187 -0.683074 0.012417 0.772937 -0.193211 0.600308
0.063774 -0.601667 -0.059145 -0.6962 -0.025363 -0.717385
0.109172 -0.184619 0.097849 -0.103167 -0.142933 0.983314
0.225427 0.507005 -0.118714 0.395702 0.488794 -0.775934
-0.050555 0.117331 0.107609 -0.553841 0.076886 0.828194
0.273793 0.412814 -0.141626 -0.050738 0.03654 -0.997383
-0.108846 -0.461045 0.06829 -0.805478 -0.195126 0.559342
