0.189749 0.092969 0.042718 0.970838 0.059825 0.221388
-0.047922 -0.685991 -0.10983 0.320598 0.228684 -0.917923
0.12477 0.096436 -0.123837 0.596259 0.287603 -0.748751
-0.06806 0.448509 0.083911 -0.26488 0.280174 0.920085
-0.113874 0.448006 -0.114262 -0.429965 -0.027962 -0.901329
0.198717 -0.604794 -0.003714 0.989262 -0.062316 0.127619
-0.015513 -0.367999 0.083032 0.414806 -0.149956 0.897315
-0.137628 -0.185142 0.037613 -0.99189 -0.064838 0.092454
-0.018978 -0.572896 -0.087106 0.655899 -0.053233 -0.750492
0.111419 -0.218578 0.092134 -0.028396 -0.193925 0.979845
-0.440286 0.151887 -0.00278 0.634927 -0.769233 0.013179
-0.079276 -0.341298 0.103736 0.104319 -0.104024 0.987721
-0.149316 0.532892 0.033826 -0.304713 0.690384 0.652839
0.140792 0.058858 -0.122305 0.673208 0.207315 -0.708219
-0.127247 -0.678899 -0.042505 -0.988163 -0.032739 0.140346
0.195458 -0.718416 -0.008378 0.965608 0.007835 0.25759
-0.162682 0.543356 -0.030695 -0.619773 0.765098 -0.16921
0.172039 0.542638 -0.107076 0.271509 0.682368 -0.67854
-0.04054 -0.673605 0.021606 -0.041409 -0.180313 0.981134
0.170719 -0.270879 -0.067017 0.579833 -0.197011 -0.790432
0.014897 -0.706203 -0.016331 0.801627 -0.139927 0.57948
0.106571 0.130526 0.112835 0.503937 0.018375 0.862754
0.203959 -0.543791 -0.035653 0.96652 -0.027113 -0.249112
0.002201 -0.179493 -0.066808 0.745211 0.042859 -0.665093
0.192485 0.563126 -0.053245 0.551342 0.821239 -0.034377
-0.07392 0.435022 0.085108 -0.535469 0.186763 0.822812
0.094202 -0.694834 -0.082392 -0.684082 0.020431 -0.729019
-0.328202 0.326206 -0.081416 -0.422003 0.651542 -0.626612
-0.07298 0.509848 0.057136 -0.171623 0.462747 0.868204
0.067296 -0.31607 -0.078533 -0.763755 -0.021381 -0.644142
0.049586 0.835889 -0.091191 0.20797 0.676627 -0.704301
0.28941 0.36399 -0.134319 -0.295336 -0.52586 -0.794227
-0.02132 -0.2686 -0.085532 0.624586 -0.060697 -0.778354
0.139977 0.002379 0.116165 0.456454 -0.147627 0.865698
0.081062 -0.199872 -0.094236 -0.404139 -0.233716 -0.883861
-0.069644 0.098747 -0.109543 -0.569049 0.299664 -0.764524
0.022707 -0.4774 -0.023094 0.903361 0.048149 -0.426011
0.106621 -0.692964 -0.091215 -0.431614 0.077175 -0.894498
0.127961 -0.119695 0.112126 0.148286 -0.063295 0.985909
0.420084 0.292066 -0.047696 0.321359 0.629235 0.706681
-0.113109 -0.792955 -0.080377 -0.93842 -0.102791 -0.318291
-0.126123 -0.654282 -0.073011 -0.918637 -0.012563 -0.376569
0.096622 0.501329 0.059793 0.227681 0.478568 0.847294
0.564538 0.153913 0.040412 0.589 0.603407 0.510985
0.080883 -0.261016 0.080001 -0.399901 -0.133568 0.90333
0.301224 0.320416 -0.099513 -0.695203 -0.709929 -0.104082
0.009678 0.136842 0.131089 -0.122541 0.03328 0.991762
0.205697 -0.105626 -0.036562 0.915772 0.070463 -0.39408
0.132482 0.355694 -0.131649 0.52634 -0.215234 -0.820741
0.093894 -0.779964 0.039058 -0.152368 0.859918 0.487078
0.034169 0.417917 0.096874 0.086723 0.197162 0.976388
0.323551 0.360792 -0.038289 0.47338 0.055887 0.874154
-0.181003 0.470186 -0.082905 -0.380702 0.312707 -0.869075
0.205636 -0.234469 0.002413 0.99862 -0.048898 0.014278
0.021578 0.134556 0.132499 -0.061831 0.02465 0.997266
0.587669 0.063402 0.046042 0.772054 -0.330177 0.469522
0.131916 -0.42759 0.066269 -0.350811 -0.083786 0.931167
0.157353 0.042322 -0.112529 0.705653 0.210064 -0.675186
0.158234 -0.305493 -0.072085 0.607487 -0.006564 -0.794068
-0.121902 0.358637 -0.049588 -0.980917 -0.189921 -0.0167
0.177106 0.071357 0.073892 0.843598 0.116298 0.48844
0.003661 -0.760675 -0.094038 0.798745 0.148931 -0.579312
0.102507 0.596909 -0.040806 0.587362 0.770804 0.229612
0.165962 0.078307 0.084669 0.682749 0.262117 0.676805
0.093302 -0.591761 0.027788 -0.331759 -0.052428 0.939968
-0.080646 -0.403568 0.091665 0.10843 -0.210888 0.969879
-0.076509 0.427188 -0.123579 -0.313855 -0.184453 -0.931194
0.086145 -0.289535 0.076886 -0.390437 -0.215584 0.89491
0.17196 -0.152298 0.093013 0.583445 -0.083106 0.805719
0.086325 0.789389 0.050433 0.812504 0.350177 0.458241
0.125232 0.238105 0.096906 0.54539 0.042072 0.837007
0.167994 0.248632 -0.058236 0.891416 0.02001 -0.45262
-0.027474 0.279697 -0.130511 -0.129709 -0.037016 -0.990167
-0.545653 0.086002 0.01458 -0.254414 0.684991 -0.552594
-0.119352 0.228106 -0.002937 -0.971816 0.21761 0.015534
0.066584 0.79566 0.073594 0.542337 0.288516 0.785517
-0.068174 -0.782273 -0.136766 -0.430313 0.355903 -0.826729
0.094643 -0.865756 0.058666 -0.614922 -0.780104 -0.065575
-0.143528 -0.057509 0.01982 -0.996944 0.042837 0.058422
0.045102 -0.152339 -0.075899 -0.775188 -0.243339 -0.579985
0.078559 -0.005079 0.136167 0.214188 -0.266171 0.932814
0.103433 -0.860441 -0.009411 -0.565202 -0.81245 -0.066739
0.140394 -0.835984 0.170708 0.436383 0.792295 0.423426
0.066104 0.648149 0.026444 0.662091 -0.343497 0.665458
0.10844 0.278488 0.103522 0.352791 0.042845 0.934474
-0.094425 -0.391343 -0.068852 -0.55843 -0.116483 -0.819264
-0.124744 0.037769 -0.055541 -0.623412 0.037145 -0.759877
0.164339 -0.839745 0.086054 0.787739 0.615723 0.01869
0.014003 0.77088 -0.119734 -0.184326 -0.013448 -0.974668
0.475786 0.183336 -0.034329 -0.569289 -0.819706 -0.041337
-0.116516 -0.593578 0.017261 -0.892514 0.01881 0.449965
-0.075453 -0.398897 -0.07858 -0.354222 -0.052008 -0.932199
0.034169 -0.156178 -0.052678 -0.918622 -0.206511 -0.336619
-0.1047 -0.631307 0.041121 -0.815145 -0.113736 0.55514
-0.064797 -0.253272 0.111882 0.025455 -0.095977 0.994751
0.083021 0.13169 -0.127437 0.152621 0.323452 -0.933152
-0.105778 -0.586729 0.041585 -0.93562 0.031209 0.350495
0.11947 0.325242 0.094275 0.500531 0.104918 0.857073
0.190555 -0.748288 -0.027143 0.886419 -0.253649 -0.360053
0.089019 -0.138288 0.095905 -0.536632 -0.029895 0.843106
0.009221 -0.053074 -0.122708 0.082312 -0.604158 -0.792394
-0.077085 0.393038 -0.118643 -0.331103 -0.128134 -0.93442
0.086388 0.524857 0.048793 0.188127 0.545747 0.816048
-0.070164 -0.749711 0.029181 -0.019693 -0.098839 0.988054
0.278617 0.486006 -0.029151 0.672295 0.586696 0.44857
-0.169669 0.449701 0.045259 -0.348354 -0.305621 0.876677
0.140762 0.194842 0.087868 0.697464 0.046645 0.71506
0.117173 -0.227905 0.090765 0.037746 -0.169037 0.984875
-0.126469 -0.41681 0.051556 -0.924235 -0.058792 0.375468
-0.137054 -0.06787 0.054283 -0.977577 0.014888 0.209706
-0.050864 0.022573 0.126026 -0.430011 0.267861 0.858622
0.155148 0.241738 0.066934 0.777352 0.063568 0.62578
0.028756 -0.251055 0.034344 0.98139 -0.031635 0.188206
0.151618 0.377824 0.070264 0.671055 -0.041423 0.740178
0.043282 -0.306856 0.025051 -0.986322 -0.019761 0.153172
-0.057385 0.56905 0.003309 -0.129315 0.796316 0.589701
0.138515 0.45899 -0.144714 0.115028 0.034315 -0.992719
-0.108224 -0.050733 -0.084785 -0.779644 -0.148013 -0.60832
0.089769 0.834432 -0.028788 0.935569 0.352026 -0.016228
-0.113502 -0.218385 0.098661 -0.681589 -0.054065 0.729236
0.028128 -0.334435 0.00367 0.998552 -0.049552 -0.003761
-0.495776 0.127743 -0.008297 -0.163567 -0.794389 -0.535022
-0.096315 -0.541919 0.059358 -0.848353 -0.079027 0.522735
-0.04937 0.56227 -0.096537 -0.353999 0.547667 -0.757904
0.574529 0.117958 0.058827 -0.345254 0.299066 0.88137
-0.042268 0.235863 0.106872 -0.506343 0.024883 0.860468
0.382627 0.337769 -0.117073 0.654913 0.519507 -0.548602
-0.04399 -0.855125 0.136342 0.75124 -0.383659 0.464006
-0.071076 0.507284 -0.119326 -0.231716 0.352148 -0.906281
-0.13307 -0.53643 -0.009525 -0.885862 -0.214316 0.409457
0.01169 0.174286 -0.116452 -0.01872 0.026042 -0.996379
0.174921 -0.521975 -0.08546 0.697581 -0.02808 -0.715923
0.088821 0.76026 0.050095 0.849158 0.065438 0.510681
-0.276545 0.396402 -0.004575 -0.676863 0.554548 0.483369
0.0448 -0.268835 0.03928 -0.949453 -0.054378 0.305706
0.057831 -0.001282 -0.154247 -0.201297 -0.11582 -0.972195
0.594262 0.056952 0.010579 0.983797 -0.138942 -0.026092
0.198796 -0.227747 -0.049761 0.821995 -0.117012 -0.550566
-0.191977 0.504118 -0.051832 -0.680842 0.536794 -0.495176
-0.046152 -0.629137 0.029999 0.375165 -0.25094 0.890927
0.388358 0.338558 -0.109357 0.712372 0.649094 -0.265471
-0.125147 -0.733723 -0.028367 -0.922647 0.069864 0.37577
-0.023292 -0.200236 0.116072 0.326988 -0.189905 0.925036
-0.074328 -0.234912 0.112851 -0.103076 -0.086357 0.99045
-0.12786 0.187136 -0.003071 -0.987677 0.077363 -0.112341
0.202125 -0.376997 0.014129 0.943804 0.004836 0.330003
0.431262 0.211892 -0.04918 -0.534363 -0.741962 0.39389
0.066152 0.098722 0.130778 0.192534 -0.031903 0.973751
-0.125588 -0.191904 0.083592 -0.834433 -0.003864 0.549219
0.042975 -0.35177 0.011291 -0.978823 -0.069799 0.19156
-0.130963 -0.566032 -0.021188 -0.952443 -0.13017 0.272122
0.06885 -0.357003 0.050012 -0.634677 -0.307761 0.707378
0.137764 0.249513 -0.109075 0.793796 -0.14034 -0.591715
0.198173 -0.373687 -0.041792 0.902323 0.049811 -0.425902
0.050995 0.694344 -0.077934 0.216433 -0.599749 -0.769591
0.411906 0.308885 -0.060213 0.499348 0.680414 0.532109
0.057656 0.204173 -0.11997 -0.222561 -0.3924 -0.892097
0.075454 -0.818816 0.017143 -0.857745 -0.391683 0.300634
-0.007495 -0.501156 -0.074742 0.744613 0.073637 -0.66315
-0.126896 0.529208 -0.083508 -0.357518 0.599036 -0.715216
-0.082982 -0.508846 -0.095506 -0.341294 0.091552 -0.932187
-0.06948 -0.577178 0.052592 0.406918 -0.229036 0.883777
0.154787 0.552454 -0.001342 0.144127 0.736306 0.660902
-0.501365 0.141881 -0.016016 -0.878272 0.097557 -0.40046
-0.033911 0.81025 -0.071565 -0.949604 0.080462 -0.294239
0.246607 0.428149 -0.007247 0.457714 -0.354839 0.812663
0.170282 -0.645576 -0.07578 0.574215 -0.19217 -0.795716
-0.036352 0.755687 -0.051601 -0.964284 -0.162329 -0.20111
0.10941 -0.86414 -0.016793 -0.37823 -0.922066 0.061803
-0.025416 0.703626 0.006533 -0.882099 -0.469549 0.013358
0.088072 0.310628 -0.142812 0.015538 -0.089302 -0.993963
0.312443 0.456903 -0.073983 0.724663 0.687901 0.020626
0.17613 -0.066303 0.088858 0.691685 0.040688 0.721003
-0.114345 -0.267119 0.095283 -0.717621 -0.061028 0.69337
0.069369 0.594625 -0.086901 0.130811 0.689369 -0.712238
0.053829 -0.654126 0.006849 -0.88974 0.110374 0.415561
0.061597 -0.780231 0.025109 -0.781874 -0.136704 0.491585
0.083625 -0.40645 0.042654 -0.665513 -0.319839 0.673475
-0.042156 0.059348 -0.135708 -0.315347 0.205813 -0.923246
-0.473191 0.159148 -0.040461 -0.373784 0.222625 -0.876734
0.213857 -0.116295 -0.012751 0.990043 0.001064 -0.131225
0.052975 -0.489132 -0.004094 -0.849323 -0.025576 0.521555
0.088463 -0.848657 -0.040596 -0.975052 -0.144576 0.113415
-0.109241 -0.037988 0.096262 -0.723658 0.052852 0.688007
-0.007873 0.516287 0.063806 -0.000768 0.444075 0.895372
-0.06857 0.062906 0.11107 -0.355429 0.165388 0.916989
0.02357 0.516959 0.059736 0.128171 0.504089 0.854018
-0.291288 0.37024 -0.069066 -0.854723 0.41723 -0.293211
-0.050908 -0.827517 0.121367 0.424869 0.866796 0.197699
0.311943 0.411193 -0.032238 0.71638 0.238339 0.652453
0.104331 0.771608 -0.002998 0.984245 -0.04351 0.155444
-0.565392 0.049535 0.052184 -0.950847 0.228545 0.178167
-0.111653 0.326328 0.021696 -0.939734 -0.125674 0.31434
-0.029313 0.431597 0.096376 -0.142918 0.230575 0.96249
-0.023022 -0.849379 -0.082488 0.940757 -0.31603 0.085858
-0.560629 0.050934 0.074315 -0.467192 -0.567429 0.502944
-0.031527 -0.04812 -0.126918 -0.047883 -0.446136 -0.89324
-0.074896 0.197408 0.090746 -0.576984 0.065434 0.812947
-0.058576 -0.747852 -0.126819 -0.077434 0.2474 -0.961721
-0.12434 -0.262753 -0.023763 -0.853654 0.035652 -0.51935
0.082746 0.764849 0.056356 0.664841 -0.054267 0.741421
0.15164 -0.126882 0.106795 0.340023 -0.102924 0.933244
0.145294 0.013109 0.113114 0.437362 0.141884 0.886262
0.194263 -0.332002 -0.034419 0.800863 0.085522 -0.590462
-0.113251 -0.317299 -0.045335 -0.861317 0.05252 -0.490157
0.193 -0.084702 0.073212 0.699362 0.021163 0.710315
-0.303354 0.244357 -0.022505 0.659236 -0.722076 0.207996
-0.023339 0.57436 0.005514 -0.351888 0.646796 0.672869
0.090337 0.787359 0.038072 0.970058 0.126215 0.202605
0.61875 0.061926 0.1024 -0.099345 0.541777 0.696554
-0.098854 -0.857541 -0.009049 -0.613255 -0.758839 -0.216419
-0.09001 -0.34582 0.103494 -0.090817 -0.096785 0.98833
-0.136925 -0.419414 -0.006856 -0.987896 0.081354 -0.125016
0.014304 -0.792535 -0.071859 0.909717 -0.381723 -0.084491
0.212672 -0.049597 0.000805 0.985619 0.021328 -0.163683
0.363477 0.366443 -0.100271 0.700681 0.712227 -0.005388
0.041953 0.490991 -0.126656 -0.210711 0.083022 -0.97384
0.002139 -0.827882 -0.038705 0.907513 -0.392903 0.138503
-0.292337 0.336195 0.005457 -0.286997 0.181797 0.938606
-0.018315 0.848013 -0.037896 -0.552638 0.804063 -0.215974
-0.100213 -0.180639 -0.067952 -0.737433 -0.062335 -0.671839
0.339244 0.362017 -0.049289 0.583005 0.409014 0.699727
0.101028 0.542224 0.032434 0.408236 0.568921 0.712235
-0.064313 0.157654 -0.092899 -0.345849 0.246879 -0.901996
-0.013572 -0.401188 0.074214 0.489635 -0.202059 0.846279
-0.191415 0.466251 -0.07987 -0.420553 0.398177 -0.813892
0.425421 0.235279 -0.113189 0.295052 -0.453369 -0.838229
0.284527 0.459338 -0.022127 0.691369 0.217444 0.688316
0.567434 0.141184 -0.006876 0.633084 0.179168 -0.735963
0.054379 0.137752 0.130138 0.115474 0.037658 0.992588
0.187116 0.327587 -0.051056 0.856976 -0.357078 -0.371543
0.011726 -0.794985 -0.083225 0.964004 -0.175087 -0.177303
0.170502 0.339783 -0.090667 0.74912 -0.322698 -0.578321
0.234845 0.535825 -0.080107 0.571776 0.70837 -0.411637
0.201534 0.402473 -0.03243 0.959728 -0.273818 0.022744
0.02026 0.467135 0.08709 0.086405 0.446509 0.88627
-0.139095 -0.487102 -0.020757 -0.976045 -0.094073 -0.147511
-0.028404 0.826958 -0.069945 -0.653402 0.603611 -0.451654
-0.088227 -0.56599 0.062038 -0.248692 -0.153055 0.912728
0.187013 -0.587816 -0.069535 0.748875 -0.040744 -0.661249
0.216287 0.404441 -0.101555 -0.823449 -0.489928 -0.1565
0.000192 0.295009 -0.130046 0.145182 0.0414 -0.9884
-0.080909 -0.029012 -0.117445 -0.58515 -0.181876 -0.790181
-0.001219 -0.529272 0.028609 0.651904 -0.15459 0.742051
-0.13826 -0.015213 0.0256 -0.995421 0.042747 0.083582
-0.080145 0.481898 -0.124051 -0.325937 0.229242 -0.915816
0.195223 -0.297391 0.051066 0.891812 -0.096141 0.441926
0.526437 0.14964 0.022338 -0.722636 -0.316111 0.586618
0.321261 0.433059 -0.115087 0.539239 0.663257 -0.518712
0.15085 0.299685 -0.100789 0.817979 -0.133997 -0.558961
0.02013 -0.252102 0.066273 0.948628 -0.023108 0.315218
0.01767 -0.418997 0.02593 0.945162 -0.073152 0.311852
0.090118 0.123165 0.120589 0.374152 0.028387 0.926805
0.10338 -0.006132 -0.153427 0.249844 -0.001242 -0.965227
-0.109788 0.550132 0.023014 -0.069546 0.783153 0.611108
-0.344184 0.250665 -0.080197 0.194195 -0.411097 -0.889899
0.063775 -0.282941 -0.074573 -0.79234 0.009998 -0.609877
-0.025858 0.838619 0.009885 -0.708317 0.351186 0.592196
0.203628 0.042296 0.037018 0.954503 0.188506 0.229068
0.01101 0.619469 -0.067914 -0.261337 0.524752 -0.801245
0.086142 -0.859786 -0.074087 -0.853626 -0.470252 -0.077451
0.164939 -0.321272 -0.066578 0.680974 0.002575 -0.731999
0.180736 0.537293 -0.108599 0.256245 0.631897 -0.73056
-0.023353 0.740928 0.048536 -0.824803 0.031166 0.563557
-0.118802 0.04035 0.078342 -0.87409 0.071482 0.47852
-0.085743 -0.257057 0.110726 -0.158019 -0.040989 0.986504
-0.130013 -0.599546 -0.037274 -0.996734 -0.061472 0.038589
0.0443 -0.544757 -0.026764 -0.993768 -0.007885 0.019296
-0.162225 0.414484 -0.093154 0.321996 -0.301213 -0.895829
0.085304 -0.351101 -0.092997 -0.599166 -0.043335 -0.798869
-0.022079 0.725277 -0.061491 -0.861131 -0.415902 -0.289874
0.25138 0.471464 -0.125764 0.310093 0.410575 -0.856422
0.176438 -0.219262 -0.071176 0.605917 -0.001009 -0.795263
-0.024292 -0.834288 0.040916 0.975483 0.089622 0.082832
0.09634 0.142778 0.117075 0.480779 0.080241 0.873019
0.097934 -0.436246 -0.097524 -0.496853 0.031312 -0.865138
-0.046154 0.257675 0.103434 -0.613832 0.046559 0.786473
0.107665 -0.242071 0.088472 -0.029051 -0.130905 0.989946
0.100347 0.282043 -0.139034 0.176955 -0.037069 -0.98282
0.098963 0.301433 -0.140487 0.14614 -0.104604 -0.983241
-0.020354 0.492347 -0.127582 0.047763 0.137874 -0.989198
0.118597 -0.341531 0.078548 -0.227632 -0.198283 0.946136
0.093936 0.073021 0.119741 0.342703 0.110993 0.932017
0.010154 0.005888 -0.145747 -0.15356 -0.212669 -0.964344
0.226475 0.513032 0.007996 0.412041 0.486507 0.768999
0.055111 0.083291 -0.147331 -0.139252 0.314984 -0.938114
0.200408 -0.54068 -0.046264 0.953014 -0.012051 -0.302468
0.102843 0.746245 0.001974 0.821498 -0.116414 0.535512
-0.043227 -0.825262 -0.146125 0.087852 -0.276538 -0.956226
0.096294 -0.316829 0.075479 -0.33243 -0.116499 0.935675
0.076434 -0.615183 0.009609 -0.767213 -0.215126 0.603705
0.173458 -0.456105 -0.082795 0.654324 0.16896 -0.736799
0.172882 -0.708675 -0.000115 0.394741 -0.61019 0.685796
0.086956 0.828764 0.021633 0.870216 0.312971 0.365459
0.096599 0.202171 0.113722 0.389466 0.046129 0.919732
0.176631 0.230618 0.040204 0.900549 0.042149 0.429885
0.069922 -0.217449 0.080227 -0.558089 -0.111189 0.821098
-0.040419 0.331641 -0.127566 -0.205055 0.008783 -0.976846
0.120942 0.333719 -0.134531 0.510272 -0.125163 -0.848641
-0.160983 0.480838 0.055034 -0.244082 0.108333 0.962233
0.061996 -0.059179 0.121856 0.031328 -0.426008 0.903216
0.089938 -0.849507 0.011542 -0.85161 -0.476672 -0.084855
0.095228 -0.180716 -0.103984 -0.256056 -0.177056 -0.949302
0.001659 0.520004 0.061099 0.069855 0.502826 0.861344
-0.140674 -0.476994 -0.015766 -0.980594 0.085677 -0.148261
-0.136093 -0.149561 0.06095 -0.960632 0.010432 0.276191
0.027239 -0.201525 0.047477 0.974028 0.001996 0.225755
0.162587 -0.85189 -0.040683 0.94904 -0.290115 0.079869
0.042322 -0.22567 0.030172 -0.991192 -0.045292 0.120186
0.00693 0.383505 -0.128265 0.046362 -0.017339 -0.998745
0.124262 0.48957 -0.142047 0.076668 0.327671 -0.93737
-0.002149 0.296276 0.118313 -0.344001 0.125101 0.929485
-0.031008 0.569928 -0.097613 -0.157146 0.590434 -0.79161
-0.132319 -0.255788 0.001567 -0.966219 -0.112581 -0.230884
-0.020112 -0.801956 0.036225 0.924365 0.274787 0.263993
0.096831 -0.49293 -0.099356 -0.549511 -0.012977 -0.835271
-0.00084 -0.025992 -0.137203 -0.040364 -0.300786 -0.952277
-0.041321 -0.498859 0.059347 0.335145 -0.255904 0.905639
0.021638 0.735782 0.096639 -0.873846 0.110532 0.442815
0.185232 0.159597 0.038514 0.856492 0.172454 0.48529
-0.064775 0.559511 -0.091048 -0.385297 0.596914 -0.703466
-0.000974 -0.170623 0.107511 0.610221 -0.111153 0.78424
0.18272 0.113224 -0.048207 0.840229 0.300339 -0.450194
0.133555 -0.866686 0.005142 0.079438 -0.992941 -0.08021
0.088059 -0.328627 -0.094929 -0.445621 -0.004631 -0.893594
-0.014336 -0.162691 -0.082046 0.589245 -0.088914 -0.802269
0.033557 -0.227112 0.021813 0.866866 -0.151864 0.472105
0.148558 0.221177 0.076862 0.766627 0.066249 0.638559
0.042023 -0.311991 0.014755 -0.971093 -0.023565 0.237122
-0.25771 0.430158 -0.028307 -0.732383 0.657879 0.165157
0.081086 0.512381 -0.132661 -0.304529 0.32162 -0.895655
-0.370868 0.297409 -0.01529 -0.568553 0.723495 0.389995
0.082312 0.128247 0.123405 0.409234 0.050325 0.908474
0.15885 -0.104328 0.104327 0.487381 0.016206 0.869308
0.328182 0.354278 -0.138264 0.035577 -0.103147 -0.992953
-0.282058 0.3949 -0.07279 -0.633227 0.499208 -0.550782
-0.101445 0.141551 -0.068713 -0.756464 0.199345 -0.622174
-0.127457 -0.429955 -0.036727 -0.826321 0.24583 -0.506597
0.073188 0.020935 -0.160046 0.021273 -0.151857 -0.986515
0.144303 -0.703494 -0.088264 0.524079 0.004598 -0.847838
0.036355 0.337748 0.115834 0.077478 0.238443 0.965945
0.265207 0.434376 -0.00972 0.041332 -0.046164 0.996239
0.087771 -0.843941 -0.030974 -0.991391 -0.11441 0.042744
0.157281 0.52352 0.025857 0.170173 0.593255 0.785217
0.089509 -0.171894 0.094166 -0.43579 -0.131794 0.889871
0.19236 -0.658059 -0.052027 0.783477 -0.272357 -0.55483
0.476895 0.182913 -0.013312 -0.594813 -0.799451 0.078211
0.090223 -0.848593 0.128788 -0.917486 0.341662 0.180926
0.068305 0.517429 0.056591 0.068558 0.534933 0.840208
-0.024331 0.78237 -0.093172 -0.801959 -0.084847 -0.588942
0.311575 0.377896 -0.026623 0.604276 -0.24313 0.748797
0.075014 0.616214 -0.064251 0.415001 0.61157 -0.666103
-0.128025 -0.309229 0.028099 -0.996114 -0.031322 0.076271
0.43231 0.242345 -0.11462 0.447207 -0.397567 -0.798201
0.066895 -0.675307 -0.049657 -0.774584 -0.133728 -0.617474
-0.018868 -0.46403 -0.080884 0.664609 0.103327 -0.732802
0.1926 -0.018951 -0.063317 0.917956 0.041025 -0.394149
0.322448 0.321158 -0.126759 -0.417165 -0.508842 -0.740898
0.043429 0.608082 0.025772 0.199707 -0.113289 0.968894
-0.110346 0.121549 -0.058667 -0.850355 0.070229 -0.518524
0.064752 -0.312078 0.059476 -0.720599 -0.0866 0.687899
0.095845 -0.322752 -0.098108 -0.304522 0.010749 -0.947878
-0.492336 0.159935 0.027669 -0.753756 0.65479 0.048128
-0.033454 0.829427 0.004926 -0.857221 0.146706 0.460714
0.128689 -0.869383 -0.100344 0.108759 -0.981569 -0.142926
-0.047976 -0.855181 -0.134235 0.150747 -0.675462 -0.707059
-0.093719 -0.228891 -0.072241 -0.73007 -0.038213 -0.682264
0.091072 0.492369 -0.138051 -0.169235 0.256503 -0.950341
0.152669 0.096149 0.083251 0.388363 0.224604 0.881435
0.073249 -0.1265 0.085025 -0.628811 0.022646 0.777138
-0.011515 0.648225 -0.006869 -0.987165 -0.037786 0.130098
0.072796 -0.464559 0.010321 -0.584973 0.03936 0.806624
0.043299 -0.382215 0.001328 -0.981717 -0.079667 0.168321
0.058114 -0.742139 0.018827 -0.959597 -0.240474 0.129729
-0.074979 -0.763268 -0.125366 -0.518779 0.188751 -0.829208
0.185188 -0.49388 0.044538 0.861303 -0.114563 0.494355
-0.12044 0.378518 0.031139 -0.957203 -0.209353 0.198777
0.182195 0.234464 -0.019536 0.991659 0.007123 -0.118105
0.151925 -0.08171 0.107591 0.68642 0.03938 0.677733
0.124683 0.316573 0.091723 0.5519 0.080743 0.829865
0.098531 0.787184 0.014745 0.943276 0.109736 0.310861
-0.130479 -0.082697 0.070651 -0.84361 0.0244 0.536341
-0.054936 -0.48116 -0.097314 0.044565 0.111714 -0.992554
0.206723 -0.146562 0.036829 0.968444 -0.149126 0.196721
-0.061138 -0.191751 0.120287 -0.242557 -0.083202 0.963133
0.04204 0.448712 -0.129242 -0.26214 0.037894 -0.959828
0.205664 -0.203612 -0.035328 0.98364 -0.020323 -0.167376
-0.125164 0.035869 0.067958 -0.872749 0.164821 0.458095
0.013458 0.0294 0.139927 -0.020633 0.174666 0.983313
-0.065287 -0.763418 -0.130002 -0.345396 0.298346 -0.885084
-0.150492 0.394322 0.002493 0.659313 -0.670512 0.336496
-0.1257 -0.542248 0.007891 -0.868517 -0.158295 0.464464
0.194517 -0.718526 -0.034171 0.796626 -0.09979 -0.593943
0.187769 -0.358617 0.057211 0.865923 -0.048466 0.49695
0.061934 -0.390746 0.027017 -0.702733 -0.335021 0.627609
0.203638 -0.007854 0.044902 0.928476 0.032143 0.366043
-0.434746 0.231416 -0.02475 -0.738302 0.674065 -4e-05
-0.393766 0.239381 0.011194 -0.037558 0.185891 0.98123
0.200515 0.403335 -0.01511 0.961026 -0.236126 0.134163
-0.024593 0.730829 0.044973 -0.911815 -0.071409 0.387212
-0.081576 -0.578662 -0.101703 -0.217514 0.053775 -0.974445
-0.208555 0.440387 -0.085012 -0.374509 0.420017 -0.826149
-0.094007 -0.385011 0.096067 -0.07248 -0.183869 0.979104
-0.072512 -0.136668 0.119796 -0.299255 0.043353 0.952632
0.085814 -0.587655 -0.081729 -0.659283 -0.113793 -0.743151
0.168643 -0.799473 0.006434 0.9013 -0.169187 0.365018
-0.0257 0.470238 0.08422 -0.134863 0.39638 0.907241
0.111512 0.562147 0.00516 0.422697 0.683743 0.593736
-0.061992 -0.074321 0.12392 -0.296558 -0.11183 0.948012
-0.033748 0.195489 -0.112417 -0.36695 -0.353361 -0.860036
0.080396 -0.221607 -0.089472 -0.469199 -0.09276 -0.877702
-0.125043 -0.169282 0.084098 -0.820964 0.003508 0.570828
-0.01069 0.333876 0.112333 -0.171698 0.086353 0.977631
0.202197 -0.369902 -0.031993 0.926134 0.075322 -0.367018
-0.070028 -0.848534 0.163106 -0.035002 -0.379474 0.908732
0.093342 0.253472 -0.137673 0.042837 -0.100049 -0.993842
0.05238 0.864348 -0.036119 0.168096 0.969405 -0.166427
-0.350293 0.318742 -0.030164 -0.671219 0.721374 0.167974
0.444364 0.243784 -0.106179 0.61956 -0.308575 -0.721166
0.437902 0.284444 -0.109982 0.673371 0.4103 -0.61376
-0.031206 -0.259736 -0.090277 0.320269 0.00094 -0.94716
0.009143 -0.060604 -0.116293 0.143837 -0.670046 -0.726936
0.008663 0.556298 0.027286 -0.073739 0.429575 0.891661
-0.13522 0.41626 0.047545 -0.521835 -0.712304 0.455675
0.510649 0.160834 0.017432 -0.559381 -0.632398 0.441305
-0.01526 -0.693983 -0.092594 0.609352 0.22055 -0.761479
0.192475 -0.050235 -0.062788 0.902803 -0.050733 -0.426798
-0.034686 0.797594 0.004613 -0.984354 0.023879 0.167405
-0.321111 0.30715 -0.094567 -0.217134 0.167046 -0.957765
0.313621 0.324841 -0.051642 -0.467799 -0.59893 0.64762
-0.125594 -0.35576 -0.030679 -0.963644 0.079637 -0.25332
0.164468 0.123227 0.071714 0.602877 0.212497 0.768013
-0.010417 0.611395 -0.00029 -0.882116 0.08834 0.460427
0.200014 -0.450206 -0.022514 0.999873 0.007102 -0.008945
-0.282587 0.310591 -0.096226 0.227461 -0.142386 -0.961053
-0.008921 0.701944 -0.063198 -0.704181 -0.512661 -0.489318
0.173341 0.31161 0.042472 0.906019 0.049491 0.407677
0.108768 0.406236 0.089817 0.203315 0.127159 0.970726
0.027102 0.102384 -0.138153 -0.162068 0.293896 -0.941585
0.454213 0.21923 -0.087162 0.702749 -0.264005 -0.659736
0.115885 0.100298 -0.128924 0.508951 0.286701 -0.811001
0.482401 0.246205 -0.03599 0.705179 0.702532 0.086956
0.105044 -0.861117 0.164565 -0.343805 -0.891392 0.259008
0.075784 -0.399309 0.038067 -0.676644 -0.325134 0.660352
0.000297 0.836081 -0.082488 -0.398336 0.728411 -0.557371
0.337521 0.391049 -0.134666 0.569476 0.010265 -0.816245
0.582218 0.131641 0.01903 0.77672 0.627108 -0.047736
0.009298 0.678172 -0.064121 -0.489925 -0.417981 -0.763542
-0.092803 0.068392 0.095294 -0.459413 0.29138 0.83726
0.008075 -0.057766 0.126673 0.315324 -0.212467 0.923178
0.390002 0.309458 -0.048209 0.271292 0.481939 0.831804
0.46957 0.255021 -0.031808 0.342502 0.673068 0.628405
0.15822 0.2432 -0.076237 0.840636 -0.052883 -0.537776
0.056733 0.453097 0.08714 0.115145 0.326073 0.938073
-0.125464 0.104998 -0.027823 -0.945711 0.059879 -0.31302
0.506178 0.161641 -0.001065 -0.601594 -0.794325 0.080775
0.079098 0.441995 -0.142758 -0.293757 -0.006038 -0.954821
0.183017 -0.505738 0.044642 0.83269 -0.141163 0.534405
0.167074 -0.383434 0.072942 0.31606 -0.005068 0.945356
0.063784 0.386832 -0.139351 -0.382759 0.022936 -0.922987
-0.001458 0.320816 -0.128886 0.12347 0.047708 -0.990927
-0.019832 0.341037 0.107817 -0.430694 0.127924 0.888258
-0.124198 0.390655 -0.084283 -0.86646 -0.245659 -0.428994
-0.004733 0.151739 0.128811 -0.20883 0.011073 0.975494
-0.011612 -0.578124 -0.07969 0.685161 -0.063359 -0.725609
-0.144289 0.402476 0.008244 0.519252 -0.745135 0.410644
0.099497 0.799866 -0.058165 0.936723 0.228967 -0.250023
0.254636 0.360757 -0.100865 -0.640014 -0.741684 -0.19378
-0.062821 -0.441224 0.081137 0.156171 -0.190891 0.969011
0.040498 0.641244 0.039423 0.278787 -0.551086 0.77654
0.151691 0.566149 -0.01767 0.210904 0.813268 0.539008
-0.004014 -0.202436 -0.073272 0.644246 0.027091 -0.763327
0.06042 -0.273872 -0.069924 -0.810149 0.009547 -0.586134
0.082424 -0.194514 0.089483 -0.406079 -0.066142 0.909761
0.052688 -0.700655 0.006622 -0.99301 0.01986 0.11055
0.047136 0.6492 0.042262 0.305399 -0.622326 0.715085
-0.045696 -0.159549 0.122804 -0.055525 0.008415 0.998234
0.085263 0.24187 0.11432 0.423255 0.06979 0.901926
0.16341 -0.117275 0.1026 0.504483 -0.028971 0.862201
0.180396 0.261146 0.026814 0.974321 0.095942 0.199026
0.105102 0.771041 -0.039245 0.998403 -0.037861 -0.036478
0.370453 0.358862 -0.088881 0.699027 0.697026 0.143024
0.128631 0.534995 0.024259 0.256941 0.629734 0.732618
-0.368049 0.200968 -0.039478 0.619822 -0.771077 -0.139808
0.519531 0.170551 -0.042648 0.275642 -0.371169 -0.879914
0.087235 0.703232 -0.044319 0.770274 -0.498241 -0.365133
-0.387712 0.248262 0.009446 -0.092252 0.240714 0.963658
0.465312 0.236595 -0.016706 -0.198618 0.489662 0.841101
0.147697 -0.859617 -0.101845 0.701901 -0.421364 -0.570659
0.02506 0.712687 0.096508 -0.327439 -0.317759 0.877449
-0.120778 0.049806 0.072397 -0.929974 0.089523 0.34434
0.012584 -0.588586 0.007192 0.560011 0.038177 0.825927
-0.003469 -0.161391 0.110783 0.594999 -0.119552 0.793224
-0.110131 -0.851903 0.00487 -0.791623 -0.555199 -0.117213
0.035518 0.783168 0.086229 0.012251 0.394987 0.91643
-0.06973 -0.072243 -0.111491 -0.366171 -0.252518 -0.894689
-0.485693 0.141567 0.071163 0.364556 0.465488 0.803973
0.205624 -0.113399 0.04841 0.921916 -0.024591 0.385675
-0.131218 0.065694 -0.011801 -0.944814 0.299108 -0.100332
0.164431 0.296041 -0.077596 0.855233 -0.22848 -0.464879
0.009294 -0.636673 -0.061943 0.659237 0.11361 -0.742771
0.168591 0.095759 -0.079823 0.795749 0.222808 -0.562851
0.242831 0.480185 -0.12484 0.35069 0.430891 -0.831445
-0.050004 0.506039 -0.122523 -0.118966 0.294962 -0.947674
-0.049871 -0.495831 -0.098229 0.111006 0.097827 -0.987269
0.159361 0.273331 -0.078534 0.890209 -0.115156 -0.44054
0.15804 -0.762183 -0.08427 0.766784 0.338086 -0.537681
0.141395 -0.274048 0.082918 0.057953 -0.058227 0.996462
0.031467 0.24383 -0.125534 -0.045511 0.007761 -0.998582
-0.038493 0.243962 -0.127035 -0.330055 -0.112301 -0.935138
-0.002252 -0.084144 -0.10229 0.485503 -0.50319 -0.710314
0.025817 -0.617579 -0.039936 0.934863 0.083492 -0.332206
-0.125471 -0.64732 -0.023138 -0.964357 -0.141511 0.221017
0.198339 -0.501652 -0.051502 0.952381 0.016085 -0.29616
0.029004 0.867082 0.004076 -0.382421 0.890275 0.239843
-0.131561 -0.004031 -0.045861 -0.935002 0.05729 -0.348609
0.232136 0.465726 -0.132112 0.157802 0.246241 -0.952849
0.148592 -0.364879 -0.082418 0.590159 0.12203 -0.797683
0.183646 -0.739783 -0.037938 0.607384 -0.196158 -0.76803
-0.080189 0.568112 -0.070755 -0.478861 0.713347 -0.508818
-0.517771 0.077206 0.06291 0.745562 -0.664431 0.046148
-0.10613 -0.507756 0.047463 -0.8025 -0.192923 0.56453
-0.011057 0.755865 0.062108 -0.759384 0.039968 0.648539
0.152346 -0.796625 0.031392 0.629689 0.44129 0.638088
0.156569 0.301648 -0.092551 0.788126 -0.19391 -0.582497
0.152575 -0.544197 0.050376 0.022534 -0.303006 0.950703
0.381919 0.305098 -0.043802 0.196063 0.335386 0.921201
-0.110292 -0.624756 0.03234 -0.868623 -0.016739 0.494877
0.245609 0.368143 -0.069649 -0.700339 -0.710467 0.058795
0.121362 -0.863524 -0.116382 0.151681 -0.638394 -0.733743
-0.066685 -0.835434 0.154846 0.215736 0.819775 0.506838
-0.013208 -0.488054 -0.078804 0.694328 0.096355 -0.713155
-0.024534 -0.810627 -0.145935 0.450719 -0.129784 -0.87743
-0.042808 0.354736 0.104643 -0.218802 -0.106188 0.964958
0.177618 -0.422026 0.06514 0.598114 -0.077749 0.792881
-0.002394 -0.572796 0.021617 0.715552 -0.091385 0.692499
-0.125614 -0.638266 -0.013576 -0.963368 -0.178539 0.196884
-0.113584 0.021129 0.091883 -0.80325 0.157402 0.573569
0.041584 0.055441 0.134455 0.129311 0.074313 0.988322
-0.11153 -0.810374 -0.070405 -0.888889 -0.430185 -0.109884
-0.005561 0.716719 0.06816 -0.62669 -0.010142 0.77717
0.024273 -0.121494 -0.053986 -0.508026 -0.535546 -0.497178
0.132228 -0.544027 -0.108511 0.106252 -0.035842 -0.991722
0.161935 0.493019 0.04254 0.453016 0.391813 0.795738
0.120451 -0.402363 0.066815 -0.316071 -0.201869 0.926188
0.029245 -0.301729 -0.005129 0.989993 -0.091778 -0.088609
-0.069224 -0.400615 0.090794 0.134261 -0.160128 0.977807
-0.109608 -0.855018 0.07061 -0.778862 -0.612044 0.046611
-0.015375 -0.773583 -0.127017 0.589384 0.493787 -0.639184
-0.048545 -0.591744 0.039061 0.481402 -0.291019 0.826746
0.116865 -0.22008 -0.101789 0.015764 -0.081201 -0.995108
0.199101 0.393003 -0.028231 0.985849 -0.150742 0.022502
0.039104 0.219967 0.128655 0.02112 0.040044 0.998974
0.105598 0.196253 0.110069 0.50582 0.031829 0.859702
-0.03538 0.825669 -0.057725 -0.80715 0.390242 -0.377601
0.094745 0.821188 -0.006047 0.841664 0.52227 0.116555
0.207507 -0.049345 0.040784 0.945217 0.048204 0.320749
-0.03634 0.808008 -0.007407 -0.983252 -0.090444 0.141976
-0.037183 0.202645 0.110804 -0.49198 0.021688 0.869794
0.098951 -0.768314 0.021214 -0.249396 0.804134 0.537685
0.309514 0.333212 -0.046866 -0.383223 -0.532929 0.753017
-0.065584 0.057024 -0.124917 -0.407235 0.259514 -0.86044
0.143771 0.577094 -0.034038 0.310664 0.856802 0.398161
0.083646 0.804206 0.045699 0.878058 0.265075 0.393988
0.01627 -0.222228 -0.050572 0.866274 -0.016774 -0.497505
0.074803 -0.55953 -0.0757 -0.726727 -0.104029 -0.678646
-0.058011 -0.009237 0.133432 -0.273804 -0.566883 0.739439
-0.00976 -0.803055 -0.134167 0.709128 -0.122904 -0.692435
0.082392 0.843602 0.009493 0.871628 0.475475 0.107559
-0.007361 0.363752 0.10944 -0.269534 0.290938 0.917673
0.036352 -0.232682 0.01448 0.499311 -0.201288 0.639699
0.0259 0.279447 0.124969 -0.007179 0.192803 0.980323
-0.1405 0.011738 0.030902 -0.980018 -0.124037 0.12599
0.090567 -0.839899 0.105711 -0.872847 0.47383 0.114922
-0.081465 0.555744 0.017686 -0.050221 0.767295 0.639241
-0.160695 0.387204 -0.069027 0.669118 -0.624323 -0.401937
-0.118086 -0.474427 0.044312 -0.822331 -0.267219 0.502239
-0.099311 -0.285609 -0.062597 -0.745105 -0.004891 -0.66687
-0.367463 0.238119 0.01012 0.053634 0.010992 0.998308
-0.035651 -0.863616 0.071175 0.186808 -0.972333 0.010379
0.206734 -0.187094 0.017214 0.993931 -0.013084 0.104696
-0.057983 -0.163955 0.121845 -0.145875 0.008066 0.988517
-0.07282 -0.825921 0.104906 -0.162826 0.981487 0.099611
0.117932 -0.694253 0.029434 0.293044 -0.17896 0.93825
-0.154125 0.482264 -0.09165 -0.378761 0.199774 -0.899977
0.004551 0.493121 -0.124145 0.159785 0.122792 -0.978194
0.171308 -0.249107 -0.071806 0.519087 -0.150863 -0.841269
0.639133 0.042947 0.076462 0.928644 0.332322 0.142101
0.175921 0.290305 -0.04856 0.934587 -0.169576 -0.311848
-0.296418 0.303713 0.00618 0.02174 -0.086608 0.994818
-0.274692 0.346884 -0.096356 -0.189965 0.063398 -0.975764
0.048955 0.478668 0.078532 0.119547 0.501106 0.855528
-0.128117 -0.358629 0.026568 -0.997545 0.014493 0.067187
-0.054625 0.336636 0.098417 -0.409666 -0.12448 0.903392
-0.023639 0.604422 -0.030102 -0.709748 0.654473 0.243868
-0.113073 0.345708 0.027913 -0.923031 -0.197828 0.326876
0.352573 0.288952 -0.050783 -0.604875 -0.521805 0.600889
-0.289702 0.282694 -0.087261 0.372552 -0.459181 -0.802942
-0.129282 0.124507 0.001986 -0.989183 0.141867 0.019313
-0.049385 -0.199377 -0.093977 0.036654 -0.108266 -0.987366
0.075068 0.057622 -0.154552 0.057332 0.247084 -0.965051
0.070066 -0.263467 0.073661 -0.606104 -0.119147 0.785584
-0.148947 0.545626 -0.045481 -0.502251 0.754578 -0.422003
-0.028191 -0.04125 0.13271 -0.075859 -0.217791 0.972063
0.141359 0.279767 0.079733 0.742948 0.047948 0.667447
0.075459 0.857028 -0.010882 0.692681 0.720615 0.020834
0.150548 -0.015214 -0.12748 0.703185 0.048774 -0.708941
0.119897 -0.606816 0.033682 -0.17556 0.125823 0.967551
0.186833 0.380634 0.026591 0.878781 -0.1934 0.435021
-0.560844 0.041066 0.048911 0.865875 -0.487834 0.024129
-0.347643 0.289022 0.001767 -0.04876 0.287468 0.954501
-0.101692 -0.841274 0.102591 -0.726854 0.674019 0.126264
-0.010419 0.362346 -0.128938 0.026171 -0.011799 -0.999384
-0.518393 0.09678 0.024239 0.111562 -0.382191 -0.895564
-0.553679 0.052123 0.031699 0.826232 -0.56007 -0.040425
0.132208 -0.795903 -0.116553 0.173021 0.312296 -0.931101
-0.243334 0.30949 -0.017269 0.714836 -0.641908 0.273124
0.00842 -0.660421 0.011711 0.726637 -0.16007 0.666125
0.092012 0.707312 0.029013 0.963475 -0.239416 0.092577
0.115501 0.591294 -0.061374 0.417198 0.886268 -0.065355
0.141198 0.049284 -0.125534 0.636644 0.291456 -0.713516
-0.326725 0.318165 -0.088259 -0.343519 0.472986 -0.807307
-0.180441 0.45266 -0.089038 -0.228176 0.268298 -0.935653
0.550756 0.104709 -0.01484 -0.91187 -0.321983 -0.157234
0.000525 0.344209 -0.127945 0.11188 0.004725 -0.993639
0.083771 0.782136 0.059481 0.766457 0.149337 0.605514
-0.006426 0.730627 -0.094875 -0.550991 -0.489243 -0.670384
-0.037852 0.787254 -0.034911 -0.995272 0.076332 -0.041884
0.183188 -0.538711 0.0379 0.789337 -0.119994 0.601046
0.085705 -0.139678 -0.111507 -0.336478 -0.208622 -0.917886
0.182878 0.082213 0.063777 0.82528 0.160401 0.539093
0.003472 0.622515 -0.062704 -0.513656 0.507018 -0.68743
0.111026 0.173525 -0.109942 0.399734 0.086065 -0.910709
-0.132055 0.433427 0.060106 -0.29347 -0.160188 0.936844
-0.012568 0.67227 0.004888 -0.899617 -0.424288 0.049259
0.356096 0.317682 -0.133558 0.000779 -0.143834 -0.988291
-0.415655 0.221333 0.014097 -0.148543 0.247613 0.953629
-0.075286 -0.147647 0.119428 -0.298716 0.004556 0.951146
0.063984 0.260335 -0.135014 -0.314552 -0.088841 -0.943349
-0.075537 0.116679 -0.098329 -0.612646 0.228545 -0.75616
-0.439803 0.219833 0.001444 -0.647026 0.634498 0.403689
-0.040653 -0.760051 0.013249 0.523815 0.563164 0.621507
-0.134305 -0.494274 -0.040794 -0.920444 0.051979 -0.376893
0.173086 0.248169 -0.048164 0.90924 0.019933 -0.413537
0.084743 0.148328 -0.121539 0.145032 0.227483 -0.962589
0.588724 0.098306 0.066431 -0.370739 -0.177692 0.835801
0.087069 -0.737973 -0.070106 -0.860457 -0.073335 -0.503417
0.115955 -0.308503 0.081132 -0.090033 -0.080239 0.992141
0.078393 -0.058291 0.121653 -0.005203 -0.373128 0.927056
-0.097007 -0.199363 0.110599 -0.295761 -0.048614 0.94572
-0.403415 0.17813 -0.013547 0.495706 -0.867727 -0.030565
-0.128309 0.394815 -0.06268 -0.963728 -0.206655 -0.080995
-0.111763 -0.637418 -0.089797 -0.606833 0.06557 -0.792107
0.120046 -0.795878 -0.117032 -0.08803 0.512664 -0.848568
0.24021 0.373243 -0.090129 -0.706433 -0.707477 -0.015694
-0.013416 0.569268 0.014302 -0.304845 0.600087 0.735726
-0.106773 0.538742 -0.08578 -0.414121 0.605084 -0.67976
-0.06351 -0.007642 -0.129949 -0.25392 -0.078596 -0.962301
-0.093655 -0.8633 0.084943 -0.027543 -0.999611 0.002776
0.042824 0.247928 -0.126976 -0.201386 -0.024374 -0.977547
0.172729 -0.764199 -0.058895 0.808138 0.406023 -0.419963
-0.017744 0.724525 -0.074073 -0.80624 -0.434009 -0.394073
0.048584 -0.615717 -0.021373 -0.959381 -0.008475 0.260181
0.038194 -0.35341 -0.027737 -0.974716 -0.062994 -0.19982
0.173843 -0.395815 0.069584 0.496751 -0.022621 0.863866
-0.138577 0.412829 0.030327 -0.444643 -0.832793 0.265762
0.194272 -0.073055 0.070697 0.743454 0.078453 0.663932
0.019183 -0.011066 -0.143463 -0.118762 -0.279336 -0.95166
0.083868 -0.182639 -0.09969 -0.380457 -0.247842 -0.890825
-0.11483 0.565151 -0.036473 -0.368946 0.904344 -0.178251
0.008249 0.63766 0.024426 -0.634986 -0.284907 0.716469
0.139067 0.127086 0.091659 0.666568 0.02203 0.745087
-0.335018 0.327148 -0.074544 -0.494295 0.738286 -0.45159
0.165933 0.03367 0.096829 0.519622 0.146168 0.83821
-0.03652 0.520976 0.057421 -0.169213 0.536322 0.826282
0.100662 0.150985 0.114322 0.430611 0.060798 0.899946
-0.014669 0.840657 -0.062526 -0.530548 0.726825 -0.436132
-0.11286 -0.295603 -0.043881 -0.862834 0.034291 -0.503659
0.190658 -0.458075 0.035454 0.963578 -0.069341 0.257647
0.20667 0.03635 0.005623 0.999004 0.040926 -0.005937
0.471466 0.258396 -0.077674 0.792886 0.549163 -0.25386
-0.081835 -0.863434 0.103367 -0.029135 -0.999511 0.006899
0.039906 -0.367067 -0.008571 -0.956959 -0.161783 0.240432
0.038208 -0.256167 -0.035961 -0.802995 0.014819 -0.592307
0.203571 -0.291946 -0.018069 0.940685 -0.046065 -0.324175
-0.026435 0.110822 -0.125403 -0.243661 0.350909 -0.903502
0.016933 -0.049886 0.124943 0.45362 -0.354858 0.81483
0.012199 0.645259 0.029982 -0.607411 -0.345256 0.713416
0.162034 -0.854778 0.15776 0.866242 0.179744 0.342381
0.182844 -0.019288 -0.084547 0.879681 0.032456 -0.473702
0.158664 0.004789 -0.116107 0.724355 0.110365 -0.680191
-0.020206 0.796996 0.04027 -0.910527 0.186292 0.367778
-0.141944 0.469843 -0.098703 -0.425586 0.077806 -0.900629
0.204133 -0.302672 0.025794 0.968837 -0.036066 0.235275
0.059907 -0.768204 -0.01519 -0.994076 0.042076 -0.098062
0.0967 0.811616 -0.06016 0.918076 0.347377 -0.184173
0.090734 -0.151107 -0.110152 -0.227809 -0.220076 -0.947667
-0.108675 -0.698182 -0.090487 -0.70201 -0.060138 -0.708925
0.10826 0.431841 -0.146395 -0.016944 -0.038789 -0.998809
0.064089 -0.335448 -0.073718 -0.770656 -0.053446 -0.634951
0.092996 0.541234 -0.125757 -0.022468 0.46595 -0.881001
-0.114364 -0.50978 -0.072473 -0.737857 0.112202 -0.665277
0.631648 0.03015 0.06976 -0.94918 -0.309245 -0.003048
0.156604 -0.863355 0.028418 0.272184 -0.959445 -0.071859
0.065659 0.081731 -0.148877 -0.057802 0.323255 -0.942945
-0.018318 -0.661195 -0.086799 0.605288 0.116202 -0.786755
-0.062697 -0.084474 0.122408 -0.26555 -0.063382 0.961541
0.147297 -0.389507 0.075314 -0.067174 -0.107731 0.990676
0.115258 0.549189 0.017374 0.372563 0.661051 0.649951
0.266728 0.48285 -0.108778 0.522872 0.575052 -0.628232
-0.096019 0.572737 -0.038978 -0.377908 0.902429 -0.122304
-0.135676 -0.234943 0.015563 -0.997854 -0.037655 -0.053147
-0.070168 -0.863903 0.104164 -0.026518 -0.999391 0.022389
0.004767 0.2111 -0.126303 0.051672 -0.23595 -0.969767
-0.139449 -0.025353 0.017585 -0.982571 0.164888 0.064183
-0.095509 0.244763 0.067667 -0.684012 0.125732 0.717737
-0.121827 -0.296407 0.079245 -0.945398 -0.064406 0.314233
0.192896 -0.552925 0.018215 0.9247 -0.022725 0.378178
0.21207 0.43659 0.019015 0.574328 -0.288938 0.75737
-0.347123 0.276762 -0.08939 -0.112094 -0.145767 -0.980892
0.017817 0.568449 -0.103935 -0.064723 0.439211 -0.895251
-0.04503 0.238265 -0.122198 -0.541378 -0.15333 -0.826074
-0.015318 0.295922 -0.131334 0.020356 0.034311 -0.999053
0.13178 0.341981 -0.129018 0.580295 -0.157267 -0.799014
0.041558 -0.125717 -0.08623 -0.506822 -0.391563 -0.767529
0.193298 -0.256683 0.061146 0.824067 -0.019366 0.563359
0.052518 -0.671211 -0.024676 -0.969184 -0.075299 -0.218904
-0.497096 0.106859 0.074212 0.636585 -0.179674 0.729083
0.492445 0.20304 -0.06305 0.042701 -0.388498 -0.920364
0.014594 -0.456959 -0.038674 0.83193 0.075887 -0.549582
0.07605 -0.568191 0.017206 -0.69774 -0.008397 0.716202
0.006748 -0.213324 -0.063639 0.702476 0.009021 -0.711603
0.095445 -0.129874 0.100237 -0.558427 -0.036708 0.828712
-0.255793 0.386459 0.0178 -0.378741 0.138031 0.911422
-0.570329 0.027679 0.045047 -0.121555 -0.970098 0.013936
-0.010185 0.637497 -0.036494 -0.898134 0.190017 -0.364231
0.40741 0.252534 -0.033281 -0.257046 -0.012413 0.956343
-0.108652 -0.420957 -0.056841 -0.720973 0.22576 -0.6534
-0.055424 0.368982 -0.123636 -0.358929 -0.061483 -0.931267
-0.114247 -0.684817 0.009552 -0.868981 -0.172997 0.450557
-0.033837 -0.381933 0.087612 0.27105 -0.18407 0.942885
0.214192 -0.08664 0.018122 0.996475 0.008623 0.074193
0.287108 0.354915 -0.035785 -0.091212 -0.796868 0.587571
0.55083 0.105591 0.011829 -0.927944 -0.364771 0.052071
0.346891 0.350928 -0.135621 0.247828 0.093591 -0.957677
0.242958 0.375901 -0.05115 -0.584458 -0.71626 0.380907
0.196665 -0.520541 0.012377 0.950109 -0.020114 0.310789
0.190958 -0.06167 -0.065306 0.885315 -0.033684 -0.461906
0.073126 -0.781263 0.03079 -0.545828 0.136302 0.814191
-0.081403 -0.611928 0.050573 0.345688 -0.220167 0.898191
-0.113174 0.051783 -0.07271 -0.862839 0.151585 -0.480901
0.14966 -0.810921 0.045437 0.599075 0.520565 0.607345
-0.044743 -0.864123 0.077669 0.037941 -0.998966 0.01084
-0.116892 0.39326 0.05414 -0.783251 -0.283998 0.549662
0.044165 -0.375425 0.009097 -0.969889 -0.07887 0.21867
0.13053 0.050877 -0.133734 0.557706 0.262412 -0.786739
0.169422 0.360111 0.049177 0.802458 -0.103732 0.587405
-0.136284 -0.125727 0.058112 -0.954307 0.014191 0.294852
0.147389 -0.289858 0.081465 0.136289 -0.068886 0.988069
0.196149 0.089995 0.004164 0.963092 0.223178 0.13575
-0.477266 0.176383 0.004849 -0.683476 0.728568 0.032126
0.153601 0.432861 -0.139329 0.257617 -0.219709 -0.940001
-0.120758 0.02963 0.077228 -0.851333 0.140312 0.504712
-0.144093 -0.073752 0.005786 -0.999441 0.012054 -0.021688
-0.126483 -0.628001 -0.012174 -0.97873 -0.096686 0.174026
-0.169825 0.46094 0.04886 -0.456337 -0.165753 0.873965
0.610394 0.085226 0.084968 0.00689 0.486454 0.82993
-0.036932 -0.661947 -0.099745 0.757951 0.159794 -0.595509
-0.121364 -0.481167 0.035365 -0.815924 -0.259408 0.516558
0.193329 0.068252 -0.047598 0.915286 0.124026 -0.38283
-0.119171 -0.746128 -0.010115 -0.801764 0.201003 0.504538
0.478243 0.242795 -0.018466 0.160777 0.734045 0.588608
0.00643 0.566384 0.023429 -0.30821 0.242478 0.91214
-0.007371 0.053271 0.135461 -0.289095 0.109563 0.949724
-0.052052 -0.86111 -0.125271 0.046704 -0.963 -0.256177
0.061792 0.134414 -0.127685 -0.026989 0.347013 -0.937212
0.188137 -0.484457 0.03923 0.929006 -0.002752 0.369289
0.064343 -0.793496 0.009028 -0.776361 -0.521888 0.335766
0.642154 0.038406 0.036739 0.981216 0.192579 -0.009819
0.612868 0.059574 0.05429 -0.756854 -0.647525 -0.066421
0.30685 0.314796 -0.07723 -0.691508 -0.712386 0.101642
0.161822 0.515257 0.029683 0.293104 0.573755 0.748189
0.103825 -0.837522 -0.112303 -0.52414 -0.042841 -0.849979
0.062741 -0.682404 -0.04279 -0.811605 -0.119969 -0.571527
0.176383 0.473179 0.038698 0.586499 0.255978 0.766953
-0.029357 0.817883 -0.077517 -0.785354 0.373824 -0.476748
0.099146 0.01419 -0.153978 0.305107 -0.069614 -0.949362
-0.295359 0.26938 -0.003013 0.724107 -0.249526 0.629699
0.183053 -0.403939 0.061532 0.816009 -0.056223 0.575124
-0.135589 -0.058153 -0.035909 -0.945329 -0.008269 -0.319907
0.54339 0.176319 -0.026706 0.824431 -0.016387 -0.46159
-0.200104 0.382787 0.021093 0.161637 -0.496691 0.851802
-0.112081 -0.591312 0.026229 -0.91518 0.02838 0.401843
0.161762 -0.82839 -0.021344 0.957928 -0.271027 0.03086
-0.092067 -0.859822 0.135281 -0.441614 -0.848325 0.246191
-0.100357 -0.22903 0.107965 -0.406804 -0.046097 0.908763
0.053357 -0.673061 0.009291 -0.916856 0.000191 0.36065
0.132645 -0.107035 -0.120074 0.302275 -0.211542 -0.929126
0.13324 -0.869923 0.065144 0.01703 -0.999753 -0.008954
0.198712 -0.405354 0.022482 0.955745 -0.06552 0.286286
-0.11781 -0.198056 0.095052 -0.745545 -0.008676 0.663884
0.015519 -0.38263 -0.036988 0.823506 0.020009 -0.566571
0.597706 0.066386 0.0205 0.71883 -0.588338 0.018906
0.165842 0.378342 0.056233 0.74307 -0.023983 0.667841
0.070916 -0.731023 -0.035888 -0.87318 -0.105259 -0.468627
-0.112977 0.159036 0.049913 -0.838558 0.033748 0.541215
-0.093609 -0.236066 0.109401 -0.340385 -0.038322 0.939158
0.335079 0.389303 -0.061569 0.892061 -0.155219 0.386432
-0.213658 0.361385 -0.089529 0.345168 -0.493161 -0.795162
-0.126443 0.398045 0.028272 -0.921388 -0.329888 0.194425
-0.129478 -0.471979 -0.046482 -0.837231 0.068082 -0.542377
-0.04201 -0.306659 0.099703 0.276382 -0.115386 0.952772
0.169594 -0.813443 -0.002569 0.929522 -0.315736 0.173831
0.204672 0.012973 0.045744 0.967303 0.022494 0.243859
-0.196907 0.508087 -0.038631 -0.713974 0.629105 -0.306149
-0.07247 -0.223245 0.114239 -0.145441 -0.079406 0.985697
-0.564747 0.034226 0.021025 0.843236 -0.533688 0.006295
-0.137561 0.441334 0.058089 -0.391356 -0.173332 0.885086
-0.069528 -0.628017 0.040462 0.394152 -0.228778 0.889729
0.00266 0.04856 0.137588 -0.134214 0.007932 0.988115
-0.042104 -0.150144 -0.097642 0.237649 -0.216087 -0.945985
-0.128552 0.086516 0.00945 -0.99925 0.000794 0.03281
0.492951 0.193873 0.000659 0.015518 0.813877 0.453642
-0.024975 -0.765815 6.5e-05 0.63825 0.524818 0.552958
0.211345 -0.137182 -0.019526 0.941669 -0.179527 -0.245028
-0.046201 -0.389143 0.088845 0.173747 -0.172666 0.969471
-0.246113 0.437455 -0.006955 -0.811576 0.493464 0.311918
-0.260849 0.297964 -0.008438 0.565273 -0.595622 0.568742
0.013117 0.334858 0.114224 -0.173867 0.188671 0.965045
-0.312091 0.354824 -0.031119 -0.662822 0.736607 0.13301
0.021598 -0.366912 0.032859 0.929982 -0.160029 0.330395
0.072979 -0.740537 -0.039846 -0.911749 0.026088 -0.408743
0.192989 -0.231253 0.061901 0.898806 -0.022084 0.435614
-0.05069 -0.72928 0.023599 -0.430257 0.457213 0.7751
0.140733 -0.13714 -0.107543 0.483682 -0.250527 -0.838248
-0.050358 0.045127 0.120837 -0.459567 0.191019 0.866489
0.275958 0.454993 -0.12677 0.316648 0.560074 -0.764029
0.130076 0.336423 0.087199 0.496064 0.033933 0.866818
-0.339525 0.22411 -0.001763 0.439159 -0.665019 0.57766
0.17358 -0.035901 -0.098456 0.849562 -0.081228 -0.519269
-0.003577 0.554769 -0.110179 0.021291 0.495508 -0.867627
0.350302 0.410051 -0.096447 0.744673 0.666413 0.003755
0.096931 -0.82585 0.083403 -0.610508 0.740871 0.224672
-0.031594 -0.850699 -0.047737 0.589551 -0.80331 0.051796
0.003259 -0.281886 -0.058931 0.77418 -0.119107 -0.621561
0.140786 -0.06905 -0.124887 0.586829 -0.250073 -0.770079
0.042169 0.348383 -0.13001 -0.339128 -0.067957 -0.932919
-0.114494 -0.367256 0.084883 -0.777045 -0.006068 0.626973
0.150145 -0.533513 0.053482 -0.074695 -0.278608 0.954517
-0.087846 -0.505007 0.074959 -0.29972 -0.222721 0.870903
0.029904 -0.164345 0.049746 0.898319 -0.269722 0.341762
0.031705 -0.21975 0.027716 0.916205 -0.079899 0.385387
0.006901 -0.814482 -0.053975 0.885178 -0.376619 0.248877
0.131985 -0.529839 -0.108351 0.104694 0.017383 -0.992843
