0.024511 -0.663085 -0.017216 0.896838 -0.18913 0.374172
0.459119 0.276367 -0.063801 0.709127 0.685619 0.150021
0.641578 0.029044 0.01345 0.568803 -0.563762 -0.287157
0.060723 -0.668588 -0.042804 -0.824521 -0.188329 -0.527179
0.089922 0.460166 0.081251 0.124593 0.286522 0.949396
-0.082358 0.573275 -0.011407 -0.130581 0.939853 0.291684
0.297112 0.324293 -0.076328 -0.671638 -0.733908 0.082195
-0.043073 -0.263741 -0.093179 0.117321 -0.016072 -0.989812
-0.064278 0.579363 -0.066695 -0.450662 0.811748 -0.346835
0.01233 -0.611785 0.009948 0.636222 0.088396 0.764544
-0.009374 0.322904 0.113351 -0.110604 0.073943 0.991015
-0.160294 0.54132 -0.041185 -0.526584 0.778663 -0.333371
0.557304 0.094568 0.014532 -0.761564 -0.646886 0.026198
0.126145 -0.720936 0.018664 0.389296 -0.036195 0.915069
-0.001495 0.541044 0.04727 0.163865 0.806024 0.560129
-0.051637 0.219603 -0.112288 -0.577729 -0.283345 -0.765174
0.034332 0.423621 -0.128629 -0.148923 0.047846 -0.986322
-0.089085 -0.830726 0.108493 -0.46617 0.860522 0.139525
0.049356 0.618037 0.025985 0.27829 -0.189348 0.933517
-0.020918 0.701288 -0.026647 -0.942897 -0.291606 -0.138119
-0.246618 0.419355 0.011846 -0.707054 0.391978 0.581205
-0.125836 -0.291116 -0.02102 -0.95099 0.022092 -0.296343
0.088643 -0.828114 0.021199 -0.940311 -0.338129 0.03076
0.192487 -0.595121 -0.062325 0.804321 -0.026466 -0.593416
0.093428 -0.584073 -0.088169 -0.605225 -0.12686 -0.785862
0.035979 -0.294999 -0.029547 -0.954718 -0.055574 -0.286784
0.046909 0.855016 -0.067184 0.152205 0.855469 -0.49464
0.230761 0.418663 -0.131623 -0.444893 -0.218081 -0.867809
0.159983 -0.859514 -0.076464 0.848474 -0.489701 -0.17974
-0.119813 0.312754 -0.031483 -0.996402 -0.083221 0.013422
-0.001847 0.69451 -0.065161 -0.657428 -0.516563 -0.54798
-0.118316 0.353102 -0.077414 -0.933606 -0.145886 -0.322949
-0.068777 0.31605 0.086559 -0.592749 0.018267 0.803382
0.101877 -0.221808 -0.098833 -0.28156 -0.077082 -0.95621
0.412403 0.258822 -0.127 0.094893 -0.17696 -0.974511
0.162052 0.055006 -0.102392 0.693559 0.257687 -0.672505
0.256794 0.486218 -0.006871 0.598023 0.291471 0.743868
0.18601 0.328935 0.011289 0.923621 -0.121871 0.36273
-0.021293 -0.841462 -0.01421 0.940475 -0.327524 -0.010167
0.174573 0.095222 -0.071595 0.807193 0.209387 -0.551037
-0.12754 -0.460922 -0.047873 -0.821733 0.098678 -0.560911
0.072357 0.296105 -0.139318 -0.219096 -0.07736 -0.972175
-0.109925 0.280246 0.020307 -0.978569 -0.010173 0.201764
-0.129025 -0.163553 -0.029873 -0.853295 -0.143151 -0.50096
0.13194 -0.696771 -0.094129 0.20485 0.018659 -0.977748
0.134841 0.549647 0.008236 0.217623 0.724066 0.654181
-0.122205 -0.436049 0.054763 -0.860605 -0.14767 0.487193
-0.068174 -0.782273 -0.136766 -0.430313 0.355903 -0.826729
-0.113073 0.345708 0.027913 -0.923031 -0.197828 0.326876
-0.374193 0.218744 -0.070926 0.16981 -0.479036 -0.858646
-0.035748 0.519346 -0.120318 -0.109117 0.302853 -0.945981
0.081577 0.695794 -0.049204 0.848215 -0.377756 -0.362813
0.184035 -0.127447 -0.070695 0.734262 -0.058607 -0.67609
-0.06066 0.42194 0.091737 -0.208869 0.222153 0.950951
0.098525 0.083363 -0.143264 0.388323 0.284601 -0.872246
0.023902 -0.708777 -0.053672 0.954297 -0.088269 -0.267879
0.324274 0.345469 -0.038317 0.143502 -0.106482 0.975905
-0.123426 0.055972 0.060541 -0.922679 0.224335 0.310274
-0.093934 0.560249 -0.070268 -0.460561 0.700711 -0.544834
-0.072462 0.532226 0.042321 -0.086921 0.612407 0.785442
0.066825 -0.379486 -0.072417 -0.740503 -0.052718 -0.66903
0.135464 -0.008349 0.114307 0.413341 -0.200896 0.885195
0.632328 0.038784 0.013421 -0.88588 -0.352773 -0.269979
0.048672 -0.381251 -0.049413 -0.907487 0.001823 -0.393711
-0.076704 0.284344 0.081138 -0.52662 0.003527 0.8423
0.061378 -0.036095 -0.143958 -0.258308 -0.392324 -0.88279
-0.130106 -0.589841 -0.029676 -0.985969 -0.097114 0.129951
-0.063324 0.490485 0.06789 -0.142448 0.44015 0.885352
-0.258166 0.430263 -0.039714 -0.742596 0.664472 -0.072253
0.166885 -0.862984 0.060116 0.251032 -0.956986 -0.026712
-0.030877 0.383463 -0.129129 -0.047559 -0.023607 -0.998563
0.059522 0.522866 0.0529 0.040466 0.530197 0.846083
0.040463 0.43803 -0.129023 -0.238808 0.021499 -0.968388
-0.095555 0.55379 -0.077322 -0.404672 0.687302 -0.603131
-0.025287 -0.856206 -0.113501 0.793303 -0.483777 -0.198657
-0.118378 -0.736205 -0.072133 -0.754081 -0.036543 -0.655239
-0.131628 0.415998 -0.086737 -0.635117 -0.599784 -0.426345
-0.314573 0.351535 -0.054694 -0.666132 0.720762 -0.191715
-0.014148 0.600066 -0.003355 -0.76299 0.293799 0.570825
-0.144221 -0.117988 0.005738 -0.998719 -0.008437 -0.042069
-0.108403 0.134273 -0.059882 -0.833443 0.119141 -0.539168
-0.087731 -0.188375 -0.07968 -0.650058 -0.042063 -0.757063
0.172531 0.26158 -0.048843 0.898342 -0.016192 -0.436671
0.072342 0.321562 -0.141631 -0.302326 -0.061302 -0.94739
0.41678 0.256287 -0.032107 -0.123489 0.194186 0.966842
0.059371 -0.706732 -0.02836 -0.869897 -0.234353 -0.431505
0.014694 0.195248 -0.11774 0.17796 -0.319812 -0.930054
-0.052559 0.07824 -0.125983 -0.388371 0.2043 -0.898434
-0.117813 -0.791409 -0.025025 -0.922465 -0.298547 0.213752
0.158434 -0.86194 0.151393 0.319462 -0.939547 0.112799
0.207391 -0.012184 0.034932 0.959318 0.125565 0.24729
0.141898 -0.515903 0.056377 -0.332167 -0.222341 0.913191
-0.120195 -0.190252 -0.037762 -0.850454 -0.101697 -0.515844
-0.128585 0.394215 -0.025174 -0.958686 -0.217164 0.003491
0.122375 -0.064849 -0.134537 0.237639 -0.28489 -0.927916
0.017382 -0.267685 0.072592 0.895684 -0.078225 0.428586
0.071868 0.420493 0.091902 0.157428 0.252702 0.954353
-0.140995 -0.118053 0.042849 -0.947262 -0.007273 0.317566
0.076665 -0.431966 -0.080582 -0.690619 0.018312 -0.722949
0.165461 -0.025991 0.097244 0.638342 0.023467 0.768973
0.044 -0.509228 -0.029605 -0.996795 -0.009305 0.018902
-0.08912 -0.236305 -0.076778 -0.717228 -0.040881 -0.69551
-0.264305 0.420018 -0.0252 -0.76708 0.632191 0.095793
-0.072255 -0.550143 -0.102226 -0.13573 0.058414 -0.988171
-0.107013 -0.429063 -0.062393 -0.708704 0.285794 -0.644952
0.195433 -0.431277 0.027267 0.957156 -0.080905 0.277112
0.085566 0.583616 -0.096046 0.068867 0.755165 -0.650734
0.176634 0.240695 -0.038432 0.9333 0.017006 -0.358104
0.192485 0.563126 -0.053245 0.551342 0.821239 -0.034377
0.166646 0.286488 -0.068516 0.894714 -0.174875 -0.410517
-0.114256 -0.255417 -0.040345 -0.890556 -0.013641 -0.454229
0.134973 0.202146 -0.097835 0.672668 -0.134597 -0.725433
0.032028 0.869659 -0.006054 -0.203162 0.97365 0.068582
0.042514 -0.065686 -0.12268 -0.401879 -0.432021 -0.807305
0.194539 -0.458241 -0.057514 0.846065 0.080041 -0.526419
-0.126905 0.387369 -0.072235 -0.970489 -0.158741 -0.168705
0.364655 0.328748 -0.04905 0.328151 0.35767 0.873988
-0.101464 -0.719864 -0.097887 -0.776094 0.022642 -0.630069
0.044296 0.863111 0.029944 0.098912 0.963057 0.239833
0.234118 0.442772 -0.134839 -0.118395 0.046967 -0.990204
0.153568 -0.707541 -0.081472 0.672127 -0.009025 -0.740272
0.010919 0.007517 0.143107 -0.017964 0.135951 0.990017
0.174921 -0.521975 -0.08546 0.697581 -0.02808 -0.715923
0.167793 0.567033 -0.074899 0.351093 0.86857 -0.337436
0.056982 -0.336919 0.044532 -0.716327 -0.18657 0.671826
0.165329 -0.717924 -0.069523 0.811918 -0.051584 -0.581302
-0.085755 0.005156 -0.118358 -0.62226 -0.027743 -0.7822
-0.059015 -0.657192 -0.10743 0.148262 0.096139 -0.981673
0.032169 0.269023 0.126256 0.040285 0.127302 0.990021
0.205456 0.452464 0.025156 0.627813 0.036858 0.776912
0.128494 0.316169 -0.127288 0.581346 -0.080983 -0.808849
0.083646 0.804206 0.045699 0.878058 0.265075 0.393988
0.107561 -0.207153 0.094575 -0.071965 -0.171664 0.980471
0.02146 0.056159 -0.148661 -0.214777 0.297698 -0.930014
0.090528 -0.20339 -0.097294 -0.367879 -0.22626 -0.901717
-0.030079 0.713993 -0.004019 -0.897658 -0.422398 -0.099211
0.199625 -0.443756 -0.031941 0.997356 0.010965 -0.066294
-0.143027 -0.08035 -0.009368 -0.984039 0.00977 -0.16873
0.112282 -0.169473 -0.108572 0.006935 -0.177465 -0.980596
0.093421 0.577591 -0.003956 0.476965 0.557177 0.67706
0.054806 -0.116673 0.061483 -0.140448 -0.410142 0.784465
0.086295 -0.860285 -0.062217 -0.668726 -0.741698 0.043115
-0.570355 0.028389 0.057912 -0.158307 -0.882704 0.149873
-0.128645 -0.299677 0.006263 -0.999679 -0.017198 -0.012459
0.175462 -0.214651 0.08382 0.471159 -0.186328 0.857868
0.153895 0.249069 -0.084074 0.861855 -0.074752 -0.499848
0.151623 -0.428703 0.071768 -0.110238 -0.097527 0.985064
0.103809 -0.329101 -0.100169 -0.089361 0.018237 -0.989263
-0.114504 0.232086 0.0286 -0.966649 0.217451 0.131086
0.148986 0.249062 -0.09306 0.792002 -0.140055 -0.593463
0.181642 0.322798 -0.059775 0.856397 -0.340173 -0.386202
-0.140524 0.546538 -0.054065 -0.504788 0.726094 -0.466403
0.294085 0.327211 -0.099116 -0.686741 -0.717234 -0.11015
0.043454 -0.426137 -0.030107 -0.998768 -0.010824 -0.037042
0.110937 -0.627818 -0.093939 -0.444754 -0.086763 -0.889952
-0.114288 -0.28095 -0.040118 -0.879099 0.01137 -0.47629
-0.195304 0.431007 -0.09258 -0.159178 0.277577 -0.947217
-0.072774 -0.506771 0.070698 0.365537 -0.227252 0.902365
-0.208215 0.453605 -0.077278 -0.467502 0.531934 -0.70545
0.088325 0.83129 -0.056669 0.884758 0.420319 -0.176387
-0.101282 -0.572504 0.049338 -0.827831 0.066628 0.555703
0.027101 0.527288 -0.120692 -0.037056 0.185466 -0.981521
-0.220789 0.473421 0.008344 -0.84804 0.413386 0.327942
-0.08267 -0.494723 0.077329 0.460056 -0.151037 0.869896
0.333127 0.43073 -0.096482 0.779624 0.612678 -0.093731
-0.004733 0.151739 0.128811 -0.20883 0.011073 0.975494
-0.073668 0.526124 -0.10881 -0.319684 0.492647 -0.808127
0.157264 0.165962 0.072028 0.715994 0.053325 0.696031
0.198038 -0.098629 0.065176 0.861293 -0.028873 0.501947
-0.034523 -0.288262 0.100573 0.340555 -0.20899 0.915866
-0.04923 0.541236 -0.10865 -0.304757 0.455445 -0.835784
0.112919 -0.487567 0.043472 -0.61252 -0.09585 0.784276
0.060479 0.864418 -0.006705 0.375081 0.920311 0.058755
0.178417 0.474276 -0.13663 0.115416 0.085472 -0.989249
0.191826 0.347222 -0.056361 0.911981 -0.337265 -0.219727
0.017579 -0.391263 0.037135 0.92786 -0.15098 0.338744
0.182808 0.338439 -0.070668 0.831843 -0.359116 -0.422085
0.196088 -0.183612 -0.056194 0.770471 0.016422 -0.634317
-0.015949 -0.298561 0.092092 0.405104 -0.17383 0.897226
0.108022 0.086477 -0.137483 0.457388 0.261092 -0.848716
0.096255 -0.275775 0.082098 -0.170325 -0.131514 0.975303
-0.010837 0.374827 -0.129135 0.026144 -0.017464 -0.999409
0.415821 0.228605 -0.04184 -0.43054 -0.49379 0.727139
0.143166 -0.127895 -0.10892 0.498928 -0.273104 -0.822177
-0.002772 0.486274 -0.126743 0.157583 0.120729 -0.978828
-0.180905 0.360235 -0.050617 0.646663 -0.726756 -0.231404
0.046812 -0.007168 0.138297 0.067364 -0.425604 0.901066
0.357986 0.277451 -0.056202 -0.65617 -0.548116 0.516205
0.029632 -0.295006 0.006027 0.996691 -0.06697 0.040122
-0.087948 0.161596 0.080003 -0.678081 -0.025103 0.734394
0.151881 0.353295 0.067344 0.679782 -0.117357 0.723584
-0.025416 0.703626 0.006533 -0.882099 -0.469549 0.013358
-0.034023 0.070479 0.122944 -0.343538 0.190313 0.918475
-0.194125 0.427574 0.038531 0.174012 -0.44829 0.876009
0.25367 0.376972 -0.127566 -0.469287 -0.544835 -0.687952
-0.031597 -0.699401 -0.105687 0.524719 0.223047 -0.820988
0.148493 -0.749211 -0.091176 0.696508 0.154593 -0.700224
-0.527395 0.114143 0.051822 -0.816392 0.576996 0.002129
0.166126 -0.49627 0.061474 0.344212 -0.192851 0.911377
0.052123 -0.211212 0.063625 -0.779373 -0.086862 0.61878
-0.093656 -0.065999 0.110195 -0.544132 0.045844 0.837687
0.494357 0.227556 -0.0125 0.456736 0.548012 0.651412
0.119006 0.216999 -0.115936 0.583771 -0.335971 -0.738381
0.078494 -0.34656 -0.087176 -0.680973 -0.05457 -0.729005
-0.05252 -0.062795 0.127592 -0.192865 -0.048181 0.979369
-0.018677 -0.257546 -0.08422 0.591098 -0.026676 -0.806018
-0.107666 0.307551 -0.078614 -0.810751 -0.118455 -0.572849
0.054548 0.675287 -0.0667 0.39356 -0.316966 -0.859726
0.2759 0.364306 -0.029093 -0.339824 -0.541645 0.755048
-0.20051 0.353429 -0.072894 0.528534 -0.690635 -0.490498
0.037485 -0.244783 -0.035059 -0.731007 -0.077284 -0.673332
0.004293 -0.45722 -0.054436 0.771568 0.082407 -0.630585
0.199465 -0.60904 -0.019281 0.997591 -0.061595 0.028278
-0.03339 0.497612 0.070271 -0.150801 0.491479 0.857655
0.082226 -0.022448 0.130507 0.112737 -0.087205 0.988633
0.065044 0.489699 0.071241 0.079184 0.503609 0.859199
-0.095214 -0.58773 0.055975 -0.428852 -0.090779 0.892748
-0.073454 -0.601783 -0.104027 -0.087455 0.0464 -0.99324
0.106852 -0.305885 -0.099428 0.015045 0.016019 -0.994056
-0.056988 -0.703758 -0.117257 -0.038069 0.21409 -0.970832
0.065543 -0.093245 -0.118554 -0.33268 -0.489901 -0.804472
-0.127041 0.515067 -0.093441 -0.372212 0.452391 -0.810245
0.515619 0.153625 -0.006697 -0.654549 -0.755616 0.022728
-0.128112 -0.697718 -0.050275 -0.997512 -0.007207 0.033989
0.086039 0.623912 -0.041867 0.725513 0.546814 -0.409024
-0.134379 -0.229413 0.003384 -0.977148 -0.036906 -0.201315
0.11244 -0.194008 0.097105 -0.044531 -0.128765 0.990064
-0.43177 0.169373 -0.049957 0.352439 -0.654468 -0.655481
-0.037486 -0.115384 -0.104879 0.166425 -0.179317 -0.968529
0.14129 0.178183 -0.0921 0.669302 0.076667 -0.737903
0.032928 -0.229221 -0.034662 -0.490445 -0.075462 -0.84587
0.057529 -0.740668 0.003395 -0.973523 -0.208392 -0.074136
0.121502 0.083891 -0.130176 0.554649 0.255915 -0.791266
-0.128722 -0.270784 0.059989 -0.970471 -0.127969 0.20257
-0.026722 0.779417 0.032132 -0.895553 0.100097 0.428395
0.325535 0.306788 -0.115761 -0.538295 -0.635305 -0.548443
0.094738 -0.664238 -0.08199 -0.603244 -0.0065 -0.797454
-0.143437 -0.048333 0.006702 -0.999499 0.024978 -0.002214
-0.125684 -0.180529 0.08326 -0.822088 0.007468 0.567654
-0.126469 -0.41681 0.051556 -0.924235 -0.058792 0.375468
-0.061471 -0.159483 -0.09766 -0.13325 -0.156581 -0.976533
0.207491 -0.154236 -0.022406 0.990977 -0.095058 -0.073243
0.090376 -0.635014 0.020448 -0.674092 0.133468 0.705338
0.199769 -0.579402 -0.043632 0.986109 -0.032581 -0.160824
0.302484 0.320615 -0.069246 -0.655125 -0.700333 0.265036
0.203217 -0.321807 0.026059 0.959086 -0.047339 0.277774
0.020198 0.826216 0.065914 -0.330212 0.525616 0.778671
0.08561 0.817179 -0.081703 0.723624 0.440131 -0.527145
-0.104324 -0.666625 0.031527 -0.571753 -0.284499 0.755004
0.041996 0.513768 -0.124779 -0.231802 0.226338 -0.944829
0.138319 -0.215962 -0.096408 0.416742 -0.144921 -0.894466
0.040621 0.261593 0.126635 0.103563 0.092288 0.988879
-0.134682 0.52495 0.044361 -0.136209 0.576176 0.805194
-0.059709 0.455172 0.083229 -0.171922 0.317302 0.932331
-0.102933 0.134484 0.06699 -0.753754 0.077405 0.651659
0.023866 -0.104628 -0.071968 -0.492291 -0.606715 -0.561117
-0.333829 0.331595 -0.06543 -0.581526 0.764563 -0.256675
0.185567 0.565798 -0.040913 0.319193 0.931489 0.153784
0.035737 0.540467 0.039054 -0.000776 0.706778 0.707018
0.041472 0.870463 -0.014373 0.027355 0.995957 -0.013724
0.165165 -0.859074 0.013384 0.790479 -0.557873 -0.219041
0.025465 0.429609 -0.127172 -0.069882 0.04871 -0.995933
-0.135282 -0.549777 -0.038049 -0.990005 -0.0662 -0.101619
-0.504807 0.137338 0.074217 -0.482877 0.657073 0.400318
0.16084 0.231788 -0.070399 0.831813 -0.03871 -0.552923
0.57221 0.080801 0.049238 -0.746123 -0.624215 0.227241
0.02111 -0.741697 -0.06144 0.966582 -0.097207 -0.229799
-0.081847 0.074234 0.099494 -0.509406 0.34991 0.780251
0.058117 -0.691358 -0.032058 -0.868628 -0.148843 -0.472353
0.23644 0.536152 -0.030893 0.683605 0.650673 0.321497
-0.451292 0.212503 -0.016404 -0.775755 0.626914 0.05134
0.019811 -0.346062 -0.029012 0.910164 -0.02554 -0.412566
0.18477 0.019799 -0.076067 0.88619 -0.004683 -0.462961
0.083837 -0.615194 0.018865 -0.729391 -0.235497 0.639933
0.105095 -0.866438 0.138872 -0.135549 -0.968328 0.187098
-0.204242 0.500239 -0.038143 -0.722145 0.627356 -0.287261
-0.008012 -0.582294 0.025917 0.502359 -0.123428 0.854446
0.111043 -0.827026 0.142839 -0.330301 0.927126 0.089965
0.045419 -0.580082 -0.03061 -0.992881 -0.048395 -0.051889
0.032002 0.658853 0.077038 -0.008532 -0.981867 0.186135
-0.109745 -0.060707 0.096886 -0.705673 0.029429 0.707858
0.258455 0.466003 -0.003589 0.43468 -0.024578 0.894436
0.079213 -0.238079 -0.087788 -0.5067 -0.045699 -0.860394
-0.273735 0.308976 -0.092698 0.398039 -0.267693 -0.87235
0.459564 0.274676 -0.083294 0.814006 0.519067 -0.234143
0.162299 -0.515933 -0.09634 0.541795 -0.033428 -0.839013
0.282038 0.335821 -0.074623 -0.596589 -0.775495 0.198999
-0.042366 -0.114539 0.126272 -0.092922 -0.090334 0.988998
-0.564455 0.055823 0.036318 -0.96249 0.259563 0.00221
-0.057104 -0.252028 -0.092953 -0.154101 0.020314 -0.98491
0.096612 -0.832979 0.111802 -0.6608 0.728941 0.144789
-0.016269 -0.457869 0.061637 0.62462 -0.277579 0.729116
0.179229 -0.303621 -0.052598 0.739246 -0.084683 -0.667559
0.144953 0.071274 0.095911 0.741587 0.210319 0.635031
-0.001984 0.198404 0.128432 -0.16954 0.069822 0.978631
-0.0064 -0.755172 -0.012091 0.462148 -0.382003 0.783915
0.140549 0.499712 0.046765 0.356638 0.525082 0.772473
0.325411 0.438176 -0.102214 0.614285 0.699179 -0.363673
-0.137175 0.001607 0.04252 -0.97613 -0.186716 0.103632
0.192206 -0.394389 -0.052047 0.785956 0.032189 -0.61228
0.396617 0.284284 -0.128823 0.082919 0.004006 -0.991053
0.20132 0.400916 -0.049823 0.928526 -0.341303 0.020552
0.132501 -0.479084 0.058151 -0.486353 -0.099352 0.867659
-0.001458 0.320816 -0.128886 0.12347 0.047708 -0.990927
-0.330505 0.308442 0.000234 -0.365574 0.225473 0.90093
0.027949 -0.301363 0.029046 0.994706 -0.00723 0.102479
0.205624 -0.113399 0.04841 0.921916 -0.024591 0.385675
-0.196742 0.489143 0.030745 -0.691753 0.295254 0.658068
0.155353 0.039563 0.100435 0.457005 0.308872 0.831856
0.143846 0.235328 -0.096668 0.808968 -0.17771 -0.559646
0.264838 0.48205 -0.011398 0.564749 0.365364 0.733244
-0.56346 0.060016 0.025379 -0.926243 0.36326 -0.026764
0.140786 -0.06905 -0.124887 0.586829 -0.250073 -0.770079
-0.555317 0.075845 0.064294 -0.888286 0.445913 0.069756
0.081028 0.456143 0.083194 0.105489 0.269323 0.957243
0.552548 0.1034 0.024015 -0.922212 -0.36336 0.122016
0.1791 0.378825 0.039986 0.789471 -0.151311 0.594206
0.187824 -0.50052 0.037581 0.886873 -0.123662 0.443398
0.151608 -0.087834 -0.11258 0.708168 -0.105582 -0.65932
-0.015265 0.704126 -0.053761 -0.766644 -0.511112 -0.388346
-0.072311 0.210828 -0.091906 -0.750085 -0.148551 -0.643539
-0.123093 -0.272133 -0.026194 -0.851225 0.009699 -0.522685
0.061428 -0.67387 0.018688 -0.532413 0.310157 0.780062
-0.004228 0.609351 0.006858 -0.712206 0.046558 0.699877
0.117173 -0.227905 0.090765 0.037746 -0.169037 0.984875
0.158905 -0.340059 0.075805 0.240961 -0.040625 0.969654
0.047893 -0.237023 0.051258 -0.858038 -0.096604 0.504014
0.049021 0.476009 -0.129355 -0.258598 0.084404 -0.959485
0.060704 0.854787 -0.059541 0.37436 0.820052 -0.427434
0.203633 -0.391696 -0.027425 0.961215 -0.052486 -0.264833
0.075639 0.492416 0.06823 0.130033 0.464822 0.875658
0.120957 0.307731 -0.132009 0.584349 -0.045051 -0.810245
0.076417 0.637533 0.008882 0.813462 -0.186769 0.550075
0.025242 -0.335973 0.038804 0.948042 -0.106958 0.297678
0.052075 0.106255 -0.139514 -0.055066 0.437456 -0.896605
0.149659 -0.828762 0.105558 0.423569 0.885051 0.168555
0.011827 0.846071 -0.076698 -0.282664 0.797305 -0.530299
0.078166 -0.804879 -0.075058 -0.884121 0.103012 -0.455622
0.100795 -0.869409 0.111168 -0.197104 -0.975034 0.04769
0.013428 -0.754226 -0.079713 0.839121 0.083726 -0.536892
0.093342 0.253472 -0.137673 0.042837 -0.100049 -0.993842
-0.018072 -0.305372 -0.077695 0.670862 -0.115714 -0.732436
0.079109 0.152685 0.122802 0.415981 0.055813 0.906918
0.085185 0.557559 0.019158 0.008268 0.791734 0.593063
0.192244 0.370906 0.005335 0.964841 -0.138345 0.222089
-0.144093 -0.073752 0.005786 -0.999441 0.012054 -0.021688
-0.127165 -0.379363 0.035508 -0.988539 0.047254 0.133931
0.04058 0.831686 -0.096866 0.070088 0.706389 -0.697332
0.108872 0.013934 0.127719 0.353418 0.233463 0.902495
0.057096 0.148007 0.129344 0.12056 0.030211 0.992241
-0.0409 -0.834109 0.12113 0.626332 0.685417 0.36366
0.195929 -0.662784 -0.010717 0.953097 0.00161 0.296825
0.453553 0.204878 -0.078541 0.752124 -0.439962 -0.488519
0.026175 -0.35846 0.022164 0.984183 -0.095322 0.14268
0.063784 0.386832 -0.139351 -0.382759 0.022936 -0.922987
0.276432 0.46861 -0.01708 0.684762 0.159946 0.710914
-0.068194 -0.725871 0.014097 -0.324213 0.371339 0.867876
0.138616 0.115931 -0.106564 0.663304 0.212441 -0.717318
0.058821 -0.748653 0.011574 -0.983263 -0.16101 0.054206
0.000421 -0.273377 -0.06432 0.75666 -0.12724 -0.641231
-0.105623 -0.859335 0.036809 -0.670159 -0.741518 -0.029153
0.008006 0.588679 0.01989 -0.462826 0.122998 0.876763
0.030941 -0.257128 0.023312 0.983135 -0.063429 0.170709
-0.009268 -0.529134 0.035181 0.546866 -0.156112 0.813931
0.099878 -0.345105 0.072689 -0.350731 -0.225011 0.907052
0.105025 -0.507901 -0.103428 -0.374568 -0.011148 -0.926181
0.152196 0.417958 -0.136213 0.248832 -0.224054 -0.941651
0.095228 -0.180716 -0.103984 -0.256056 -0.177056 -0.949302
0.101234 -0.448785 -0.100344 -0.456975 0.055999 -0.887443
0.174652 0.178265 -0.048039 0.928647 0.057317 -0.361419
0.088012 0.299135 0.107571 0.383907 0.126795 0.907108
0.029537 0.225032 0.12836 -0.005146 0.035808 0.999335
0.068227 -0.004192 -0.15626 -0.242269 -0.154435 -0.956388
0.008381 -0.148669 -0.058947 0.80801 -0.077133 -0.583813
0.107323 0.410647 -0.145702 0.042118 -0.028347 -0.998259
-0.126512 -0.330979 -0.02055 -0.977381 0.003709 -0.203939
0.197228 -0.237811 0.052369 0.923374 0.04103 0.379519
0.095408 0.603509 -0.062356 0.653119 0.718732 -0.220412
-0.040667 -0.038029 0.131537 -0.182828 -0.036064 0.981268
0.087765 0.609055 -0.013636 0.872483 0.212344 0.423624
0.190004 -0.28828 0.064276 0.841429 -0.029682 0.52663
0.467804 0.215471 -0.074652 0.332734 -0.494602 -0.787623
-0.055386 -0.496834 0.065536 0.343578 -0.21939 0.912863
0.095183 -0.837288 0.122512 -0.788479 0.591838 0.1602
0.149337 -0.860422 0.173924 0.299164 -0.763237 0.473227
0.154074 -0.092006 0.106685 0.485229 0.002862 0.873919
-0.026938 -0.83527 0.076583 0.945701 0.298546 0.124659
-0.007916 0.631287 0.001336 -0.819469 -0.017043 0.570671
0.264649 0.350828 -0.05797 -0.686924 -0.692144 0.20696
-0.095607 -0.155348 0.112764 -0.319119 -0.048524 0.940897
-0.136556 -0.204602 0.046222 -0.995566 -0.040222 0.084645
0.623369 0.075375 0.028943 0.864786 0.497516 -0.06522
0.189981 0.075561 -0.053345 0.886119 0.12737 -0.444221
-0.234344 0.450698 -0.057117 -0.661194 0.593319 -0.458196
0.319092 0.360275 -0.139226 -0.039367 -0.219616 -0.973417
0.067846 -0.663553 0.017168 -0.408042 0.341304 0.845291
0.177246 -0.382366 -0.065562 0.683901 0.221076 -0.689004
-0.104401 -0.708145 -0.094208 -0.71911 -0.009487 -0.693586
-0.119501 0.12456 0.042603 -0.898854 0.127505 0.41704
-0.052119 -0.505924 0.062012 0.385406 -0.25327 0.887217
0.199937 -0.45843 -0.028532 0.999214 0.002459 -0.033975
0.054594 -0.270457 -0.061902 -0.827194 0.007904 -0.561233
0.096705 -0.302328 0.07799 -0.407453 -0.214829 0.886787
0.277606 0.499221 -0.068702 0.713788 0.695291 -0.076677
-0.028762 -0.528373 0.046984 0.373337 -0.257818 0.890484
0.195556 -0.697719 -0.006804 0.887133 -0.077597 0.432771
0.11242 0.392445 0.090623 0.28559 0.112734 0.95149
0.264717 0.348954 -0.079303 -0.697528 -0.715991 -0.01646
0.14091 0.569206 -0.018024 0.185505 0.784369 0.591747
0.166318 0.013443 -0.105806 0.709804 0.014704 -0.676136
0.119056 -0.824524 0.124983 -0.078563 0.994119 0.028226
0.195856 0.131894 0.025141 0.873894 0.005307 0.483936
0.0734 0.704862 -0.071741 0.600782 -0.551574 -0.574383
-0.003754 0.276237 0.119515 -0.324511 0.073731 0.942828
-0.289606 0.380378 -0.027594 -0.867438 0.470353 0.156189
-0.028306 0.714667 -0.023673 -0.901554 -0.398508 -0.139185
0.234655 0.542472 -0.048976 0.66547 0.744537 0.042053
-0.060723 0.127572 0.102054 -0.566937 -0.117458 0.81446
0.052917 0.041931 -0.158186 -0.12617 0.250573 -0.956588
0.171953 -0.802051 -0.004583 0.938431 -0.209427 0.239829
0.098568 0.728034 -0.042948 0.952758 -0.228883 -0.195355
0.47112 0.194826 -0.054754 -0.232768 -0.622309 -0.739083
-0.090921 -0.577417 0.059343 -0.30966 -0.133919 0.892452
-0.083953 -0.222786 -0.081722 -0.592901 -0.011792 -0.804176
-0.244653 0.430884 -0.067188 -0.56344 0.618271 -0.54364
0.00339 0.667211 0.069473 -0.715216 -0.540101 0.383599
-0.44259 0.194187 0.017715 -0.232677 0.503413 0.82776
0.165158 0.415192 -0.131179 0.287153 -0.374089 -0.881727
0.147619 -0.154241 0.103647 0.283244 -0.24661 0.925696
-0.363541 0.306102 -0.023428 -0.587695 0.766973 0.257134
0.187488 -0.212534 0.074982 0.774276 -0.136885 0.61774
0.345603 0.407528 -0.070562 0.823294 0.397132 0.3958
0.017956 -0.196741 -0.047215 0.881653 0.048905 -0.468626
0.104047 0.42796 0.087184 0.217675 0.242524 0.944385
-0.072135 0.021301 -0.130686 -0.476978 -0.33638 -0.802794
0.036655 0.105015 -0.138634 -0.108076 0.313172 -0.940496
-0.021068 0.091908 0.126188 -0.384502 -0.141966 0.908371
-0.518739 0.111537 0.091455 0.020514 0.173048 0.856934
0.453273 0.228974 -0.091337 0.612519 -0.242484 -0.747381
-0.091869 -0.856921 -0.046506 -0.629303 -0.759892 0.08064
-0.026316 0.706289 0.019004 -0.911471 -0.388954 0.118714
0.197918 -0.630558 -0.049286 0.958774 -0.031115 -0.255609
-0.130511 -0.274841 0.012338 -0.984141 -0.164875 -0.051703
-0.114607 0.449888 0.062224 -0.150008 0.026791 0.987718
-0.03237 0.204855 -0.117858 -0.319492 -0.363162 -0.873125
-0.052836 0.130946 0.107073 -0.520995 -0.0304 0.852536
-0.035786 0.76634 -0.061555 -0.982879 -0.068095 -0.169511
0.090968 0.826568 -0.04578 0.898542 0.414023 -0.080022
0.038208 -0.256167 -0.035961 -0.802995 0.014819 -0.592307
-0.42269 0.172072 -0.046019 0.482247 -0.720365 -0.495899
-0.124822 -0.216219 -0.0239 -0.856223 -0.094473 -0.507617
0.20275 -0.558414 -0.036902 0.95674 -0.078986 -0.278978
-0.129296 -0.043182 0.071024 -0.847529 0.055313 0.525335
0.073657 -0.350552 0.056515 -0.574454 -0.32202 0.749371
0.591385 0.083574 -0.002317 0.595698 0.259958 -0.758509
-0.122095 -0.136612 -0.047934 -0.822066 -0.14761 -0.549691
0.025455 -0.685564 -0.054751 0.964774 -0.011814 -0.260898
0.133267 -0.852641 -0.117246 0.55613 -0.076085 -0.808772
0.197431 0.083218 0.010991 0.950603 0.286226 0.11424
0.083021 0.13169 -0.127437 0.152621 0.323452 -0.933152
0.143912 0.266352 0.078225 0.754158 0.07057 0.652855
-0.103344 -0.861197 0.085907 -0.5693 -0.789036 0.038491
-0.526286 0.069617 0.06072 0.208984 -0.974801 0.034941
-0.113647 0.467524 0.061877 -0.079209 0.009604 0.996792
-0.137836 0.558213 -0.018374 -0.334353 0.939459 -0.009506
-0.102057 -0.29479 0.10488 -0.433979 -0.066349 0.89379
0.019051 -0.501024 -0.033586 0.90204 0.022509 -0.430437
-0.222728 0.331272 -0.013424 0.605028 -0.708556 0.353711
0.321261 0.433059 -0.115087 0.539239 0.663257 -0.518712
0.164842 -0.842414 0.116827 0.773466 0.627381 0.073846
0.075061 0.181304 0.123712 0.467644 0.035395 0.880403
-0.166251 0.483501 -0.085472 -0.464736 0.282758 -0.838742
-0.127169 0.071905 -0.033799 -0.962453 0.130012 -0.225291
0.114817 0.517203 -0.134191 0.032365 0.417507 -0.904536
-0.069881 0.558333 0.015631 -0.085123 0.773336 0.628124
-0.105921 -0.280863 0.102427 -0.621137 -0.036397 0.774445
0.021085 -0.647742 -0.00369 0.866409 -0.133643 0.480696
0.199556 -0.089044 0.062744 0.876891 -0.019222 0.479503
0.008932 -0.301977 0.078743 0.736219 -0.175293 0.64581
0.087146 -0.278529 -0.09375 -0.431136 0.062135 -0.90003
0.531348 0.199004 -0.057456 -0.133694 -0.566222 -0.811753
-0.005581 0.396261 -0.129158 0.05308 6.2e-05 -0.998552
0.176438 -0.219262 -0.071176 0.605917 -0.001009 -0.795263
0.046134 -0.351032 0.025414 -0.891148 -0.175335 0.406481
0.183053 -0.403939 0.061532 0.816009 -0.056223 0.575124
-0.032414 -0.274127 0.10344 0.232689 -0.212083 0.94883
0.121553 -0.468095 -0.106037 -0.04662 0.08272 -0.993011
-0.108986 -0.099337 -0.071629 -0.768149 -0.119024 -0.628771
0.23376 0.448311 0.008564 0.614773 -0.076359 0.776689
0.186059 -0.707134 -0.004232 0.271959 -0.41264 0.850241
-0.12413 -0.39371 0.056191 -0.957015 0.09309 0.269051
0.016451 0.569139 0.025612 -0.191304 0.091406 0.974534
-0.523764 0.114165 0.025428 -0.858306 0.380449 -0.256648
0.04737 -0.585831 -0.038422 -0.922352 -0.018482 -0.37756
-0.175381 0.523236 0.021511 -0.648927 0.600471 0.403511
0.183251 0.20263 0.013472 0.998123 0.046004 0.023788
0.364828 0.268539 -0.056537 -0.627356 -0.606389 0.483031
0.138259 0.026056 0.113792 0.396146 0.14871 0.904797
-0.080972 0.444064 0.079395 -0.53757 0.157423 0.826671
0.062379 0.483035 -0.133138 -0.491402 0.325554 -0.799725
0.042824 0.247928 -0.126976 -0.201386 -0.024374 -0.977547
0.18272 0.113224 -0.048207 0.840229 0.300339 -0.450194
-0.056712 -0.863251 -0.102522 -0.010655 -0.999724 -0.012781
-0.030787 -0.41676 0.078989 0.335294 -0.180218 0.924484
-0.129185 0.074394 -0.007432 -0.981981 0.157894 -0.022854
-0.451061 0.143949 -0.015295 0.448509 -0.832166 -0.298376
0.016393 -0.176437 0.087228 0.879156 -0.065202 0.467774
-0.499449 0.105443 0.019865 -0.037509 -0.781551 -0.615663
0.101456 0.004549 0.131291 0.278052 -0.009969 0.948065
0.4248 0.20896 -0.075333 -0.502415 -0.859425 0.061698
0.530216 0.143727 -0.027933 -0.095678 -0.591146 -0.7434
0.209694 -0.031629 0.031896 0.947559 0.015555 0.319076
0.158224 -0.674921 -0.078858 0.630451 -0.076153 -0.771944
-0.108343 0.458499 0.062913 -0.166721 0.038504 0.98414
0.135809 -0.628873 -0.096582 0.182527 -0.114371 -0.973458
0.026108 -0.115778 -0.065983 -0.899462 -0.302708 -0.311797
0.002549 0.733075 -0.102199 -0.464197 -0.562029 -0.661061
-0.022264 -0.484797 0.057109 0.455769 -0.285547 0.839808
0.056677 0.865179 -0.026219 0.307478 0.934109 -0.156242
0.111242 0.332596 -0.139216 0.415223 -0.108148 -0.902887
0.146914 -0.524536 -0.104138 0.367073 -0.009885 -0.929336
-0.024292 -0.834288 0.040916 0.975483 0.089622 0.082832
0.113475 -0.250225 0.087309 0.032993 -0.144372 0.988608
-0.071035 -0.056532 0.122094 -0.364707 -0.03724 0.929517
0.110724 -0.133294 -0.117342 0.023704 -0.284855 -0.955896
-0.021265 -0.703689 -0.099846 0.587735 0.214411 -0.779779
-0.086852 -0.396545 -0.073076 -0.51975 -0.079317 -0.850147
0.355386 0.286084 -0.119688 -0.527867 -0.541468 -0.651203
0.620933 0.057858 0.016926 -0.674308 -0.571618 -0.434745
-0.003653 -0.720929 0.006126 0.779756 -0.12337 0.612867
0.072955 0.855932 -0.03671 0.599034 0.776913 -0.188928
0.008249 0.63766 0.024426 -0.634986 -0.284907 0.716469
-0.229506 0.393232 0.026584 -0.259339 -0.2468 0.931263
0.190215 0.1757 0.004032 0.980578 0.189835 -0.002858
0.168892 0.182064 0.05762 0.761713 0.085319 0.641502
0.188422 0.061907 -0.0602 0.869185 0.153302 -0.468016
-0.554873 0.071356 0.081939 -0.840831 0.35038 0.342611
-0.113136 -0.726973 -0.080135 -0.8209 -0.092936 -0.561683
0.052181 -0.407976 0.008017 -0.713901 -0.300062 0.630697
0.01681 -0.012584 0.138557 0.028104 -0.737503 0.661645
-0.066685 -0.835434 0.154846 0.215736 0.819775 0.506838
0.182274 0.006462 -0.080883 0.869545 0.068564 -0.483263
-0.439415 0.158821 0.030219 0.495188 -0.763791 0.387427
-0.04199 -0.076822 0.128295 -0.10439 -0.062358 0.991608
0.616997 0.086653 0.015976 0.751804 0.655867 -0.067814
0.019596 -0.378637 0.035238 0.942754 -0.105017 0.316262
0.118331 -0.348707 -0.09937 0.27837 0.063951 -0.956539
0.061111 0.021037 -0.159548 -0.082054 -0.19757 -0.974101
-0.087367 -0.168613 0.114584 -0.273633 -0.055922 0.95986
-0.162767 0.380385 -0.005158 0.545054 -0.738022 0.397558
-0.026081 0.722396 -0.047588 -0.763762 -0.5336 -0.332427
0.207562 -0.15991 -0.010326 0.998024 -0.034178 -0.013119
0.070833 -0.320436 0.064505 -0.560834 -0.148194 0.813379
0.027107 -0.13343 -0.051998 -0.938326 -0.25484 -0.232969
0.045993 -0.037361 -0.138319 -0.304233 -0.415154 -0.857133
-0.08057 -0.568105 -0.101425 -0.246737 0.047587 -0.967269
0.15917 -0.566656 0.042942 0.108153 -0.155259 0.978467
-0.011072 -0.517445 0.039198 0.605277 -0.215664 0.765945
0.083274 -0.824261 -0.071547 -0.57946 -0.804097 -0.115957
-0.144396 -0.112125 0.015767 -0.999906 -0.00056 0.012094
0.158361 0.574469 -0.047364 0.307676 0.947885 0.056303
0.095767 -0.854338 -0.009518 -0.702239 -0.708137 0.021974
0.171979 -0.043825 0.091949 0.690366 0.017241 0.723249
0.062282 -0.061981 -0.132582 -0.314856 -0.407041 -0.857414
0.193326 -0.676198 -0.001281 0.93397 0.013931 0.346447
0.061321 -0.047165 0.127791 0.045699 -0.380431 0.92344
0.121374 -0.212334 0.093147 0.078317 -0.203878 0.975029
-0.032578 0.271468 -0.129351 -0.177804 -0.038175 -0.98191
-0.086439 0.388932 -0.11397 -0.390034 -0.166138 -0.905495
0.143251 -0.664615 0.029554 0.142839 -0.158438 0.976863
0.158659 0.282009 0.058723 0.735139 0.014415 0.677204
-0.139095 -0.487102 -0.020757 -0.976045 -0.094073 -0.147511
0.098072 0.810048 -0.003427 0.960907 0.257153 0.085881
-0.180441 0.45266 -0.089038 -0.228176 0.268298 -0.935653
0.162765 -0.848287 -0.028617 0.927511 -0.364669 0.052884
0.236379 0.478559 0.006083 0.585348 -0.029823 0.807498
0.433961 0.231062 -0.032065 -0.632137 -0.485465 0.589626
0.202686 0.493969 -0.130375 0.14727 0.269389 -0.951235
-0.019217 0.035742 -0.145926 -0.170572 0.13094 -0.974656
0.335079 0.389303 -0.061569 0.892061 -0.155219 0.386432
0.003715 0.82588 0.055815 -0.582951 0.44789 0.671692
0.129056 0.575268 -0.089599 0.362621 0.745587 -0.558203
0.198796 -0.227747 -0.049761 0.821995 -0.117012 -0.550566
0.17509 0.150423 0.054986 0.749596 0.088845 0.655784
-0.18837 0.491617 0.038088 -0.600419 0.326475 0.727459
0.236877 0.426611 -0.002237 0.439171 -0.493138 0.716959
0.12399 -0.642435 0.034962 0.215339 -0.088299 0.968491
-0.106561 0.29908 0.037619 -0.972158 0.060626 0.223182
0.205672 0.051071 0.006516 0.987291 0.144337 0.016307
0.368061 0.256714 -0.092534 -0.7797 -0.595331 -0.181676
0.368441 0.337174 -0.129673 0.497711 0.251903 -0.82495
-0.102929 -0.848383 -0.021 -0.814775 -0.507588 -0.209561
-0.020354 0.492347 -0.127582 0.047763 0.137874 -0.989198
-0.033527 -0.232295 -0.090164 0.239588 0.025041 -0.969318
0.020654 0.486991 0.077333 0.064796 0.55293 0.829417
0.20638 -0.210564 -0.026371 0.996723 -0.033234 -0.070165
0.409282 0.298964 -0.049343 0.333641 0.582297 0.736802
0.10142 0.08018 0.115105 0.436484 0.152425 0.882151
0.185822 -0.736016 -0.004812 0.091381 0.494522 0.850316
0.149451 0.191761 0.078921 0.721574 0.050996 0.690428
-0.029988 0.105452 0.121743 -0.425069 0.183571 0.885364
0.131418 0.43345 0.078744 0.386283 0.190157 0.900409
-0.015678 -0.338345 0.087386 0.466843 -0.097487 0.878808
-0.001092 -0.561744 -0.069508 0.77288 -0.039062 -0.633308
0.172245 -0.809819 -0.01124 0.937239 -0.263228 0.176056
0.10489 0.471649 -0.145134 -0.058354 0.106489 -0.992391
-0.136756 0.036512 -0.009911 -0.980422 0.165107 -0.09995
0.028703 0.868301 -0.02417 -0.250642 0.948864 -0.174697
-0.179558 0.35783 -0.037629 0.633728 -0.764969 -0.097588
-0.343816 0.322036 -0.019792 -0.688791 0.662374 0.275478
0.040568 -0.329231 0.007691 -0.939182 -0.087336 0.33056
-0.018916 -0.834397 -0.075245 0.656878 -0.670528 -0.008367
-0.002803 0.250659 -0.129285 0.099639 -0.045684 -0.99341
-0.075643 0.194034 -0.085526 -0.691417 -0.082723 -0.717035
-0.100312 -0.3932 0.094192 -0.33645 -0.203793 0.909362
-0.077238 0.163002 0.08937 -0.638427 -0.009557 0.769603
0.176718 0.52223 0.018663 0.346074 0.500811 0.791586
-0.065049 0.393197 0.095114 -0.361778 0.048197 0.929749
0.104704 0.729325 -0.012662 0.690799 -0.581231 0.309631
-0.213289 0.493061 -0.025661 -0.753491 0.647363 -0.09236
-0.103533 -0.617024 -0.094108 -0.579071 0.09826 -0.808192
0.087816 0.529351 -0.12908 -0.053505 0.214658 -0.974443
0.142996 -0.868491 0.128937 0.15014 -0.976976 0.068048
0.006144 -0.507912 -0.057216 0.779584 0.050507 -0.623555
0.152346 -0.796625 0.031392 0.629689 0.44129 0.638088
-0.116516 -0.593578 0.017261 -0.892514 0.01881 0.449965
-0.076054 -0.217427 -0.086531 -0.493526 0.004083 -0.866717
0.075403 -0.5841 0.01561 -0.702677 -0.089873 0.705559
0.635742 0.027273 0.085301 0.188044 -0.603824 0.332527
0.198832 -0.619475 -0.015472 0.997966 -0.038455 0.0486
-0.043885 -0.408347 0.084322 0.256791 -0.198606 0.945683
0.437031 0.263979 -0.117363 0.59755 -0.001949 -0.794563
-0.060346 0.179007 0.099095 -0.439663 0.021418 0.896597
-0.240627 0.367557 -0.097823 0.076054 -0.063284 -0.994504
-0.222507 0.4796 -0.014991 -0.885084 0.460949 0.051933
0.142331 -0.174088 -0.100066 0.503329 -0.073206 -0.860363
0.065494 0.209162 -0.124637 -0.212759 -0.417142 -0.881771
-0.009567 -0.599913 -0.07684 0.683205 -0.008619 -0.729995
-0.021165 -0.404142 -0.072526 0.56088 0.151518 -0.812295
0.157374 -0.39719 -0.083223 0.524244 0.159019 -0.836198
0.207641 -0.177547 -0.014582 0.999722 -0.000441 -0.02268
0.092547 0.820523 -0.056499 0.823939 0.517925 -0.219032
0.303708 0.356602 -0.034617 0.107678 -0.494348 0.853993
-0.051623 -0.56992 0.047517 0.420441 -0.209648 0.879123
0.129017 -0.505003 -0.108151 0.045386 0.013068 -0.995792
-0.34788 0.213222 -0.033203 0.621904 -0.779201 -0.056969
-0.128692 -0.359222 0.015619 -0.999544 0.011862 0.027372
-0.118136 -0.66448 0.00818 -0.96395 -0.186091 0.189633
-0.060013 0.097123 0.106998 -0.498157 0.133487 0.845512
0.085557 -0.72039 -0.072394 -0.864198 -0.10013 -0.489319
-0.12804 -0.685139 -0.050543 -0.996818 0.00709 0.061136
-0.121364 -0.481167 0.035365 -0.815924 -0.259408 0.516558
-0.076842 0.240402 0.083898 -0.617625 0.055242 0.784425
0.04346 -0.283821 0.030485 -0.986469 -0.01767 0.161774
0.166849 -0.801663 -0.0932 0.842421 0.00534 -0.531312
0.184264 0.482697 -0.135167 0.087879 0.165515 -0.981563
0.173017 -0.687032 0.014982 0.463486 -0.423265 0.777337
-0.064458 -0.793162 0.045631 -0.347186 0.514298 0.76929
0.098412 -0.473167 -0.100169 -0.519897 0.034897 -0.853121
0.115869 -0.156681 -0.110643 0.091602 -0.165284 -0.98112
0.014248 -0.754974 -0.027689 0.7246 -0.384421 0.570871
0.146067 -0.678275 0.02726 0.173739 -0.181054 0.967414
0.200652 -0.242756 0.042917 0.957075 0.040175 0.285144
0.227068 0.411287 -0.126512 -0.56444 -0.388177 -0.724567
0.150158 0.268865 0.070323 0.759476 0.08344 0.644894
-0.102043 0.308032 0.046473 -0.871718 0.180283 0.453661
-0.129172 -0.280656 0.042838 -0.988024 -0.139606 0.0602
0.154083 0.27108 -0.087904 0.875125 -0.112178 -0.470259
-0.30545 0.254434 -0.076072 0.29698 -0.753167 -0.568147
0.203261 0.028014 -0.02795 0.948725 0.091298 -0.298141
0.00083 -0.759377 -0.017838 0.530797 -0.283974 0.784392
-0.052986 -0.449153 -0.093015 0.063047 0.201093 -0.975356
-0.081423 0.19172 0.086085 -0.627533 0.011594 0.77826
-0.12408 0.20542 -0.005172 -0.918213 0.311223 -0.215079
-0.12256 -0.625098 -0.07848 -0.775229 0.048462 -0.628674
-0.007283 -0.12257 -0.0865 0.652363 -0.248499 -0.714455
0.103371 -0.385516 -0.100341 -0.296381 -0.048284 -0.948678
0.193222 -0.385139 0.041174 0.945144 -0.03001 0.324842
0.012984 -0.173147 -0.052012 0.826853 0.05512 -0.559658
-0.56378 0.03555 0.037135 0.825709 -0.561987 0.033602
-0.128526 -0.026529 -0.055144 -0.922801 -0.013641 -0.384009
-0.432377 0.212433 -0.049296 -0.52057 0.10037 -0.847556
0.085873 -0.3954 -0.089565 -0.62047 -0.040329 -0.7829
-0.019133 0.686418 0.024245 -0.961569 -0.247753 0.046347
-0.013176 0.612387 -0.010164 -0.884035 0.237851 0.396733
-0.075989 0.145799 0.090515 -0.653908 0.061015 0.753885
0.137337 -0.489585 0.058906 -0.419238 -0.142333 0.895445
0.009035 -0.108063 0.114302 0.577349 -0.294933 0.760489
0.003472 0.622515 -0.062704 -0.513656 0.507018 -0.68743
0.01734 -0.738635 -0.023837 0.920063 -0.120725 0.367861
0.159114 0.470954 0.053271 0.600589 0.246275 0.758046
0.387094 0.238039 -0.092071 -0.640431 -0.742372 -0.187857
0.179312 0.073669 -0.071885 0.817567 0.193455 -0.542072
0.180804 -0.750774 -0.038147 0.685796 -0.010645 -0.721573
0.197847 0.479403 -0.134219 0.112089 0.107568 -0.986634
-0.108194 0.162603 0.057449 -0.807327 -0.005596 0.589649
-0.061263 -0.440269 -0.090411 -0.092363 0.258438 -0.960835
-0.026246 0.016182 -0.142031 -0.181714 -0.384751 -0.90178
0.113139 -0.679929 0.032256 0.198616 -0.01517 0.97793
0.063702 0.721998 -0.093806 0.44104 -0.54089 -0.716111
-0.247729 0.313666 -0.073175 0.672017 -0.502794 -0.54225
-0.100213 -0.180639 -0.067952 -0.737433 -0.062335 -0.671839
-0.162682 0.543356 -0.030695 -0.619773 0.765098 -0.16921
0.625356 0.042644 0.044854 -0.827251 -0.560089 -0.031097
-0.055108 0.346329 0.09927 -0.471478 -0.100348 0.874188
-0.025423 0.328551 0.108373 -0.47214 0.288336 0.824376
-0.065392 -0.346528 -0.085703 -0.31039 -0.043285 -0.949216
-0.022767 -0.84324 0.062084 0.97819 0.162716 0.08991
0.106033 -0.491649 -0.103907 -0.346873 0.008386 -0.935923
-0.116622 0.338582 -0.074727 -0.878083 -0.207602 -0.427669
0.01373 -0.788937 -0.046789 0.894102 -0.37085 0.250343
0.085814 -0.587655 -0.081729 -0.659283 -0.113793 -0.743151
-0.07407 -0.740494 -0.123175 -0.334029 0.042614 -0.931415
0.158906 0.116982 0.07666 0.575583 0.176429 0.797391
0.191559 -0.577906 0.018792 0.818537 -0.087176 0.564907
-0.001431 0.70195 -0.072596 -0.637215 -0.5322 -0.557024
-0.183757 0.522573 0.006975 -0.702615 0.681471 0.203335
0.087281 0.450873 -0.144603 -0.175674 0.0176 -0.983996
0.197567 -0.46834 -0.051964 0.949592 0.036824 -0.292634
0.431003 0.271328 -0.037544 0.09192 0.520348 0.847786
-0.1282 -0.150989 0.078702 -0.887733 0.019233 0.45845
-0.185477 0.378386 0.01347 0.423996 -0.577922 0.696525
0.467418 0.206675 -0.005015 -0.511976 0.327507 0.790332
-0.010748 0.001926 0.142303 -0.175698 0.378443 0.903875
-0.100011 -0.832756 0.060993 -0.726398 0.682071 0.084053
0.127173 0.269296 0.093832 0.5929 0.047255 0.803809
0.235296 0.378163 -0.082703 -0.709171 -0.704961 -0.005146
-0.03395 0.817119 0.005531 -0.900594 0.009852 0.421045
-0.52825 0.079291 0.030897 0.458817 -0.637062 -0.61742
0.010762 -0.486389 0.027206 0.775169 -0.155125 0.612143
0.190601 0.337811 -0.049318 0.959263 -0.223554 -0.161975
-0.064775 0.559511 -0.091048 -0.385297 0.596914 -0.703466
0.017678 0.349007 0.113313 -0.0538 0.10134 0.992583
0.197395 -0.541881 -0.055959 0.908803 -0.00943 -0.409212
0.027733 0.262894 -0.126214 0.006957 -0.074147 -0.995499
-0.010879 -0.366529 -0.0623 0.714342 -0.093618 -0.693301
-0.136093 -0.149561 0.06095 -0.960632 0.010432 0.276191
0.009869 -0.007255 0.14585 0.067175 -0.370903 0.914238
0.026174 0.003902 -0.148295 -0.218046 -0.251555 -0.938915
-0.002596 -0.429792 -0.059964 0.739832 0.019551 -0.672458
0.356096 0.317682 -0.133558 0.000779 -0.143834 -0.988291
-0.035272 -0.817861 -0.147416 0.163843 -0.241645 -0.950221
-0.118687 -0.550772 -0.075398 -0.759395 0.122926 -0.638005
0.192531 0.340712 -0.03944 0.958088 -0.264909 -0.087525
-0.082777 -0.792161 -0.12859 -0.7005 0.10736 -0.698866
0.1822 -0.3191 -0.048114 0.753644 -0.017893 -0.656956
0.019845 -0.743799 -0.034504 0.955472 -0.154655 0.244649
0.037853 0.722848 -0.104028 0.0925 -0.699577 -0.660079
0.187613 -0.602294 0.019126 0.469322 -0.143803 0.86954
-0.002683 0.840328 0.041513 -0.616276 0.362643 0.690883
-0.109303 -0.380705 -0.057126 -0.710106 -0.026587 -0.703342
-0.05162 0.384035 -0.125967 -0.200026 -0.048981 -0.97673
0.052339 -0.17131 -0.079625 -0.77278 -0.17752 -0.606757
-0.017239 0.81728 0.034806 -0.826053 0.362399 0.427926
-0.04886 0.251844 -0.121683 -0.515601 -0.098447 -0.851109
0.170282 -0.645576 -0.07578 0.574215 -0.19217 -0.795716
0.636407 0.052597 0.037076 0.888188 0.457099 -0.0182
0.024933 0.656079 0.057972 -0.18546 -0.969425 0.152594
0.166183 -0.475668 0.065245 0.309698 -0.124832 0.935252
-0.033275 -0.216946 0.114643 0.16265 -0.191919 0.967105
-0.200808 0.500466 0.014207 -0.746954 0.529282 0.400483
-0.100201 -0.317806 -0.061903 -0.695417 0.037857 -0.716609
-0.118456 -0.517935 -0.069342 -0.752235 0.13649 -0.643877
-0.01556 0.23004 0.118577 -0.458595 0.115348 0.881095
0.24544 0.385459 -0.032461 -0.424618 -0.695561 0.576751
0.043906 -0.483666 -0.03111 -0.999716 -0.00021 0.014588
0.164203 -0.12622 -0.093649 0.674631 -0.242592 -0.696365
-0.113211 0.072413 -0.068196 -0.8573 0.145515 -0.492213
-0.128046 -0.37382 -0.020399 -0.994374 0.015008 -0.097577
0.155467 0.049684 0.097037 0.311058 0.31272 0.892138
0.629084 0.035874 0.078653 -0.862138 -0.479766 0.004097
0.123446 0.479149 -0.14442 0.048256 0.147719 -0.986402
-0.100247 -0.032952 0.105091 -0.644102 0.037322 0.76395
0.014108 -0.523097 -0.045127 0.847816 0.051073 -0.527414
0.519529 0.176265 0.016108 -0.226474 0.49109 0.833339
-0.11847 -0.628241 0.017195 -0.915602 0.021181 0.398199
0.011012 0.125725 -0.125791 -0.111461 0.43629 -0.892395
0.037612 0.577988 0.026274 0.132396 -0.005173 0.990064
0.539072 0.129403 -0.011374 -0.742781 -0.65501 -0.116246
0.088679 -0.835874 -0.040335 -0.998483 -0.045076 0.000311
0.153281 -0.76717 -0.092571 0.671411 0.315575 -0.668123
-0.123255 -0.044647 0.080079 -0.767097 0.06397 0.637988
-0.120435 0.338364 -0.0554 -0.998171 -0.039925 -0.042468
0.148444 0.105868 0.083305 0.586969 0.086617 0.802676
0.334771 0.296258 -0.111197 -0.560991 -0.665835 -0.491208
-0.032803 0.214395 -0.121246 -0.3261 -0.300028 -0.893583
-0.047152 0.041807 -0.137936 -0.322575 0.223308 -0.919755
-0.051707 0.581807 -0.016561 -0.204441 0.912765 0.351034
0.011562 -0.457066 0.031445 0.801295 -0.060591 0.595057
-0.1045 0.007969 -0.096983 -0.844032 0.009891 -0.536199
0.181289 0.315063 -0.053978 0.869443 -0.321435 -0.374351
0.172299 -0.815365 -0.065319 0.795816 -0.592749 -0.062712
-0.015331 0.056771 0.131362 -0.351223 0.158902 0.921795
-0.129227 -0.567086 -0.060355 -0.945261 0.029003 -0.322494
0.172931 -0.326673 -0.058483 0.729462 0.003974 -0.683873
-0.082624 -0.352982 0.102866 0.064184 -0.144793 0.984403
-0.09162 -0.759955 -0.110938 -0.691303 -0.028132 -0.717506
0.099803 -0.172183 -0.106765 -0.193212 -0.196182 -0.960843
-0.261296 0.373958 -0.095965 -0.233768 0.188399 -0.951412
0.354871 0.272327 -0.075443 -0.674307 -0.720762 0.157969
0.113662 -0.868238 0.021111 -0.076862 -0.990133 -0.11178
-0.078811 -0.459772 0.080478 0.139529 -0.123508 0.980881
0.197165 0.381202 -0.013504 0.986657 -0.113933 0.111457
0.155732 0.525132 -0.124023 0.215792 0.581107 -0.781875
-0.130043 -0.105424 0.071991 -0.858124 -0.002486 0.512796
-0.094902 0.315094 -0.095083 -0.680282 -0.110524 -0.724333
-0.001019 -0.384918 0.068582 0.725387 -0.157847 0.669519
-0.040136 -0.252596 -0.092733 0.173265 0.03979 -0.982909
0.192888 0.560068 -0.032801 0.346133 0.871353 0.268768
-0.169642 0.530458 0.017634 -0.610319 0.681755 0.402393
-0.103402 -0.452349 -0.074073 -0.655712 0.170244 -0.733797
-0.108784 -0.525319 -0.081311 -0.678443 0.108897 -0.72639
-0.129965 -0.592296 -0.054958 -0.991568 -0.047013 -0.115007
0.441276 0.222791 -0.026566 -0.859821 -0.2426 0.434024
0.097754 -0.107805 -0.121872 -0.151435 -0.287748 -0.94356
0.088062 0.289378 0.108927 0.372334 0.139382 0.916127
-0.234022 0.437579 0.01481 -0.726245 0.388992 0.565778
0.10111 -0.217681 0.091675 -0.133312 -0.18885 0.972402
-0.008815 -0.723477 -0.098002 0.584616 0.30102 -0.75245
-0.293004 0.261409 -0.011478 0.78655 -0.443341 0.407107
-0.378147 0.296857 -0.038055 -0.716562 0.695641 0.044615
0.169978 -0.441684 0.067258 0.378334 -0.0956 0.917511
0.042322 -0.22567 0.030172 -0.991192 -0.045292 0.120186
0.148883 0.549469 -0.109712 0.251197 0.653315 -0.713781
0.05626 -0.528784 -0.001125 -0.754401 -0.024182 0.654167
-0.059127 -0.86415 0.093231 -0.000176 -0.999888 0.012969
-0.121675 0.391336 0.037026 -0.942323 -0.249056 0.218604
-0.036168 -0.688761 -0.105162 0.450248 0.269162 -0.851182
0.095378 -0.611981 -0.086361 -0.582198 -0.082344 -0.808492
-0.147052 0.398201 -0.063123 0.588413 -0.761234 -0.262885
-0.118857 0.095022 -0.048714 -0.871415 0.184106 -0.450481
-0.039403 0.540476 0.042999 -0.207686 0.622547 0.754301
-0.09714 -0.412323 -0.065384 -0.55866 0.107106 -0.819449
0.132921 -0.669852 0.030124 0.117184 -0.133023 0.984109
0.10546 0.57602 -0.009126 0.327253 0.751863 0.572008
0.190408 -0.564382 0.023558 0.874212 -0.072867 0.477048
0.010137 0.394329 -0.12827 0.030459 -0.002487 -0.999456
-0.03658 -0.005288 -0.137016 -0.161896 -0.080986 -0.983024
-0.087268 -0.378004 0.09802 0.007762 -0.206243 0.977748
0.094064 0.554702 0.023467 0.256946 0.697824 0.665883
-0.037412 0.778912 -0.046432 -0.989907 0.078346 -0.116556
-0.118119 0.343126 0.006969 -0.976638 -0.142031 0.16103
-0.074068 -0.012577 0.123259 -0.420822 -0.429745 0.7828
0.071717 0.582672 -0.097286 0.025518 0.679698 -0.726719
0.038119 -0.265242 0.009226 -0.140133 -0.061584 0.899009
0.166487 -0.863168 0.101955 0.219874 -0.965476 0.020195
-0.095509 0.244763 0.067667 -0.684012 0.125732 0.717737
0.017809 -0.527841 0.009113 0.865203 -0.106533 0.480621
-0.214686 0.481045 0.011506 -0.787698 0.473255 0.387239
-0.122484 -0.663596 -0.017865 -0.964962 -0.092085 0.242882
0.099563 0.753324 0.011298 0.978771 -0.014972 0.199252
