0.067536 0.547743 0.029264 -0.107701 0.679032 0.711563
0.288704 0.422766 -0.016046 0.447279 0.204741 0.869553
0.109437 -0.229247 -0.09997 -0.184717 -0.064355 -0.980533
-0.029441 0.099348 -0.12828 -0.21102 0.259311 -0.942232
-0.063512 -0.036132 0.126332 -0.340958 0.032755 0.936628
0.092413 0.825351 -0.03482 0.834239 0.529893 -0.050034
-0.500984 0.149688 0.009581 -0.780463 0.623441 -0.026575
0.153234 0.257887 0.067653 0.783294 0.072527 0.617353
0.097437 0.164056 -0.115261 0.258063 0.160069 -0.952557
-0.287015 0.399963 -0.037533 -0.626246 0.770132 0.117701
0.151734 0.179425 -0.081997 0.716091 0.160986 -0.671668
0.185869 -0.328173 -0.044074 0.745006 0.025794 -0.666513
0.142274 0.227107 0.083313 0.729407 0.070587 0.680063
-0.092192 -0.177021 -0.076408 -0.693359 -0.078524 -0.716159
0.075761 -0.494751 0.015565 -0.644061 0.048689 0.763393
0.574912 0.069783 0.007358 -0.866243 -0.496415 0.011525
0.142309 -0.815215 0.060646 0.45347 0.799887 0.382962
0.025754 -0.698252 -0.039073 0.983997 -0.109972 0.133905
0.18518 -0.234607 0.072187 0.654285 -0.162757 0.735038
0.031468 0.37184 0.107977 0.0476 0.199027 0.977979
0.037305 -0.358523 -0.017533 -0.992873 -0.089098 0.016635
0.605658 0.100892 0.039835 0.835292 0.547533 0.003513
0.050964 -0.502906 -0.05314 -0.862453 -0.057568 -0.502482
-0.038358 0.807764 -0.040461 -0.976613 -0.189287 -0.079599
0.072766 0.526676 0.050225 0.120676 0.524077 0.842666
0.168916 0.246434 0.050628 0.714065 0.063662 0.696901
-0.127165 -0.379363 0.035508 -0.988539 0.047254 0.133931
-0.083385 0.571138 -0.061983 -0.483843 0.757788 -0.426183
-0.135598 -0.24049 0.028702 -0.998974 -0.042522 0.008596
-0.0992 -0.475544 0.073511 -0.608951 -0.270951 0.734263
0.080199 0.427494 -0.142996 -0.254652 0.023792 -0.965261
-0.059359 -0.469279 -0.095776 -0.003698 0.11512 -0.992396
-0.014546 -0.649149 0.024635 -0.04343 0.078968 0.989529
0.349053 0.376219 -0.077132 0.676021 0.679886 0.282712
0.044483 -0.045945 -0.133702 -0.33013 -0.437063 -0.835694
0.185043 0.565901 -0.061189 0.31038 0.931797 -0.140378
-0.401081 0.253368 -0.070549 -0.680352 0.120934 -0.714309
0.04223 -0.359766 0.003963 -0.971001 -0.095932 0.214779
0.042975 -0.35177 0.011291 -0.978823 -0.069799 0.19156
0.036458 -0.006864 0.140353 0.282914 -0.549852 0.778695
0.033197 0.589541 0.0263 0.043028 0.008711 0.997147
0.141633 -0.796667 -0.113281 0.408171 0.261656 -0.873523
-0.325949 0.271146 -0.089216 -0.01909 -0.372554 -0.926193
0.635473 0.047775 0.085348 0.917013 0.366717 0.15461
0.198086 0.362122 -0.038803 0.995511 -0.078156 0.031945
0.207157 0.014436 0.003306 0.999561 0.018096 -0.021799
0.049354 0.732617 0.091158 0.855596 0.144142 0.492137
0.007904 -0.015419 -0.140964 -0.10556 -0.280158 -0.954098
-0.003618 0.649213 0.012431 -0.837001 -0.220926 0.496581
0.095255 0.351227 -0.144948 0.045731 -0.040663 -0.996817
-0.104737 -0.670865 -0.09539 -0.552093 -0.037235 -0.832506
0.006102 -0.812207 -0.096119 0.917085 -0.277161 -0.281242
0.119367 0.426522 0.083352 0.257973 0.177477 0.949019
0.145458 0.092894 0.089778 0.658958 0.238845 0.706897
-0.489428 0.163331 0.004755 -0.776628 0.629589 -0.019252
0.249449 0.492239 -0.002806 0.591439 0.219841 0.77572
0.072357 0.296105 -0.139318 -0.219096 -0.07736 -0.972175
-0.135837 -0.515117 -0.008036 -0.983169 -0.076168 0.164201
-0.15526 0.409562 -0.087637 0.471312 -0.480002 -0.728078
0.205945 0.024878 -0.016043 0.991 0.03763 -0.123226
0.204286 -0.409171 -0.015951 0.981297 -0.143417 -0.124376
-0.055108 0.346329 0.09927 -0.471478 -0.100348 0.874188
0.07682 -0.594233 0.015424 -0.725803 -0.132021 0.675009
0.097784 -0.566445 0.0322 -0.411119 -0.090295 0.906272
-0.38724 0.287615 -0.03825 -0.700929 0.711421 0.044855
0.140886 -0.471401 0.063168 -0.439769 -0.125089 0.887924
0.138616 0.115931 -0.106564 0.663304 0.212441 -0.717318
-0.084658 0.503221 -0.116184 -0.298077 0.338052 -0.891213
0.113305 -0.425285 -0.102881 -0.130229 0.042419 -0.985484
0.01681 -0.012584 0.138557 0.028104 -0.737503 0.661645
-0.068437 -0.826999 0.121345 -0.144544 0.980681 0.126113
-0.149912 0.473751 -0.094982 -0.365066 0.117494 -0.923282
0.285814 0.405031 -0.01414 0.126724 -0.063409 0.981021
-0.023423 -0.567859 0.034672 0.406295 -0.223378 0.885957
0.017126 -0.760964 -0.072489 0.96475 0.015288 -0.252792
0.194754 -0.159831 0.065473 0.908295 -0.036372 0.413268
-0.065756 -0.847841 -0.136704 -0.392422 -0.317244 -0.858265
-0.021192 -0.045754 -0.128543 -0.039205 -0.443552 -0.894783
-0.074321 -0.540453 0.062651 0.406954 -0.215232 0.887516
0.153631 -0.097493 -0.109447 0.639026 -0.13599 -0.756932
0.199439 0.412436 -0.116082 0.614328 -0.548219 -0.556763
0.132252 0.410809 -0.14203 0.330628 -0.166499 -0.926173
0.166775 -0.744772 0.013138 0.315833 0.818908 0.476787
0.005118 -0.493617 0.031631 0.686276 -0.184937 0.703214
0.079147 0.849877 -0.041178 0.707206 0.677904 -0.19398
-0.502474 0.121823 0.081513 0.549474 -0.149195 0.793503
-0.089899 -0.197488 -0.077281 -0.689981 -0.025768 -0.72333
0.211535 0.412928 -0.051608 -0.458375 -0.797533 0.107016
0.198043 -0.458693 -0.048148 0.966609 0.039069 -0.2315
0.181398 -0.051676 0.083257 0.725384 0.033553 0.687294
-0.01526 -0.693983 -0.092594 0.609352 0.22055 -0.761479
-0.107177 0.171493 -0.052024 -0.852333 0.080517 -0.51667
-0.001733 0.308462 0.116373 -0.307089 0.180621 0.932229
0.046848 0.728438 -0.105855 0.236582 -0.52712 -0.81582
0.008743 -0.682099 -0.072907 0.565435 0.216461 -0.795105
0.059585 0.699964 -0.078141 0.416392 -0.5672 -0.708067
0.20638 -0.210564 -0.026371 0.996723 -0.033234 -0.070165
0.181815 -0.136795 -0.072075 0.715662 -0.071453 -0.694733
-0.068174 -0.782273 -0.136766 -0.430313 0.355903 -0.826729
0.147068 0.048175 0.101819 0.683894 0.302021 0.662967
0.090556 0.700841 -0.013043 0.946526 -0.295429 -0.011917
0.11147 0.457279 -0.146685 -0.014502 0.057827 -0.997706
0.049695 0.005301 -0.153417 -0.19918 -0.188036 -0.960793
0.051092 0.50473 0.064359 0.062061 0.478784 0.875322
-0.257447 0.427133 -0.017932 -0.751627 0.624967 0.210845
0.164236 -0.798702 0.015752 0.823457 0.386877 0.409984
0.051522 -0.655565 -0.003194 -0.990359 -0.000939 0.120252
-0.018948 0.414857 0.102412 -0.10244 0.303436 0.945972
0.106338 -0.77244 0.030602 -0.162649 0.703193 0.650295
0.172394 0.39737 0.050518 0.676487 -0.054036 0.73403
-0.028065 -0.798814 0.048205 0.635824 0.572744 0.51332
0.067597 -0.519789 -0.072422 -0.736738 -0.071994 -0.671583
0.192475 -0.050235 -0.062788 0.902803 -0.050733 -0.426798
0.106697 -0.869518 0.045683 -0.11089 -0.983481 -0.047521
0.053229 -0.684633 0.006997 -0.976395 -0.000411 0.210536
0.077186 0.566225 -0.110927 -0.062698 0.590685 -0.803206
0.076434 -0.536771 -0.079758 -0.712629 -0.07129 -0.697882
0.12994 0.164245 -0.101677 0.499802 0.129577 -0.856276
0.160911 0.199759 0.06444 0.771515 0.092008 0.628995
0.152556 0.062939 0.093295 0.346973 0.330247 0.87373
0.158975 -0.860353 0.00516 0.492748 -0.830044 -0.187341
-0.060841 0.269242 -0.117465 -0.429928 -0.102982 -0.89479
0.19793 0.054678 0.049824 0.918708 0.220204 0.317767
-0.095544 -0.659891 -0.101335 -0.502162 -0.021293 -0.864298
0.161661 0.283654 -0.076917 0.868282 -0.162366 -0.467412
0.079002 0.272677 -0.138869 -0.116481 -0.068759 -0.990174
0.155327 0.50736 -0.131539 0.198844 0.369592 -0.906457
0.09026 0.70161 0.018305 0.955255 -0.294068 0.014425
0.336316 0.400831 -0.134388 0.544196 0.290767 -0.774996
0.089473 -0.402319 0.049762 -0.590262 -0.272058 0.759256
-0.297708 0.252438 -0.015671 0.697483 -0.661546 0.275237
0.077504 0.685761 -0.048797 0.737938 -0.374298 -0.560796
0.297648 0.328972 -0.06006 -0.509197 -0.702323 0.497196
0.199376 0.070858 0.024256 0.97135 0.209609 0.105907
-0.095877 -0.858565 -0.08773 -0.811514 -0.530325 -0.129523
-0.096615 -0.37489 0.097596 -0.212768 -0.164799 0.952717
0.057292 -0.497036 0.001345 -0.667573 -0.019138 0.74359
-0.102912 -0.120725 -0.075653 -0.709261 -0.096787 -0.696033
0.139583 -0.616655 -0.097238 0.237505 -0.13887 -0.959977
-0.021516 0.130772 0.122562 -0.418475 0.007849 0.907297
-0.100679 -0.83064 0.038787 -0.763098 0.639318 0.081403
-0.04223 0.503369 0.066169 -0.166555 0.418065 0.892712
-0.31993 0.285864 -0.093888 -0.03579 -0.208142 -0.976946
-0.231065 0.327332 -0.009357 0.600692 -0.662895 0.443969
0.020618 -0.580889 -0.000462 0.799813 0.062589 0.594591
0.06925 0.440973 0.088502 0.095189 0.189882 0.976475
-0.009079 -0.458404 0.055227 0.672128 -0.222876 0.705765
0.128689 -0.869383 -0.100344 0.108759 -0.981569 -0.142926
0.026174 -0.48474 -0.003949 0.97672 0.025947 0.167342
-0.109571 -0.447375 -0.066378 -0.711642 0.195681 -0.67445
0.069018 -0.56152 0.010533 -0.64468 0.014573 0.764129
0.182935 0.256799 -0.011765 0.998193 -0.008025 -0.05077
0.187456 0.130699 -0.028693 0.847817 0.20014 -0.488599
0.566777 0.088622 0.047652 -0.855124 -0.43576 0.262627
0.200956 -0.053294 -0.041793 0.940889 -0.013512 -0.337227
0.116804 -0.141386 0.112211 -0.112532 -0.155626 0.976801
0.437031 0.263979 -0.117363 0.59755 -0.001949 -0.794563
-0.065943 -0.82818 0.13278 -0.071389 0.983855 0.146606
-0.082183 0.180658 0.085321 -0.64435 -0.005214 0.764695
0.11581 0.182612 -0.107535 0.423761 -0.042782 -0.902215
0.184116 -0.059737 -0.077586 0.847234 -0.048362 -0.528695
-0.086447 0.028838 0.109035 -0.515127 0.378033 0.768211
-0.037775 0.125328 -0.11621 -0.343167 0.425284 -0.836512
0.206317 -0.21256 0.010966 0.998044 -0.031481 0.052224
0.184264 0.482697 -0.135167 0.087879 0.165515 -0.981563
-0.025618 0.479729 0.080449 -0.101166 0.422894 0.897443
-0.129933 -0.266309 -0.004166 -0.979901 -0.090178 -0.174282
0.152731 -0.249654 0.083527 0.11235 -0.07614 0.990457
0.175412 0.415372 0.048933 0.593998 0.00252 0.803283
0.205728 0.411316 -0.105129 0.613151 -0.698014 -0.323688
0.412268 0.236454 -0.117251 0.042162 -0.556548 -0.820786
0.075454 -0.818816 0.017143 -0.857745 -0.391683 0.300634
-0.075857 -0.596183 0.051212 0.469807 -0.207123 0.857686
-0.080865 -0.844308 -0.123793 -0.808009 -0.064741 -0.581625
-0.100834 0.122072 -0.07355 -0.75836 0.101551 -0.643135
0.192373 -0.503541 -0.063563 0.852276 0.013753 -0.522716
0.319629 0.406701 -0.037131 0.600248 0.359732 0.712997
-0.021867 0.145894 0.121992 -0.389085 0.019101 0.92055
0.045191 -0.196715 -0.05851 -0.869185 -0.154231 -0.454678
0.169402 0.068931 -0.088319 0.791686 0.210746 -0.57321
0.055092 0.513677 0.05918 0.020561 0.510176 0.859581
0.135139 -0.078044 -0.125937 0.484755 -0.259308 -0.830851
-0.002572 -0.760773 -0.102887 0.800427 0.242887 -0.543326
0.088072 0.310628 -0.142812 0.015538 -0.089302 -0.993963
-0.037049 0.726067 -0.020746 -0.836134 -0.525919 0.011636
0.093299 -0.419815 0.045093 -0.628483 -0.361557 0.688538
-0.040431 -0.515364 0.054862 0.409776 -0.284203 0.866329
0.013903 0.643856 -0.059799 -0.384694 0.121578 -0.910384
-0.02577 0.364064 -0.128928 -0.027704 -0.018084 -0.999364
0.184091 -0.661649 0.015009 0.641174 -0.116416 0.753942
0.195525 -0.495788 0.015546 0.937457 0.05652 0.342406
0.618833 0.085408 0.052264 0.864144 0.502879 0.018439
-0.046508 -0.172643 -0.095496 0.172131 -0.060431 -0.982894
-0.020359 -0.182432 0.117052 0.465801 -0.11775 0.876798
0.183163 -0.179913 0.083593 0.67212 -0.088322 0.734008
0.052209 -0.053218 -0.133086 -0.352836 -0.432335 -0.829631
0.113382 0.377629 -0.143681 0.256314 -0.066588 -0.962615
-0.065293 -0.764603 0.023111 -0.299134 0.515615 0.788904
-0.108938 -0.747566 -0.00252 -0.454209 0.491036 0.735119
0.008456 -0.14306 0.105034 0.691338 -0.147366 0.704178
0.153766 0.460323 0.060581 0.59848 0.22678 0.767375
-0.045072 -0.049899 -0.124346 -0.15987 -0.417133 -0.89251
-0.016988 0.449413 0.093187 -0.133244 0.371587 0.918094
-0.397531 0.250002 0.007528 -0.238922 0.343846 0.905527
-0.073643 -0.517924 0.06783 0.4007 -0.258378 0.877724
0.174925 0.062403 -0.082882 0.818839 0.197528 -0.538341
0.089182 -0.835681 0.051979 -0.981134 0.185421 0.022579
0.289049 0.335835 -0.111415 -0.6247 -0.632514 -0.45621
0.101972 -0.795086 0.051786 -0.293341 0.476778 0.82558
0.195285 -0.206479 -0.056225 0.728511 -0.06686 -0.681647
-0.071191 0.563361 -0.084089 -0.405409 0.628669 -0.660495
-0.378818 0.193048 -0.021166 0.478495 -0.877262 -0.003186
-0.234415 0.357936 -0.094963 0.192026 -0.29449 -0.934988
-0.15723 0.549118 -0.014314 -0.503449 0.854805 0.024158
-0.388261 0.280162 -0.069907 -0.652313 0.608585 -0.450396
0.201196 -0.186592 -0.047951 0.867297 0.026694 -0.495701
0.11563 0.315221 -0.135743 0.456745 -0.060439 -0.886176
0.187824 -0.50052 0.037581 0.886873 -0.123662 0.443398
0.050502 0.844814 -0.082021 0.224569 0.756396 -0.60816
0.019811 -0.175757 -0.04002 0.928614 0.057696 -0.362195
0.083021 0.13169 -0.127437 0.152621 0.323452 -0.933152
0.168516 -0.86306 0.0718 0.295482 -0.944 -0.011117
0.40741 0.252534 -0.033281 -0.257046 -0.012413 0.956343
-0.045602 -0.478486 -0.095677 0.173257 0.10765 -0.977838
0.163636 0.269901 -0.068676 0.875722 -0.122596 -0.465598
0.182328 0.244001 -0.017905 0.992707 -0.007882 -0.110978
-0.263363 0.339203 -0.09586 0.159742 -0.159903 -0.972905
0.033147 0.333988 -0.127146 -0.162679 -0.018705 -0.985019
-0.120797 0.543476 0.029787 -0.083314 0.73698 0.669906
0.001125 0.602774 -0.078379 -0.254703 0.660675 -0.704303
0.00928 -0.449802 -0.046839 0.857385 0.061662 -0.510749
-0.139865 -0.053983 0.040866 -0.96755 0.077425 0.240028
0.114227 0.507504 -0.136815 -0.003992 0.207538 -0.977866
0.199846 -0.603811 -0.03226 0.997331 -0.063062 -0.031614
-0.075286 -0.147647 0.119428 -0.298716 0.004556 0.951146
0.090639 -0.840812 -0.094614 -0.976837 0.021648 -0.20895
0.199635 -0.305884 0.03934 0.936879 -0.062658 0.343337
-0.115424 -0.326481 -0.043013 -0.851341 0.0766 -0.504999
-0.040985 0.182619 0.109864 -0.555607 0.088195 0.826369
0.397419 0.268998 -0.036842 -0.072933 0.115174 0.98217
0.20521 0.042243 -0.01332 0.980057 0.092145 -0.165765
-0.126212 0.447481 0.061382 -0.06934 -0.017847 0.994713
0.121595 0.480387 0.06495 0.216966 0.481938 0.846796
0.349536 0.381051 -0.106467 0.847094 0.504752 0.004792
-0.012928 -0.257063 0.100492 0.444643 -0.210731 0.870501
-0.0628 0.027908 -0.135364 -0.387159 0.063581 -0.900566
0.542443 0.201202 0.000833 0.84999 0.34757 0.346949
-0.007453 -0.354887 -0.061063 0.677676 -0.113638 -0.726318
0.063574 -0.696002 0.029398 -0.569491 0.289345 0.7594
0.097795 0.737694 0.016617 0.979449 -0.104175 0.171907
0.051726 -0.183863 -0.074528 -0.818563 -0.180159 -0.543849
-0.114904 -0.157467 0.098848 -0.706911 -0.044735 0.704684
0.076417 0.637533 0.008882 0.813462 -0.186769 0.550075
-0.270776 0.408597 -0.065535 -0.617936 0.687793 -0.374293
-0.05105 0.097282 0.112098 -0.487816 0.15216 0.859107
-0.065676 0.238926 -0.108116 -0.593541 -0.249793 -0.764651
0.13046 -0.623757 0.036263 0.200403 -0.152691 0.961741
0.054548 0.675287 -0.0667 0.39356 -0.316966 -0.859726
0.086173 0.254377 0.112986 0.399254 0.065544 0.91447
-0.07797 0.580544 -0.041046 -0.453337 0.880568 -0.095781
-0.067444 -0.863468 0.125498 -0.003986 -0.999068 0.038397
-0.154125 0.482264 -0.09165 -0.378761 0.199774 -0.899977
0.041953 0.490991 -0.126656 -0.210711 0.083022 -0.97384
0.007155 -0.555985 0.014002 0.685176 -0.144327 0.712752
0.172084 -0.389327 -0.071641 0.666001 0.141871 -0.713569
-0.045315 -0.862361 0.004747 0.136035 -0.986971 -0.068217
0.19315 -0.095851 0.073168 0.746162 0.002897 0.665735
0.226847 0.387538 -0.095194 -0.719742 -0.687925 -0.085516
0.008979 -0.398171 -0.047024 0.805386 0.050486 -0.589223
0.183179 -0.596793 -0.072895 0.700797 -0.058307 -0.710457
0.386111 0.255688 -0.118468 -0.517158 -0.520907 -0.672584
0.132169 0.539651 -0.121549 0.176901 0.476272 -0.86107
-0.036261 0.359819 -0.128349 -0.110552 -0.01899 -0.992568
0.197394 -0.601615 0.005747 0.964159 -0.049544 0.253103
0.13053 0.050877 -0.133734 0.557706 0.262412 -0.786739
0.132927 -0.86992 0.08423 0.006005 -0.999907 0.010047
-0.128453 0.39752 0.002657 -0.948928 -0.288382 0.085143
0.00063 -0.427696 0.051894 0.766037 -0.210678 0.6062
-0.098841 0.009111 -0.10486 -0.85095 0.00017 -0.492384
0.203633 -0.391696 -0.027425 0.961215 -0.052486 -0.264833
0.019138 0.269255 -0.127235 0.105623 -0.057137 -0.991562
0.134189 -0.276395 -0.091156 0.475197 -0.06273 -0.876154
0.182878 0.082213 0.063777 0.82528 0.160401 0.539093
-0.04244 -0.447286 0.075019 0.207962 -0.224176 0.951731
0.405104 0.323883 -0.102248 0.678731 0.702698 -0.199578
0.21114 0.54822 -0.01947 0.399936 0.803293 0.432306
0.163438 -0.235739 0.083869 0.242418 -0.173199 0.953647
0.303708 0.356602 -0.034617 0.107678 -0.494348 0.853993
0.105153 0.769574 -0.029237 0.998958 -0.040419 -0.00072
0.154049 -0.663766 -0.083136 0.567679 -0.110566 -0.815663
0.077302 0.68181 0.062111 0.846608 -0.397755 0.349352
0.198723 -0.290793 -0.028513 0.878404 -0.089055 -0.469362
-0.032018 0.057773 0.12671 -0.300186 0.17521 0.934914
0.20549 -0.257889 0.007053 0.999947 0.006145 0.004068
0.037395 0.394384 0.102987 0.09616 0.403896 0.853609
0.313857 0.364004 -0.034028 0.363767 -0.244914 0.882142
-0.109238 -0.470446 0.06375 -0.778875 -0.295463 0.552326
0.066895 -0.675307 -0.049657 -0.774584 -0.133728 -0.617474
0.075199 0.270467 0.117202 0.499928 0.10511 0.85963
-0.081391 0.364497 -0.111901 -0.474505 -0.140968 -0.868134
0.119259 -0.137448 -0.115189 0.175587 -0.303498 -0.933643
-0.144396 -0.112125 0.015767 -0.999906 -0.00056 0.012094
0.184854 0.070252 -0.063718 0.85351 0.158083 -0.496078
-0.109214 -0.136525 -0.065661 -0.764687 -0.117015 -0.633254
0.355721 0.355471 -0.131219 0.505294 0.306876 -0.803098
0.536972 0.1579 0.030467 -0.526668 0.160462 0.822485
-0.120292 -0.187436 0.091835 -0.8072 0.004237 0.590096
-0.004761 0.671849 0.05657 -0.85548 -0.398295 0.326721
-0.041078 -0.270593 0.105747 0.170675 -0.16775 0.970881
-0.132541 -0.069125 -0.042484 -0.858915 -0.03285 -0.51073
0.184311 0.193669 0.009043 0.969423 0.231866 0.036409
0.329632 0.292422 -0.078679 -0.672417 -0.722152 0.156921
0.009892 -0.79393 -0.039461 0.896134 -0.305652 0.32098
-0.090877 -0.860915 -0.015361 -0.298381 -0.936718 -0.121097
0.041472 0.870463 -0.014373 0.027355 0.995957 -0.013724
0.023476 -0.127125 -0.045281 -0.157461 -0.650219 -0.721621
0.104331 0.771608 -0.002998 0.984245 -0.04351 0.155444
-0.04817 -0.24425 -0.092897 0.047289 0.049054 -0.995361
-0.091765 0.111815 0.081338 -0.579499 0.400832 0.709188
0.092459 0.549912 -0.121263 0.008169 0.447059 -0.893254
0.030347 0.350901 -0.127622 -0.135092 -0.051721 -0.988952
0.021535 -0.275884 0.059509 0.92899 -0.056882 0.362515
-0.035447 -0.334072 -0.085927 0.480231 -0.083281 -0.872813
-0.122205 -0.436049 0.054763 -0.860605 -0.14767 0.487193
0.092587 -0.792149 -0.095583 -0.79464 0.288306 -0.530645
0.001671 -0.151342 -0.067467 0.785961 -0.081098 -0.612163
0.020198 -0.157232 0.082549 0.902935 -0.157675 0.39677
0.153877 -0.588008 -0.096609 0.430354 -0.119922 -0.892749
-0.125866 -0.3169 0.046277 -0.988734 -0.065644 0.133092
-0.03323 0.324402 -0.128637 -0.123614 0.034993 -0.990703
0.097728 0.224082 0.111736 0.367661 0.090025 0.923498
-0.143341 -0.134594 -0.001911 -0.983686 -0.044513 -0.164754
0.054902 -0.161619 0.072274 -0.677874 0.021026 0.734633
-0.116892 0.39326 0.05414 -0.783251 -0.283998 0.549662
-0.351626 0.244326 -0.079549 0.202468 -0.39003 -0.89732
-0.386122 0.191494 -0.041142 0.388792 -0.886611 -0.220272
0.187928 -0.18059 -0.064263 0.636926 0.018891 -0.770187
0.139836 -0.860353 -0.108832 0.615011 -0.461828 -0.626672
0.035593 0.865631 -0.038024 -0.033771 0.956978 -0.27054
0.087959 -0.682223 0.034706 -0.199459 0.143725 0.964793
0.054277 -0.728162 0.014827 -0.983539 -0.153348 0.079231
-0.05668 0.308373 0.094457 -0.483171 -0.036346 0.873796
0.14814 -0.495048 0.062491 -0.287469 -0.197981 0.935319
-0.077009 -0.169332 0.117279 -0.263497 -0.145574 0.953463
0.026991 0.317373 0.120462 -0.002583 0.119605 0.991511
0.105141 0.788681 -0.014247 0.998093 0.038798 0.03891
-0.536623 0.066672 0.05509 0.365146 -0.928537 0.02393
0.059709 0.598069 -0.085305 0.11981 0.652878 -0.747204
-0.108675 -0.698182 -0.090487 -0.70201 -0.060138 -0.708925
-0.005005 -0.014928 0.136508 -0.026468 -0.614097 0.776174
0.063777 -0.15487 -0.094573 -0.597061 -0.205439 -0.769461
-0.130444 0.114436 -0.004936 -0.991372 -0.015983 -0.094808
-0.318238 0.29603 0.004994 -0.152892 0.072565 0.984939
0.167359 -0.809691 0.013144 0.961653 -0.112182 0.220707
0.043679 0.384649 -0.132231 -0.402903 -0.007254 -0.912845
0.027363 0.072981 0.134489 0.106162 0.108081 0.98742
-0.102891 0.324062 -0.088967 -0.726763 -0.146047 -0.668906
0.032927 0.468093 -0.126942 -0.135216 0.065683 -0.988498
0.073397 0.806881 0.062535 0.774228 0.261813 0.57242
-0.333482 0.236862 -0.066748 0.317009 -0.701281 -0.637056
0.100145 0.759655 -0.060864 0.956109 -0.127065 -0.26041
-0.232339 0.415289 -0.087495 -0.33038 0.437772 -0.834862
0.204584 0.541752 -0.094099 0.273889 0.748913 -0.603198
-0.092318 -0.484896 0.075955 -0.568423 -0.198923 0.795718
0.014214 -0.339765 0.05959 0.8033 -0.154687 0.573849
-0.091518 -0.362279 0.10079 -0.116586 -0.200582 0.969132
-0.12256 -0.625098 -0.07848 -0.775229 0.048462 -0.628674
0.614869 0.056432 0.078699 -0.780643 -0.615541 0.064349
-0.085044 -0.35211 -0.076392 -0.523154 0.010785 -0.851907
-0.12434 -0.262753 -0.023763 -0.853654 0.035652 -0.51935
-0.135765 -0.439444 0.018166 -0.97853 -0.023122 0.197303
0.136422 -0.868905 0.032637 0.073722 -0.994151 -0.066352
0.254716 0.487707 -0.113927 0.473044 0.53993 -0.696151
-0.025364 0.31635 0.110868 -0.432613 0.142804 0.878122
-0.010176 -0.58911 -0.077684 0.680914 -0.031434 -0.731442
-0.058408 0.097448 -0.116448 -0.508415 0.301572 -0.806254
0.133212 -0.323086 -0.091276 0.509322 0.03157 -0.859034
0.11479 0.094202 0.1081 0.504619 -0.153047 0.846001
0.175489 0.554913 -0.090872 0.322389 0.750306 -0.576304
-0.03538 0.825669 -0.057725 -0.80715 0.390242 -0.377601
-0.047152 0.268274 0.102006 -0.627375 0.054539 0.775818
0.114817 0.517203 -0.134191 0.032365 0.417507 -0.904536
-0.307693 0.349487 -0.072543 -0.598196 0.677609 -0.413322
0.322985 0.396462 -0.035009 0.646266 0.17957 0.726277
0.150053 0.083106 0.088488 0.513362 0.235779 0.808046
0.264493 0.491492 -0.102638 0.565573 0.563605 -0.601601
0.046795 -0.497662 -0.046089 -0.884281 -0.053615 -0.457476
-0.12574 0.129387 0.025586 -0.939119 0.126359 0.312511
0.130917 0.210608 0.095005 0.513216 0.05404 0.856517
-0.118654 -0.388107 0.077997 -0.911992 -0.066229 0.402898
0.019102 -0.759073 -0.049424 0.990312 -0.111461 0.059362
0.2117 -0.128828 0.025902 0.965191 -0.155903 0.202832
-0.082494 0.107661 -0.09583 -0.626046 0.263195 -0.733728
0.098433 0.766183 0.01924 0.982829 0.014781 0.180769
-0.036508 0.733564 -0.033976 -0.865172 -0.361906 -0.328082
0.0908 0.330746 -0.144121 0.022063 -0.061438 -0.996055
-0.249984 0.438323 -0.020452 -0.767669 0.612802 0.176066
-0.086396 -0.543025 0.06695 -0.057733 -0.195331 0.973456
0.053784 -0.369178 -0.056785 -0.8081 -0.026975 -0.588133
-0.25771 0.430158 -0.028307 -0.732383 0.657879 0.165157
0.190901 -0.428492 0.043897 0.941157 -0.066045 0.328118
0.047233 0.693985 0.088944 0.312317 -0.096947 0.942116
0.039906 -0.367067 -0.008571 -0.956959 -0.161783 0.240432
0.054549 0.58456 -0.096587 0.014498 0.581252 -0.813226
0.328727 0.389615 -0.139077 0.414871 0.024392 -0.908868
0.191621 0.122694 -0.024981 0.857168 0.202766 -0.472762
0.071034 -0.107438 0.082872 -0.663206 -0.090701 0.732783
0.130998 -0.580751 -0.104384 0.008282 -0.148745 -0.985891
-0.110032 0.014058 0.098304 -0.701185 0.148439 0.694422
0.019011 -0.44947 0.0197 0.906702 -0.009624 0.418097
0.515096 0.200134 -0.057381 0.120297 -0.482401 -0.865313
0.087908 -0.805666 0.043819 -0.754894 0.112341 0.637767
0.190408 -0.564382 0.023558 0.874212 -0.072867 0.477048
0.111624 -0.806007 0.060873 -0.08921 0.708077 0.695139
0.276964 0.47571 -0.10723 0.458661 0.667823 -0.584042
-0.126197 -0.127905 -0.044184 -0.659191 -0.058622 -0.716439
0.18175 0.148857 -0.036665 0.853083 0.014649 -0.521308
-0.105644 0.311779 0.037268 -0.932406 0.075801 0.350475
0.206292 -0.223065 -0.014777 0.998072 -0.05711 -0.0216
-0.08047 -0.010603 -0.121199 -0.569948 -0.081431 -0.816505
0.204992 -0.059674 -0.031537 0.948481 0.021831 -0.315321
0.239061 0.379465 -0.114022 -0.698372 -0.575665 -0.408451
-0.113483 0.185901 0.048984 -0.885064 -0.019642 0.462758
0.183053 -0.403939 0.061532 0.816009 -0.056223 0.575124
0.063081 0.551231 -0.117883 -0.16808 0.479548 -0.858435
0.252127 0.518419 -0.025564 0.686223 0.607458 0.399642
0.409337 0.222693 -0.060323 -0.6086 -0.762955 0.209645
0.064598 0.635159 0.022309 0.619717 -0.28462 0.727362
0.201436 -0.316046 -0.020247 0.897479 -0.012037 -0.439961
-0.127752 -0.368806 0.029225 -0.996423 -0.012209 0.082087
0.2759 0.364306 -0.029093 -0.339824 -0.541645 0.755048
-0.089377 -0.437938 0.083772 -0.09471 -0.184797 0.976217
-0.098288 0.261666 0.062906 -0.758915 0.031767 0.648846
-0.051433 -0.648277 0.028351 0.296652 -0.164117 0.93962
0.174869 -0.810518 -0.031785 0.931437 -0.353348 0.04644
-0.395557 0.200628 0.015895 0.2806 0.078207 0.938296
0.232136 0.465726 -0.132112 0.157802 0.246241 -0.952849
-0.128141 0.385551 -0.034572 -0.996618 -0.079362 -0.001882
-0.129164 -0.628975 -0.044244 -0.999004 -0.037387 0.010514
0.439914 0.204566 -0.048729 -0.698676 -0.685658 0.185465
0.402217 0.230775 -0.05444 -0.602925 -0.718224 0.345021
0.478243 0.242795 -0.018466 0.160777 0.734045 0.588608
-0.288826 0.372435 -0.010144 -0.792219 0.450759 0.409122
0.146962 0.418622 0.073297 0.531481 0.084434 0.842367
-0.018631 -0.216125 -0.084108 0.533609 0.013637 -0.845415
-0.030379 -0.194298 -0.089923 0.351064 -0.041358 -0.934539
0.024508 -0.631036 -0.046236 0.887409 0.096388 -0.443074
-0.031594 -0.850699 -0.047737 0.589551 -0.80331 0.051796
0.18776 0.311165 -0.002132 0.97127 -0.157104 0.171723
-4.4e-05 0.31789 0.115121 -0.225263 0.163535 0.958903
0.150152 -0.570843 0.042736 0.008467 -0.119952 0.99242
-0.118936 0.378084 -0.086815 -0.85297 -0.209041 -0.474155
0.372677 0.314786 -0.131441 0.225711 0.03113 -0.965413
0.137114 -0.705642 0.01938 0.327496 -0.404124 0.853451
0.012299 -0.339037 -0.041656 0.746147 -0.053193 -0.663344
0.101703 -0.105078 0.106619 -0.530111 -0.104541 0.841251
0.355057 0.341003 -0.049531 0.428405 0.334167 0.837784
-0.235559 0.317377 -0.057408 0.707207 -0.648284 -0.2599
-0.040982 0.817452 -0.036782 -0.984063 -0.150402 -0.029358
0.024131 -0.126701 0.09178 0.810329 -0.274071 0.517851
0.014814 0.783464 0.083395 -0.289618 0.082272 0.943637
0.012668 0.30849 0.120262 -0.153877 0.127571 0.979251
0.001869 -0.233792 0.096974 0.566056 -0.134042 0.812844
0.058298 0.645941 0.032832 0.598317 -0.409007 0.684999
0.068504 0.286226 -0.137861 -0.238292 -0.048605 -0.968953
0.053074 -0.71433 -0.000982 -0.991051 -0.089486 -0.085404
0.129674 0.02977 -0.139399 0.546957 0.105911 -0.829535
0.02728 -0.326405 0.028806 0.99262 -0.043847 0.109785
0.198593 0.377671 -0.051498 0.999519 -0.024141 0.012657
0.20785 -0.126989 0.04174 0.943555 -0.068458 0.322037
-0.019813 -0.722447 0.021965 0.564229 -0.341152 0.735891
0.091278 -0.83556 0.094999 -0.873937 0.468658 0.089668
0.0443 -0.544757 -0.026764 -0.993768 -0.007885 0.019296
-0.030851 0.064117 -0.13708 -0.156752 0.188561 -0.969455
-0.072512 -0.136668 0.119796 -0.299255 0.043353 0.952632
-0.099685 -0.812652 0.001237 -0.969544 0.062939 0.232917
0.186397 -0.573963 0.026707 0.726916 -0.185001 0.659601
0.165465 -0.573886 0.040977 0.26676 -0.160465 0.948705
-0.101759 -0.838087 -0.067265 -0.877417 -0.442601 -0.168302
0.02699 0.343529 0.114515 -0.045929 0.187025 0.980075
0.145947 -0.347347 -0.08264 0.629576 0.040793 -0.775715
-0.072311 0.210828 -0.091906 -0.750085 -0.148551 -0.643539
0.096893 0.568002 0.005377 0.165896 0.745498 0.638465
0.58364 0.129814 0.039788 0.748174 0.660525 0.055574
-0.05166 -0.86108 -0.026172 0.155412 -0.983101 -0.073448
0.047133 -0.321071 -0.051131 -0.850692 -0.016495 -0.525254
0.167608 -0.083156 -0.098613 0.771027 -0.107019 -0.627647
0.034169 -0.156178 -0.052678 -0.918622 -0.206511 -0.336619
-0.030835 -0.847814 0.106518 0.935684 0.10103 0.322678
-0.098836 0.321594 0.049233 -0.885311 0.016106 0.461083
0.072847 -0.775766 -0.0534 -0.866028 0.194886 -0.459933
-0.030643 0.76343 -0.078197 -0.815634 -0.244274 -0.51701
0.234655 0.542472 -0.048976 0.66547 0.744537 0.042053
0.016083 -0.319394 -0.037992 0.886819 -0.021999 -0.457958
0.0526 0.42244 0.094991 0.086872 0.275379 0.956527
0.044198 0.448188 0.089453 0.113012 0.190281 0.974186
0.027733 0.262894 -0.126214 0.006957 -0.074147 -0.995499
-0.093144 0.433511 -0.120155 -0.24939 -0.152624 -0.95621
0.153601 0.432861 -0.139329 0.257617 -0.219709 -0.940001
-0.1282 -0.150989 0.078702 -0.887733 0.019233 0.45845
-0.084497 -0.632935 -0.104789 -0.235438 0.069771 -0.96799
-0.004451 0.244793 0.121564 -0.367497 0.080108 0.926436
-0.504889 0.144793 0.017362 -0.783433 0.620251 -0.025611
0.014391 -0.143765 -0.051377 0.834931 -0.120209 -0.535002
0.171145 -0.004585 0.09144 0.696092 -0.229787 0.665351
0.026895 0.629306 0.030966 -0.221959 -0.43736 0.862794
0.162751 -0.666535 0.025856 0.315394 -0.158743 0.933726
-0.094364 0.272848 0.066958 -0.70924 0.014176 0.70444
-0.052052 -0.86111 -0.125271 0.046704 -0.963 -0.256177
-0.50961 0.085449 0.042071 0.590014 -0.748159 -0.257844
0.040068 -0.378683 -0.017006 -0.977505 -0.148532 0.133576
0.00643 0.566384 0.023429 -0.30821 0.242478 0.91214
-0.083579 0.204933 -0.077539 -0.779972 -0.025703 -0.624265
0.005799 0.802563 -0.112628 -0.310527 0.279887 -0.906737
0.165122 -0.812324 -0.095729 0.864378 -0.101228 -0.481703
-0.060341 0.466546 0.079267 -0.202561 0.390859 0.895021
-0.136793 0.013114 0.052071 -0.962641 0.080172 0.240379
-0.106213 -0.51468 -0.081969 -0.680993 0.119687 -0.72173
-0.115933 -0.646369 -0.087318 -0.669558 0.04498 -0.739892
0.174353 -0.613 0.02123 0.372766 -0.23227 0.894228
-0.079902 -0.55842 0.0612 0.440788 -0.175386 0.879474
-0.109149 0.285562 -0.07221 -0.909563 -0.077943 -0.403539
0.194263 -0.332002 -0.034419 0.800863 0.085522 -0.590462
0.05189 -0.190775 0.066277 -0.787878 -0.09592 0.605826
-0.100648 -0.21593 -0.065169 -0.7626 -0.039639 -0.645332
0.161969 -0.858054 -0.049755 0.870033 -0.456762 0.046643
-0.101406 -0.434051 -0.070494 -0.652431 0.272452 -0.706709
0.125886 0.283812 -0.12724 0.600384 -0.048577 -0.798089
0.016393 -0.176437 0.087228 0.879156 -0.065202 0.467774
-0.084218 -0.203872 -0.081794 -0.591593 -0.027843 -0.805607
-0.102972 -0.079662 -0.08267 -0.723327 -0.188703 -0.663054
0.022182 0.649429 -0.062984 -0.360809 -0.026197 -0.928202
0.044277 -0.491607 -0.038786 -0.984792 -0.012869 -0.1694
0.069122 0.154619 -0.121558 -0.007761 0.168618 -0.983206
0.022904 0.54174 0.038517 0.09037 0.71702 0.690122
0.165393 -0.341507 -0.066229 0.680677 0.018682 -0.732121
0.1322 0.290735 0.089011 0.648438 0.05066 0.759528
0.195795 -0.358741 0.038692 0.906252 -0.09045 0.412288
0.241954 0.535198 -0.058418 0.705197 0.708529 -0.018165
0.006775 0.650138 -0.056326 -0.585231 0.036651 -0.801987
0.329104 0.367296 -0.043284 0.609721 0.183446 0.767825
-0.485935 0.109418 0.049127 0.877693 -0.432768 0.184335
-0.401153 0.271705 -0.055489 -0.818614 0.538361 -0.185431
-0.29938 0.277952 -0.088704 0.272182 -0.385226 -0.878734
0.037203 0.094932 -0.141793 -0.138827 0.213244 -0.96598
-0.012072 0.665444 -0.007248 -0.985952 -0.107132 0.003977
-0.34005 0.328019 -0.028622 -0.680097 0.722913 0.11631
0.319092 0.360275 -0.139226 -0.039367 -0.219616 -0.973417
0.171775 0.21637 0.050107 0.761823 0.058346 0.644953
-0.022882 0.4053 0.104247 -0.075622 0.164527 0.983097
0.371311 0.273306 -0.121313 -0.455973 -0.501482 -0.724332
0.156899 0.014316 -0.116871 0.666894 0.060197 -0.741483
-0.100035 -0.641919 0.043084 -0.379913 -0.26441 0.868244
-0.1257 -0.542248 0.007891 -0.868517 -0.158295 0.464464
0.043325 0.71518 -0.09713 0.176149 -0.617344 -0.76354
0.113877 -0.643823 0.036016 -0.03262 -0.12974 0.986369
0.023669 -0.161087 0.072005 0.868247 -0.238652 0.434394
0.602698 0.070154 0.075549 -0.736934 -0.585415 0.283218
0.091518 -0.253235 0.084441 -0.254247 -0.131898 0.957473
-0.56346 0.060016 0.025379 -0.926243 0.36326 -0.026764
0.1332 0.268754 -0.11968 0.706561 -0.098861 -0.699184
-0.081082 -0.648627 0.039596 0.30591 -0.271481 0.909075
0.076679 -0.569631 -0.075529 -0.698423 -0.136661 -0.702347
-0.20051 0.353429 -0.072894 0.528534 -0.690635 -0.490498
-0.067734 -0.8642 0.0858 -0.023582 -0.99963 0.006246
-0.113141 0.285743 -0.048638 -0.988723 -0.131146 -0.05836
0.045126 0.145352 0.130906 0.126117 0.016502 0.991692
0.093807 -0.437779 0.03568 -0.636407 -0.366309 0.678604
0.083837 -0.615194 0.018865 -0.729391 -0.235497 0.639933
0.078283 -0.770741 0.017424 -0.000495 0.812229 0.581828
0.123469 -0.566572 0.041561 -0.229365 -0.162877 0.958995
0.028354 -0.147845 -0.040526 -0.913691 -0.23623 -0.328961
0.048996 0.705457 -0.086944 0.242312 -0.639539 -0.728355
-0.173359 0.489708 -0.079316 -0.484817 0.352143 -0.799662
0.156089 -0.260268 0.082327 0.158392 -0.076586 0.984349
0.047929 0.29513 -0.130953 -0.336124 -0.019107 -0.941252
0.040039 0.021345 -0.157352 -0.162101 -0.330566 -0.920733
-0.081638 -0.519154 -0.096903 -0.295264 0.090866 -0.948838
-0.065023 -0.059123 -0.11646 -0.307026 -0.317676 -0.894769
0.282812 0.446369 -0.130146 0.336611 0.520263 -0.782835
0.060381 -0.603539 -0.002986 -0.713704 -0.120825 0.687403
0.008349 0.403768 -0.128231 0.032793 0.011353 -0.999364
0.181688 -0.373024 -0.058245 0.638077 0.240657 -0.731038
0.010762 -0.486389 0.027206 0.775169 -0.155125 0.612143
0.041111 0.598831 -0.086326 -0.001174 0.617316 -0.786369
0.007541 0.723699 -0.099048 -0.427189 -0.680341 -0.571605
0.086615 -0.755574 0.015937 -0.038191 -0.769548 0.635685
-0.012576 0.687704 -0.038967 -0.887475 -0.32933 -0.317643
-0.120893 -0.247521 0.087224 -0.883367 -0.034404 0.467045
-0.142314 -0.153224 4.8e-05 -0.970549 -0.101215 -0.217199
0.156775 0.283522 -0.086511 0.848829 -0.139599 -0.509584
-0.094192 -0.856816 -0.023883 -0.6683 -0.708228 -0.224965
0.034459 0.190369 0.129881 0.040036 0.025319 0.998828
0.029071 0.560248 -0.107841 -0.087126 0.445593 -0.888704
0.097558 0.127473 -0.125884 0.3025 0.367609 -0.875677
0.177152 0.414078 -0.127846 0.204515 -0.377135 -0.903095
0.177505 -0.01346 0.084388 0.708592 0.086419 0.692589
0.043709 -0.436227 -0.022002 -0.994797 -0.020093 0.075988
-0.071425 -0.284911 0.108053 0.068592 -0.11438 0.990891
0.177016 0.259265 0.036905 0.894973 0.126033 0.41797
0.042494 0.335652 -0.129289 -0.328758 -0.031817 -0.939264
0.175744 -0.805094 -0.062593 0.961119 -0.269689 -0.05066
0.198726 0.147608 -0.005262 0.947106 0.220946 -0.202242
-0.332144 0.33529 -0.056308 -0.649776 0.749005 -0.119801
-0.048951 0.263087 -0.122906 -0.502699 -0.091259 -0.859514
0.016933 -0.049886 0.124943 0.45362 -0.354858 0.81483
-0.248686 0.302025 -0.0589 0.749418 -0.606776 -0.261999
-0.119522 -0.578153 0.009606 -0.908017 -0.046539 0.414585
0.152336 0.111272 -0.093927 0.738938 0.241888 -0.628691
-0.216811 0.470949 0.017683 -0.766564 0.365146 0.520163
0.054728 -0.712602 0.021777 -0.95163 0.10305 0.287054
-0.168353 0.368874 -0.042547 0.693527 -0.698453 -0.160248
-0.126144 -0.324246 0.039144 -0.992542 -0.031696 0.116957
0.068188 0.107639 -0.13907 0.033557 0.460295 -0.886335
0.205541 -0.362583 -0.013292 0.995831 0.019399 -0.070853
0.075374 -0.655588 0.018592 -0.61168 0.31995 0.723089
0.186476 0.433489 0.040616 0.554622 0.019343 0.829522
0.639846 0.045916 0.029783 0.896756 0.437969 -0.021655
0.145294 0.013109 0.113114 0.437362 0.141884 0.886262
0.112768 0.497224 0.057552 0.28395 0.470481 0.833928
0.027915 0.761496 0.088888 -0.468893 0.252129 0.805835
-0.475985 0.139307 -0.022372 0.235202 -0.891249 -0.386635
-0.046201 -0.389143 0.088845 0.173747 -0.172666 0.969471
-0.100487 -0.090885 -0.082804 -0.706827 -0.133397 -0.694449
-0.139533 -0.030025 0.02736 -0.969473 0.190302 0.14563
0.370453 0.358862 -0.088881 0.699027 0.697026 0.143024
-0.072537 -0.287626 -0.086634 -0.546999 -0.065775 -0.829597
0.028642 0.528045 0.053141 0.083438 0.58354 0.803654
0.233737 0.531239 -0.088842 0.523201 0.670288 -0.525172
-0.393623 0.183711 -0.011795 0.587472 -0.808011 -0.005099
-0.096019 0.572737 -0.038978 -0.377908 0.902429 -0.122304
-0.131895 -0.237957 -0.003902 -0.936132 -0.037094 -0.349405
0.413573 0.246086 -0.12247 0.125417 -0.413711 -0.898125
-0.09256 -0.259583 -0.071106 -0.729581 -0.054275 -0.681558
0.083438 -0.453531 0.020005 -0.664253 -0.147156 0.731957
-0.006961 0.447593 0.094991 -0.031949 0.303525 0.950106
0.075527 -0.719722 0.035795 -0.056303 -0.040943 0.995748
0.187534 -0.426724 -0.060617 0.788299 0.119872 -0.602916
0.087146 -0.278529 -0.09375 -0.431136 0.062135 -0.90003
-0.134964 -0.472986 0.012343 -0.929726 -0.101107 0.332172
0.190015 0.349842 -0.066073 0.866651 -0.384136 -0.314849
-0.305734 0.354784 -0.06465 -0.630228 0.712037 -0.308214
0.152196 0.417958 -0.136213 0.248832 -0.224054 -0.941651
-0.102859 -0.492599 -0.081314 -0.619532 0.12862 -0.773063
0.019806 -0.537088 -0.033258 0.956195 0.025325 -0.286293
0.137608 -0.346047 -0.089098 0.587498 0.046619 -0.804753
-0.131818 -0.267913 0.041877 -0.976441 -0.182431 0.099226
0.038221 0.077177 0.133039 0.083904 0.086825 0.991697
0.016175 0.702936 -0.084792 -0.233807 -0.614089 -0.753469
-0.008124 0.442852 -0.129362 0.10155 -0.006782 -0.994772
-0.501483 0.120857 0.001028 -0.163891 -0.720705 -0.671894
-0.038045 -0.205951 -0.09171 0.211101 -0.069936 -0.973706
0.08297 -0.709461 0.0366 -0.062363 0.037232 0.995517
0.074713 0.521048 -0.129167 -0.123611 0.155985 -0.979768
-0.046229 -0.415402 -0.084537 0.145065 0.268733 -0.951371
-0.047747 0.209418 -0.111042 -0.557123 -0.318886 -0.766407
0.254343 0.404787 -0.016336 -0.176697 -0.376693 0.908298
-0.133108 0.402174 -0.021432 -0.16734 -0.975562 0.005412
0.148404 0.00511 -0.126814 0.677191 0.120987 -0.725704
0.039686 0.074598 -0.146886 -0.185401 0.27312 -0.942724
-0.125684 -0.180529 0.08326 -0.822088 0.007468 0.567654
0.017433 -0.719423 -0.071151 0.883645 0.058245 -0.457121
0.197795 0.368061 -0.066195 0.970369 -0.186343 -0.125718
0.055116 0.177452 0.128744 0.091402 0.031624 0.995243
0.1237 0.544774 -0.120644 0.183796 0.520105 -0.833239
0.001064 -0.364671 -0.051576 0.687397 -0.044608 -0.724495
0.08561 0.817179 -0.081703 0.723624 0.440131 -0.527145
0.197567 -0.46834 -0.051964 0.949592 0.036824 -0.292634
-0.0552 -0.368514 -0.086614 -0.024682 -0.126802 -0.990315
0.067943 -0.024985 0.131567 0.071827 -0.160819 0.983519
-0.137173 -0.443252 -0.019563 -0.973371 0.106078 -0.196295
0.120617 -0.652594 0.033989 0.083244 -0.123638 0.987694
0.001831 -0.195469 0.102776 0.615997 -0.10081 0.781229
0.129427 -0.869483 0.040663 0.011376 -0.999304 -0.033458
0.047836 -0.526143 -0.043281 -0.879725 -0.062398 -0.471242
-0.011806 -0.171743 0.114564 0.477661 -0.137255 0.866976
0.172373 0.046315 0.0889 0.669054 0.240426 0.702885
0.07023 0.031518 -0.160955 0.004575 0.065224 -0.997631
0.061269 -0.580656 -0.058247 -0.743447 -0.079342 -0.66368
0.123327 0.580447 -0.026754 0.266304 0.892248 0.340178
0.129698 0.148989 -0.104618 0.503955 0.189033 -0.8409
-0.096798 0.396997 -0.111557 -0.387359 -0.192082 -0.899925
0.186032 0.14592 0.041582 0.830513 0.129716 0.53818
0.043359 -0.295755 0.027501 -0.985584 -0.023233 0.160425
-0.037641 0.192365 0.111021 -0.512787 0.067982 0.855601
-0.136635 0.437813 -0.101199 -0.4833 -0.240894 -0.840914
0.498 0.229602 -0.023745 0.635813 0.759607 0.130523
-0.048803 -0.826154 0.108485 0.216336 0.959632 0.157561
-0.036352 0.755687 -0.051601 -0.964284 -0.162329 -0.20111
0.189984 -0.36904 0.051484 0.912574 -0.043839 0.404344
0.139249 -0.031437 0.113221 0.353574 -0.024185 0.935045
-0.437562 0.177347 -0.053379 -0.151061 0.055582 -0.950098
-0.001915 -0.817411 -0.02022 0.96136 -0.079468 0.26155
0.017602 -0.636831 -0.054771 0.68257 0.148752 -0.715282
0.103718 0.440377 -0.146592 -0.071341 -0.023715 -0.996738
0.032937 0.861153 0.039645 0.009632 0.895501 0.429162
-0.11469 -0.70548 -0.08329 -0.747319 -0.113111 -0.654063
-0.001351 0.457797 -0.128275 0.12586 0.034697 -0.991382
0.285802 0.436883 -0.017755 0.607392 0.199005 0.767628
-0.162767 0.380385 -0.005158 0.545054 -0.738022 0.397558
-0.024922 0.451319 -0.131175 0.095801 0.000482 -0.994834
0.09431 -0.426936 -0.094985 -0.525954 0.014098 -0.849674
-0.426282 0.240459 -0.03755 -0.742598 0.662359 -0.092932
0.11291 -0.413044 -0.102253 -0.121425 0.040036 -0.987674
0.182792 0.183353 0.035139 0.935622 0.128773 0.314759
0.069611 0.758948 -0.106727 0.531112 -0.164443 -0.830262
0.27338 0.380357 -0.023419 -0.359764 -0.241381 0.901101
0.232192 0.536244 -0.022242 0.615844 0.695356 0.364484
0.198427 -0.612336 -0.048352 0.978485 -0.017215 -0.182785
0.167647 0.282193 0.04928 0.752367 -0.044566 0.656314
0.077794 0.82407 -0.085155 0.640486 0.533483 -0.551725
-0.002575 0.78554 0.074292 -0.57172 0.178558 0.791126
-0.138867 -0.015117 0.015648 -0.998294 0.051299 0.026481
-0.072587 0.106883 -0.104176 -0.555836 0.283972 -0.780685
0.08153 -0.639535 0.01523 -0.593305 0.330533 0.725285
0.198805 -0.640984 -0.037795 0.999703 -0.006361 -0.020688
0.199594 -0.112056 0.061415 0.894428 -0.023744 0.446523
0.553443 0.119536 0.045565 -0.862321 -0.16286 0.456973
-0.024403 0.764067 0.040104 -0.860014 0.141246 0.489777
0.025909 0.342003 -0.126395 -0.068449 -0.043638 -0.995383
0.087558 -0.841762 -0.070207 -0.98385 0.15142 -0.079325
-0.129501 -0.415852 0.04225 -0.948694 0.006802 0.312024
-0.106507 -0.260413 -0.053629 -0.822324 -0.025956 -0.568357
0.545133 0.185053 -0.015359 0.972936 0.170234 0.036483
0.313241 0.339631 -0.133073 -0.320111 -0.340776 -0.882977
-0.134305 -0.494274 -0.040794 -0.920444 0.051979 -0.376893
0.275958 0.454993 -0.12677 0.316648 0.560074 -0.764029
0.440057 0.289518 -0.058028 0.406079 0.803944 0.415553
0.033223 0.704861 0.093485 0.001216 -0.364872 0.919574
0.102126 -0.645393 0.032849 -0.404955 0.12695 0.898652
-0.033872 -0.181856 0.120825 0.156603 -0.110507 0.980938
0.063081 0.520581 -0.127823 -0.165738 0.173181 -0.969078
0.029552 -0.279138 -0.018341 -0.185829 -0.5154 -0.703877
0.072112 -0.413357 -0.076104 -0.702145 -0.013106 -0.711854
0.087688 0.200908 0.117939 0.443115 0.058446 0.893207
0.160912 0.234883 0.060623 0.747673 0.055419 0.661269
-0.120435 0.338364 -0.0554 -0.998171 -0.039925 -0.042468
0.362112 0.265333 -0.076531 -0.786413 -0.605607 0.120204
-0.100312 -0.3932 0.094192 -0.33645 -0.203793 0.909362
0.174253 -0.853738 0.05651 0.920611 0.200112 -0.041786
0.02579 0.159362 -0.117682 -0.101903 -0.049248 -0.99285
0.353143 0.402571 -0.090769 0.938683 0.008707 0.095636
0.157353 0.042322 -0.112529 0.705653 0.210064 -0.675186
-0.030766 0.034679 0.130373 -0.222803 0.195754 0.953491
0.225187 0.395285 -0.110376 -0.744371 -0.542393 -0.386266
0.092765 -0.852983 -0.019733 -0.801025 -0.563675 0.14927
0.04346 -0.283821 0.030485 -0.986469 -0.01767 0.161774
0.019664 -0.18762 -0.041952 0.920666 0.058581 -0.378916
-0.108403 0.134273 -0.059882 -0.833443 0.119141 -0.539168
0.064428 0.400687 0.098021 0.111966 0.205264 0.972267
-0.018998 -0.053436 0.131105 0.030957 -0.141156 0.987284
-0.009384 -0.458235 -0.070057 0.73056 0.115423 -0.672826
0.15442 0.198384 0.072579 0.737013 0.090039 0.669555
-0.052563 0.465756 -0.131041 -0.080465 0.078151 -0.992916
0.031128 0.395793 -0.128992 -0.119382 0.004145 -0.992779
0.16214 -0.835216 0.029577 0.915256 0.388622 0.019895
-0.547671 0.060464 0.049158 0.66131 -0.740459 0.007073
0.3733 0.261619 -0.052447 -0.722431 -0.541384 0.424964
0.143513 -0.145749 0.106282 0.219881 -0.180248 0.957925
0.169852 0.106126 -0.073247 0.7895 0.26341 -0.553857
0.016521 0.842489 0.055198 -0.349426 0.553762 0.753584
0.02506 0.712687 0.096508 -0.327439 -0.317759 0.877449
-0.13943 0.031568 0.020294 -0.93684 0.334831 0.087994
0.089881 -0.000428 0.134894 0.274377 -0.153306 0.946469
-0.003732 -0.471318 -0.06603 0.754521 0.103117 -0.647247
0.193369 -0.023962 0.067891 0.802459 0.067214 0.59263
-0.125464 0.104998 -0.027823 -0.945711 0.059879 -0.31302
-0.125459 0.204998 0.004615 -0.917504 0.384003 0.005226
0.002066 -0.585726 -0.064782 0.743746 -0.000475 -0.668394
-0.097679 0.195003 -0.060874 -0.776097 0.113769 -0.619959
0.356109 0.373391 -0.105892 0.739028 0.66818 -0.053997
0.068252 -0.459128 -0.073132 -0.725766 0.027313 -0.687312
-0.128108 -0.280745 0.055715 -0.986281 -0.0992 0.127533
-0.051045 0.010978 0.129095 -0.254908 0.21717 0.940707
-0.00283 -0.495259 -0.068227 0.781705 0.067056 -0.619867
0.183182 0.209777 -0.002505 0.999662 0.01982 -0.00916
0.64467 0.023963 0.06229 0.8796 -0.437024 0.059053
-0.030666 0.726896 0.008092 -0.993442 0.037985 0.105436
-0.527395 0.114143 0.051822 -0.816392 0.576996 0.002129
-0.079055 0.240577 -0.096757 -0.662095 -0.313759 -0.680304
0.118403 0.429907 -0.146162 0.073074 -0.060705 -0.995191
0.197395 -0.541881 -0.055959 0.908803 -0.00943 -0.409212
0.005758 0.858459 -0.049242 -0.410585 0.824788 -0.385714
-0.10579 0.567864 -0.034064 -0.387862 0.900535 -0.108995
-0.339242 0.3201 -0.010057 -0.600223 0.52408 0.597216
0.051619 -0.674224 -0.012403 -0.998836 -0.033689 -0.022064
-0.02475 -0.03054 0.132763 -0.047268 0.149122 0.986112
0.120968 -0.418839 -0.102863 0.078209 0.051801 -0.989084
0.13127 0.280915 0.090222 0.635811 0.040751 0.770227
-0.054867 0.087972 0.11145 -0.518601 0.099064 0.84902
-0.124668 0.045196 0.064636 -0.888672 0.219565 0.400056
0.0085 -0.515933 0.023298 0.757821 -0.181136 0.626492
0.199091 -0.177871 0.048291 0.967462 -0.051322 0.247557
0.185591 0.008945 0.083753 0.751215 -0.141264 0.634364
-0.1286 -0.371219 -0.00453 -0.999762 0.008286 -0.00936
0.061808 0.670879 0.082679 0.6772 -0.30662 0.637717
-0.442571 0.20307 -0.043649 -0.602866 0.106374 -0.790657
-0.232685 0.424641 -0.081444 -0.43924 0.504256 -0.74312
-0.096246 -0.353732 0.101656 -0.174329 -0.141959 0.974149
0.357986 0.277451 -0.056202 -0.65617 -0.548116 0.516205
-0.391 0.270955 -0.075862 -0.625526 0.365193 -0.67444
-0.125005 0.098585 0.035511 -0.934869 -0.001253 0.354174
0.005164 0.82423 -0.098962 -0.351773 0.624 -0.693308
0.206934 -0.206862 -0.016148 0.998837 -0.039227 -0.026254
-0.070085 0.461037 0.079876 -0.266773 0.349808 0.897878
-0.135456 -0.422945 -0.015956 -0.962014 0.124125 -0.240647
-0.28546 0.401408 -0.047218 -0.553206 0.832348 -0.008509
0.019438 -0.688707 -0.018509 0.874871 -0.175679 0.451044
0.097914 -0.857404 -0.10897 -0.761842 -0.053561 -0.637556
0.124998 -0.27381 -0.09528 0.407543 -0.05557 -0.911464
0.356096 0.317682 -0.133558 0.000779 -0.143834 -0.988291
-0.045283 0.405285 0.099345 -0.274799 0.198509 0.939279
0.119666 -0.869486 0.041222 -0.009846 -0.999436 -0.031202
0.094872 -0.482294 0.029658 -0.615177 0.014114 0.788028
0.202069 -0.000737 -0.034613 0.915935 0.118764 -0.376008
-0.337964 0.227802 -0.058798 0.504385 -0.712454 -0.484161
-0.209713 0.472207 0.025887 -0.679824 0.280748 0.6757
0.063858 0.324825 0.113234 0.240408 0.127643 0.961699
-0.111054 -0.014941 -0.086839 -0.831714 -0.04488 -0.553168
0.053166 -0.231975 -0.063466 -0.78051 -0.153596 -0.605472
0.19513 -0.612459 -0.057656 0.840102 -0.033514 -0.541052
0.18363 0.081375 -0.06276 0.838401 0.156318 -0.521626
-0.047922 -0.685991 -0.10983 0.320598 0.228684 -0.917923
-0.113605 0.314644 -0.068873 -0.910667 -0.161752 -0.377348
0.093331 -0.848555 -0.10284 -0.84067 -0.022113 -0.529651
-0.05824 -0.203115 0.119453 -0.133348 -0.139784 0.976466
-0.135491 -0.017616 0.049456 -0.972403 0.072751 0.211495
-0.097362 0.23379 -0.072351 -0.724701 -0.417296 -0.547306
-0.013205 0.799694 0.053182 -0.872787 0.2257 0.429921
-0.315405 0.341933 -0.009739 -0.5511 0.574146 0.595041
0.026108 -0.115778 -0.065983 -0.899462 -0.302708 -0.311797
-0.010533 0.330499 -0.129343 0.045808 0.043037 -0.997568
0.209676 -0.078751 -0.020172 0.935158 0.099768 -0.338341
0.401577 0.22795 -0.065155 -0.599507 -0.782311 0.167857
-0.097692 0.465004 -0.120439 -0.329597 0.074808 -0.940832
-0.045524 -0.758918 -0.131701 0.051885 0.416526 -0.904881
0.10794 0.230893 -0.129159 0.448547 -0.296672 -0.839617
0.614973 0.059239 0.029986 -0.742695 -0.639248 -0.186444
-0.214399 0.333132 -0.038117 0.565072 -0.823714 -0.018474
-0.020525 0.69479 0.02944 -0.969906 -0.22246 0.094947
-0.461051 0.135101 0.023469 0.67435 -0.725191 0.13844
0.119717 -0.865664 0.14906 -0.07196 -0.986651 0.145792
-0.060603 -0.550888 0.055123 0.386796 -0.203578 0.898901
-0.118944 -0.337606 -0.039461 -0.857966 0.100645 -0.502987
0.052975 -0.489132 -0.004094 -0.849323 -0.025576 0.521555
-0.073649 -0.340913 -0.082686 -0.423516 -0.024236 -0.904002
-0.061267 0.117481 0.100659 -0.542103 0.12392 0.829716
-0.060013 0.097123 0.106998 -0.498157 0.133487 0.845512
0.183072 -0.485947 0.04974 0.864128 -0.092106 0.489503
-0.109241 -0.037988 0.096262 -0.723658 0.052852 0.688007
0.031844 -0.030024 -0.137666 -0.195583 -0.428175 -0.881781
0.243878 0.509996 -0.102367 0.519772 0.602307 -0.605719
0.159983 -0.859514 -0.076464 0.848474 -0.489701 -0.17974
