0.06925 0.440973 0.088502 0.095189 0.189882 0.976475
-0.003215 -0.698533 0.013717 0.803188 -0.19878 0.560628
0.109451 0.072027 0.112798 0.50994 0.137878 0.848524
-0.278836 0.401954 -0.015695 -0.672771 0.682873 0.280955
-0.016169 0.760388 0.05506 -0.791682 0.071505 0.604972
0.0734 0.704862 -0.071741 0.600782 -0.551574 -0.574383
0.008732 -0.644024 0.014644 0.688278 -0.126726 0.712289
0.120942 0.333719 -0.134531 0.510272 -0.125163 -0.848641
-0.183498 0.418633 0.031557 0.135439 -0.403018 0.902437
0.536205 0.159181 -0.030384 0.581929 -0.206856 -0.783295
0.021145 0.836307 -0.091368 -0.159037 0.715193 -0.679902
0.174487 -0.857577 0.106998 0.942265 -0.082942 0.079736
0.11191 0.370984 0.092677 0.396441 0.089743 0.912557
0.019201 -0.426685 -0.025966 0.970895 0.018489 -0.224488
0.17771 -0.178467 -0.072485 0.647589 -0.005829 -0.760492
-0.100487 -0.090885 -0.082804 -0.706827 -0.133397 -0.694449
-0.412801 0.239655 0.007368 -0.390497 0.507815 0.76506
-0.135695 -0.040053 0.056618 -0.95779 0.082287 0.261709
-0.13932 -0.074059 -0.021984 -0.949522 0.006457 -0.312413
-0.042104 -0.150144 -0.097642 0.237649 -0.216087 -0.945985
-0.258016 0.409157 -0.078087 -0.465058 0.615891 -0.635904
0.192171 -0.356828 0.047556 0.92286 -0.054619 0.380726
0.083133 0.07263 -0.15089 0.159571 0.248317 -0.95035
0.094643 -0.865756 0.058666 -0.614922 -0.780104 -0.065575
-0.039694 -0.70195 0.018212 -0.404379 0.130391 0.896673
-0.105108 -0.612475 0.043418 -0.889162 -0.04918 0.450737
0.461382 0.259699 -0.034659 0.202903 0.709603 0.654547
0.207303 0.012308 0.017124 0.999594 0.019757 0.014576
0.062399 0.063478 -0.15303 -0.06801 0.191597 -0.979092
0.062173 0.693027 -0.07104 0.524037 -0.530111 -0.664741
0.198618 0.061246 0.041091 0.953036 0.205467 0.217244
0.100347 0.282043 -0.139034 0.176955 -0.037069 -0.98282
0.021039 0.576617 -0.099499 -0.077345 0.512312 -0.854944
-0.104274 0.035493 -0.093993 -0.817335 0.175339 -0.547361
-0.137969 -0.007315 -0.007309 -0.997199 0.058814 -0.042036
0.096486 0.413418 -0.145615 -0.062768 0.003765 -0.997427
-0.053972 0.053134 0.116501 -0.515258 0.215774 0.825622
0.376992 0.333668 -0.125103 0.577861 0.36018 -0.729833
-0.020569 0.018537 0.136794 -0.183299 0.130928 0.97412
-0.071621 0.170203 0.093887 -0.63155 0.002607 0.774598
0.190658 -0.458075 0.035454 0.963578 -0.069341 0.257647
-0.083001 -0.820608 0.067298 -0.381827 0.867806 0.29706
-0.29085 0.278868 -0.003681 0.630767 -0.364216 0.62035
0.048955 0.478668 0.078532 0.119547 0.501106 0.855528
0.197269 0.03715 -0.047516 0.952356 0.062928 -0.296462
-0.095807 -0.542367 -0.093004 -0.426437 0.077305 -0.889433
0.454425 0.239659 -0.019743 -0.121768 0.46022 0.876034
0.009037 -0.670292 0.008147 0.780793 -0.230987 0.578782
0.193167 -0.170615 0.070412 0.931594 -0.00102 0.362771
-0.238011 0.454612 -0.021114 -0.847928 0.524065 0.069921
0.188964 -0.038341 -0.072351 0.865328 -0.036836 -0.496961
0.009634 -0.481457 -0.049874 0.829433 0.043427 -0.555837
0.187962 -0.672028 -0.050694 0.705209 -0.296777 -0.642163
0.074431 0.857646 -0.023857 0.667365 0.740057 -0.077086
0.200192 -0.59611 -0.012016 0.992084 -0.08126 0.092127
-0.02203 -0.848132 -0.094879 0.984622 -0.127215 0.032227
0.0044 -0.245675 0.093301 0.591984 -0.154302 0.786872
0.030294 0.598863 0.026288 -0.033488 -0.018285 0.996071
0.165569 0.063302 -0.095893 0.760412 0.195134 -0.618248
-0.127035 -0.074768 0.076576 -0.833556 0.020239 0.551847
-0.014147 -0.678093 0.025133 0.190378 -0.0418 0.97299
0.020486 -0.532368 0.000375 0.924354 -0.139627 0.352829
0.134246 0.48741 -0.141769 0.139551 0.304303 -0.939756
0.04953 -0.424847 -0.050202 -0.795044 -0.035089 -0.604335
0.441378 0.294632 -0.090342 0.694516 0.703688 -0.12119
0.000316 0.076231 -0.13992 -0.174942 0.300301 -0.937411
0.105822 -0.808989 -0.115131 -0.504286 0.057394 -0.848806
-0.047456 -0.663851 -0.104993 0.365811 0.123904 -0.921352
0.173638 -0.316618 -0.057773 0.728537 -0.016063 -0.684575
-0.128453 0.39752 0.002657 -0.948928 -0.288382 0.085143
-0.108923 -0.796514 -0.00464 -0.841009 -0.309597 0.432992
-0.107392 -0.375969 0.09198 -0.673519 -0.074979 0.734424
-0.065206 0.005481 0.127152 -0.287454 0.315609 0.902007
-0.092408 -0.139377 0.113813 -0.252514 0.015102 0.967345
0.202702 -0.264484 -0.027552 0.944976 -0.105551 -0.306428
-0.048964 0.160175 -0.09781 -0.320936 0.123754 -0.931551
0.597706 0.066386 0.0205 0.71883 -0.588338 0.018906
-0.009468 0.669677 0.027101 -0.771355 -0.608215 0.166994
-0.016995 0.311367 -0.130608 0.006016 0.066078 -0.997029
-0.081724 0.541852 -0.096423 -0.353713 0.555487 -0.751369
-0.083387 -0.243596 -0.081207 -0.594168 -0.041074 -0.802398
0.156496 -0.652362 0.028495 0.197483 -0.009389 0.978304
0.198389 0.368137 -0.05655 0.996254 -0.073656 -0.029232
-0.069479 0.265765 0.087214 -0.515873 0.070257 0.853663
-0.037288 -0.474202 -0.093326 0.375791 0.115501 -0.917682
0.180726 0.285719 0.020917 0.962122 -0.021484 0.267897
-0.128129 -0.220253 -0.015818 -0.921126 -0.063371 -0.383478
-0.042097 0.153697 0.112506 -0.518979 0.073005 0.85116
-0.427207 0.160786 -0.013986 0.534259 -0.842891 -0.038785
-0.098836 0.321594 0.049233 -0.885311 0.016106 0.461083
0.025754 -0.698252 -0.039073 0.983997 -0.109972 0.133905
0.182432 0.227216 0.01123 0.998733 0.013592 0.045834
0.199635 -0.305884 0.03934 0.936879 -0.062658 0.343337
0.051503 -0.245375 -0.057963 -0.818017 -0.080255 -0.568551
0.428274 0.293354 -0.054046 0.415356 0.695784 0.583784
0.131493 0.324644 0.086965 0.738859 0.062472 0.640015
0.014147 0.262693 0.12623 -0.140387 0.099684 0.981659
-0.028271 0.600692 -0.048659 -0.692152 0.714914 -0.054774
0.013654 -0.445009 0.029581 0.827746 -0.049754 0.558783
-0.491357 0.101543 0.064265 0.904426 -0.27372 0.277575
-0.011612 -0.578124 -0.07969 0.685161 -0.063359 -0.725609
0.001195 0.305062 -0.129318 0.143236 0.053158 -0.988173
0.129195 -0.139398 -0.112125 0.295576 -0.272254 -0.913332
0.007918 -0.079032 0.121945 0.336106 -0.161728 0.927468
0.04729 -0.547858 -0.040889 -0.842219 -0.022527 -0.538542
0.072427 -0.217429 -0.085642 -0.529311 -0.142971 -0.834747
-0.05506 -0.694305 -0.114148 0.130425 0.267005 -0.953686
-0.098044 -0.14079 -0.077211 -0.691257 -0.128011 -0.710844
0.485056 0.1774 -0.005742 -0.570197 -0.818241 0.053516
0.0085 -0.515933 0.023298 0.757821 -0.181136 0.626492
-0.028769 -0.860101 0.093096 0.778055 -0.541776 0.125583
-0.397206 0.185957 -0.041537 0.389319 -0.870047 -0.300765
0.083771 0.782136 0.059481 0.766457 0.149337 0.605514
0.198112 0.460927 -0.134584 0.091022 -0.024283 -0.995232
0.040498 0.641244 0.039423 0.278787 -0.551086 0.77654
0.172247 0.347511 0.043235 0.827068 -0.060837 0.558017
0.162756 0.251808 -0.068078 0.873091 -0.013214 -0.486039
0.024273 -0.121494 -0.053986 -0.508026 -0.535546 -0.497178
0.137817 0.07039 -0.122685 0.668359 0.206293 -0.714355
-0.335018 0.327148 -0.074544 -0.494295 0.738286 -0.45159
0.231192 0.458675 0.011153 0.728168 0.012852 0.682302
0.204189 -0.387556 0.009034 0.962954 -0.010198 0.261619
0.1079 -0.61073 -0.094376 -0.416383 -0.103493 -0.902921
0.212662 -0.077103 -0.009687 0.973706 0.081996 -0.202778
-0.046373 -0.703361 -0.114111 0.330523 0.292945 -0.896521
0.177238 -0.488933 -0.083533 0.706909 0.020928 -0.706745
0.124728 -0.008212 0.119187 0.344256 -0.20405 0.914942
0.244294 0.531537 -0.037311 0.704342 0.679732 0.187267
-0.123754 -0.63427 -0.002681 -0.969971 -0.120357 0.207408
0.032493 -0.140125 0.069304 0.810922 -0.390334 0.434915
0.043647 -0.444181 -0.027516 -0.998456 -0.010906 0.010767
-0.136546 -0.516819 -0.022343 -0.998861 -0.015489 0.018786
0.098951 -0.768314 0.021214 -0.249396 0.804134 0.537685
0.195679 0.364779 -0.016922 0.973972 -0.1235 0.188994
0.026436 -0.313229 -0.015472 0.924334 -0.01375 -0.379701
-0.099939 -0.741683 -0.001076 -0.630085 0.464618 0.609456
0.124883 -0.521484 -0.108119 -0.040507 -0.00446 -0.998957
0.083232 -0.031074 -0.150238 -0.039829 -0.351599 -0.934355
0.255646 0.479367 -0.119538 0.414807 0.506415 -0.755602
-0.229953 0.465649 -0.009818 -0.833337 0.515671 0.189905
-0.20051 0.353429 -0.072894 0.528534 -0.690635 -0.490498
0.177046 0.405612 0.047217 0.635084 -0.059811 0.769937
0.060704 0.854787 -0.059541 0.37436 0.820052 -0.427434
0.187516 -0.553263 -0.070755 0.733078 -0.030456 -0.679183
-0.053369 0.172128 0.103228 -0.507447 0.065257 0.858796
-0.136123 -0.093606 0.059766 -0.954463 0.004164 0.293783
0.107536 -0.823841 -0.114127 -0.435583 -0.053061 -0.894314
-0.128724 -0.638668 -0.051161 -0.998494 -0.048547 -0.001591
0.185242 -0.774266 -0.012763 0.935505 -0.33765 0.097196
0.109507 0.027104 -0.150942 0.451432 0.031572 -0.889959
-0.098989 0.548335 0.025879 -0.016443 0.753836 0.65634
0.205068 -0.356551 0.0056 0.987458 -0.050171 0.134833
0.505935 0.164072 -0.038027 -0.404492 -0.874262 -0.257907
0.207514 -0.156752 -0.000944 0.997202 -0.070254 0.005246
-0.128328 0.118139 0.020485 -0.972992 0.073414 0.213974
-0.026081 0.722396 -0.047588 -0.763762 -0.5336 -0.332427
0.294163 0.469875 -0.040587 0.791505 0.435081 0.422577
-0.037486 -0.115384 -0.104879 0.166425 -0.179317 -0.968529
0.047938 -0.016228 -0.148039 -0.308527 -0.352244 -0.883576
-0.11222 -0.844829 0.028655 -0.932421 0.275206 -0.01899
0.073688 -0.140217 0.085941 -0.595639 0.032011 0.802553
-0.131973 0.065927 -0.001944 -0.887657 0.444513 -0.019037
0.046134 -0.351032 0.025414 -0.891148 -0.175335 0.406481
-0.021265 -0.703689 -0.099846 0.587735 0.214411 -0.779779
-0.045859 0.322808 -0.126075 -0.331464 0.016472 -0.941388
-0.095592 -0.622832 -0.099103 -0.464127 0.100198 -0.879558
0.089729 0.732602 0.050173 0.958571 -0.008397 0.270544
0.061321 -0.047165 0.127791 0.045699 -0.380431 0.92344
-0.136591 -0.494544 -0.002714 -0.960678 -0.146145 0.229951
-0.066654 -0.861407 -0.046922 0.013565 -0.999776 0.007666
0.004931 -0.714482 -0.083923 0.637463 0.190479 -0.742683
-0.154551 0.429224 -0.093968 0.077441 -0.104592 -0.990425
0.186397 -0.573963 0.026707 0.726916 -0.185001 0.659601
0.076637 0.171548 -0.119019 0.136885 0.119042 -0.982369
-0.241329 0.374255 0.019774 -0.023914 -0.16646 0.984794
-0.163197 0.424747 -0.09472 0.075527 -0.04168 -0.994894
-0.037412 0.778912 -0.046432 -0.989907 0.078346 -0.116556
-0.185973 0.407901 0.02767 0.182134 -0.333882 0.922449
-0.020138 -0.446387 0.068292 0.525841 -0.232969 0.811827
-0.017764 -0.043162 0.132859 -0.026933 -0.213499 0.975637
-0.085755 0.005156 -0.118358 -0.62226 -0.027743 -0.7822
-0.09335 0.327853 0.059826 -0.871515 -0.03163 0.486582
0.001188 -0.694117 -0.080791 0.492092 0.241801 -0.836211
-0.010077 0.653124 0.002605 -0.921393 -0.188397 0.305087
0.329104 0.367296 -0.043284 0.609721 0.183446 0.767825
-0.194125 0.427574 0.038531 0.174012 -0.44829 0.876009
0.054108 0.168905 -0.119615 -0.060331 0.144913 -0.986322
0.077217 -0.520123 -0.082353 -0.708969 -0.061344 -0.702432
0.023331 -0.434596 -0.003889 0.9663 0.233313 -0.038276
0.604957 0.101176 0.051768 0.831239 0.551558 0.05563
-0.014251 0.471358 -0.129032 0.095146 0.060678 -0.99359
-0.56222 0.04399 0.06562 -0.00463 -0.755804 0.572989
-0.015132 -0.414009 0.072618 0.489507 -0.18125 0.852709
-0.120793 -0.380307 0.071092 -0.972169 -0.031926 0.226382
-0.042336 -0.507274 -0.097999 0.218348 0.076207 -0.971556
0.111764 0.522179 0.041756 0.357823 0.590104 0.722554
-0.113769 0.086876 -0.061726 -0.870107 0.165548 -0.464074
0.205624 0.041114 0.027229 0.983565 0.128668 0.117502
0.057719 -0.693191 0.019916 -0.871974 0.155319 0.461985
0.017153 -0.264617 -0.04348 0.870896 -0.085559 -0.47815
0.07148 0.751016 0.068499 0.416352 0.125829 0.89404
0.636407 0.052597 0.037076 0.888188 0.457099 -0.0182
0.287108 0.354915 -0.035785 -0.091212 -0.796868 0.587571
-0.002873 -0.540865 0.027709 0.647428 -0.15592 0.744562
0.005678 0.438442 -0.127439 0.099146 0.000237 -0.994841
-0.120231 -0.441478 -0.051958 -0.75324 0.24799 -0.608444
0.079891 -0.309257 -0.089751 -0.603046 -0.01241 -0.79736
-0.073643 -0.517924 0.06783 0.4007 -0.258378 0.877724
0.180201 0.062788 -0.074177 0.819361 0.179819 -0.543954
0.064566 -0.38884 -0.069223 -0.747985 -0.035632 -0.662744
0.06121 -0.559355 0.003978 -0.697012 0.013921 0.716491
-0.382353 0.277326 -0.003118 -0.515067 0.566616 0.635121
-0.036932 -0.661947 -0.099745 0.757951 0.159794 -0.595509
-0.079727 0.116352 0.088809 -0.613927 0.196406 0.7615
-0.140849 -0.121022 -0.014316 -0.935595 -0.083222 -0.339784
-0.144349 -0.126949 0.017596 -0.999676 -0.002378 0.017087
0.207462 -0.017613 -0.017789 0.974074 0.055402 -0.21828
-0.049889 -0.277331 0.106171 0.162695 -0.135182 0.977076
-0.523287 0.071826 0.070294 0.47015 -0.860126 0.191308
-0.087177 -0.844175 0.149542 -0.750695 0.386581 0.511284
0.110957 -0.526511 0.039582 -0.520071 -0.017752 0.852238
-0.129176 -0.601932 -0.059682 -0.987649 -0.014847 -0.144722
0.569242 0.150021 0.032109 0.731182 0.665794 0.103013
0.086039 0.623912 -0.041867 0.725513 0.546814 -0.409024
0.091818 0.7257 -0.062974 0.867203 -0.365693 -0.335858
-0.096702 -0.849263 0.132243 -0.898977 0.070211 0.370452
-0.019235 -0.561625 -0.088099 0.623008 -0.049043 -0.777682
0.08297 -0.709461 0.0366 -0.062363 0.037232 0.995517
0.147208 -0.866409 -0.034902 0.286447 -0.939923 0.141442
0.183182 0.209777 -0.002505 0.999662 0.01982 -0.00916
0.115381 -0.870374 -0.091646 0.017745 -0.999551 -0.0173
-0.047232 -0.818113 0.077243 0.102988 0.927607 0.356207
-0.012164 -0.378149 -0.062784 0.699327 -0.013328 -0.713834
0.0987 0.447967 0.083025 0.144361 0.228611 0.962621
0.425054 0.222857 -0.108398 0.214085 -0.357769 -0.894133
0.448502 0.216879 -0.018152 -0.702358 -0.155923 0.679059
0.036626 0.169208 -0.118192 -0.065472 0.165382 -0.978925
0.062852 -0.527295 -0.065883 -0.763815 -0.083017 -0.63996
0.202504 -0.232388 0.035226 0.965358 0.01153 0.260079
0.170522 0.456092 0.047198 0.638963 0.149397 0.754508
-0.018814 -0.66126 0.025269 -0.073781 0.058274 0.994172
0.135684 -0.842239 0.180538 0.11889 0.632644 0.733311
0.029001 -0.301396 0.016016 0.998371 -0.043241 0.03225
-0.058735 -0.771799 -0.135602 -0.255175 0.378643 -0.886642
0.064428 0.400687 0.098021 0.111966 0.205264 0.972267
0.204371 0.406911 -0.059181 0.715991 -0.624836 0.048463
0.070226 -0.647854 -0.059821 -0.716966 -0.134636 -0.683961
0.133792 -0.226974 -0.097196 0.37462 -0.123575 -0.916683
0.200786 -0.428834 -0.001988 0.987581 -0.134594 0.07538
-0.00593 0.532614 0.054608 0.03154 0.546018 0.834295
0.109494 -0.84387 0.16885 -0.811388 0.1877 0.553279
-0.170603 0.371941 -0.009483 0.595477 -0.710148 0.370721
-0.012278 0.372497 0.106939 -0.067346 0.075962 0.993758
-0.499972 0.150706 0.04338 -0.707847 0.702792 0.060233
0.205421 -0.271778 0.004228 0.999941 0.00327 -0.004064
-0.026908 0.745716 -0.074177 -0.869612 -0.310084 -0.377977
0.224334 0.452363 -0.133747 -0.030004 -0.000776 -0.997889
0.088226 -0.062693 0.120451 -0.034597 -0.313944 0.948199
-0.013123 0.800802 -0.102918 -0.563798 0.272799 -0.774821
-0.284252 0.38148 -0.07582 -0.878954 0.190611 -0.429851
-0.215097 0.44046 0.03368 -0.624907 0.212909 0.746377
-0.315405 0.2971 -0.095592 -0.076086 -0.084678 -0.992276
-0.060494 -0.863744 0.115795 0.002323 -0.999413 0.024495
0.44309 0.29207 -0.068414 0.581508 0.774693 0.220582
0.254582 0.506627 -0.015179 0.676989 0.46348 0.570982
-0.004307 -0.81806 -0.118363 0.8255 -0.366527 -0.423212
0.003184 0.237676 0.125318 -0.391454 0.094842 0.911702
0.100287 0.025882 -0.154713 0.357487 -0.010945 -0.931863
-0.053486 -0.287806 -0.092166 -0.094471 -0.07422 -0.991188
0.120606 -0.664149 0.032387 0.099772 -0.141846 0.984436
0.030207 -0.115453 0.091962 0.560499 -0.54443 0.620077
0.20033 -0.593452 -0.036599 0.993966 -0.053182 -0.092775
-0.03323 0.324402 -0.128637 -0.123614 0.034993 -0.990703
0.169663 -0.848718 0.029021 0.939636 0.251965 -0.171604
0.0771 0.384171 -0.14386 -0.201005 0.013546 -0.978548
0.458923 0.19318 -0.030251 -0.415298 -0.907906 0.037604
0.019596 -0.378637 0.035238 0.942754 -0.105017 0.316262
-0.111598 -0.766358 -0.010065 -0.699641 0.017778 0.628952
0.055498 0.852063 0.042035 0.425449 0.65904 0.61867
0.320022 0.447686 -0.069642 0.743009 0.641738 0.177656
0.145065 -0.445426 -0.098892 0.394769 0.176736 -0.90114
-0.127716 -0.636368 -0.026514 -0.986464 -0.112795 0.107492
-0.103044 -0.307841 -0.058362 -0.760623 0.024339 -0.648065
-0.119769 -0.341945 0.078116 -0.953035 -0.013212 0.30164
-0.094308 0.145068 -0.075093 -0.6962 0.203699 -0.688254
0.305154 0.341375 -0.043058 -0.276044 -0.517087 0.80838
-0.040013 0.495408 -0.12716 -0.047594 0.238662 -0.968224
-0.122738 0.090782 0.041199 -0.953236 0.028106 0.293097
0.074799 -0.72704 -0.045568 -0.903954 -0.130545 -0.406294
-0.103718 -0.747676 -0.097568 -0.908292 0.045332 -0.386026
0.016013 0.739352 0.081008 -0.817399 0.218295 0.528422
0.348007 0.390688 -0.1047 0.942326 -0.324692 0.047177
-0.288298 0.395011 -0.025696 -0.782329 0.568584 0.221507
-0.154484 0.386235 -0.006643 0.636002 -0.693045 0.335017
0.037915 0.760297 -0.120435 0.109365 -0.128626 -0.982881
0.132252 0.410809 -0.14203 0.330628 -0.166499 -0.926173
0.140394 -0.835984 0.170708 0.436383 0.792295 0.423426
-0.11226 -0.779042 -0.083669 -0.90138 0.007461 -0.432195
0.027765 0.676546 -0.069981 -0.132355 -0.458286 -0.870514
0.11058 -0.01213 0.124441 0.391953 -0.147339 0.888649
-0.026765 0.468065 -0.130458 0.086394 0.080868 -0.992839
-0.384103 0.290542 -0.05009 -0.706535 0.705083 -0.052426
0.124628 0.092775 0.103998 0.292191 -0.020374 0.95516
0.020991 0.476823 0.082298 0.058218 0.411982 0.909038
0.061963 -0.296712 -0.072277 -0.799297 -0.009026 -0.600726
0.020039 -0.285587 0.061983 0.934309 -0.050103 0.352162
0.154083 -0.514567 0.058979 -0.016347 -0.251662 0.963225
0.395044 0.279853 -0.038575 0.094987 0.221411 0.969617
0.136268 0.383496 -0.134931 0.491548 -0.16997 -0.848565
-0.023627 0.761162 -0.088823 -0.782227 -0.218371 -0.581077
0.023399 -0.394903 -0.015398 0.947863 -0.105824 -0.29917
0.165842 -0.705234 0.006983 0.39825 -0.571181 0.71656
-0.128848 0.558482 -0.000976 -0.220122 0.953867 0.196498
0.090188 0.559997 -0.11564 0.011627 0.592998 -0.803747
-0.124519 0.501187 0.057599 -0.060985 0.309807 0.947231
0.110914 0.551535 -0.118557 0.167129 0.568285 -0.802282
-0.07854 0.225676 0.083967 -0.595825 0.118869 0.794187
-0.106598 0.565697 -0.047584 -0.361473 0.890546 -0.275168
0.038208 -0.256167 -0.035961 -0.802995 0.014819 -0.592307
-0.032867 -0.856307 -0.006745 0.566151 -0.806195 -0.16599
0.374969 0.260275 -0.112442 -0.59157 -0.600491 -0.536223
-0.113502 -0.218385 0.098661 -0.681589 -0.054065 0.729236
-0.098149 -0.236015 -0.066685 -0.755789 -0.056217 -0.651259
0.086664 -0.843815 0.026485 -0.99873 -0.026666 -0.024126
-0.084081 -0.862879 0.000333 -0.063509 -0.997158 -0.035316
0.017433 -0.238695 0.077287 0.918109 -0.047909 0.38956
0.156995 -0.8229 0.044632 0.868021 0.426177 0.191883
-0.089552 0.333096 0.068783 -0.882214 -0.010321 0.469173
0.303708 0.356602 -0.034617 0.107678 -0.494348 0.853993
-0.027913 -0.659556 -0.093484 0.530394 0.08879 -0.842543
-0.026896 -0.581078 0.032168 0.377516 -0.296158 0.877282
0.000207 -0.13963 0.112197 0.576359 -0.157382 0.801865
0.467418 0.206675 -0.005015 -0.511976 0.327507 0.790332
-0.056226 -0.083052 -0.112058 -0.173603 -0.232084 -0.955246
0.490609 0.172382 -0.019237 -0.650948 -0.757731 0.007871
-0.120206 0.329635 -0.051395 -0.997571 -0.044465 -0.047076
-0.114308 -0.218635 -0.042351 -0.881141 -0.051658 -0.469899
0.049612 0.401984 -0.134401 -0.358241 0.032585 -0.931293
-0.050974 0.49318 -0.126885 -0.102369 0.294948 -0.944176
0.285769 0.380066 -0.142248 -0.142841 -0.296273 -0.937906
-0.052846 -0.331193 0.10019 0.257836 -0.137745 0.955471
0.200289 -0.114682 -0.048722 0.879477 0.043019 -0.473649
-0.297708 0.252438 -0.015671 0.697483 -0.661546 0.275237
-0.018916 -0.834397 -0.075245 0.656878 -0.670528 -0.008367
-0.033454 0.829427 0.004926 -0.857221 0.146706 0.460714
0.538321 0.129973 0.009362 -0.762595 -0.645686 0.02984
-0.058268 0.420919 -0.127563 -0.184125 -0.112229 -0.975321
0.206674 -0.197809 -0.027075 0.995474 -0.025188 -0.087346
0.243691 0.473574 0.001756 0.394641 -0.055464 0.91489
-0.021068 0.091908 0.126188 -0.384502 -0.141966 0.908371
-0.095299 -0.167605 -0.074522 -0.702261 -0.113303 -0.70235
-0.071076 0.507284 -0.119326 -0.231716 0.352148 -0.906281
0.087913 0.62728 -0.025569 0.962681 0.20773 0.103434
0.372677 0.314786 -0.131441 0.225711 0.03113 -0.965413
-0.016329 0.676326 -0.003767 -0.796199 -0.587405 -0.023641
-0.244125 0.305965 -0.027017 0.740207 -0.654484 0.151131
0.171935 -0.546879 -0.087166 0.680985 -0.033052 -0.73154
-0.176141 0.389285 -0.089085 0.485298 -0.460205 -0.733622
-0.517771 0.077206 0.06291 0.745562 -0.664431 0.046148
0.131501 0.254314 -0.118354 0.688033 -0.208096 -0.694451
0.144301 -0.665914 -0.088927 0.460451 -0.060185 -0.884063
0.070562 0.240642 -0.134654 -0.223724 -0.159482 -0.960956
0.215621 0.401151 -0.081546 -0.905358 -0.420571 -0.004248
0.198138 -0.616795 -0.005049 0.986707 -0.072427 0.134857
-0.055438 -0.863388 0.007492 0.036738 -0.998606 -0.036595
-0.015803 0.099826 0.129011 -0.338199 0.023144 0.935773
0.635555 0.053351 0.023843 0.894093 0.444159 -0.0496
0.072935 -0.304455 -0.084538 -0.640324 -0.020657 -0.765692
-0.063318 0.255482 0.09096 -0.485261 0.069628 0.871428
0.086147 -0.672896 0.032755 -0.344988 0.217896 0.911394
0.193558 0.090057 0.018576 0.949535 0.239836 0.165017
0.195223 -0.297391 0.051066 0.891812 -0.096141 0.441926
-0.378147 0.296857 -0.038055 -0.716562 0.695641 0.044615
0.198159 0.381679 -0.027946 0.997305 -0.057728 0.039368
-0.097641 -0.057425 0.107127 -0.571501 0.020925 0.81902
0.010118 -0.80436 -0.053816 0.960382 -0.236901 0.139011
0.013636 -0.444884 -0.038516 0.83446 0.044707 -0.549186
-0.461662 0.17143 -0.041411 -0.560683 0.431702 -0.706402
0.097399 -0.401682 0.055422 -0.532855 -0.212568 0.817997
0.149968 0.44119 0.067764 0.601079 0.14409 0.784016
-0.081199 -0.848273 0.156554 -0.532125 0.011169 0.760314
-0.011832 0.576041 -0.097215 -0.114005 0.556649 -0.822526
-0.082565 0.152842 0.084535 -0.663312 -0.00012 0.747928
0.201823 -0.168463 0.040745 0.94508 -0.116024 0.299078
-0.064405 0.432819 0.089007 -0.200748 0.192375 0.956445
0.1177 -0.399523 -0.102358 0.017272 0.038648 -0.997525
0.037589 0.808129 0.079033 0.035603 0.353196 0.93207
0.148444 0.105868 0.083305 0.586969 0.086617 0.802676
0.17457 -0.165912 -0.075954 0.707419 -0.05095 -0.704669
-0.21076 0.477578 -0.054526 -0.64909 0.536086 -0.539514
0.028913 -0.290486 0.021148 0.993477 -0.040733 0.102229
-0.036994 -0.021126 -0.135014 -0.162095 -0.166734 -0.971903
0.070826 -0.822892 -0.022199 -0.458146 -0.887175 -0.005639
-0.113204 0.244394 -0.01678 -0.963877 0.245246 -0.007716
0.008612 -0.160344 -0.05816 0.811739 -0.016532 -0.58302
0.120868 0.460794 0.074137 0.21527 0.338173 0.915834
0.085472 -0.826879 -0.049251 -0.524998 -0.849082 -0.046222
-0.121676 -0.76004 -0.061745 -0.950801 -0.198026 -0.229083
0.084546 0.706861 0.059693 0.830318 -0.136281 0.538779
-0.100518 0.200333 0.069438 -0.693176 -0.011309 0.719621
0.204091 -0.501744 -0.023103 0.978478 0.178118 -0.0912
0.312688 0.448507 -0.051463 0.740823 0.486449 0.458459
0.191174 0.406147 0.027175 0.949922 -0.104133 0.288004
0.021485 0.241365 -0.125541 0.077075 0.01737 -0.996268
0.114488 -0.843654 -0.117072 -0.423112 0.021785 -0.905572
0.041601 0.458416 0.087548 0.1353 0.314514 0.937982
-0.103784 -0.195649 -0.062761 -0.815109 -0.038144 -0.57732
-0.096964 0.066878 -0.093271 -0.734411 0.154869 -0.660141
-0.189922 0.450922 -0.087072 -0.277771 0.351934 -0.893765
0.075329 -0.717317 -0.050663 -0.889171 -0.173864 -0.423079
0.007575 0.66906 0.078544 -0.716167 -0.440727 0.521388
-0.035298 -0.564749 0.040754 0.416583 -0.219824 0.881968
0.058566 0.753658 0.072053 0.434446 0.140991 0.865627
0.000778 -0.621909 -0.067724 0.667741 0.063438 -0.741373
0.015031 -0.544859 -0.045663 0.841722 0.044196 -0.537918
0.089189 0.192241 -0.118931 0.197133 -0.329391 -0.921072
0.090849 -0.552042 -0.091225 -0.659869 -0.118571 -0.741785
-0.102395 0.023944 0.101413 -0.548716 0.205509 0.809343
0.555011 0.103424 0.03623 -0.844597 -0.438493 0.301747
0.089509 0.834163 -0.038773 0.929869 0.364029 -0.052395
0.08553 -0.826235 -0.06062 -0.554372 -0.829709 -0.057649
-0.001705 0.222893 0.125352 -0.339399 0.151714 0.92714
0.002177 0.853716 -0.057102 -0.376653 0.849669 -0.364459
0.159918 -0.491454 -0.097979 0.499508 0.038786 -0.862848
0.072298 0.503467 -0.13204 -0.311741 0.190955 -0.928672
-0.139095 -0.487102 -0.020757 -0.976045 -0.094073 -0.147511
0.209305 0.521171 -0.114832 0.245391 0.64384 -0.723602
0.193451 -0.485558 0.020767 0.954082 0.039316 0.29515
0.110104 -0.276467 -0.099425 0.025291 -0.009251 -0.996999
-0.127692 0.074247 0.030789 -0.977033 0.150462 0.145411
0.131572 -0.097013 -0.122461 0.306546 -0.216037 -0.924851
-0.009794 -0.181939 -0.077634 0.617371 -0.013003 -0.786482
0.125011 -0.86969 0.094582 -0.014384 -0.999744 0.017478
-0.121148 -0.724796 -0.023902 -0.788392 0.18569 0.580936
-0.43177 0.169373 -0.049957 0.352439 -0.654468 -0.655481
0.131057 0.134887 0.097952 0.581025 0.022295 0.813373
-0.035696 0.741034 -0.04177 -0.893746 -0.261455 -0.362467
0.337843 0.361478 -0.136908 0.280504 0.056796 -0.945767
0.108068 -0.396694 -0.100702 -0.246825 -0.018755 -0.966315
0.0477 -0.491493 -0.014165 -0.948792 0.000772 0.302022
-0.29938 0.277952 -0.088704 0.272182 -0.385226 -0.878734
0.184041 -0.008042 0.076046 0.737116 -0.05863 0.67219
0.168092 0.386815 -0.117758 0.417313 -0.408572 -0.808525
0.19828 0.085253 -0.009355 0.980749 0.194312 0.006581
-0.057351 -0.822398 -0.145029 -0.345624 -0.026777 -0.934205
-0.118609 0.224378 0.01674 -0.950911 0.269479 0.147991
-0.486404 0.148465 -0.036447 -0.549058 -0.147414 -0.807118
0.150324 0.189672 -0.082481 0.742875 0.06049 -0.666096
0.071606 0.392412 -0.142508 -0.298998 0.035738 -0.952428
0.194581 0.157905 -0.012338 0.843579 0.373667 -0.358464
0.042019 -0.268811 0.019785 -0.985247 -0.027214 0.160273
0.295797 0.34811 -0.040601 -0.202304 -0.666028 0.713398
0.117801 -0.692367 -0.094897 -0.112137 0.061247 -0.990813
0.128898 -0.103669 0.113117 0.112052 -0.059282 0.991517
0.068999 -0.820848 -0.035824 -0.760673 -0.586086 -0.059834
0.082998 0.84522 -0.009065 0.866499 0.497141 0.038362
-0.205864 0.419964 0.036648 0.015398 -0.252695 0.963404
0.468688 0.261713 -0.049181 0.669134 0.731248 0.125348
0.121698 -0.013377 -0.146718 0.414071 0.009482 -0.907548
0.188205 -0.269516 0.066784 0.745483 -0.013989 0.662463
-0.09449 0.428044 0.071323 -0.640598 0.096036 0.761632
0.106899 0.183601 -0.111548 0.364498 -0.100298 -0.921084
0.105551 -0.759804 -0.091689 -0.774522 0.008365 -0.561358
-0.2921 0.29227 -0.092593 0.233037 -0.376246 -0.895982
-0.154701 0.547533 -0.035318 -0.506775 0.786297 -0.337674
-0.239937 0.404509 0.02301 -0.480798 0.09626 0.86978
0.210884 0.41801 -0.113966 -0.184246 -0.871128 -0.439019
-0.120465 0.073034 -0.054248 -0.896016 0.13421 -0.421921
0.025504 0.807923 0.078032 -0.201641 0.423679 0.880179
0.027035 -0.358629 0.009994 0.997991 -0.045059 0.032381
0.103201 0.238827 -0.134378 0.325733 -0.233016 -0.910436
-0.394703 0.184223 0.004926 0.632647 -0.747186 0.179656
-0.082809 -0.284742 -0.079167 -0.622282 -0.052699 -0.780798
0.157328 -0.860414 -0.035394 0.579814 -0.779841 0.159468
0.126273 -0.77181 -0.105229 -0.042749 0.382815 -0.916925
-0.076239 0.303604 0.081802 -0.58392 0.005615 0.811393
0.044322 -0.150985 0.058282 -0.863729 -0.111217 0.478339
-0.097097 0.096405 -0.084208 -0.74191 0.188359 -0.642911
0.54339 0.176319 -0.026706 0.824431 -0.016387 -0.46159
-0.042316 -0.641358 -0.100792 0.436457 0.054065 -0.897371
0.522939 0.189846 -0.050337 0.149106 -0.493265 -0.851541
0.075199 0.270467 0.117202 0.499928 0.10511 0.85963
0.253772 0.422489 -0.011039 0.095743 -0.273158 0.950239
0.140057 0.308839 0.079166 0.732184 0.051739 0.679116
0.138136 -0.385724 0.074377 -0.145953 -0.139638 0.977868
0.1237 0.544774 -0.120644 0.183796 0.520105 -0.833239
0.415935 0.314555 -0.095124 0.692589 0.713004 -0.093355
0.060394 -0.149522 0.075956 -0.64122 0.050442 0.765546
0.07795 0.160694 -0.120284 0.106135 0.143707 -0.983604
0.067536 0.547743 0.029264 -0.107701 0.679032 0.711563
-0.098171 0.305634 0.055256 -0.871009 0.191555 0.451151
0.152887 0.494874 -0.136139 0.154501 0.268319 -0.950276
0.129674 0.02977 -0.139399 0.546957 0.105911 -0.829535
0.209235 0.411461 -0.095043 0.078173 -0.88952 -0.131268
0.055152 0.441769 0.089703 0.083709 0.192799 0.977652
-0.121675 0.391336 0.037026 -0.942323 -0.249056 0.218604
-0.485552 0.124429 -0.001077 0.194122 -0.781451 -0.591205
0.590984 0.122108 0.035866 0.727253 0.685714 0.010974
-0.326596 0.227455 -0.014669 0.6648 -0.716723 0.194331
0.062491 0.82541 -0.095923 0.316594 0.692051 -0.642719
-0.129639 0.517299 0.04957 -0.099497 0.474258 0.872944
0.099294 0.346137 0.099359 0.292982 0.113129 0.948271
-0.026422 -0.859698 0.07578 0.807814 -0.559754 0.055699
0.33743 0.289698 -0.104354 -0.501991 -0.751886 -0.418724
0.022239 -0.274596 -0.027665 0.956846 -0.064564 -0.282886
0.067936 -0.611563 0.001332 -0.590992 -0.179403 0.782965
0.002066 -0.585726 -0.064782 0.743746 -0.000475 -0.668394
-0.127467 -0.64417 -0.03259 -0.988832 -0.089348 0.110469
0.078523 0.08238 0.127105 0.471138 0.02626 0.880806
-0.019071 -0.834076 -0.006383 0.749903 -0.58865 0.035568
0.198638 -0.498694 0.006348 0.962712 0.046804 0.264902
-0.02193 -0.202868 -0.0862 0.532719 -0.014321 -0.844212
-0.135598 -0.24049 0.028702 -0.998974 -0.042522 0.008596
0.014594 -0.456959 -0.038674 0.83193 0.075887 -0.549582
-0.128602 0.135412 -0.002441 -0.998263 0.045994 -0.017051
-0.518739 0.111537 0.091455 0.020514 0.173048 0.856934
-0.117251 -0.288398 0.089993 -0.813666 -0.048669 0.578778
0.580273 0.132576 0.009119 0.778341 0.612145 -0.136843
0.166971 0.161603 -0.06439 0.841609 0.018937 -0.538109
-0.070427 -0.863618 0.115511 -0.01874 -0.999689 0.015968
0.170305 0.300816 0.047881 0.73295 -0.016847 0.678634
-0.094722 -0.212198 -0.071829 -0.718339 -0.029225 -0.694953
-0.129292 0.067015 -0.025585 -0.971265 0.17703 -0.152701
-0.119629 -0.690412 -0.080435 -0.776294 -0.124266 -0.614309
0.096841 0.605385 -0.03652 0.888124 0.430645 0.137532
-0.137154 -0.142111 0.054586 -0.971483 0.002346 0.236855
0.353143 0.402571 -0.090769 0.938683 0.008707 0.095636
0.205672 -0.285266 0.005108 0.99973 0.020149 0.00954
0.02154 0.604619 -0.080499 -0.08821 0.617679 -0.781203
0.106843 0.126208 -0.122304 0.40017 0.33595 -0.850934
0.0876 0.725281 0.056799 0.879446 0.009919 0.454289
0.092413 0.825351 -0.03482 0.834239 0.529893 -0.050034
0.166405 0.259542 -0.061546 0.895951 -0.025575 -0.442784
0.115258 0.549189 0.017374 0.372563 0.661051 0.649951
-0.052325 -0.717989 0.015771 -0.528171 0.343832 0.774792
-0.040763 0.001167 0.136126 -0.268685 0.398462 0.874251
0.186256 0.10239 -0.049109 0.836717 0.290733 -0.463627
-0.023272 -0.853322 0.020893 0.799993 -0.585078 -0.103762
-0.062614 0.28782 -0.118253 -0.452918 -0.048144 -0.889987
0.10111 -0.217681 0.091675 -0.133312 -0.18885 0.972402
0.405791 0.26791 -0.128087 0.0019 -0.068506 -0.994936
0.177881 -0.11718 -0.079583 0.770745 -0.119774 -0.625749
-0.04431 0.421795 0.096219 -0.209865 0.237051 0.947653
0.202356 -0.560024 -0.009184 0.942902 -0.048527 0.328527
0.017678 0.349007 0.113313 -0.0538 0.10134 0.992583
-0.199625 0.368488 -0.087835 0.38798 -0.525947 -0.75431
0.017814 -0.539447 0.006763 0.895699 -0.084451 0.433197
0.294085 0.327211 -0.099116 -0.686741 -0.717234 -0.11015
-0.086116 -0.633768 0.046358 0.237433 -0.358364 0.901285
0.133212 -0.323086 -0.091276 0.509322 0.03157 -0.859034
0.190404 -0.694347 0.000858 0.703418 -0.34935 0.616064
0.101234 -0.448785 -0.100344 -0.456975 0.055999 -0.887443
-0.042145 0.373585 0.105171 -0.22105 0.063813 0.968609
0.190222 0.170556 -0.011288 0.962567 0.209458 -0.147897
0.002582 -0.625224 0.018601 0.426811 0.099143 0.889979
0.14902 -0.773657 0.035332 0.39579 0.295261 0.862957
-0.049784 -0.863459 0.114323 0.093405 -0.990594 0.070482
-0.007027 0.313007 -0.130155 0.092224 0.060775 -0.99376
-0.028763 -0.809079 0.057886 0.379555 0.331271 0.82753
-0.091155 -0.503847 -0.090734 -0.557305 0.120546 -0.818354
0.109989 0.244826 0.104716 0.390413 0.057794 0.917204
-0.092475 -0.826645 0.068053 -0.576205 0.792169 0.152966
-0.069542 0.471722 0.075323 -0.232766 0.351023 0.906369
0.346368 0.392117 -0.089845 0.768801 -0.577178 0.193658
-0.125164 0.035869 0.067958 -0.872749 0.164821 0.458095
-0.043757 0.577958 -0.00574 -0.198266 0.779988 0.59323
-0.128076 -0.681751 -0.059535 -0.99712 -0.00747 -0.057978
-0.030658 -0.227571 0.112569 0.135659 -0.158082 0.977273
-0.196386 0.513134 -0.025263 -0.757963 0.64106 -0.116397
0.03391 -0.07749 -0.109779 -0.578958 -0.471235 -0.664408
0.150022 0.342976 0.067558 0.727101 -0.089682 0.680541
0.108768 0.406236 0.089817 0.203315 0.127159 0.970726
-0.013253 -0.538196 0.035916 0.556339 -0.18094 0.81028
0.049356 0.618037 0.025985 0.27829 -0.189348 0.933517
0.175462 -0.214651 0.08382 0.471159 -0.186328 0.857868
0.06244 -0.620513 -0.002019 -0.391785 0.164028 0.881759
0.127339 -0.178376 -0.105533 0.205718 -0.10385 -0.97009
-0.025836 -0.425737 0.075198 0.367519 -0.192376 0.908578
-0.006854 0.728269 0.067331 -0.561631 0.01022 0.825888
0.027949 -0.301363 0.029046 0.994706 -0.00723 0.102479
0.183549 -0.248255 0.071665 0.612045 -0.060726 0.785313
-0.517032 0.125999 0.027233 -0.790143 0.608664 -0.067153
0.155732 0.525132 -0.124023 0.215792 0.581107 -0.781875
0.354871 0.272327 -0.075443 -0.674307 -0.720762 0.157969
0.116695 -0.607868 -0.09835 -0.264603 -0.097982 -0.958686
-0.12579 0.185826 0.024434 -0.922821 0.109097 0.360563
0.150545 0.248909 0.072096 0.775372 0.061399 0.628248
0.018459 -0.277851 0.068455 0.922566 -0.064484 0.379091
-0.090967 0.571831 -0.052254 -0.452004 0.811693 -0.338655
-0.051045 0.010978 0.129095 -0.254908 0.21717 0.940707
0.07762 -0.790139 0.028102 -0.706721 -0.210279 0.665855
0.088062 0.289378 0.108927 0.372334 0.139382 0.916127
-0.085347 0.157078 -0.080135 -0.617764 0.211525 -0.75688
-0.344854 0.322657 -0.067749 -0.580669 0.777171 -0.234571
0.182841 0.213764 -0.013593 0.997704 0.012135 -0.062898
0.064692 -0.423992 -0.068206 -0.744658 -0.000454 -0.667369
0.143166 -0.127895 -0.10892 0.498928 -0.273104 -0.822177
0.065226 0.174532 -0.119202 -0.024573 0.110309 -0.991475
-0.242579 0.446877 -0.013206 -0.759961 0.618385 0.189191
-0.445675 0.192816 -0.043515 -0.587062 0.252682 -0.766057
-0.12749 -0.240025 -0.015737 -0.926973 -0.011726 -0.374577
-0.110215 0.398494 0.061698 -0.647758 -0.174682 0.740186
-0.006098 -0.039309 0.134113 0.017115 -0.155956 0.984738
0.151475 -0.862603 -0.002115 0.333522 -0.938173 -0.075243
0.008476 -0.748005 -0.016227 0.601276 -0.431177 0.665431
0.144953 0.071274 0.095911 0.741587 0.210319 0.635031
0.160912 0.234883 0.060623 0.747673 0.055419 0.661269
-0.017999 0.738166 0.05649 -0.78668 0.056873 0.612092
-0.035597 0.091023 0.120783 -0.368505 0.009971 0.925281
0.196584 -0.72458 -0.026868 0.978547 -0.072184 -0.17062
0.16961 -0.025797 -0.105759 0.826221 -0.02861 -0.560426
-0.455124 0.142556 0.026765 0.647981 -0.734543 0.18986
-0.349395 0.321464 -0.05845 -0.576546 0.806745 -0.101038
-0.470665 0.184667 -0.009581 -0.813212 0.57877 -0.047
-0.021555 -0.775124 0.012221 0.709814 0.586503 0.385187
-0.128612 -0.551139 -0.004377 -0.942697 -0.145931 0.297266
0.183141 0.265544 -0.004509 0.999745 -0.008427 -0.010096
0.051962 -0.310481 0.045421 -0.777042 -0.102057 0.619752
-0.137353 -0.468725 0.002706 -0.980924 -0.031872 0.190541
-0.418508 0.178846 0.027209 0.138001 0.173777 0.919931
0.098788 -0.731575 -0.088611 -0.710164 -0.037843 -0.69267
0.073549 -0.470644 -0.079138 -0.710503 0.036756 -0.702718
-0.114855 -0.390509 -0.050049 -0.734377 -0.118404 -0.668198
-0.113429 0.289389 -0.016542 -0.980756 -0.187934 0.043613
0.398964 0.295728 -0.044217 0.206065 0.352631 0.911294
-0.005197 0.671907 -0.044914 -0.769491 -0.269179 -0.578473
-0.044477 0.22438 0.106002 -0.522101 0.048589 0.850888
-0.555317 0.075845 0.064294 -0.888286 0.445913 0.069756
0.150152 -0.570843 0.042736 0.008467 -0.119952 0.99242
0.220067 0.549748 -0.034766 0.454183 0.865314 0.190922
0.111566 -0.548351 -0.104612 -0.344198 -0.079583 -0.932943
0.065659 0.081731 -0.148877 -0.057802 0.323255 -0.942945
0.186833 0.380634 0.026591 0.878781 -0.1934 0.435021
-0.000204 0.639201 -0.051524 -0.719661 0.231813 -0.651302
-0.089057 -0.301185 -0.072694 -0.675121 -0.037922 -0.736093
0.02491 -0.386036 -0.011959 0.972165 -0.047525 -0.214071
0.016111 -0.044394 -0.128428 0.050758 -0.549419 -0.832668
0.123054 -0.471185 0.052891 -0.576481 -0.101452 0.810695
-0.036227 -0.750885 0.004736 0.554644 -0.210042 0.785045
-0.216512 0.453054 -0.072338 -0.485253 0.567269 -0.664728
0.035737 0.540467 0.039054 -0.000776 0.706778 0.707018
-0.011715 -0.047449 -0.127862 0.004091 -0.499783 -0.865438
-0.10038 -0.574056 -0.092629 -0.523389 0.041246 -0.851077
-0.127169 0.071905 -0.033799 -0.962453 0.130012 -0.225291
-0.422532 0.213215 0.014717 -0.173927 0.187734 0.960624
0.196358 0.358917 -0.060005 0.917123 -0.34179 -0.1902
0.093165 -0.826614 0.073349 -0.822425 0.512444 0.1972
-0.114281 0.370977 0.043294 -0.857267 -0.310712 0.405461
0.024933 0.656079 0.057972 -0.18546 -0.969425 0.152594
0.06674 -0.633417 -0.059172 -0.705471 -0.158749 -0.690159
0.113274 -0.051361 -0.140544 0.19842 -0.363783 -0.90947
0.093299 -0.419815 0.045093 -0.628483 -0.361557 0.688538
0.13502 -0.472665 -0.105777 0.165815 0.100554 -0.97893
-0.114425 0.148472 0.048839 -0.837969 0.076059 0.538655
0.167074 -0.383434 0.072942 0.31606 -0.005068 0.945356
0.360588 0.347423 -0.056872 0.584863 0.493449 0.640078
-0.142635 -0.15461 0.033025 -0.980497 -0.080126 0.165129
0.103567 0.563152 0.010596 0.321282 0.712981 0.60627
-0.025287 -0.856206 -0.113501 0.793303 -0.483777 -0.198657
0.12751 -0.285652 -0.093784 0.401261 -0.026096 -0.915258
0.128813 0.031155 0.116266 0.198435 0.185292 0.952855
-0.268053 0.403673 -0.076131 -0.492448 0.644519 -0.581522
0.02449 -0.356047 0.031654 0.938072 -0.158133 0.303676
-0.071008 0.407129 0.091525 -0.455908 0.089886 0.883531
-0.070782 -0.862896 -0.103244 -0.067771 -0.996223 -0.036441
0.166906 -0.817365 -0.087653 0.891005 -0.343478 -0.246938
0.129721 0.399048 -0.140575 0.363949 -0.174862 -0.914421
0.384181 0.24833 -0.109104 -0.77832 -0.450838 -0.428897
0.003805 0.7544 -0.112864 -0.438725 -0.271312 -0.853304
-0.316717 0.248835 -0.073916 0.257948 -0.689317 -0.664557
0.119717 -0.865664 0.14906 -0.07196 -0.986651 0.145792
-0.001778 0.124358 0.129435 -0.186172 0.014079 0.981135
-0.20313 0.349675 -0.006868 0.527799 -0.717949 0.452804
0.027101 0.527288 -0.120692 -0.037056 0.185466 -0.981521
-0.360449 0.217433 -0.063048 0.374302 -0.710968 -0.592441
0.01741 0.385685 -0.128051 0.002256 -0.020665 -0.999332
0.019276 -0.408324 0.022684 0.969751 -0.091333 0.224682
0.15087 -0.121633 -0.106042 0.569663 -0.278931 -0.771257
0.11165 -0.869963 0.070917 0.004815 -0.999977 0.002103
0.187921 0.532713 0.007236 0.268589 0.604161 0.750091
-0.132541 -0.069125 -0.042484 -0.858915 -0.03285 -0.51073
-0.054336 -0.152413 0.122028 -0.088471 -0.021919 0.994848
0.031626 0.211627 0.128969 0.002346 0.057303 0.998331
-0.052626 0.175666 -0.097265 -0.488494 -0.196185 -0.844687
-0.558471 0.066782 0.064469 -0.905694 0.400898 0.107587
-0.042366 -0.114539 0.126272 -0.092922 -0.090334 0.988998
0.187924 0.02735 -0.069917 0.922175 0.012202 -0.358729
0.14174 -0.078542 0.112175 0.338395 0.034084 0.930034
-0.090547 0.548534 -0.085825 -0.386765 0.632648 -0.670523
0.333127 0.43073 -0.096482 0.779624 0.612678 -0.093731
0.145717 -0.193873 -0.096801 0.479073 -0.109885 -0.870047
0.100912 0.460548 0.079678 0.191777 0.375518 0.905785
0.085185 0.557559 0.019158 0.008268 0.791734 0.593063
-0.135921 0.458313 -0.102601 -0.463895 0.047903 -0.88396
-0.022983 -0.249473 -0.087205 0.465899 0.015711 -0.883077
-0.120758 0.02963 0.077228 -0.851333 0.140312 0.504712
0.194815 -0.137225 -0.058231 0.76594 -0.028523 -0.642051
0.023756 0.562822 0.02669 -0.015908 0.10788 0.993543
0.186464 0.492303 0.026865 0.321173 0.252301 0.91097
-0.135188 -0.185674 0.06314 -0.965349 -0.048518 0.247572
-0.112748 -0.189453 0.100252 -0.695914 0.003999 0.717704
0.084504 0.682077 0.017267 0.885594 -0.420557 0.168959
-0.079276 -0.341298 0.103736 0.104319 -0.104024 0.987721
0.066993 0.196219 -0.119716 -0.200212 -0.220843 -0.949649
0.591385 0.083574 -0.002317 0.595698 0.259958 -0.758509
-0.412682 0.1903 -0.055974 0.072527 -0.337871 -0.932566
-0.412832 0.206043 0.017617 0.011356 0.255234 0.963759
0.011593 -0.801633 -0.068747 0.975996 -0.19744 0.003175
0.073188 0.020935 -0.160046 0.021273 -0.151857 -0.986515
0.186899 0.040793 -0.069941 0.866016 0.117081 -0.485538
-0.393502 0.190098 0.013366 0.567138 -0.419181 0.634898
-0.057507 0.062966 -0.127452 -0.366863 0.23724 -0.896777
0.189505 0.317605 -0.029875 0.981107 -0.163022 -0.079423
-0.550984 0.08341 0.038799 -0.822614 0.563661 -0.022833
0.022247 -0.47844 0.007434 0.906344 -0.107159 0.407985
0.019804 -0.435166 0.017419 0.951401 0.026622 0.297493
0.43676 0.284049 -0.049286 0.283413 0.718777 0.604858
0.113936 -0.832822 -0.117696 -0.270419 0.006127 -0.947457
0.025242 -0.335973 0.038804 0.948042 -0.106958 0.297678
0.12096 0.438388 0.080876 0.240709 0.197174 0.948099
0.097595 0.117105 0.117586 0.466138 0.05401 0.882111
0.076495 -0.600844 -0.07112 -0.684283 -0.047823 -0.727527
0.090376 -0.635014 0.020448 -0.674092 0.133468 0.705338
-0.042545 0.295032 -0.127504 -0.315573 -0.009702 -0.944475
-0.089654 0.520145 0.049016 -0.034146 0.49771 0.865218
0.008075 -0.057766 0.126673 0.315324 -0.212467 0.923178
-0.111921 0.307006 0.017294 -0.967656 -0.038675 0.246795
0.021362 -0.677702 -0.017639 0.864802 -0.209097 0.45617
-0.056473 -0.582949 -0.103291 0.128778 0.001238 -0.990603
0.053795 0.771104 -0.116049 0.4075 -0.046669 -0.911087
-0.137879 -0.018521 -0.013607 -0.992645 0.058942 -0.088846
-0.04454 0.571083 0.004012 -0.161414 0.793132 0.586721
0.137027 0.569972 -0.092695 0.369978 0.693704 -0.615917
0.000695 0.794406 -0.112624 -0.367486 0.202627 -0.906088
-0.106709 -0.503539 -0.079593 -0.628002 0.128323 -0.766478
0.205519 -0.384259 -1.1e-05 0.996188 0.009109 0.086494
0.124228 0.324614 -0.130949 0.558121 -0.102629 -0.82311
0.192991 -0.436746 -0.054995 0.829254 0.132976 -0.542676
-0.330454 0.225241 -0.038271 0.507663 -0.85182 -0.121968
-0.12044 0.378518 0.031139 -0.957203 -0.209353 0.198777
0.055495 -0.271341 0.056489 -0.730403 -0.125126 0.671322
-0.023321 -0.685674 0.026199 -0.152266 0.034959 0.987122
-0.240585 0.36201 0.01749 0.11879 -0.226574 0.965877
0.184782 0.528097 -0.114989 0.189977 0.613516 -0.766213
0.187064 0.421969 0.039574 0.678428 -0.051705 0.732336
-0.064828 -0.51124 0.066057 0.375503 -0.226934 0.898198
-0.124039 -0.161009 -0.038506 -0.818974 -0.171558 -0.547122
-0.358171 0.272612 0.005709 0.02014 0.232696 0.971943
0.165374 -0.401278 0.073501 0.26119 -0.036568 0.961021
-0.303788 0.285792 0.005582 0.206191 -0.072718 0.971346
0.026064 -0.651682 -0.046074 0.965939 0.054223 -0.2438
-0.045315 -0.862361 0.004747 0.136035 -0.986971 -0.068217
0.090544 0.576991 -0.102284 0.138573 0.670491 -0.728463
0.115696 0.341688 -0.138315 0.424731 -0.120752 -0.897185
0.129614 -0.869274 0.119407 -0.005729 -0.999405 0.032541
-0.011242 0.122005 0.127171 -0.343827 0.043905 0.931015
-0.128923 0.07337 -0.017796 -0.982966 0.15194 -0.063234
-0.002575 0.78554 0.074292 -0.57172 0.178558 0.791126
0.045906 0.184314 0.129243 0.079066 0.019113 0.996608
0.177168 0.385605 -0.111597 0.43238 -0.501361 -0.748586
0.177076 0.28327 -0.041427 0.933453 -0.140752 -0.32939
0.158361 0.574469 -0.047364 0.307676 0.947885 0.056303
0.192824 0.079013 0.042622 0.908126 0.309146 0.272761
-0.030793 -0.786419 0.037764 0.567686 0.519378 0.637624
-0.053391 -0.432332 -0.089123 -0.005153 0.229124 -0.972433
-0.044362 -0.019528 0.130393 -0.21152 -0.27217 0.91385
-0.117038 -0.272929 -0.034973 -0.835605 0.013259 -0.548581
0.016951 -0.078042 -0.0989 -0.069636 -0.706638 -0.692572
0.553443 0.119536 0.045565 -0.862321 -0.16286 0.456973
0.224002 0.531934 -0.095756 0.401903 0.681204 -0.610562
0.220405 0.491324 0.016629 0.270069 0.165901 0.947514
0.139836 -0.860353 -0.108832 0.615011 -0.461828 -0.626672
-0.096666 -0.632639 0.04642 -0.318899 -0.31659 0.876445
-0.11125 0.135451 0.056128 -0.808901 0.076129 0.581267
0.061963 -0.558327 -0.062062 -0.726608 -0.061855 -0.682839
-0.04937 0.56227 -0.096537 -0.353999 0.547667 -0.757904
0.076555 -0.801605 0.025643 -0.880569 -0.169385 0.441714
-0.125051 -0.35538 0.054041 -0.982469 0.065302 0.174038
-0.08962 -0.642845 0.043188 0.084022 -0.315112 0.937183
0.380953 0.255085 -0.048573 -0.668163 -0.505223 0.543259
0.207507 -0.049345 0.040784 0.945217 0.048204 0.320749
-0.023423 -0.567859 0.034672 0.406295 -0.223378 0.885957
0.045447 0.85936 0.038891 0.300834 0.78544 0.540055
0.142184 0.438433 0.072822 0.436839 0.135284 0.888043
-0.483181 0.128273 0.063301 0.657779 -0.598014 0.44838
-0.50095 0.093051 0.042829 0.527892 -0.808911 -0.226018
-0.036647 -0.104569 -0.106949 0.160072 -0.243576 -0.955317
-0.031247 -0.857232 0.108726 0.833704 -0.34866 0.351676
-0.082624 -0.352982 0.102866 0.064184 -0.144793 0.984403
0.189749 0.092969 0.042718 0.970838 0.059825 0.221388
-0.317503 0.263814 0.005537 0.101229 -0.08343 0.988258
0.153734 -0.280578 0.081159 0.173387 -0.082847 0.980579
-0.014799 -0.648473 -0.082513 0.651953 0.05033 -0.756547
-0.113136 -0.726973 -0.080135 -0.8209 -0.092936 -0.561683
-0.522824 0.073201 0.082324 0.246238 -0.920654 0.177263
0.245609 0.368143 -0.069649 -0.700339 -0.710467 0.058795
-0.288826 0.372435 -0.010144 -0.792219 0.450759 0.409122
0.044315 -0.522237 -0.025214 -0.990933 0.001239 0.103732
-0.114738 -0.802911 -0.042816 -0.884203 -0.457238 0.061316
0.041879 -0.387526 -0.012558 -0.984853 -0.116339 0.125732
-0.032453 -0.509602 0.053268 0.356719 -0.267696 0.89458
0.021601 0.398444 -0.128123 -0.035037 0.001285 -0.999041
-0.057718 -0.233548 -0.092388 -0.116583 0.028203 -0.990181
-0.03899 -0.712245 0.022334 -0.488643 0.329276 0.807742
0.131194 -0.78672 -0.112265 0.092898 0.423043 -0.899014
-0.134128 -0.567231 -0.039507 -0.994838 -0.075763 -0.028558
0.053144 -0.549964 -0.005499 -0.814058 -0.002293 0.579869
0.145724 -0.41461 -0.0924 0.507581 0.106277 -0.854807
0.205739 -0.344922 -0.008386 0.995938 0.019822 -0.079895
-0.134024 0.032348 -0.031144 -0.955964 0.144218 -0.255204
0.078659 -0.413431 0.034301 -0.69582 -0.326546 0.639641
0.165329 -0.717924 -0.069523 0.811918 -0.051584 -0.581302
0.042751 -0.261558 0.027349 -0.991479 -0.018016 0.128443
-0.032292 -0.863383 0.061203 0.284422 -0.954134 0.002068
0.187534 -0.426724 -0.060617 0.788299 0.119872 -0.602916
0.081266 0.627707 -0.002563 0.932966 -0.032446 0.339112
-0.136606 0.030804 0.042451 -0.966048 0.16441 0.191743
0.182915 0.269371 0.007513 0.997586 0.005793 0.067612
-0.017955 -0.75934 -0.006138 0.530609 0.027646 0.818472
0.144672 0.172183 0.084872 0.710597 0.026712 0.703082
0.252843 0.422263 -0.138865 -0.200117 0.014652 -0.978751
-0.041078 -0.270593 0.105747 0.170675 -0.16775 0.970881
0.153281 -0.76717 -0.092571 0.671411 0.315575 -0.668123
-0.213658 0.361385 -0.089529 0.345168 -0.493161 -0.795162
0.152171 -0.835552 0.14074 0.602884 0.78482 0.1351
0.206132 0.007018 -0.01441 0.991368 0.027412 -0.122058
-0.004403 0.110868 0.130471 -0.222827 0.204225 0.951256
0.100412 -0.518132 -0.101283 -0.542605 -0.018504 -0.839573
-0.040079 -0.863925 0.052514 0.051168 -0.998593 -0.004738
0.111624 -0.806007 0.060873 -0.08921 0.708077 0.695139
-0.07325 0.576063 -0.063301 -0.447766 0.822303 -0.349167
-0.115901 -0.492881 -0.068326 -0.748174 0.097749 -0.655672
-0.12068 0.143628 -0.033542 -0.89098 0.166178 -0.41846
-0.439415 0.158821 0.030219 0.495188 -0.763791 0.387427
-0.098529 0.296479 0.058976 -0.809782 0.189427 0.553369
0.047509 0.094509 -0.143288 -0.10876 0.238836 -0.963974
0.085762 0.69579 -0.038137 0.810293 -0.450771 -0.373113
-0.086098 -0.74961 -0.117193 -0.577848 -0.010815 -0.815322
0.037027 0.381271 0.105734 0.0592 0.179113 0.981717
-0.07298 0.509848 0.057136 -0.171623 0.462747 0.868204
0.045018 0.105492 0.134867 0.106123 0.092836 0.980614
-0.134682 0.52495 0.044361 -0.136209 0.576176 0.805194
-0.021453 -0.839395 -0.083692 0.915231 -0.360667 -0.022731
-0.308337 0.275845 0.005919 0.185155 -0.083372 0.96942
-0.151689 0.410644 0.028318 0.101502 -0.757079 0.631618
0.05291 0.274958 -0.131912 -0.375469 -0.075008 -0.922721
0.20543 0.407278 -0.081618 0.653127 -0.650535 -0.001758
0.046788 0.283138 -0.130069 -0.301874 -0.048402 -0.951912
-0.07339 -0.740929 0.021915 -0.378685 0.629579 0.673758
-0.174153 0.391234 0.017656 0.298535 -0.581563 0.749859
-0.089175 0.208194 0.07903 -0.624431 0.074362 0.777323
0.081262 -0.442283 0.021509 -0.690755 -0.271516 0.668757
