0.285617 0.46865 -0.026653 0.725513 0.262829 0.632326
0.178611 0.346568 0.031736 0.852347 -0.108106 0.505067
-0.038004 0.045431 -0.140163 -0.294862 0.28896 -0.909797
-0.118805 0.381225 0.040763 -0.915344 -0.229769 0.305561
0.158526 -0.842467 0.147852 0.688896 0.690498 0.205592
0.193298 -0.256683 0.061146 0.824067 -0.019366 0.563359
-0.02559 0.541288 -0.11409 -0.123716 0.313863 -0.940388
0.050029 -0.644544 -0.018459 -0.990343 -0.125317 -0.029335
0.18202 -0.449645 -0.073002 0.729289 0.150999 -0.666491
0.217647 0.518649 0.006943 0.28381 0.551422 0.784185
0.097441 0.17183 0.114597 0.408366 0.052214 0.911208
-0.117936 0.117057 0.048462 -0.87394 0.148679 0.461599
0.146184 -0.336315 -0.082085 0.616599 0.023613 -0.786907
0.177046 0.405612 0.047217 0.635084 -0.059811 0.769937
-0.127783 0.191018 0.008701 -0.993719 0.093484 0.047841
-0.113737 0.141001 -0.047397 -0.887879 0.134142 -0.439826
-0.128266 -0.062788 0.073578 -0.843613 0.028822 0.53578
0.167537 -0.615641 -0.083878 0.610152 -0.149817 -0.777299
-0.118935 0.516634 0.050921 -0.04819 0.475784 0.877579
0.06651 0.097009 -0.143759 -0.0021 0.329735 -0.941435
0.363309 0.363967 -0.083194 0.66064 0.710914 0.235978
-0.008281 -0.738024 -0.103115 0.64154 0.238139 -0.727706
-0.107166 -0.371078 -0.059361 -0.721229 0.019198 -0.691526
0.193 -0.084702 0.073212 0.699362 0.021163 0.710315
-0.131363 -0.015525 -0.047006 -0.936286 0.015904 -0.350871
0.150553 0.427823 0.069592 0.677283 0.10723 0.727531
-0.094301 0.496268 -0.115017 -0.353172 0.303454 -0.884312
0.0526 0.42244 0.094991 0.086872 0.275379 0.956527
0.025091 -0.641866 -0.047338 0.92393 0.083546 -0.365008
-0.26098 0.285336 -0.030665 0.70635 -0.673087 0.214892
0.016933 -0.049886 0.124943 0.45362 -0.354858 0.81483
-0.296731 0.249035 -0.05601 0.56085 -0.792464 -0.226453
-0.095592 -0.622832 -0.099103 -0.464127 0.100198 -0.879558
-0.105193 0.393057 -0.105655 -0.545821 -0.235332 -0.803271
-0.09333 -0.581063 -0.097046 -0.462496 0.044429 -0.884939
0.093807 -0.437779 0.03568 -0.636407 -0.366309 0.678604
0.588724 0.098306 0.066431 -0.370739 -0.177692 0.835801
0.111728 0.589843 -0.075947 0.266939 0.917815 -0.275522
0.186499 0.357973 0.017263 0.90498 -0.149379 0.397522
-0.135905 -0.193249 0.05631 -0.987601 -0.044245 0.140451
0.001407 0.859654 -0.039866 -0.440134 0.846811 -0.287172
0.210681 -0.051632 0.031698 0.937296 0.069708 0.341307
-0.092042 -0.802842 0.021075 -0.844754 0.266218 0.457397
0.17929 -0.647083 -0.068992 0.60763 -0.210703 -0.765516
0.011489 0.863272 -0.032226 -0.155983 0.98436 -0.065878
-0.449995 0.151886 0.037577 0.734066 -0.481322 0.446166
0.076555 -0.801605 0.025643 -0.880569 -0.169385 0.441714
-0.000901 0.356488 -0.128218 0.092941 -0.019235 -0.995346
0.183136 0.201212 -0.01262 0.992858 0.068582 -0.062558
0.16428 -0.81878 0.014624 0.867789 -0.453647 0.194664
0.135087 -0.723231 0.014886 0.427185 0.022427 0.898768
0.181365 0.127804 0.050823 0.816074 0.112805 0.561733
-0.04399 -0.855125 0.136342 0.75124 -0.383659 0.464006
0.141584 -0.676169 -0.089928 0.445085 -0.019279 -0.894623
0.014353 -0.281268 -0.045133 0.819299 -0.102983 -0.561574
0.128896 -0.658487 0.032674 0.1 -0.142539 0.984362
-0.117916 0.233851 -0.015882 -0.930971 0.357567 -0.028127
0.082964 -0.349897 0.062978 -0.500439 -0.324935 0.800987
-0.081152 -0.432277 -0.08254 -0.414941 0.329644 -0.846643
0.081251 -0.395094 0.045273 -0.673927 -0.26986 0.687309
-0.111946 0.280002 0.00361 -0.998009 -0.030885 0.04946
-0.12068 0.143628 -0.033542 -0.89098 0.166178 -0.41846
-0.038708 -0.057243 0.129694 -0.096313 -0.072687 0.992556
0.329324 0.313956 -0.125554 -0.393409 -0.540689 -0.741292
0.172531 0.26158 -0.048843 0.898342 -0.016192 -0.436671
-0.086313 -0.271097 -0.077288 -0.614166 -0.037345 -0.773187
0.154453 0.448845 0.062833 0.627846 0.153817 0.760854
0.103707 -0.257381 -0.098686 -0.201826 0.027842 -0.975939
0.601087 0.068228 0.056874 -0.511714 -0.850211 0.02418
0.136378 -0.342282 0.079348 0.032071 -0.049493 0.997285
-0.336811 0.223774 -0.046184 0.500871 -0.842456 -0.182266
-0.122668 -0.761625 -0.034591 -0.951295 -0.281799 0.097284
0.21076 -0.022783 -0.00713 0.959021 0.047784 -0.27777
-0.02612 -0.85117 0.083951 0.9843 -0.04298 0.166114
-0.066936 -0.026967 -0.126319 -0.37485 -0.198251 -0.901483
0.12099 0.29467 0.096273 0.507053 0.068975 0.856449
0.627479 0.06482 0.080868 0.861041 0.490175 0.114901
0.164468 0.123227 0.071714 0.602877 0.212497 0.768013
-0.246618 0.419355 0.011846 -0.707054 0.391978 0.581205
0.018665 -0.146783 -0.042315 0.907007 -0.119575 -0.401528
0.019449 0.663728 0.08691 -0.46598 -0.664775 0.553471
-0.037412 0.778912 -0.046432 -0.989907 0.078346 -0.116556
0.466494 0.261116 -0.086536 0.77965 0.523999 -0.32504
0.099563 0.753324 0.011298 0.978771 -0.014972 0.199252
-0.054336 -0.152413 0.122028 -0.088471 -0.021919 0.994848
-0.033656 0.532665 0.050259 -0.202551 0.535179 0.818599
0.175895 0.328504 -0.075372 0.814093 -0.335101 -0.473915
0.134835 0.26212 0.088132 0.6754 0.044126 0.734824
0.272043 0.344808 -0.059832 -0.515367 -0.770856 0.356503
0.157915 -0.030299 0.103213 0.578152 0.017553 0.815149
0.115696 0.341688 -0.138315 0.424731 -0.120752 -0.897185
0.117462 0.071477 0.107072 0.408949 0.157883 0.897061
-0.071023 -0.678321 -0.110034 -0.164399 0.121291 -0.976543
0.1314 -0.825146 0.126055 0.178207 0.981086 0.041274
-0.123215 -0.362795 -0.037767 -0.877284 0.075064 -0.469613
0.1986 -0.51245 -0.051317 0.948571 0.027871 -0.310848
0.152171 -0.835552 0.14074 0.602884 0.78482 0.1351
-0.018131 0.693231 -0.032095 -0.898507 -0.336425 -0.231563
0.001033 -0.819177 -0.031353 0.963139 -0.069913 0.257988
0.160567 0.313348 -0.090959 0.673974 -0.260334 -0.663575
-0.089627 -0.860629 -0.094867 -0.222731 -0.971686 -0.062657
-0.017764 -0.043162 0.132859 -0.026933 -0.213499 0.975637
-0.129227 -0.567086 -0.060355 -0.945261 0.029003 -0.322494
-0.062287 -0.472056 0.07405 0.266189 -0.173562 0.948065
-0.071976 -0.855952 0.156869 -0.077674 -0.715187 0.671867
-0.069104 -0.429833 -0.086703 -0.239981 0.305406 -0.919763
-0.419865 0.236797 -0.056277 -0.748713 0.277357 -0.595052
0.43676 0.284049 -0.049286 0.283413 0.718777 0.604858
0.030811 0.385437 -0.128884 -0.12939 -0.014053 -0.99132
0.143324 -0.276946 -0.084877 0.575721 -0.096831 -0.8118
0.19312 -0.44697 0.02867 0.96175 -0.099126 0.253962
0.02111 -0.741697 -0.06144 0.966582 -0.097207 -0.229799
0.564538 0.153913 0.040412 0.589 0.603407 0.510985
0.16109 0.224747 0.061228 0.752299 0.057012 0.655759
-0.154125 0.482264 -0.09165 -0.378761 0.199774 -0.899977
-0.570355 0.028389 0.057912 -0.158307 -0.882704 0.149873
0.632311 0.024392 0.049055 -0.895663 -0.434347 -0.008128
0.139464 -0.246793 0.08513 0.115812 -0.134982 0.983484
-0.155775 0.383648 -0.047936 0.558654 -0.808624 -0.161764
0.097643 -0.007237 0.129397 0.282573 -0.250304 0.925065
-0.199541 0.381461 -0.094476 0.163752 -0.334376 -0.919283
-0.019075 -0.638627 0.023007 -0.042278 0.111623 0.990961
0.163623 -0.652387 -0.078928 0.573345 -0.203591 -0.792939
0.048634 0.282041 0.122425 0.125572 0.113737 0.985424
-0.174876 0.510112 0.036046 -0.547721 0.518728 0.654257
0.33134 0.397847 -0.044199 0.806283 -0.048229 0.578294
-0.113315 -0.513139 0.034634 -0.852168 -0.117915 0.507889
0.055686 0.812917 -0.108678 0.274983 0.482382 -0.830143
0.177152 0.414078 -0.127846 0.204515 -0.377135 -0.903095
0.083646 0.804206 0.045699 0.878058 0.265075 0.393988
-0.072078 -0.450453 -0.091647 -0.253483 0.224889 -0.938698
-0.102693 0.42214 0.065351 -0.429403 0.079717 0.895046
-0.412682 0.1903 -0.055974 0.072527 -0.337871 -0.932566
0.00037 -0.731951 -0.092209 0.700222 0.178162 -0.689896
-0.098584 -0.364329 -0.067298 -0.629815 0.041856 -0.773073
0.050995 0.694344 -0.077934 0.216433 -0.599749 -0.769591
0.069274 0.334231 0.110784 0.317731 0.17866 0.929741
-0.137173 -0.443252 -0.019563 -0.973371 0.106078 -0.196295
0.167694 0.525782 -0.120948 0.201508 0.506945 -0.837664
-0.087322 -0.840036 -0.114066 -0.902608 -0.018211 -0.428341
-0.103184 -0.846617 0.111697 -0.889894 0.320088 0.218201
0.084483 -0.826193 -0.004146 -0.480199 -0.870062 0.049371
0.186431 0.452932 -0.135752 0.146803 -0.052993 -0.9877
-0.162682 0.543356 -0.030695 -0.619773 0.765098 -0.16921
-0.517771 0.077206 0.06291 0.745562 -0.664431 0.046148
-0.033965 0.4211 0.098024 -0.144252 0.229991 0.962158
0.022182 0.649429 -0.062984 -0.360809 -0.026197 -0.928202
-0.127165 -0.379363 0.035508 -0.988539 0.047254 0.133931
0.146166 -0.054144 -0.125124 0.594052 -0.22696 -0.771439
-0.010232 0.167368 0.127344 -0.3227 -0.012293 0.940195
0.073817 -0.370687 0.048173 -0.429389 -0.20207 0.864127
0.077504 0.685761 -0.048797 0.737938 -0.374298 -0.560796
0.198712 -0.405354 0.022482 0.955745 -0.06552 0.286286
0.203638 -0.007854 0.044902 0.928476 0.032143 0.366043
0.44354 0.23503 -0.020448 -0.390232 0.109784 0.886345
-0.064667 -0.170498 -0.095343 -0.215804 -0.161294 -0.959865
0.604957 0.101176 0.051768 0.831239 0.551558 0.05563
0.021949 0.332382 -0.125912 0.002394 0.001265 -0.998671
0.550706 0.115845 0.03141 -0.919947 -0.322303 0.219598
-0.059911 -0.049925 0.126582 -0.293867 -0.08196 0.949137
0.475786 0.183336 -0.034329 -0.569289 -0.819706 -0.041337
-0.041321 -0.498859 0.059347 0.335145 -0.255904 0.905639
-0.085893 -0.062712 -0.104336 -0.584993 -0.224828 -0.779227
0.206415 0.033169 -0.007883 0.9961 0.03945 -0.077029
-0.119197 -0.398779 -0.042411 -0.790425 -0.096738 -0.603679
-0.105132 -0.778257 -0.096203 -0.843526 0.061505 -0.533334
0.086323 0.682122 -0.021466 0.842556 -0.419735 -0.327311
0.211404 0.557402 -0.05475 0.46213 0.879379 -0.055536
0.199376 0.070858 0.024256 0.97135 0.209609 0.105907
0.27338 0.380357 -0.023419 -0.359764 -0.241381 0.901101
0.294322 0.466155 -0.101655 0.588906 0.643597 -0.488651
0.093968 -0.789089 0.043991 -0.476269 0.339107 0.810735
0.129855 -0.128191 -0.115053 0.322414 -0.269252 -0.905988
0.143806 0.060316 0.100955 0.698943 0.213156 0.679376
0.008111 -0.278493 0.08404 0.692933 -0.153862 0.702827
0.342963 0.41767 -0.108835 0.69046 0.701319 -0.172548
0.190714 0.327873 -0.029751 0.992757 -0.113647 -0.03618
-0.052846 -0.331193 0.10019 0.257836 -0.137745 0.955471
-0.046997 -0.824718 0.099003 0.182404 0.961021 0.204029
0.299302 0.438327 -0.126787 0.42609 0.560233 -0.709438
0.265911 0.431016 -0.139739 -0.020462 0.202442 -0.97716
-0.140009 -0.108433 0.046008 -0.945343 0.001551 0.325917
-0.024733 -0.350458 -0.077483 0.555298 -0.113295 -0.822898
0.009298 0.678172 -0.064121 -0.489925 -0.417981 -0.763542
0.126301 -0.614505 0.036208 -0.055148 0.136612 0.986284
0.140316 -0.539884 0.049987 -0.237217 -0.191195 0.952095
0.081744 -0.491092 -0.087906 -0.68252 -0.013303 -0.729773
-0.415988 0.192963 0.02148 -0.042705 0.321593 0.944435
0.191997 -0.523142 0.02484 0.919807 -0.042997 0.388642
-0.001794 0.762915 0.068808 -0.361183 -0.220658 0.883096
-0.027695 0.340594 -0.12862 -0.051045 0.012486 -0.998454
0.115683 0.210169 0.104179 0.48246 0.04156 0.874923
0.013159 -0.410214 -0.040274 0.822604 -0.030167 -0.567614
0.182947 -0.782087 -0.051952 0.988511 0.003759 -0.104747
0.112428 -0.825947 0.132184 -0.234795 0.965408 0.045377
0.031051 0.279064 -0.127412 -0.052621 -0.039616 -0.997631
0.068252 -0.459128 -0.073132 -0.725766 0.027313 -0.687312
-0.508613 0.135489 0.004708 -0.921754 0.312291 -0.182153
0.025007 0.323183 -0.126153 -0.025816 0.02566 -0.997951
0.049237 0.255425 0.125902 0.196654 0.087187 0.975165
-0.005111 -0.39337 0.070708 0.684109 -0.19265 0.701503
-0.111619 0.439684 0.062841 -0.163926 0.019417 0.986114
-0.002108 -0.443458 0.051241 0.765822 -0.145151 0.626442
0.164497 -0.547339 -0.093608 0.682774 -0.033679 -0.729851
0.201411 -0.220666 0.038226 0.952656 0.02773 0.302666
-0.029988 0.105452 0.121743 -0.425069 0.183571 0.885364
0.095307 0.406777 0.092088 0.169443 0.210602 0.96227
0.013936 -0.609446 -0.053225 0.728811 0.097803 -0.67748
-0.002895 0.595147 -0.083973 -0.206321 0.62199 -0.749609
-0.522824 0.073201 0.082324 0.246238 -0.920654 0.177263
-0.037552 0.821386 -0.002617 -0.913638 -0.140957 0.353752
0.130132 -0.864897 -0.111382 0.360245 -0.677969 -0.627026
0.443205 0.198854 -0.063796 -0.519583 -0.847453 0.054828
0.012488 0.61521 0.021597 -0.565903 -0.096213 0.815122
-0.129714 -0.256979 -0.008745 -0.966169 -0.036721 -0.251005
0.122947 0.214601 0.099369 0.540687 0.036356 0.839911
0.064235 -0.345166 0.049997 -0.694278 -0.241991 0.675452
0.264493 0.491492 -0.102638 0.565573 0.563605 -0.601601
0.157338 0.437457 0.061963 0.740299 0.08407 0.66688
-0.176497 0.461805 -0.087386 -0.308988 0.272243 -0.91007
0.068121 0.41403 -0.139823 -0.377053 0.072157 -0.92196
0.611077 0.093885 0.025558 0.771675 0.633424 -0.055648
0.10168 0.205943 -0.122083 0.349524 -0.440251 -0.826257
-0.130536 0.051766 -0.032064 -0.95704 0.13591 -0.255676
-0.072234 -0.418805 0.088023 0.112874 -0.215161 0.969282
-0.144047 -0.068234 0.013736 -0.999664 0.01908 0.011915
0.171524 0.012966 0.096702 0.627473 0.079022 0.764237
-0.005061 -0.098244 -0.096293 0.538709 -0.383973 -0.748902
-0.126923 -0.001831 0.074436 -0.84743 -0.242706 0.466623
0.328677 0.304515 -0.059532 -0.581703 -0.627908 0.516981
-0.138911 0.540776 -0.064216 -0.429106 0.735503 -0.522983
0.158612 0.380267 0.063754 0.69726 -0.021563 0.716295
-0.539285 0.096219 0.037646 -0.634292 0.753477 -0.170462
-0.123101 0.363026 -0.030036 -0.959146 -0.275256 -0.005251
0.084618 -0.383664 0.05172 -0.561909 -0.239954 0.789837
0.156483 0.35208 -0.110964 0.605756 -0.278165 -0.745284
0.081138 0.659972 0.009357 0.941663 -0.17197 0.270227
-0.04065 -0.282788 -0.092079 0.154036 -0.056474 -0.984329
-0.126409 -0.721891 -0.034157 -0.968008 0.03685 0.236546
-0.129821 -0.604912 -0.047131 -0.998818 -0.043611 -0.016881
0.121539 -0.022445 0.120385 0.353424 -0.016766 0.935193
0.489475 0.239578 -0.054965 0.70914 0.703485 -0.025483
-0.486693 0.163641 0.037998 -0.67685 0.710666 0.188286
0.133419 0.438335 -0.144961 0.141611 -0.077771 -0.986814
0.029781 0.506152 0.065761 0.105035 0.499473 0.859768
-0.091231 0.532546 0.04109 -0.013268 0.591674 0.805678
-0.135071 -0.247017 0.015334 -0.995896 -0.064458 -0.060549
-0.057823 -0.093212 0.123919 -0.285212 -0.020644 0.957764
0.073131 0.263002 -0.137399 -0.174009 -0.081166 -0.980555
0.161391 -0.265809 -0.074743 0.521297 -0.177099 -0.834306
-0.289606 0.380378 -0.027594 -0.867438 0.470353 0.156189
0.202114 -0.286535 0.035636 0.955069 -0.052577 0.291264
0.202233 -0.53311 -0.005008 0.934507 -0.042229 0.33914
0.066584 0.79566 0.073594 0.542337 0.288516 0.785517
0.018751 -0.55792 -0.039884 0.914902 0.048241 -0.397884
0.087069 -0.737973 -0.070106 -0.860457 -0.073335 -0.503417
-0.068174 -0.782273 -0.136766 -0.430313 0.355903 -0.826729
-0.138018 -0.152885 0.051595 -0.972624 -0.028193 0.226293
-0.119564 -0.762521 -0.018256 -0.923307 -0.263326 0.268796
0.190717 -0.541569 -0.066829 0.814771 -0.028456 -0.578745
-0.094873 -0.833541 0.099206 -0.642465 0.756908 0.108562
0.100038 -0.869492 -0.067122 -0.252171 -0.95924 0.046424
0.044299 -0.383226 -0.040963 -0.942942 -0.002223 -0.326417
0.1079 -0.61073 -0.094376 -0.416383 -0.103493 -0.902921
0.025465 0.429609 -0.127172 -0.069882 0.04871 -0.995933
-0.105419 -0.441472 0.077159 -0.742801 -0.112946 0.65934
-0.025423 0.328551 0.108373 -0.47214 0.288336 0.824376
0.204784 -0.017691 0.045463 0.90722 0.102507 0.402371
0.02207 -0.524587 -0.02767 0.906221 -0.044149 -0.41527
-0.023856 0.806914 0.025719 -0.79505 0.338369 0.502005
0.066271 -0.272402 -0.077542 -0.779259 0.014118 -0.626468
0.16419 -0.839386 0.06683 0.79762 0.603085 0.008469
0.080018 0.666803 0.018403 0.872454 -0.326443 0.356495
0.554565 0.110212 0.04308 -0.84684 -0.336388 0.399207
0.24305 0.435162 -0.136458 -0.15539 0.059637 -0.984686
-0.106169 0.406672 0.065215 -0.502001 -0.012797 0.860315
0.64467 0.023963 0.06229 0.8796 -0.437024 0.059053
-0.131071 -0.095713 0.070075 -0.841258 0.003425 0.540521
-0.120051 0.563684 -0.007149 -0.393944 0.871954 0.2612
0.05761 0.31627 -0.135641 -0.38005 -0.031488 -0.924377
0.098072 0.810048 -0.003427 0.960907 0.257153 0.085881
-0.136859 -0.076519 -0.031048 -0.961906 -0.011097 -0.27306
0.016082 -0.725496 -0.019885 0.858262 -0.003773 0.507684
-0.128466 0.393187 -0.052555 -0.970422 -0.163581 -0.010384
0.205416 -0.170978 -0.037946 0.965456 -0.009295 -0.255567
0.10216 0.737895 -0.035874 0.903503 -0.203616 -0.369462
-0.01907 0.770816 0.048829 -0.879866 0.030134 0.465627
-0.035489 -0.737108 -0.118993 0.283042 0.356764 -0.888173
-0.108343 0.458499 0.062913 -0.166721 0.038504 0.98414
0.490853 0.178417 -0.049756 -0.185455 -0.63384 -0.718207
0.19041 -0.448618 -0.062521 0.824603 0.13011 -0.54996
-0.513167 0.129705 0.067698 -0.760166 0.6343 0.102856
-0.129851 -0.246719 -0.008548 -0.948646 -0.017986 -0.314285
0.011593 -0.801633 -0.068747 0.975996 -0.19744 0.003175
-0.059015 -0.657192 -0.10743 0.148262 0.096139 -0.981673
0.159061 -0.066948 0.102844 0.544661 0.036301 0.836778
0.197047 0.153778 0.016412 0.899309 0.35084 0.239095
-0.035227 -0.658915 0.023851 0.022656 -0.056032 0.990757
0.026991 0.317373 0.120462 -0.002583 0.119605 0.991511
-0.09714 -0.412323 -0.065384 -0.55866 0.107106 -0.819449
0.021596 0.455237 0.090718 0.088903 0.275612 0.956876
-0.251212 0.358434 0.017543 0.042069 -0.195711 0.976304
0.1237 0.544774 -0.120644 0.183796 0.520105 -0.833239
0.437698 0.201197 -0.089517 -0.449096 -0.880301 -0.015118
-0.018631 -0.216125 -0.084108 0.533609 0.013637 -0.845415
-0.140094 -0.135697 -0.012975 -0.922812 -0.095157 -0.372992
0.15869 -0.014693 -0.118866 0.730521 0.052201 -0.680823
-0.308337 0.275845 0.005919 0.185155 -0.083372 0.96942
0.003184 0.237676 0.125318 -0.391454 0.094842 0.911702
-0.119344 0.135941 -0.039584 -0.862089 0.12558 -0.488448
-0.097639 -0.636497 -0.099368 -0.495318 0.072544 -0.86481
0.15885 -0.104328 0.104327 0.487381 0.016206 0.869308
0.030207 -0.115453 0.091962 0.560499 -0.54443 0.620077
0.17206 -0.656542 -0.071767 0.58643 -0.222459 -0.77873
-0.139883 -0.159491 0.04168 -0.95093 -0.14427 0.268033
0.248973 0.364697 -0.092624 -0.689432 -0.723568 -0.030863
-0.135188 -0.185674 0.06314 -0.965349 -0.048518 0.247572
0.216352 0.445915 -0.132765 -0.084379 -0.180613 -0.979352
-0.085347 0.157078 -0.080135 -0.617764 0.211525 -0.75688
-0.136051 -0.0088 -0.030866 -0.987313 0.035018 -0.154214
0.226457 0.524368 -0.102567 0.440142 0.65266 -0.616564
0.173069 0.43255 -0.135453 0.178545 -0.220612 -0.957826
-0.124495 0.415986 -0.09861 -0.696595 -0.384981 -0.60301
0.195407 0.020875 -0.05316 0.921244 -0.030734 -0.386711
0.082045 0.705526 -0.0591 0.780833 -0.475192 -0.401759
0.129851 0.566858 -0.010829 0.267255 0.753588 0.600206
0.086956 0.828764 0.021633 0.870216 0.312971 0.365459
0.128645 -0.86654 -0.020632 0.023644 -0.994379 0.088211
0.150949 -0.509884 -0.102652 0.41674 -0.015132 -0.907093
0.106303 0.324242 -0.140386 0.400844 -0.098885 -0.910726
-0.272346 0.33467 -0.096384 0.059222 -0.070227 -0.992724
0.111624 -0.806007 0.060873 -0.08921 0.708077 0.695139
0.177641 0.018057 0.090611 0.655655 0.136507 0.741761
0.051543 -0.637185 -0.003788 -0.934898 0.135331 0.322751
-0.082624 -0.352982 0.102866 0.064184 -0.144793 0.984403
-0.074571 -0.638228 -0.10647 -0.083825 0.079209 -0.991648
-0.10549 0.260854 0.047228 -0.972921 0.053887 0.221013
0.573533 0.080886 -0.015937 0.22038 -0.296544 -0.771101
-0.039585 0.040455 0.127583 -0.338944 0.163776 0.923265
-0.061708 -0.376713 -0.084412 -0.15682 -0.125398 -0.977515
0.135684 -0.842239 0.180538 0.11889 0.632644 0.733311
0.135961 0.235612 0.088662 0.678574 0.060722 0.731399
-0.003804 -0.480032 0.044365 0.688574 -0.194352 0.698038
-0.14269 -0.135007 0.036825 -0.977529 -0.015917 0.202473
0.063137 0.830554 0.054656 0.504717 0.609614 0.611008
-0.07339 -0.740929 0.021915 -0.378685 0.629579 0.673758
0.044886 0.863777 -0.044641 0.07376 0.978955 -0.185769
-0.125829 -0.334717 0.040771 -0.992056 -9.7e-05 0.124931
-0.122205 -0.436049 0.054763 -0.860605 -0.14767 0.487193
-0.143534 -0.065639 -0.002989 -0.994729 0.020388 -0.091272
-0.140105 -0.059723 -0.01919 -0.94556 0.015299 -0.323552
-0.102606 -0.103522 0.106874 -0.591841 0.084622 0.800311
0.169852 0.106126 -0.073247 0.7895 0.26341 -0.553857
-0.103592 -0.841999 -0.036518 -0.918525 -0.343069 -0.11587
0.187142 0.547222 -0.005348 0.235725 0.707058 0.666236
-0.04001 0.550775 0.033332 -0.201067 0.7017 0.683244
-0.020204 0.093735 -0.131833 -0.239139 0.289706 -0.926536
0.474581 0.22937 -0.077533 0.404967 -0.22406 -0.884174
0.037485 -0.244783 -0.035059 -0.731007 -0.077284 -0.673332
0.012984 -0.173147 -0.052012 0.826853 0.05512 -0.559658
-0.138263 -0.157447 -0.010582 -0.937409 -0.12044 -0.325783
-0.020768 0.769971 -0.094953 -0.759996 -0.146431 -0.632743
-0.099987 -0.463994 0.077845 -0.564835 -0.321609 0.754785
-0.084497 -0.632935 -0.104789 -0.235438 0.069771 -0.96799
0.019348 -0.471128 -0.031228 0.926207 0.035691 -0.375064
0.134552 -0.812708 -0.11833 0.240911 -0.209819 -0.944552
-0.006854 0.728269 0.067331 -0.561631 0.01022 0.825888
0.065627 -0.014035 -0.153583 -0.173879 -0.251899 -0.950409
0.075548 0.087325 -0.14684 0.066607 0.337239 -0.937661
-0.183757 0.522573 0.006975 -0.702615 0.681471 0.203335
-0.102891 0.324062 -0.088967 -0.726763 -0.146047 -0.668906
-0.522837 0.119902 0.040539 -0.793133 0.60685 -0.042995
0.10794 0.230893 -0.129159 0.448547 -0.296672 -0.839617
0.249176 0.513623 -0.093645 0.537591 0.644119 -0.543995
0.084106 0.601687 -0.075548 0.291683 0.704739 -0.644353
0.138386 -0.189006 -0.100753 0.449535 -0.084731 -0.889109
-0.141909 -0.165705 0.030205 -0.974435 -0.13506 0.170888
0.175529 -0.798193 -0.014923 0.920643 -0.338717 0.180614
-0.499449 0.105443 0.019865 -0.037509 -0.781551 -0.615663
0.175177 -0.859614 0.077893 0.912912 -0.360451 -0.006477
-0.099175 0.45369 0.065553 -0.372487 0.068528 0.918342
0.249449 0.492239 -0.002806 0.591439 0.219841 0.77572
-0.045072 -0.049899 -0.124346 -0.15987 -0.417133 -0.89251
-0.115034 -0.254497 0.095549 -0.792529 -0.032983 0.580373
-0.02216 -0.647162 -0.088709 0.611593 0.028842 -0.789934
-0.082494 0.107661 -0.09583 -0.626046 0.263195 -0.733728
0.201081 -0.4296 -0.016067 0.993045 -0.110132 -0.037067
0.186302 0.441183 -0.134757 0.157859 -0.143008 -0.97595
-0.073649 -0.340913 -0.082686 -0.423516 -0.024236 -0.904002
-0.335488 0.247571 -0.076475 0.079043 -0.395765 -0.893096
0.16849 -0.858195 0.026333 0.809825 -0.491255 -0.218998
0.384277 0.342666 -0.079271 0.706197 0.593483 0.363778
-0.083392 -0.123998 -0.092254 -0.601546 -0.070985 -0.795252
0.620933 0.057858 0.016926 -0.674308 -0.571618 -0.434745
-0.530607 0.073625 0.076537 0.20592 -0.854616 0.463119
-0.123874 -0.205358 -0.027832 -0.855755 -0.09832 -0.507717
0.182935 0.256799 -0.011765 0.998193 -0.008025 -0.05077
-0.081465 0.555744 0.017686 -0.050221 0.767295 0.639241
0.500426 0.228854 -0.049307 0.64277 0.765544 -0.001478
0.074704 0.260865 0.118527 0.377189 0.057824 0.922099
0.101707 -0.284996 0.082168 -0.134037 -0.107107 0.984858
0.155021 -0.862805 0.01447 0.268159 -0.95974 -0.083285
0.016951 -0.078042 -0.0989 -0.069636 -0.706638 -0.692572
0.185231 0.552955 -0.0882 0.312687 0.751396 -0.580739
-0.022084 -0.837825 0.017595 0.975769 -0.174495 0.034747
0.057811 -0.199073 0.071461 -0.679138 -0.108736 0.725665
-0.003967 -0.617744 0.020429 0.291531 0.036522 0.949733
-0.004506 -0.054788 -0.122874 0.082602 -0.517994 -0.850967
-0.237842 0.449773 -0.003604 -0.753434 0.587432 0.29429
0.190758 -0.754396 -0.01969 0.949199 -0.257004 -0.139607
-0.125113 -0.524204 0.013864 -0.845021 -0.123701 0.519629
0.010137 0.394329 -0.12827 0.030459 -0.002487 -0.999456
0.045102 -0.152339 -0.075899 -0.775188 -0.243339 -0.579985
0.057069 -0.429917 -0.059454 -0.767196 0.007846 -0.641097
0.177492 -0.499533 0.05313 0.659134 -0.188294 0.723528
0.098948 -0.458955 0.033302 -0.68217 -0.077064 0.724842
0.153767 -0.60025 0.037322 0.244955 -0.362444 0.885363
0.145717 -0.193873 -0.096801 0.479073 -0.109885 -0.870047
0.224334 0.452363 -0.133747 -0.030004 -0.000776 -0.997889
0.022121 0.214704 0.128791 -0.009324 0.055848 0.99832
0.110529 0.045923 0.116599 0.431163 0.207351 0.874904
0.026726 -0.669983 -0.030686 0.990536 -0.070366 0.102309
0.000448 -0.301008 0.083764 0.488165 -0.216272 0.844219
0.01964 -0.338027 0.05008 0.892568 -0.140653 0.427451
0.117353 0.577147 -0.016912 0.370453 0.735905 0.563127
-0.057529 -0.841055 -0.141743 -0.179873 -0.270837 -0.935584
-0.002188 -0.775911 -0.013078 0.769911 0.159639 0.610937
0.12849 -0.031721 0.117214 0.410682 -0.057293 0.909957
0.049228 -0.128208 0.063816 -0.197137 -0.120481 0.904154
-0.300071 0.364074 -0.05595 -0.691143 0.675351 -0.251991
0.614973 0.059239 0.029986 -0.742695 -0.639248 -0.186444
0.139038 0.11152 0.092822 0.670022 0.089609 0.736176
-0.092988 0.248426 -0.086367 -0.694452 -0.310671 -0.648472
0.109172 -0.184619 0.097849 -0.103167 -0.142933 0.983314
0.097125 -0.178891 0.096305 -0.305208 -0.119135 0.94175
0.444364 0.243784 -0.106179 0.61956 -0.308575 -0.721166
0.066264 0.648539 -0.055353 0.545777 0.163732 -0.821058
0.014483 0.239303 0.127568 -0.070449 0.042301 0.994985
0.056614 -0.324692 0.04776 -0.702481 -0.206315 0.679325
-0.120797 0.543476 0.029787 -0.083314 0.73698 0.669906
-0.183801 0.509654 -0.057313 -0.643061 0.520706 -0.559704
-0.007027 0.313007 -0.130155 0.092224 0.060775 -0.99376
0.063707 -0.739497 -0.022761 -0.860483 0.011105 -0.505434
0.174091 -0.860709 0.09352 0.754198 -0.523711 0.012183
-0.429269 0.159559 -0.002642 0.519398 -0.853806 0.018608
-0.005062 0.753635 -0.107092 -0.609115 -0.297471 -0.732316
-0.310006 0.239182 -0.042079 0.522283 -0.849775 -0.056536
0.019145 0.350303 -0.126668 0.003819 -0.039996 -0.99776
0.198329 -0.660426 -0.021808 0.99283 0.007472 0.098864
-0.022882 0.4053 0.104247 -0.075622 0.164527 0.983097
-0.134305 -0.494274 -0.040794 -0.920444 0.051979 -0.376893
-0.089301 0.050814 0.101328 -0.463654 0.179164 0.866388
-0.012167 -0.062734 0.129221 0.113991 -0.112975 0.987017
0.064598 0.635159 0.022309 0.619717 -0.28462 0.727362
-0.127405 -0.448753 -0.045246 -0.826934 0.18563 -0.529605
0.138515 0.45899 -0.144714 0.115028 0.034315 -0.992719
0.197847 0.479403 -0.134219 0.112089 0.107568 -0.986634
-0.23038 0.405893 0.028113 -0.424654 -0.03697 0.898595
-0.564455 0.055823 0.036318 -0.96249 0.259563 0.00221
-0.036664 -0.526545 -0.097496 0.319446 0.036504 -0.945527
-0.105058 -0.838419 0.067923 -0.709533 0.698556 0.091266
-0.326878 0.229595 -0.048285 0.471592 -0.837943 -0.266443
0.151881 0.353295 0.067344 0.679782 -0.117357 0.723584
-0.182703 0.519934 0.016159 -0.807636 0.442893 0.312458
0.200072 -0.259363 0.046794 0.942079 -0.015889 0.334434
0.035593 0.865631 -0.038024 -0.033771 0.956978 -0.27054
0.007352 0.020121 0.141367 -0.095566 0.166525 0.98097
0.315877 0.438604 -0.04867 0.818736 0.32556 0.469479
0.075577 -0.099586 0.089606 -0.581888 -0.360897 0.676273
0.06435 0.66676 0.072547 0.64357 -0.698387 0.303171
0.305706 0.429802 -0.130048 0.387884 0.553676 -0.735793
-0.030485 -0.768535 0.01298 0.531211 0.764215 0.358177
-0.12852 -0.307826 0.012206 -0.999809 -0.017136 0.004097
0.171145 -0.004585 0.09144 0.696092 -0.229787 0.665351
0.022427 0.815124 -0.110921 -0.09545 0.544249 -0.827529
0.174651 -0.054203 0.089752 0.686771 0.022572 0.72652
0.148251 -0.58617 0.041733 -0.004964 -0.122932 0.992005
-0.125133 0.110898 0.032767 -0.91949 0.102949 0.378907
0.005113 -0.402982 0.055368 0.79311 -0.210142 0.571236
-0.123309 0.098729 -0.035807 -0.927834 0.132457 -0.347581
0.151368 0.578958 -0.053284 0.585379 0.795535 0.031991
0.032914 0.444015 -0.127874 -0.125943 0.009717 -0.99123
-0.044882 0.493456 0.070299 -0.22979 0.503368 0.831913
0.458526 0.213887 -0.08003 0.618666 -0.408672 -0.663322
0.111685 0.432979 0.083875 0.228353 0.213859 0.948929
0.09479 0.74556 0.034235 0.931567 -0.12824 0.331394
-0.108877 -0.278323 -0.049758 -0.818596 0.00623 -0.574228
-0.115965 -0.747891 -0.076484 -0.845603 0.049566 -0.528428
-0.120949 -0.652423 0.00206 -0.981094 -0.123951 0.145512
-0.395181 0.237927 -0.073196 -0.385313 -0.206219 -0.898733
0.189261 -0.298323 0.064463 0.836353 -0.082353 0.528133
-0.12911 -0.54161 -0.00156 -0.935899 -0.135147 0.32243
0.169003 -0.846026 0.051535 0.788524 0.613074 -0.019284
0.172264 0.375905 0.048303 0.772009 -0.086027 0.629602
0.189505 0.317605 -0.029875 0.981107 -0.163022 -0.079423
0.15129 0.236588 -0.086151 0.819815 -0.114227 -0.560458
-0.046998 0.197528 -0.106501 -0.51555 -0.303356 -0.800404
0.081959 -0.130068 -0.111613 -0.392841 -0.164603 -0.902887
0.198825 -0.621113 -0.043649 0.994174 -0.007658 -0.089384
0.08221 -0.825946 -0.038542 -0.442346 -0.890456 -0.022225
0.164677 -0.284721 0.078131 0.300065 -0.098693 0.94856
0.020654 0.486991 0.077333 0.064796 0.55293 0.829417
0.18337 0.501395 0.025413 0.380003 0.283831 0.878945
0.111916 0.266839 0.102655 0.413699 0.050746 0.907255
0.07033 0.334141 -0.141838 -0.341383 -0.032399 -0.939273
0.176718 0.52223 0.018663 0.346074 0.500811 0.791586
0.176412 0.435138 0.046799 0.528111 0.106876 0.842196
-0.384103 0.290542 -0.05009 -0.706535 0.705083 -0.052426
-0.120316 0.33667 -0.027538 -0.999421 -0.017149 0.026921
0.000108 0.039072 0.137125 -0.172983 0.076119 0.98189
-0.103415 -0.725212 -0.004468 -0.668469 -0.337975 0.653452
0.000297 0.836081 -0.082488 -0.398336 0.728411 -0.557371
0.200786 -0.428834 -0.001988 0.987581 -0.134594 0.07538
-0.046545 -0.298179 0.102749 0.258437 -0.155609 0.952571
-0.061567 0.580135 -0.017687 -0.206229 0.882178 0.39092
-0.052846 0.022289 -0.138829 -0.286272 -0.232647 -0.921092
0.207491 -0.154236 -0.022406 0.990977 -0.095058 -0.073243
0.073681 -0.434591 0.016883 -0.704875 -0.309858 0.637687
0.014223 0.52667 -0.120529 -0.007869 0.217974 -0.974871
0.007005 0.155847 -0.113987 -0.153406 -0.089689 -0.980893
-0.134873 -0.209066 0.000512 -0.976014 -0.084272 -0.199691
0.133802 0.251732 0.089668 0.663747 0.041743 0.746169
0.008211 -0.186596 -0.060416 0.779808 0.064961 -0.622189
0.612721 0.091072 0.074706 0.734993 0.672519 0.079104
0.198467 -0.469692 0.001234 0.986599 -0.017659 0.15773
0.120513 -0.146883 -0.111945 0.163475 -0.246978 -0.9533
-0.125546 -0.43789 -0.043259 -0.79827 0.252873 -0.546009
0.017806 0.724514 0.08884 -0.800357 0.080997 0.58572
-0.015935 0.119525 -0.124396 -0.201687 0.409396 -0.889649
-0.060307 0.297455 -0.119614 -0.436139 -0.028641 -0.899379
-0.146244 0.511245 -0.085468 -0.434865 0.441382 -0.783985
0.051083 -0.598877 -0.015098 -0.885886 -0.052009 0.460466
-0.100213 -0.180639 -0.067952 -0.737433 -0.062335 -0.671839
0.143771 0.577094 -0.034038 0.310664 0.856802 0.398161
-0.10686 -0.561582 -0.087992 -0.591234 0.0693 -0.801674
0.165498 -0.637169 -0.081223 0.545087 -0.16913 -0.820597
-0.124082 -0.586834 -0.072984 -0.779756 0.038861 -0.62414
0.031857 0.847293 0.054565 -0.039188 0.703255 0.708648
0.285218 0.362706 -0.02736 -0.131955 -0.628671 0.737077
-0.015375 -0.773583 -0.127017 0.589384 0.493787 -0.639184
0.008476 -0.748005 -0.016227 0.601276 -0.431177 0.665431
-0.092516 0.159401 -0.072835 -0.733983 0.181159 -0.636847
0.053253 -0.218024 -0.066677 -0.769274 -0.150965 -0.618218
-0.131203 -0.387646 -0.010075 -0.955069 0.271439 -0.092998
0.184706 -0.426064 0.056559 0.823682 -0.038736 0.564487
0.034194 -0.286474 -0.025478 -0.950807 -0.115555 -0.270654
0.171494 0.036538 -0.096892 0.790373 0.125181 -0.597883
-0.015867 0.080776 -0.136113 -0.15527 0.216243 -0.963908
0.096849 -0.830612 0.102468 -0.669739 0.719345 0.168234
-0.048938 -0.239185 0.112445 0.093976 -0.161743 0.982013
-0.047152 0.268274 0.102006 -0.627375 0.054539 0.775818
0.209265 0.416639 -0.020294 0.39193 -0.851212 0.186373
-0.02577 0.364064 -0.128928 -0.027704 -0.018084 -0.999364
-0.094315 0.385213 -0.109896 -0.420101 -0.222439 -0.879261
0.007904 -0.015419 -0.140964 -0.10556 -0.280158 -0.954098
0.198521 -0.572564 -0.051198 0.956401 -0.024273 -0.278591
0.182787 0.25743 0.010866 0.998319 0.009056 0.050573
0.100845 0.725462 -0.000753 0.989592 0.017348 0.108471
0.171697 -0.304598 -0.060214 0.702295 -0.059115 -0.709392
-0.118654 -0.388107 0.077997 -0.911992 -0.066229 0.402898
0.133451 -0.363964 -0.093751 0.657579 0.255841 -0.646014
0.057481 -0.702168 0.023468 -0.86767 0.199659 0.454944
0.344238 0.416064 -0.084182 0.763881 0.62999 0.12746
0.129955 -0.045483 -0.138175 0.359639 -0.291817 -0.882613
0.083102 -0.434047 0.027485 -0.672909 -0.354409 0.648768
-0.001847 0.69451 -0.065161 -0.657428 -0.516563 -0.54798
0.204992 -0.059674 -0.031537 0.948481 0.021831 -0.315321
0.142135 0.520841 0.031081 0.277947 0.625185 0.728504
0.051883 -0.262755 0.053581 -0.804067 -0.101372 0.58355
-0.08047 -0.010603 -0.121199 -0.569948 -0.081431 -0.816505
0.19013 0.32677 -0.007357 0.99075 -0.100431 0.088068
-0.091748 -0.277616 -0.070911 -0.728831 -0.028052 -0.683843
0.034365 0.684467 0.089982 0.027365 0.099879 0.977287
0.038194 -0.35341 -0.027737 -0.974716 -0.062994 -0.19982
0.1189 -0.352533 0.076921 -0.234431 -0.197063 0.951729
-0.105545 -0.157152 0.107286 -0.658682 -0.05241 0.750528
0.135124 -0.706113 -0.093094 0.429323 0.029471 -0.902009
0.000525 0.344209 -0.127945 0.11188 0.004725 -0.993639
-0.143027 -0.08035 -0.009368 -0.984039 0.00977 -0.16873
-0.012568 0.67227 0.004888 -0.899617 -0.424288 0.049259
0.003775 -0.438735 0.044779 0.77841 -0.136966 0.612255
-0.051045 0.010978 0.129095 -0.254908 0.21717 0.940707
0.085493 0.038408 0.128179 0.373622 0.148232 0.915383
0.038315 -0.269058 -0.036564 -0.860294 -0.003463 -0.508085
-0.226576 0.32524 -0.0527 0.675305 -0.721201 -0.147287
-0.17757 0.371394 -0.001051 0.543304 -0.673013 0.500618
0.466742 0.264811 -0.07095 0.81127 0.577926 -0.050905
0.090556 0.700841 -0.013043 0.946526 -0.295429 -0.011917
-0.071076 0.507284 -0.119326 -0.231716 0.352148 -0.906281
0.102665 0.781156 -0.057867 0.936732 0.017461 -0.337813
-0.415655 0.221333 0.014097 -0.148543 0.247613 0.953629
-0.043757 0.577958 -0.00574 -0.198266 0.779988 0.59323
-0.501512 0.147981 0.052737 -0.756296 0.648935 0.079625
-0.121694 -0.456745 -0.054841 -0.771402 0.13561 -0.621447
-0.010417 0.611395 -0.00029 -0.882116 0.08834 0.460427
0.20549 -0.257889 0.007053 0.999947 0.006145 0.004068
0.079002 0.272677 -0.138869 -0.116481 -0.068759 -0.990174
0.035979 -0.294999 -0.029547 -0.954718 -0.055574 -0.286784
-0.189437 0.512329 -0.046052 -0.69801 0.582867 -0.414431
0.094829 0.105525 -0.136179 0.246813 0.387369 -0.886371
-0.115428 0.395196 -0.097785 -0.689212 -0.248479 -0.6781
-0.026435 0.110822 -0.125403 -0.243661 0.350909 -0.903502
0.166646 0.286488 -0.068516 0.894714 -0.174875 -0.410517
-0.011806 -0.171743 0.114564 0.477661 -0.137255 0.866976
0.161589 -0.622119 0.024655 0.380438 -0.097556 0.90552
-0.124629 0.367966 -0.046409 -0.936707 -0.349896 -0.00253
-0.025796 0.300991 -0.130882 -0.108573 0.036856 -0.99229
0.125011 -0.86969 0.094582 -0.014384 -0.999744 0.017478
0.290134 0.33063 -0.078228 -0.614164 -0.784536 0.058994
-0.35558 0.24363 0.009463 0.063173 0.038681 0.996906
-0.102984 0.131679 -0.069142 -0.837558 0.115826 -0.533667
0.057231 -0.127071 0.069785 -0.748891 0.208939 0.62215
-0.109238 -0.470446 0.06375 -0.778875 -0.295463 0.552326
-0.108992 0.369113 0.051756 -0.810311 -0.273516 0.517407
0.187011 0.316614 -0.04102 0.879336 -0.342749 -0.32959
0.034459 0.190369 0.129881 0.040036 0.025319 0.998828
0.090226 0.340676 -0.144672 -0.006929 -0.045353 -0.997793
-0.083301 -0.792366 0.028483 -0.683947 0.464377 0.561983
0.355386 0.286084 -0.119688 -0.527867 -0.541468 -0.651203
-0.301074 0.340922 0.000647 -0.411469 0.366672 0.83165
0.026229 0.194398 -0.114591 0.197735 -0.269809 -0.936679
0.154049 -0.663766 -0.083136 0.567679 -0.110566 -0.815663
0.307242 0.443273 -0.039792 0.69516 0.380611 0.606052
0.17684 0.304948 -0.055652 0.894138 -0.272358 -0.355308
0.155198 -0.729769 0.003555 0.509212 0.171393 0.814165
-0.120904 -0.108059 -0.05512 -0.791765 -0.076925 -0.605843
0.135279 0.507151 -0.135999 0.116709 0.266508 -0.955298
0.090337 0.787359 0.038072 0.970058 0.126215 0.202605
0.142996 -0.868491 0.128937 0.15014 -0.976976 0.068048
-0.096914 0.477361 0.064016 -0.213253 0.169668 0.959733
0.20158 -0.253791 -0.034058 0.929378 -0.120219 -0.347374
-0.113884 -0.397172 0.081718 -0.724941 -0.223121 0.645477
0.06387 -0.131553 0.077506 -0.67043 0.061978 0.738871
0.44802 0.196582 -0.054357 -0.541402 -0.834643 0.045847
0.086145 -0.289535 0.076886 -0.390437 -0.215584 0.89491
0.07709 0.051354 0.129904 0.37553 0.12464 0.914182
-0.001753 -0.830296 -0.091466 0.407667 -0.890462 -0.121923
-0.084331 -0.178318 0.114569 -0.20264 -0.093509 0.97435
0.166976 -0.159963 -0.083664 0.622321 -0.087956 -0.773744
0.198538 0.027316 -0.044075 0.956196 0.015314 -0.291837
-0.118925 -0.775176 -0.023136 -0.971403 -0.061753 0.22558
0.088233 -0.615501 -0.080498 -0.63937 -0.083332 -0.76328
-0.007848 -0.831758 -0.073798 0.043882 -0.998669 -0.01043
0.088106 -0.834549 -0.010082 -0.975373 -0.124753 0.005223
0.174306 -0.852005 0.066722 0.906061 0.388292 -0.014048
0.202356 -0.560024 -0.009184 0.942902 -0.048527 0.328527
0.104403 -0.837181 0.157235 -0.765302 0.452512 0.44757
0.016013 0.739352 0.081008 -0.817399 0.218295 0.528422
0.085322 0.630832 -0.034673 0.882429 0.362761 -0.283785
-0.119529 0.063588 0.071136 -0.939422 0.216777 0.258414
0.05954 0.643307 -0.060542 0.52677 0.173451 -0.825487
0.182826 0.321003 0.016626 0.909254 -0.099772 0.403301
0.107996 0.201147 -0.115961 0.445572 -0.374153 -0.811032
0.35836 0.356968 -0.062534 0.617932 0.567214 0.54434
-0.036117 0.81605 -0.062052 -0.953593 0.059428 -0.263929
-0.292475 0.37611 -0.036595 -0.898734 0.407189 0.056084
0.181791 0.094368 0.061565 0.798598 0.182841 0.571498
0.2042 0.418153 -0.000106 0.669295 -0.712023 0.206336
0.021878 0.714893 -0.096826 -0.172445 -0.600387 -0.779565
0.153011 -0.172776 0.097463 0.168562 -0.173948 0.96968
0.453273 0.228974 -0.091337 0.612519 -0.242484 -0.747381
-0.138804 -0.01781 -0.000593 -0.992894 0.091941 -0.04693
-0.030849 -0.693111 0.022463 -0.499065 0.039509 0.864403
0.064771 -0.594802 0.003388 -0.681438 -0.191229 0.705612
-0.128413 0.426404 -0.101661 -0.599465 -0.389551 -0.697991
-0.048361 0.586866 -0.026618 -0.391992 0.780066 0.448384
0.150113 -0.867357 0.120631 0.44206 -0.894098 0.03502
0.026085 -0.214727 0.051272 0.957474 -0.027553 0.281493
-0.151811 0.421512 0.037929 -0.407594 -0.50244 0.759281
0.181211 0.443528 0.042562 0.499643 0.121747 0.856859
-0.328843 0.280342 -0.092012 -0.081095 -0.231956 -0.968912
0.060307 -0.354199 0.042227 -0.708864 -0.267527 0.65252
0.506792 0.206171 -0.061884 0.163263 -0.411588 -0.896333
0.181266 -0.221858 0.079164 0.623052 -0.179031 0.756235
-0.104737 -0.670865 -0.09539 -0.552093 -0.037235 -0.832506
0.062781 -0.787351 0.018183 -0.663816 -0.616371 0.408648
-0.147052 0.398201 -0.063123 0.588413 -0.761234 -0.262885
-0.018318 -0.661195 -0.086799 0.605288 0.116202 -0.786755
0.100132 -0.644314 -0.087442 -0.538198 -0.081887 -0.836817
0.114591 -0.374102 -0.10158 0.029009 0.04745 -0.993513
0.165529 0.003098 0.101046 0.631248 -0.25078 0.717709
-0.143449 -0.090042 0.02933 -0.991572 0.023676 0.123161
0.086115 -0.857901 0.124902 -0.914283 0.289765 0.281155
-0.059127 -0.86415 0.093231 -0.000176 -0.999888 0.012969
-0.129176 -0.601932 -0.059682 -0.987649 -0.014847 -0.144722
-0.268919 0.278686 -0.064238 0.730385 -0.587224 -0.339544
-0.448148 0.2111 -0.037337 -0.751177 0.36228 -0.529774
0.392391 0.272526 -0.127792 -0.118498 -0.184788 -0.971728
-0.118802 0.04035 0.078342 -0.87409 0.071482 0.47852
0.605658 0.100892 0.039835 0.835292 0.547533 0.003513
0.037612 0.577988 0.026274 0.132396 -0.005173 0.990064
-0.018132 0.249813 -0.129721 -0.039309 -0.066252 -0.996585
-0.137164 0.0382 0.010001 -0.967866 0.24762 0.003352
0.020828 -0.402507 -0.021335 0.96849 -0.093375 -0.225165
0.025754 -0.698252 -0.039073 0.983997 -0.109972 0.133905
-0.030936 -0.826743 -0.143144 0.316624 -0.388502 -0.863307
-0.09593 0.204505 -0.061887 -0.787244 0.046291 -0.611727
0.041997 -0.393147 -0.027182 -0.985317 -0.128979 -0.081015
0.022966 -0.736328 -0.045584 0.991029 -0.083065 0.079693
0.099206 0.736419 0.007036 0.97332 -0.087868 0.211267
-0.120288 0.344382 -0.062965 -0.994024 -0.059925 -0.087826
0.187866 0.182113 0.01667 0.93116 0.32045 0.166745
0.110025 -0.379826 0.066569 -0.418907 -0.203996 0.884315
-0.095308 0.024816 -0.108454 -0.756763 0.137821 -0.637845
-0.112743 0.280677 -0.021709 -0.997223 -0.069866 0.021182
0.076796 -0.617424 -0.070461 -0.664722 -0.054925 -0.745052
-0.173364 0.534346 -0.030011 -0.627063 0.766827 -0.13255
-0.091985 0.349272 0.066039 -0.770911 -0.162471 0.613346
0.608113 0.096235 0.015804 0.774649 0.617007 -0.118426
0.322448 0.321158 -0.126759 -0.417165 -0.508842 -0.740898
0.192517 -0.280189 -0.042132 0.804697 -0.189227 -0.560184
-0.121857 -0.041394 -0.066889 -0.853454 -0.087288 -0.513394
0.1185 -0.870027 -0.101437 0.041679 -0.994714 -0.090851
-0.548325 0.086569 0.068217 -0.876133 0.474538 0.071696
-0.094507 -0.861663 -0.000701 -0.261859 -0.953306 -0.091567
-0.214525 0.33643 -0.015971 0.58928 -0.740402 0.321212
0.041879 -0.387526 -0.012558 -0.984853 -0.116339 0.125732
0.177076 0.28327 -0.041427 0.933453 -0.140752 -0.32939
0.206734 -0.187094 0.017214 0.993931 -0.013084 0.104696
0.150849 0.57707 -0.041747 0.537276 0.797358 0.204207
0.182792 0.183353 0.035139 0.935622 0.128773 0.314759
0.492108 0.236645 -0.040032 0.682642 0.729759 0.035476
-0.014345 0.24087 0.117739 -0.456876 0.095461 0.883507
0.008883 -0.705882 -0.008497 0.76838 -0.1838 0.612479
0.127173 0.269296 0.093832 0.5929 0.047255 0.803809
0.009474 0.502566 -0.123223 0.064909 0.017149 -0.997258
0.07447 -0.021157 -0.15301 -0.100453 -0.287786 -0.950449
-0.084589 -0.085315 0.115167 -0.433935 0.000786 0.900535
-0.491133 0.09862 0.049717 0.76132 -0.619262 0.040781
0.265207 0.434376 -0.00972 0.041332 -0.046164 0.996239
0.033088 -0.290875 -0.016003 -0.984544 -0.133281 -0.108451
-0.026765 0.468065 -0.130458 0.086394 0.080868 -0.992839
0.040187 0.52686 -0.121463 -0.101943 0.182063 -0.977881
-0.119065 0.335122 -0.00757 -0.987225 -0.103898 0.119107
-0.552045 0.05558 0.067187 0.819448 -0.557672 0.059888
0.040452 -0.279459 -0.040673 -0.879745 0.010736 -0.473893
0.073088 0.310463 0.11248 0.334548 0.120061 0.932742
0.212404 0.42235 -0.005264 0.334293 -0.854714 0.373773
0.052945 0.826972 -0.098468 0.218695 0.631261 -0.743065
0.130998 -0.580751 -0.104384 0.008282 -0.148745 -0.985891
0.112035 0.454866 0.078686 0.268658 0.383373 0.881138
-0.393502 0.190098 0.013366 0.567138 -0.419181 0.634898
0.197644 -0.635882 -0.008707 0.982557 -0.07007 0.166627
-0.029298 0.727788 0.017952 -0.987828 0.028097 0.148454
0.07682 -0.594233 0.015424 -0.725803 -0.132021 0.675009
-0.113289 0.227042 0.041887 -0.952951 0.178791 0.237134
0.241303 0.373604 -0.060606 -0.674407 -0.713656 0.17995
-0.109725 -0.853761 0.080305 -0.827069 -0.516556 0.094829
0.135809 -0.628873 -0.096582 0.182527 -0.114371 -0.973458
0.176631 0.230618 0.040204 0.900549 0.042149 0.429885
0.200771 -0.485995 -0.009882 0.98467 0.122191 0.115589
0.199927 -0.425041 -0.031131 0.987571 -0.025205 -0.153221
-0.085057 -0.137626 -0.089728 -0.613225 -0.09721 -0.782623
0.11718 -0.439601 0.05537 -0.562795 -0.35952 0.743334
0.177339 -0.237405 0.077748 0.512538 -0.18741 0.835893
-0.001778 0.124358 0.129435 -0.186172 0.014079 0.981135
0.025496 -0.679645 -0.028799 0.956436 -0.113718 0.244184
0.010621 0.274532 -0.128667 0.129446 -0.035672 -0.990898
-0.039181 -0.748916 -0.126734 0.211511 0.429502 -0.877096
0.032937 0.861153 0.039645 0.009632 0.895501 0.429162
-0.432377 0.212433 -0.049296 -0.52057 0.10037 -0.847556
0.0431 -0.251932 -0.044379 -0.873672 -0.002576 -0.485384
0.177666 -0.229079 -0.070311 0.588487 -0.043336 -0.806675
-0.085949 -0.243336 0.110959 -0.180316 -0.03651 0.982867
0.417393 0.28416 -0.042902 0.173119 0.441473 0.871912
-0.019523 -0.52637 0.042764 0.505398 -0.225402 0.830161
0.010797 0.516639 0.062097 0.140315 0.533923 0.833173
0.182752 0.23573 0.005035 0.999664 -0.012964 0.02014
0.073745 0.646728 0.01625 0.833338 -0.19225 0.516018
0.544617 0.145855 0.037334 -0.583871 0.098275 0.792509
0.029731 0.798013 0.08142 -0.051153 0.230118 0.970248
0.050181 -0.251152 0.052688 -0.830265 -0.075458 0.551164
0.146971 -0.869147 0.091164 0.251299 -0.963362 0.008355
0.045035 -0.217176 0.049761 -0.938892 -0.082927 0.316654
-0.106902 -0.346233 0.096315 -0.589089 -0.096929 0.795155
0.46957 0.255021 -0.031808 0.342502 0.673068 0.628405
-0.100648 -0.21593 -0.065169 -0.7626 -0.039639 -0.645332
0.295778 0.427649 -0.135317 0.271055 0.432752 -0.856766
0.080729 -0.559258 0.021829 -0.704863 0.006565 0.709245
0.021362 -0.677702 -0.017639 0.864802 -0.209097 0.45617
-0.089654 0.520145 0.049016 -0.034146 0.49771 0.865218
0.08627 -0.486967 0.023572 -0.555596 0.055267 0.826844
-0.082654 0.035521 -0.118181 -0.67276 0.254038 -0.694727
0.112282 -0.169473 -0.108572 0.006935 -0.177465 -0.980596
-0.053337 -0.13805 -0.10277 -0.039868 -0.173047 -0.982223
0.521705 0.150024 -0.032409 -0.672697 -0.609606 -0.300996
-0.113736 -0.671999 -0.088871 -0.653384 -0.042864 -0.751735
0.119367 0.426522 0.083352 0.257973 0.177477 0.949019
-0.091816 -0.037136 0.111106 -0.570108 0.013768 0.820591
-1.1e-05 -0.151621 0.109981 0.604055 -0.140416 0.783793
0.195103 0.128707 -0.017246 0.802227 0.13853 -0.575976
-0.05088 -0.106381 0.124948 -0.266566 -0.059765 0.961677
0.20048 -0.024322 -0.043605 0.950645 0.02868 -0.307796
-0.102043 0.308032 0.046473 -0.871718 0.180283 0.453661
-0.044771 -0.454442 -0.092754 0.211483 0.149896 -0.963419
0.181712 0.229294 0.022541 0.991483 0.014142 0.125807
-0.086081 -0.643045 -0.105181 -0.27068 0.05922 -0.960299
-0.070613 -0.122252 -0.100792 -0.411404 -0.114809 -0.903517
0.127079 -0.484978 -0.107356 0.017318 0.059056 -0.996105
0.03025 -0.195813 0.033359 0.972508 -0.031707 0.229916
0.187065 -0.448173 0.048947 0.886768 -0.083318 0.454222
0.522939 0.189846 -0.050337 0.149106 -0.493265 -0.851541
0.34777 0.385491 -0.116369 0.94692 0.135696 -0.152564
0.192991 -0.436746 -0.054995 0.829254 0.132976 -0.542676
0.194401 -0.528329 -0.061486 0.843502 0.005996 -0.536735
0.111764 0.522179 0.041756 0.357823 0.590104 0.722554
-0.032682 0.176466 -0.106883 -0.366471 -0.283681 -0.886064
-0.056114 -0.298603 0.104981 0.167055 -0.10999 0.97957
-0.014669 0.840657 -0.062526 -0.530548 0.726825 -0.436132
0.02415 0.235162 0.128071 -0.013401 0.028982 0.999458
-0.037049 0.726067 -0.020746 -0.836134 -0.525919 0.011636
0.105333 -0.311718 0.079208 -0.238194 -0.119987 0.959782
-0.032337 0.400451 0.1039 -0.148876 0.162004 0.973258
0.047782 -0.282073 0.043558 -0.858145 -0.04989 0.509315
0.177701 0.126488 -0.04958 0.852457 0.232215 -0.465637
-0.378147 0.296857 -0.038055 -0.716562 0.695641 0.044615
0.156255 -0.238813 -0.082345 0.499987 -0.129494 -0.856265
0.073172 0.722188 -0.086836 0.574853 -0.494224 -0.646859
-0.010837 0.403816 0.104858 0.01663 0.122867 0.991561
-0.372496 0.258893 -0.084531 -0.139062 -0.134337 -0.977503
0.460534 0.196712 -0.005707 -0.724683 -0.328387 0.538554
0.12234 -0.525042 0.045441 -0.474861 -0.107836 0.872138
0.204668 -0.539404 -0.012577 0.982969 -0.038368 0.179412
-0.335854 0.291643 -0.092479 -0.208216 0.018037 -0.974906
0.333127 0.43073 -0.096482 0.779624 0.612678 -0.093731
0.108605 -0.119609 -0.120047 -0.017074 -0.189663 -0.980825
0.059709 0.598069 -0.085305 0.11981 0.652878 -0.747204
-0.053708 -0.86119 0.140567 0.271829 -0.90821 0.256396
0.182506 -0.46233 -0.075232 0.741574 0.138495 -0.655743
-0.567894 0.038771 -0.010564 0.46861 0.440981 -0.528513
0.185216 -0.514789 0.039032 0.844537 -0.083903 0.528735
0.204091 -0.501744 -0.023103 0.978478 0.178118 -0.0912
0.197989 -0.328358 0.039307 0.920553 -0.06868 0.384442
0.042916 0.196233 0.129371 0.06145 0.022628 0.997783
-0.060998 -0.224518 0.11507 -0.06139 -0.160877 0.983624
-0.048951 0.263087 -0.122906 -0.502699 -0.091259 -0.859514
0.033872 0.864128 0.023692 -0.048134 0.98573 0.15292
-0.298277 0.361063 -0.067496 -0.691841 0.654012 -0.3044
-0.062755 0.226931 -0.106117 -0.617139 -0.266598 -0.740296
0.350557 0.364188 -0.130888 0.547386 0.326737 -0.759688
0.082951 -0.763415 0.011294 -0.04061 0.037829 0.918535
0.165215 0.122142 -0.073506 0.805248 0.201251 -0.554417
0.016175 0.702936 -0.084792 -0.233807 -0.614089 -0.753469
-0.34788 0.213222 -0.033203 0.621904 -0.779201 -0.056969
0.158543 -0.560191 -0.09651 0.536 -0.048146 -0.841261
-0.050124 -0.391381 -0.082436 0.157647 -0.094097 -0.97821
0.611343 0.094198 0.044654 0.773815 0.633345 0.00637
0.146487 -0.419788 0.071825 -0.218235 -0.098563 0.969964
0.019214 0.865098 -0.0252 -0.256421 0.95897 -0.075623
0.042975 -0.35177 0.011291 -0.978823 -0.069799 0.19156
-0.123021 -0.007523 -0.066577 -0.864635 0.02665 -0.501511
-0.06309 -0.268651 -0.091039 -0.273214 -0.034834 -0.960228
-0.129377 -0.618519 -0.046427 -0.999819 -0.017896 0.000207
