-0.138807 0.003924 0.008536 -0.980381 -0.174953 -0.037665
-0.378493 0.210973 -0.066927 0.198809 -0.533207 -0.807128
0.026602 -0.341834 0.027281 0.987668 -0.065104 0.135315
0.201647 -0.492815 -0.027683 0.986537 0.127101 -0.094864
-0.482078 0.160274 0.05003 -0.205514 0.803951 0.509682
-0.127752 -0.368806 0.029225 -0.996423 -0.012209 0.082087
-0.097132 -0.831924 0.074793 -0.653292 0.743267 0.118607
-0.116626 0.060264 0.081347 -0.799357 0.243089 0.529084
0.110776 -0.448883 0.045974 -0.654331 -0.217248 0.719401
0.633188 0.023 0.058562 -0.409104 -0.905143 0.004873
0.166487 -0.863168 0.101955 0.219874 -0.965476 0.020195
-0.423989 0.240655 -0.047478 -0.774177 0.525331 -0.320644
-0.079949 -0.71785 -0.116054 -0.426716 0.219961 -0.873892
0.04737 -0.585831 -0.038422 -0.922352 -0.018482 -0.37756
0.210681 -0.051632 0.031698 0.937296 0.069708 0.341307
0.040542 -0.380582 -0.030736 -0.963498 -0.104785 -0.236835
0.003502 0.859875 0.022546 -0.517116 0.809378 0.256888
-0.028306 0.714667 -0.023673 -0.901554 -0.398508 -0.139185
0.166936 -0.694153 -0.068533 0.789961 -0.0561 -0.610204
0.211345 -0.137182 -0.019526 0.941669 -0.179527 -0.245028
0.091409 -0.860114 -0.04039 -0.811073 -0.512877 0.237795
-0.118136 -0.66448 0.00818 -0.96395 -0.186091 0.189633
0.205478 -0.227499 0.01788 0.995705 -0.044748 0.074839
0.176807 0.250404 -0.037954 0.93133 0.005128 -0.364118
-0.537432 0.067444 0.067838 0.396749 -0.905238 0.12006
-0.073081 0.270444 -0.110212 -0.612868 -0.10678 -0.781256
0.277834 0.489986 -0.088743 0.644534 0.62359 -0.440864
-0.293338 0.252167 -0.029942 0.707961 -0.684335 0.162276
-0.12852 -0.307826 0.012206 -0.999809 -0.017136 0.004097
-0.102964 -0.462928 -0.076436 -0.663344 0.124406 -0.735487
0.471466 0.258396 -0.077674 0.792886 0.549163 -0.25386
-0.11483 0.565151 -0.036473 -0.368946 0.904344 -0.178251
-0.037412 0.778912 -0.046432 -0.989907 0.078346 -0.116556
-0.00084 -0.025992 -0.137203 -0.040364 -0.300786 -0.952277
0.078582 0.466102 0.080749 0.106273 0.342279 0.931188
0.007747 0.816843 -0.106376 -0.317246 0.579746 -0.747358
-0.122325 -0.279948 0.079658 -0.944644 -0.034906 0.321521
-0.113619 0.380688 -0.094497 -0.694749 -0.238848 -0.678179
0.103433 -0.860441 -0.009411 -0.565202 -0.81245 -0.066739
0.064854 -0.498037 0.007644 -0.586729 0.040261 0.808427
0.126736 -0.725758 -0.097482 0.145287 0.170077 -0.969907
0.021997 -0.41124 -0.008065 0.982725 -0.152774 -0.08613
0.073281 -0.089123 0.097178 -0.205633 -0.675572 0.650407
0.023494 -0.724898 -0.045397 0.985316 -0.061947 0.145931
-0.516892 0.108515 0.0169 -0.42315 -0.453694 -0.761824
0.391946 0.324871 -0.060778 0.481473 0.636674 0.598978
-0.183757 0.522573 0.006975 -0.702615 0.681471 0.203335
0.036616 -0.340399 -0.024787 -0.986122 -0.061492 -0.143641
0.062887 0.300638 0.117507 0.373065 0.21628 0.900999
0.090734 -0.151107 -0.110152 -0.227809 -0.220076 -0.947667
-0.068344 -0.390288 0.092471 0.183366 -0.218288 0.958182
-0.032572 -0.862095 -0.095718 0.263815 -0.957222 0.067027
-0.10139 -0.031585 -0.098552 -0.74048 -0.085576 -0.666142
0.079305 0.392625 0.09766 0.144354 0.164797 0.975626
-0.007604 -0.234202 -0.077519 0.628514 -0.044845 -0.77634
0.037052 -0.32548 -0.031121 -0.964007 -0.02143 -0.2645
-0.127833 0.100313 0.024357 -0.984968 -0.036489 0.164842
0.161831 -0.850957 -0.015838 0.88036 -0.461749 -0.095603
-0.035597 0.091023 0.120783 -0.368505 0.009971 0.925281
0.183026 -0.768857 0.00735 0.898125 -0.184585 0.384492
0.066895 -0.675307 -0.049657 -0.774584 -0.133728 -0.617474
0.099616 -0.138325 0.10276 -0.561146 -0.053838 0.825844
0.00897 0.684933 0.081383 -0.63466 0.022662 0.767883
0.083644 0.538082 -0.126846 -0.095745 0.380347 -0.916325
0.033432 0.361847 0.111156 0.035015 0.219679 0.97322
-0.143534 -0.065639 -0.002989 -0.994729 0.020388 -0.091272
0.420084 0.292066 -0.047696 0.321359 0.629235 0.706681
-0.111152 0.042676 -0.079896 -0.836057 0.174431 -0.518126
0.15526 0.019119 0.106522 0.508003 0.185595 0.840856
0.066065 -0.47275 -0.07156 -0.727066 0.039463 -0.685301
0.045812 0.861934 -0.054034 0.095996 0.939221 -0.324249
0.334771 0.296258 -0.111197 -0.560991 -0.665835 -0.491208
-0.162351 0.437181 0.042114 -0.303492 -0.533505 0.784705
0.144071 -0.715635 0.011562 0.399689 -0.240855 0.873367
0.102176 0.378445 0.095826 0.264038 0.091921 0.958851
0.106634 0.744678 -0.027175 0.964035 0.076536 -0.235533
-0.102912 -0.120725 -0.075653 -0.709261 -0.096787 -0.696033
0.010028 0.627426 0.022185 -0.582233 -0.187719 0.786901
0.129721 0.399048 -0.140575 0.363949 -0.174862 -0.914421
-0.293004 0.261409 -0.011478 0.78655 -0.443341 0.407107
0.072683 0.131326 -0.128653 0.066633 0.330491 -0.940594
0.003415 -0.310264 -0.054119 0.758894 -0.071504 -0.647007
-0.003469 -0.161391 0.110783 0.594999 -0.119552 0.793224
0.100117 0.261641 0.107186 0.357214 0.071592 0.930179
-0.465156 0.172538 0.034879 -0.048627 0.744061 0.657507
0.088233 -0.615501 -0.080498 -0.63937 -0.083332 -0.76328
-0.128076 -0.681751 -0.059535 -0.99712 -0.00747 -0.057978
0.134835 0.26212 0.088132 0.6754 0.044126 0.734824
-0.080821 -0.050756 -0.111325 -0.559532 -0.262436 -0.785366
-0.086439 0.388932 -0.11397 -0.390034 -0.166138 -0.905495
0.142885 0.078557 -0.115076 0.640798 0.290335 -0.710123
-0.475959 0.149559 -0.040285 0.004214 -0.412531 -0.888671
-0.112748 -0.189453 0.100252 -0.695914 0.003999 0.717704
0.070226 -0.647854 -0.059821 -0.716966 -0.134636 -0.683961
0.043906 -0.483666 -0.03111 -0.999716 -0.00021 0.014588
-0.102929 -0.848383 -0.021 -0.814775 -0.507588 -0.209561
-0.012958 -0.542614 -0.083331 0.652499 0.003079 -0.756091
-0.138035 -0.189893 0.027702 -0.99601 -0.064893 0.041565
-0.052068 -0.573677 -0.102562 0.195918 -0.006592 -0.978127
-0.121114 0.194351 0.032313 -0.92675 0.098595 0.359315
0.022491 -0.069932 0.118055 0.246723 -0.282287 0.924443
0.041472 0.870463 -0.014373 0.027355 0.995957 -0.013724
0.058439 -0.188038 0.073613 -0.657862 -0.092586 0.746862
0.049894 0.433883 0.091636 0.072599 0.241967 0.966076
-0.053573 -0.580106 0.045611 0.378611 -0.29069 0.878042
0.33134 0.397847 -0.044199 0.806283 -0.048229 0.578294
-0.122759 -0.625983 0.004316 -0.955897 -0.040063 0.287751
0.007005 0.155847 -0.113987 -0.153406 -0.089689 -0.980893
0.042126 -0.237027 0.02479 -0.988502 -0.035529 0.144789
0.469406 0.205011 -0.064267 0.152395 -0.718729 -0.677652
0.483978 0.179624 0.005501 -0.689339 -0.666678 0.260032
-0.360854 0.2584 0.008759 0.056543 0.13525 0.988678
0.149947 -0.1007 0.108844 0.487794 -0.012872 0.87276
0.010943 -0.256389 -0.054438 0.793318 -0.103682 -0.599857
0.0612 0.02273 0.138187 0.107942 0.163064 0.980364
-0.096396 -0.525087 0.061694 -0.860086 -0.049271 0.507326
-0.015935 0.119525 -0.124396 -0.201687 0.409396 -0.889649
-0.10326 0.214975 -0.052426 -0.814528 -0.185382 -0.544154
0.010137 0.394329 -0.12827 0.030459 -0.002487 -0.999456
0.095108 0.160294 0.116197 0.492934 0.069378 0.864288
-0.053111 0.238253 0.099175 -0.577661 0.059291 0.813397
-0.031279 0.729776 -0.04324 -0.820109 -0.425459 -0.367145
0.208129 -0.060035 0.041048 0.938091 0.083817 0.335076
-0.13728 -0.103918 0.05414 -0.967031 0.00174 0.253867
0.161267 0.250106 0.058416 0.721345 0.084445 0.68586
-0.137643 -0.077616 0.052035 -0.973145 0.006606 0.228471
-0.214686 0.481045 0.011506 -0.787698 0.473255 0.387239
0.057992 -0.73582 0.026137 -0.923396 -0.207634 0.303854
0.132527 -0.494361 -0.107976 0.113034 0.042616 -0.992168
0.061518 0.595081 0.017957 0.487203 -0.00269 0.871846
0.117914 0.051751 -0.140965 0.514504 0.250815 -0.819704
-0.347123 0.276762 -0.08939 -0.112094 -0.145767 -0.980892
-0.08193 -0.863353 0.026991 -0.037977 -0.999269 -0.003383
0.013492 -0.262101 0.080262 0.801032 -0.1242 0.584649
-0.072512 -0.136668 0.119796 -0.299255 0.043353 0.952632
0.199594 -0.112056 0.061415 0.894428 -0.023744 0.446523
0.0795 0.814228 -0.091774 0.661518 0.407598 -0.62567
-0.024645 0.838909 -0.052232 -0.563301 0.763016 -0.314495
-0.092084 -0.208376 0.111066 -0.194697 -0.046828 0.979693
-0.009794 -0.181939 -0.077634 0.617371 -0.013003 -0.786482
0.051092 0.50473 0.064359 0.062061 0.478784 0.875322
0.066993 0.196219 -0.119716 -0.200212 -0.220843 -0.949649
-0.405637 0.224352 -0.065407 -0.419287 -0.145146 -0.895582
0.139583 -0.616655 -0.097238 0.237505 -0.13887 -0.959977
-0.38671 0.216526 -0.070027 -0.147719 -0.358676 -0.910926
0.192358 0.156421 0.025606 0.872214 0.30207 0.37946
0.205567 -0.369559 -0.003248 0.997747 0.001053 0.054723
0.172729 -0.764199 -0.058895 0.808138 0.406023 -0.419963
-0.127095 -0.330183 0.031238 -0.992433 -0.014556 0.121881
-0.006936 -0.691376 0.020804 0.645 -0.140416 0.739741
-0.560629 0.050934 0.074315 -0.467192 -0.567429 0.502944
0.313664 0.352377 -0.136648 -0.183823 -0.216259 -0.957017
-0.098247 -0.270435 -0.064009 -0.756963 -0.025446 -0.652762
0.066601 0.082896 0.13024 0.050815 0.017261 0.991979
0.064907 -0.536898 -0.067332 -0.765906 -0.060723 -0.639989
-0.054675 0.48311 0.073401 -0.178491 0.413453 0.892735
-0.074047 -0.863493 0.014719 -0.020283 -0.999661 -0.014126
-0.105132 -0.778257 -0.096203 -0.843526 0.061505 -0.533334
-0.123309 0.098729 -0.035807 -0.927834 0.132457 -0.347581
0.110712 -0.034788 -0.14649 0.184815 -0.280214 -0.94107
0.065889 -0.62215 -0.060449 -0.70114 -0.081343 -0.707524
-0.236197 0.425963 0.019484 -0.650504 0.316477 0.687445
0.203471 -0.03266 -0.035711 0.941813 0.022221 -0.333513
0.064527 0.74708 -0.106115 0.473844 -0.285732 -0.831868
-0.118319 0.318333 -0.058409 -0.952667 -0.168896 -0.239084
-0.093934 0.560249 -0.070268 -0.460561 0.700711 -0.544834
-0.063203 -0.799862 0.05312 -0.175243 0.821198 0.530506
0.046134 -0.351032 0.025414 -0.891148 -0.175335 0.406481
0.105949 -0.864761 0.009149 -0.384105 -0.891185 -0.149739
0.166201 -0.440759 -0.085276 0.656125 0.182819 -0.732065
-0.093534 0.497246 0.0587 -0.078212 0.301631 0.949482
-0.104639 0.233116 -0.061363 -0.789389 -0.374397 -0.485979
0.17684 0.304948 -0.055652 0.894138 -0.272358 -0.355308
0.153734 -0.280578 0.081159 0.173387 -0.082847 0.980579
-0.05088 -0.106381 0.124948 -0.266566 -0.059765 0.961677
-0.495306 0.142882 0.073758 -0.052006 0.659566 0.7002
0.063707 -0.739497 -0.022761 -0.860483 0.011105 -0.505434
-0.086116 -0.633768 0.046358 0.237433 -0.358364 0.901285
-0.440286 0.151887 -0.00278 0.634927 -0.769233 0.013179
0.193326 -0.676198 -0.001281 0.93397 0.013931 0.346447
0.024068 -0.236598 -0.030064 0.422184 -0.084907 -0.886368
0.197154 -0.49068 -0.055479 0.924778 0.01147 -0.372552
-0.012576 0.687704 -0.038967 -0.887475 -0.32933 -0.317643
-0.039324 -0.195968 -0.09306 0.242662 -0.081416 -0.966344
0.206763 0.02092 -0.006563 0.998298 0.015111 -0.054514
0.363477 0.366443 -0.100271 0.700681 0.712227 -0.005388
0.146067 -0.678275 0.02726 0.173739 -0.181054 0.967414
-0.101886 0.525921 -0.098067 -0.347101 0.541205 -0.765841
0.532453 0.187522 -0.047546 0.124301 -0.656899 -0.736277
-0.134621 0.402237 -0.059319 -0.161454 -0.919304 -0.187908
0.356134 0.306346 -0.041735 -0.108835 -0.065726 0.970075
-0.059041 -0.863991 0.103679 0.001829 -0.999738 0.020647
-0.225166 0.461513 0.010287 -0.811654 0.408514 0.416154
0.071868 0.420493 0.091902 0.157428 0.252702 0.954353
-0.120051 0.563684 -0.007149 -0.393944 0.871954 0.2612
0.013636 -0.444884 -0.038516 0.83446 0.044707 -0.549186
-0.115492 -0.172943 -0.048529 -0.814564 -0.137916 -0.563025
-0.199503 0.496461 -0.050342 -0.6544 0.562492 -0.503593
0.324274 0.345469 -0.038317 0.143502 -0.106482 0.975905
0.171497 0.069472 0.081636 0.734288 0.21044 0.645032
0.181486 -0.041686 -0.085607 0.850297 -0.090553 -0.517215
-0.095592 -0.622832 -0.099103 -0.464127 0.100198 -0.879558
0.067556 -0.689272 -0.047573 -0.789758 -0.143092 -0.595986
0.027124 0.549675 0.031479 0.038169 0.572107 0.81875
0.165763 0.403999 0.056219 0.647295 0.018336 0.761229
0.153278 -0.827624 0.088664 0.475588 0.865039 0.145816
-0.046355 -0.524624 0.054579 0.388602 -0.233914 0.891086
0.039686 0.074598 -0.146886 -0.185401 0.27312 -0.942724
0.085051 -0.825522 0.007001 -0.496873 -0.863364 0.061796
-0.013557 0.559973 0.021826 -0.017017 0.705447 0.701498
0.076162 -0.144992 -0.105456 -0.433169 -0.201883 -0.877918
-0.018474 0.616563 -0.039813 -0.867667 0.427805 -0.240172
0.016083 -0.319394 -0.037992 0.886819 -0.021999 -0.457958
0.611077 0.093885 0.025558 0.771675 0.633424 -0.055648
-0.028271 0.600692 -0.048659 -0.692152 0.714914 -0.054774
0.17613 -0.066303 0.088858 0.691685 0.040688 0.721003
-0.128669 -0.458073 0.032737 -0.89509 -0.177924 0.407172
0.121115 -0.860374 0.178851 -0.098175 -0.94996 0.289352
0.03014 0.663198 0.090484 -0.103763 -0.735562 0.629908
0.058385 0.237824 -0.130216 -0.269598 -0.128345 -0.951754
-0.043531 -0.863041 -0.103853 0.049457 -0.998067 -0.021845
0.10273 -0.091129 0.109446 -0.498674 -0.194692 0.842698
0.139905 0.552997 -0.109441 0.269958 0.639912 -0.719025
0.350612 0.353547 -0.052394 0.537606 0.43008 0.72277
0.105818 -0.722291 -0.093821 -0.399084 0.060947 -0.914343
0.160912 0.234883 0.060623 0.747673 0.055419 0.661269
0.138565 0.342375 0.079932 0.680904 -0.023298 0.729605
-0.107811 -0.3218 -0.053385 -0.785118 0.052111 -0.616889
-0.041518 -0.651743 0.025122 0.194185 -0.109721 0.973987
-0.095516 -0.34516 -0.068366 -0.64088 0.076512 -0.762531
-0.083185 -0.09675 -0.096752 -0.544399 -0.177173 -0.81822
0.051883 -0.262755 0.053581 -0.804067 -0.101372 0.58355
-0.366603 0.266199 0.007446 -0.055447 0.235393 0.970131
0.210144 -0.012268 -0.003316 0.957079 0.197483 -0.199199
0.08117 0.595264 -0.083455 0.161136 0.861048 -0.448179
0.097706 0.734428 -0.053133 0.962667 -0.179869 -0.201919
0.46974 0.197197 0.001998 -0.558992 0.330926 0.713639
0.05437 0.329432 0.114563 0.205354 0.187192 0.960264
0.002498 -0.047365 -0.127323 0.044378 -0.554169 -0.830922
0.077402 -0.2923 -0.088076 -0.581414 0.007526 -0.81337
0.072112 -0.413357 -0.076104 -0.702145 -0.013106 -0.711854
-0.110081 0.314613 0.023801 -0.942233 -0.023272 0.333101
0.60529 0.092343 0.080692 -0.09345 0.532357 0.711221
0.179719 -0.778958 0.007154 0.873231 -0.377129 0.307343
0.170522 0.456092 0.047198 0.638963 0.149397 0.754508
0.064094 0.60702 -0.07655 0.205508 0.644317 -0.7357
-0.049218 0.540601 0.040527 -0.188548 0.634817 0.74872
0.122408 0.452769 -0.146604 0.070534 0.025502 -0.996777
-0.426288 0.165886 -0.038496 0.528264 -0.79295 -0.301751
-0.065287 -0.763418 -0.130002 -0.345396 0.298346 -0.885084
-0.049792 0.032334 -0.1393 -0.313315 0.170733 -0.933913
0.182723 0.194301 0.029426 0.979804 0.098141 0.166123
-0.476114 0.122412 0.00606 0.463595 -0.803099 -0.354593
-0.028143 0.843772 -0.026097 -0.633015 0.767413 -0.096682
-0.117813 -0.791409 -0.025025 -0.922465 -0.298547 0.213752
0.113475 -0.250225 0.087309 0.032993 -0.144372 0.988608
0.203638 -0.007854 0.044902 0.928476 0.032143 0.366043
-0.127405 -0.448753 -0.045246 -0.826934 0.18563 -0.529605
0.150152 -0.570843 0.042736 0.008467 -0.119952 0.99242
0.167294 -0.517403 0.05567 0.437979 -0.247909 0.857777
-0.111858 -0.846701 0.065512 -0.923276 0.191153 0.06928
-0.096206 -0.565993 0.056353 -0.735217 -0.054654 0.65916
0.232385 0.436013 0.006558 0.544483 -0.346041 0.745834
0.144166 0.184527 0.084966 0.715543 0.031403 0.697835
0.059208 0.473736 -0.133534 -0.393631 0.151803 -0.905579
0.13775 -0.726251 -0.09388 0.510901 0.170548 -0.841666
0.118836 -0.315977 -0.097655 0.318121 0.027429 -0.945772
-0.39352 0.260748 -0.075604 -0.639291 0.109285 -0.743094
0.164797 -0.33038 0.074822 0.229771 -0.044429 0.971958
-0.335018 0.327148 -0.074544 -0.494295 0.738286 -0.45159
0.199604 0.049137 -0.034252 0.9686 0.081713 -0.234142
0.632885 0.060215 0.032226 0.823299 0.565734 -0.034346
-0.222618 0.374714 0.018881 0.097695 -0.418803 0.900676
0.388845 0.251667 -0.042855 -0.601165 -0.419574 0.679636
-0.459709 0.14404 -0.021442 0.316445 -0.851463 -0.414254
-0.04479 -0.534633 0.051493 0.375836 -0.188546 0.906793
-0.114543 -0.60594 0.021407 -0.90106 0.042945 0.428416
-0.177939 0.51616 0.028643 -0.575526 0.613728 0.539369
-0.146515 0.40572 0.017555 0.51546 -0.732655 0.440078
-0.296418 0.303713 0.00618 0.02174 -0.086608 0.994818
0.029001 -0.301396 0.016016 0.998371 -0.043241 0.03225
-0.030297 0.780579 -0.082069 -0.863599 -0.019442 -0.503129
-0.347946 0.311381 -0.010964 -0.493583 0.551714 0.664006
0.018532 0.658842 0.064811 -0.219017 -0.965863 0.12905
0.19134 -0.306731 0.058101 0.901993 -0.081602 0.421719
0.589336 0.123327 0.046217 0.735345 0.674237 0.06338
0.195808 -0.315244 -0.03133 0.852116 -0.018166 -0.521892
-0.486404 0.148465 -0.036447 -0.549058 -0.147414 -0.807118
0.199159 -0.589569 -0.046856 0.985032 -0.017283 -0.171398
0.116649 -0.640907 -0.095253 -0.252183 -0.085722 -0.961926
-0.090041 -0.316132 0.105631 -0.105857 -0.04785 0.991511
0.174495 -0.480071 0.059757 0.563277 -0.16155 0.805674
0.131982 -0.25248 -0.094411 0.441681 -0.083088 -0.890526
-0.209713 0.472207 0.025887 -0.679824 0.280748 0.6757
0.174672 0.32012 0.037912 0.92706 0.01982 0.372144
-0.464611 0.185316 -0.029323 -0.679322 0.514651 -0.504162
0.081801 -0.094374 0.09689 -0.498033 -0.393028 0.764909
0.150384 -0.469156 0.066616 -0.173092 -0.116855 0.973829
-0.003527 -0.827573 -0.016887 0.850571 -0.456754 0.236632
-0.087532 -0.251831 -0.07747 -0.723571 -0.048963 -0.688402
-0.030835 -0.847814 0.106518 0.935684 0.10103 0.322678
0.015284 -0.022211 0.131756 0.241108 -0.349582 0.89805
0.093611 0.819421 0.005075 0.806416 0.554003 0.202615
0.052083 -0.537677 -0.007052 -0.82368 -0.00491 0.566301
-0.099683 -0.052042 -0.095297 -0.69035 -0.233666 -0.683771
0.15346 -0.330198 -0.076183 0.631793 0.010768 -0.775054
0.204829 -0.236934 -0.024586 0.993776 -0.080143 -0.071613
0.014788 -0.468871 -0.040314 0.871661 0.069059 -0.484735
0.184073 -0.617837 -0.070425 0.672093 -0.082053 -0.735717
-0.128351 -0.380652 0.022534 -0.986992 0.124529 0.070221
-0.036134 -0.437422 -0.087809 0.30878 0.166254 -0.927433
0.017081 -0.086316 -0.09049 -0.060257 -0.700715 -0.691666
-0.4818 0.112912 0.028302 0.834287 -0.543549 0.002107
0.083493 -0.624724 0.013596 -0.744331 -0.171673 0.643779
-0.347219 0.300768 -0.087049 -0.423513 0.310942 -0.849349
-0.063318 0.255482 0.09096 -0.485261 0.069628 0.871428
0.639846 0.045916 0.029783 0.896756 0.437969 -0.021655
0.092602 0.23908 -0.135876 0.046237 -0.177816 -0.981655
0.20301 0.051328 0.030948 0.951774 0.238192 0.192666
0.1314 -0.825146 0.126055 0.178207 0.981086 0.041274
0.180874 -0.550372 -0.078368 0.72705 -0.03478 -0.68555
0.008015 0.562394 -0.105661 -0.01663 0.414219 -0.909994
-0.131639 0.408597 0.02378 -0.575148 -0.764208 0.082873
-0.125308 -0.344921 0.047458 -0.990218 0.052007 0.128615
0.142192 -0.826646 -0.110726 0.453033 -0.14831 -0.874589
0.103928 -0.661951 0.034 -0.0357 0.013516 0.997144
-0.003531 0.615948 -0.063124 -0.503538 0.602562 -0.618851
0.014385 0.113566 0.132699 -0.095767 0.281059 0.953927
0.0431 -0.251932 -0.044379 -0.873672 -0.002576 -0.485384
0.072131 0.124426 0.127688 0.274958 0.039644 0.956847
-0.079575 -0.124771 0.117672 -0.318634 -0.025299 0.947288
-0.12489 -0.339361 -0.027392 -0.928132 0.071205 -0.362065
0.008211 -0.186596 -0.060416 0.779808 0.064961 -0.622189
-0.140371 -0.079474 0.042123 -0.950806 0.016251 0.308787
0.194137 0.411194 0.017782 0.891875 -0.293592 0.305451
-0.137656 -0.479342 0.000252 -0.963658 -0.047791 0.259105
-0.084219 0.250031 0.077602 -0.6582 0.045548 0.751202
0.182844 -0.019288 -0.084547 0.879681 0.032456 -0.473702
-0.028666 0.731211 -0.053554 -0.887977 -0.342701 -0.284949
-0.096305 -0.285492 0.106765 -0.258062 -0.055118 0.957617
-0.02019 -0.834579 0.003773 0.865138 -0.442381 0.072404
0.090422 0.138792 -0.123138 0.215767 0.328236 -0.918141
-0.120027 -0.772712 -0.060656 -0.98923 -0.065235 -0.123844
0.196581 -0.213422 0.051805 0.939993 -0.009471 0.339933
0.046909 0.855016 -0.067184 0.152205 0.855469 -0.49464
-0.199412 0.472756 -0.070813 -0.594034 0.437737 -0.673208
0.002201 -0.179493 -0.066808 0.745211 0.042859 -0.665093
0.029414 0.200431 0.129683 0.014411 0.049265 0.998602
0.500503 0.214889 -0.067269 0.171193 -0.289334 -0.925686
0.315877 0.438604 -0.04867 0.818736 0.32556 0.469479
-0.144051 -0.113814 0.025339 -0.997247 -0.001701 0.068312
0.086147 -0.672896 0.032755 -0.344988 0.217896 0.911394
-0.045524 -0.758918 -0.131701 0.051885 0.416526 -0.904881
0.012253 -0.36869 0.053984 0.846852 -0.137301 0.513427
0.005127 0.394141 0.104844 0.047245 0.145917 0.987541
-0.544714 0.089968 0.028365 -0.564775 0.700411 -0.254016
0.096893 0.568002 0.005377 0.165896 0.745498 0.638465
0.044961 -0.42825 -0.041181 -0.950278 -0.024595 -0.283578
0.095735 -0.246355 -0.095626 -0.365953 0.019363 -0.928569
-0.134021 -0.257886 0.013022 -0.987291 -0.122105 -0.092759
0.089496 -0.861895 -0.083591 -0.858434 -0.442857 -0.14602
0.157357 -0.640173 -0.085492 0.517392 -0.180604 -0.8364
0.068999 -0.820848 -0.035824 -0.760673 -0.586086 -0.059834
-0.117675 0.005615 -0.074943 -0.850155 0.033082 -0.524974
-0.095308 0.024816 -0.108454 -0.756763 0.137821 -0.637845
-0.301942 0.358067 -0.016054 -0.670093 0.662413 0.333319
0.0208 -0.300327 0.058314 0.908418 -0.080962 0.409922
0.109302 -0.734079 0.028479 0.319506 0.14636 0.935138
-0.370439 0.303752 -0.036966 -0.662219 0.743866 0.083775
-0.02884 -0.397776 -0.076135 0.431518 0.079701 -0.894265
0.210956 -0.016664 0.025883 0.93124 0.173958 0.315915
-0.116068 -0.152231 -0.052462 -0.793521 -0.153967 -0.588384
0.199045 -0.601041 -0.046481 0.988073 -0.023249 -0.150782
-0.075857 -0.596183 0.051212 0.469807 -0.207123 0.857686
-0.138545 -0.172777 0.039647 -0.975566 -0.133241 0.170489
-0.062419 -0.597601 0.043745 0.424554 -0.238519 0.873287
0.108659 -0.100324 0.111923 -0.424205 -0.06179 0.901607
0.056608 -0.397047 0.017803 -0.682637 -0.341062 0.646222
0.132689 -0.198901 -0.102471 0.274611 -0.1365 -0.951026
-0.080909 -0.029012 -0.117445 -0.58515 -0.181876 -0.790181
0.042926 0.663944 0.091283 0.211344 -0.655477 0.710136
-0.204781 0.465489 0.032376 -0.577269 0.265456 0.771157
0.188268 -0.686702 0.006325 0.64901 -0.258146 0.701449
0.191662 -0.604719 -0.06305 0.792952 -0.026735 -0.607841
0.3659 0.257696 -0.082847 -0.777003 -0.621949 0.023094
0.00764 -0.42465 -0.048536 0.785266 -0.016333 -0.618752
0.029004 0.867082 0.004076 -0.382421 0.890275 0.239843
0.025754 -0.698252 -0.039073 0.983997 -0.109972 0.133905
0.209265 0.416639 -0.020294 0.39193 -0.851212 0.186373
-0.024291 -0.857111 0.050071 0.847864 -0.49106 0.024418
0.082334 0.666885 -0.029262 0.979515 0.01882 -0.191321
0.216553 0.552505 -0.045831 0.52902 0.832968 0.07783
0.155164 0.082634 -0.101165 0.683216 0.250212 -0.683565
-0.092988 0.248426 -0.086367 -0.694452 -0.310671 -0.648472
0.143312 0.518136 -0.129698 0.193793 0.423347 -0.88482
0.118403 0.429907 -0.146162 0.073074 -0.060705 -0.995191
0.192679 -0.264592 -0.047785 0.778221 -0.237155 -0.581292
0.078968 -0.082586 -0.128128 -0.190867 -0.416526 -0.888681
0.060061 -0.45707 -0.064189 -0.731309 0.036983 -0.681006
-0.128339 -0.65064 -0.051265 -0.999285 -0.017696 0.024487
0.146549 -0.162636 -0.098776 0.539201 -0.09342 -0.836657
0.23644 0.536152 -0.030893 0.683605 0.650673 0.321497
-0.067734 -0.8642 0.0858 -0.023582 -0.99963 0.006246
-0.072255 -0.550143 -0.102226 -0.13573 0.058414 -0.988171
0.05931 0.449774 -0.13601 -0.30503 0.035362 -0.950678
-0.016329 0.676326 -0.003767 -0.796199 -0.587405 -0.023641
0.104533 0.291327 0.10395 0.303712 0.080586 0.946794
0.305154 0.341375 -0.043058 -0.276044 -0.517087 0.80838
0.05291 0.274958 -0.131912 -0.375469 -0.075008 -0.922721
0.079719 0.787796 -0.099184 0.687536 0.079661 -0.721334
0.119083 -0.50699 0.045435 -0.559959 -0.086673 0.823834
0.609806 0.066718 0.022047 -0.481255 -0.840783 -0.229356
-0.289532 0.288082 0.001226 0.37178 -0.417683 0.824669
-0.136041 0.48023 0.061576 -0.120854 0.111141 0.981966
0.046848 0.728438 -0.105855 0.236582 -0.52712 -0.81582
0.185449 0.182861 -0.018328 0.920666 0.249937 -0.289272
-0.00365 0.679906 -0.051813 -0.7218 -0.351566 -0.595656
0.503241 0.164873 0.008468 -0.601053 -0.776953 0.184006
-0.473191 0.159148 -0.040461 -0.373784 0.222625 -0.876734
0.009474 0.502566 -0.123223 0.064909 0.017149 -0.997258
-0.014125 0.58341 -0.091325 -0.153674 0.640044 -0.752481
0.015833 0.611702 -0.074296 -0.145597 0.604995 -0.780322
-0.256815 0.347073 -0.096135 0.146999 -0.172193 -0.972188
0.087908 -0.805666 0.043819 -0.754894 0.112341 0.637767
-0.042476 -0.304536 -0.090445 0.141093 -0.088228 -0.98107
-0.053094 -0.406512 0.087142 0.207786 -0.179274 0.961299
0.041972 0.619473 -0.072764 0.027526 0.470607 -0.880695
0.20638 -0.210564 -0.026371 0.996723 -0.033234 -0.070165
0.486168 0.177183 -0.041006 -0.465524 -0.841063 -0.198807
-0.167034 0.519464 0.035171 -0.513233 0.596656 0.614202
0.194701 0.025951 0.065488 0.853087 0.109232 0.509805
-0.352459 0.311876 -0.077161 -0.576786 0.611018 -0.534458
-0.407102 0.262485 -0.052696 -0.788003 0.558864 -0.249022
0.090792 -0.862661 -0.053283 -0.720233 -0.628073 0.174477
0.055285 0.636682 0.030482 0.490444 -0.422489 0.756207
0.147619 -0.154241 0.103647 0.283244 -0.24661 0.925696
-0.381228 0.225496 -0.073718 -0.114506 -0.298066 -0.945365
0.083712 -0.857953 0.114901 -0.947823 -0.134069 0.149151
0.091268 0.795039 -0.083108 0.861493 0.117771 -0.492385
0.18015 -0.551679 0.038755 0.634311 -0.179662 0.747303
-0.120285 -0.662883 -0.08239 -0.81176 -0.007445 -0.582837
0.10109 0.065601 0.118253 0.431878 0.131936 0.890891
-0.125875 -0.308228 0.051491 -0.982733 -0.116061 0.140375
-0.031368 0.745997 0.013282 -0.942777 -0.173365 0.281877
0.04924 0.16821 0.129609 0.097124 0.046994 0.994133
0.553443 0.119536 0.045565 -0.862321 -0.16286 0.456973
0.212605 -0.091806 0.030334 0.970785 -0.006727 0.236643
0.113662 -0.868238 0.021111 -0.076862 -0.990133 -0.11178
0.259478 0.393832 -0.137316 -0.33926 -0.1859 -0.918777
0.109249 0.732637 -0.022207 0.828784 -0.340553 -0.360329
-0.115073 -0.66559 0.017452 -0.892103 -0.209513 0.391109
0.008014 0.206002 0.129019 -0.074472 0.066142 0.994979
0.177408 -0.410612 0.066625 0.60494 -0.086875 0.78567
-0.025858 0.838619 0.009885 -0.708317 0.351186 0.592196
-0.124198 0.390655 -0.084283 -0.86646 -0.245659 -0.428994
0.024053 -0.693895 -0.029964 0.917365 -0.160746 0.360419
0.092007 0.732755 0.03814 0.973824 -0.067167 0.21407
-0.002933 0.629645 -0.052593 -0.694287 0.395747 -0.596635
0.09106 0.751778 0.046001 0.92668 -0.016858 0.372787
-0.43177 0.169373 -0.049957 0.352439 -0.654468 -0.655481
-0.136546 -0.516819 -0.022343 -0.998861 -0.015489 0.018786
0.001671 -0.151342 -0.067467 0.785961 -0.081098 -0.612163
-0.118935 0.516634 0.050921 -0.04819 0.475784 0.877579
-0.220652 0.338321 -0.005098 0.480773 -0.657955 0.569094
0.603169 0.068473 0.028985 -0.020143 -0.955024 -0.060564
0.18287 0.274551 -0.014806 0.996931 -0.023736 -0.071456
-0.132393 -0.199947 -0.01101 -0.904178 -0.111123 -0.412355
0.04223 -0.359766 0.003963 -0.971001 -0.095932 0.214779
-0.12574 0.129387 0.025586 -0.939119 0.126359 0.312511
-0.021192 -0.045754 -0.128543 -0.039205 -0.443552 -0.894783
0.083839 -0.851193 0.094127 -0.946396 0.313462 0.021791
-0.069323 -0.698095 -0.11434 -0.201761 0.259402 -0.942303
-0.112367 0.276159 -0.012896 -0.99894 -0.030122 0.026032
-0.133592 0.00365 -0.038774 -0.94273 0.062614 -0.321009
-0.083819 -0.369047 0.099777 0.050485 -0.209933 0.974562
0.090589 -0.815461 0.052039 -0.845614 0.289804 0.424437
0.168643 -0.799473 0.006434 0.9013 -0.169187 0.365018
0.202669 0.527753 -0.110531 0.219593 0.672896 -0.705781
0.17053 -0.237565 -0.074209 0.525877 -0.117816 -0.842074
0.107448 0.205605 0.108414 0.515913 0.043844 0.854658
0.063409 -0.073662 -0.127849 -0.306048 -0.398382 -0.864251
-0.021699 -0.145709 -0.090498 0.528092 -0.224359 -0.817381
-0.00242 0.175782 0.129002 -0.151399 -0.001911 0.986447
0.638785 0.038391 0.088263 0.959385 0.116743 0.193504
0.087037 -0.667005 -0.07571 -0.697754 -0.01117 -0.71476
0.157281 0.52352 0.025857 0.170173 0.593255 0.785217
-0.136448 0.03854 0.028985 -0.979273 0.188218 0.070154
0.19811 0.109038 -0.002325 0.979659 -0.196056 -0.018932
-0.007797 0.776594 0.071693 -0.624763 -0.128692 0.753345
-0.09149 0.174841 -0.070935 -0.694447 0.081982 -0.714559
-0.303354 0.244357 -0.022505 0.659236 -0.722076 0.207996
-0.117813 0.022446 -0.073533 -0.865436 0.082757 -0.493146
0.014108 -0.523097 -0.045127 0.847816 0.051073 -0.527414
0.059731 0.071218 0.130187 -0.008158 0.062956 0.995453
0.142996 -0.868491 0.128937 0.15014 -0.976976 0.068048
0.536205 0.159181 -0.030384 0.581929 -0.206856 -0.783295
-0.126123 -0.654282 -0.073011 -0.918637 -0.012563 -0.376569
-0.11178 0.234228 -0.047651 -0.93744 -0.154352 -0.302146
0.134973 0.202146 -0.097835 0.672668 -0.134597 -0.725433
0.000434 0.813474 0.061301 -0.578261 0.45912 0.674316
-0.035489 -0.737108 -0.118993 0.283042 0.356764 -0.888173
0.042977 -0.170375 -0.06468 -0.870667 -0.197569 -0.449386
0.204587 -0.282638 -0.015802 0.97965 -0.031733 -0.193527
-0.026726 0.149997 -0.105856 -0.235081 0.281099 -0.921286
0.141898 -0.515903 0.056377 -0.332167 -0.222341 0.913191
-0.106827 0.419788 -0.112372 -0.442074 -0.229163 -0.86133
0.13153 -0.143023 0.109471 0.191096 -0.19635 0.960938
0.108768 0.406236 0.089817 0.203315 0.127159 0.970726
-0.102878 0.297876 0.050401 -0.893696 0.197866 0.394482
-0.053369 0.172128 0.103228 -0.507447 0.065257 0.858796
-0.570329 0.027679 0.045047 -0.121555 -0.970098 0.013936
0.054784 -0.496783 -0.059724 -0.801591 -0.0269 -0.59692
0.000515 0.417031 0.10146 0.125134 0.274379 0.953298
0.163524 0.303411 0.054551 0.652692 -0.005672 0.757314
0.022951 -0.136187 -0.038151 0.178751 -0.458823 -0.754883
0.260025 0.453928 -0.132053 0.164669 0.492114 -0.85372
-0.121491 0.06555 0.060636 -0.955475 0.177195 0.234862
-0.100679 -0.83064 0.038787 -0.763098 0.639318 0.081403
0.204371 0.406911 -0.059181 0.715991 -0.624836 0.048463
0.053412 0.565518 0.021732 0.298224 0.183533 0.927807
0.406119 0.276232 -0.03862 0.041435 0.299698 0.952793
-0.407387 0.265002 -0.042214 -0.788872 0.609069 -0.058378
0.329147 0.337946 -0.135841 -0.104694 -0.210953 -0.968565
-0.237841 0.327192 -0.002368 0.513569 -0.611059 0.59872
0.062639 0.78917 -0.111906 0.48019 0.0533 -0.875442
0.17769 -0.102931 -0.0825 0.787673 -0.088546 -0.609626
-0.082069 0.074289 -0.107019 -0.649377 0.20572 -0.729084
-0.397222 0.222254 0.013198 0.11318 0.085341 0.989567
0.578162 0.078856 0.058451 -0.03277 -0.753921 0.634401
-0.015287 0.067777 0.1297 -0.252618 0.124435 0.958787
-0.216751 0.450888 0.02883 -0.666745 0.264359 0.695781
0.175967 -0.126597 -0.080001 0.751578 -0.131762 -0.645603
-0.095607 -0.155348 0.112764 -0.319119 -0.048524 0.940897
0.099643 0.59289 -0.079994 0.352047 0.736793 -0.566989
0.176081 -0.803972 -0.038772 0.961438 -0.266699 0.028729
-0.079329 -0.310278 -0.080012 -0.572739 -0.037934 -0.818548
-0.079365 -0.863637 0.077979 -0.051301 -0.998623 0.002045
-0.287192 0.256806 -0.056093 0.66319 -0.739829 -0.096824
-0.016169 0.760388 0.05506 -0.791682 0.071505 0.604972
0.315686 0.339067 -0.04057 -0.217127 -0.401102 0.885434
0.024279 -0.714854 -0.045336 0.989537 -0.095307 0.045774
-0.075764 -0.834577 0.148092 -0.300748 0.887165 0.321412
0.3733 0.261619 -0.052447 -0.722431 -0.541384 0.424964
0.131871 0.22154 0.093753 0.598396 0.068579 0.798062
0.170087 0.180225 -0.056519 0.867351 0.071573 -0.492401
0.270241 0.358055 -0.038452 -0.396132 -0.70757 0.577911
0.177126 -0.44787 0.063726 0.523048 -0.074808 0.842078
0.043193 0.567726 0.024852 0.235889 0.021182 0.965883
0.155327 0.50736 -0.131539 0.198844 0.369592 -0.906457
-0.025543 -0.78105 0.028899 0.625055 0.5651 0.533327
-0.082183 0.180658 0.085321 -0.64435 -0.005214 0.764695
0.138553 0.047734 0.109557 0.48967 0.260681 0.824251
0.19813 -0.648837 -0.044613 0.962455 -0.090814 -0.23177
0.162697 0.565745 -0.083255 0.332353 0.805912 -0.48557
0.004693 0.695535 0.077035 -0.71942 0.020559 0.690305
-0.0914 -0.854551 -0.10496 -0.830017 -0.286475 -0.37251
-0.494031 0.151152 -0.024612 -0.8115 0.319683 -0.449838
0.010762 -0.486389 0.027206 0.775169 -0.155125 0.612143
0.427318 0.226277 -0.038263 -0.290817 -0.397246 0.857801
-0.237797 0.330404 -0.078641 0.51767 -0.604261 -0.604178
-0.03644 -0.02716 0.131485 -0.144249 0.005438 0.985031
0.107561 -0.207153 0.094575 -0.071965 -0.171664 0.980471
-0.142134 0.016221 0.015445 -0.990548 -0.115877 -0.015321
-0.094069 -0.672354 -0.101608 -0.508502 -0.033333 -0.859499
0.021068 -0.491918 0.008385 0.884502 -0.019063 0.465472
-0.535266 0.102251 0.070283 -0.736792 0.66833 0.096375
0.13792 -0.869718 -0.069016 0.05594 -0.997987 0.012035
0.048771 -0.08627 0.10499 0.259139 -0.657914 0.704402
0.068429 -0.585953 0.00864 -0.652358 -0.142186 0.744257
-0.056651 -0.122274 0.123605 -0.207317 0.038746 0.976766
0.009019 -0.770512 -0.089848 0.817757 0.182236 -0.5443
0.187917 -0.27465 -0.04982 0.756797 -0.210788 -0.618619
-0.042472 0.214744 -0.117139 -0.558026 -0.304411 -0.771859
-0.048399 0.127786 -0.110299 -0.415722 0.363004 -0.833385
0.001064 -0.364671 -0.051576 0.687397 -0.044608 -0.724495
-0.038798 0.094333 -0.127616 -0.299037 0.258424 -0.918059
0.088457 -0.832013 -0.068589 -0.953404 -0.169389 -0.048992
0.143513 -0.145749 0.106282 0.219881 -0.180248 0.957925
0.191369 0.095697 0.032232 0.990063 0.016052 0.122809
-0.313814 0.353606 -0.045234 -0.673934 0.735856 -0.054712
0.023689 -0.447787 -0.01602 0.903757 0.15737 -0.394347
0.182808 0.338439 -0.070668 0.831843 -0.359116 -0.422085
-0.034395 -0.791714 0.046603 0.540915 0.640116 0.544509
0.158752 0.571934 -0.076079 0.352237 0.823092 -0.431963
-0.046154 0.257675 0.103434 -0.613832 0.046559 0.786473
-0.121857 -0.041394 -0.066889 -0.853454 -0.087288 -0.513394
0.197789 -0.424353 0.019871 0.969675 -0.077264 0.231173
0.307955 0.450491 -0.106254 0.576577 0.649089 -0.495911
0.135254 0.515337 0.038754 0.375498 0.613993 0.693534
-0.026073 0.407748 -0.129751 -0.007648 -0.014163 -0.999703
-0.235559 0.317377 -0.057408 0.707207 -0.648284 -0.2599
-0.018185 0.751863 -0.092518 -0.763992 -0.260773 -0.589317
0.205819 -0.520144 -0.021957 0.995906 0.038973 -0.019853
0.182993 0.193847 -0.019914 0.975685 0.122903 -0.164777
-0.118378 -0.736205 -0.072133 -0.754081 -0.036543 -0.655239
0.015092 0.429291 -0.127139 0.027781 0.044984 -0.998565
0.169859 -0.848551 0.111012 0.781221 0.61306 0.095102
-0.115157 0.549007 -0.06912 -0.373189 0.767161 -0.51974
-0.03742 0.78959 -0.021747 -0.994581 0.07294 0.070959
-0.109745 -0.060707 0.096886 -0.705673 0.029429 0.707858
0.185043 0.565901 -0.061189 0.31038 0.931797 -0.140378
0.090376 -0.635014 0.020448 -0.674092 0.133468 0.705338
0.013299 0.672246 0.086138 -0.654293 -0.062662 0.751901
-0.089931 0.301922 0.069883 -0.787946 0.055262 0.61078
0.02166 0.331723 0.117434 -0.173501 0.314149 0.930827
0.051035 0.202116 0.128626 0.085426 0.021131 0.995956
0.164939 -0.321272 -0.066578 0.680974 0.002575 -0.731999
0.082974 0.28582 -0.140207 -0.065812 -0.066209 -0.993628
0.018722 -0.765951 -0.061098 0.996374 -0.034388 -0.064585
-0.091273 0.556483 0.016129 -0.042326 0.793082 0.606856
-0.08637 -0.025901 0.113583 -0.536556 0.051083 0.841979
-0.103757 0.494577 0.059162 0.008579 0.227402 0.973157
0.098501 -0.83849 0.142 -0.864959 0.445605 0.21369
0.285769 0.380066 -0.142248 -0.142841 -0.296273 -0.937906
-0.094 -0.355442 -0.070298 -0.789316 0.042217 -0.576611
0.209472 0.547425 -0.084326 0.333878 0.78641 -0.51533
0.220067 0.549748 -0.034766 0.454183 0.865314 0.190922
0.24333 0.45185 -0.000582 0.353364 -0.137953 0.918791
0.089396 0.69038 -0.017612 0.988294 -0.140545 -0.054627
-0.107666 0.307551 -0.078614 -0.810751 -0.118455 -0.572849
-0.168412 0.381367 0.003012 0.516833 -0.686873 0.507631
0.119262 0.403009 0.087605 0.332721 0.129289 0.932457
0.002238 0.493843 0.073963 0.016154 0.470846 0.88186
0.101034 -0.859054 -0.019393 -0.631716 -0.762231 0.126416
-0.044702 -0.674587 -0.105628 0.405112 0.18448 -0.894627
-0.128197 -0.643927 -0.043077 -0.996766 -0.053571 0.050284
-0.114494 -0.367256 0.084883 -0.777045 -0.006068 0.626973
0.205265 -0.294826 0.020148 0.991138 -0.01287 0.116307
-0.004333 -0.08964 0.124962 0.392694 -0.125862 0.91052
-0.098841 0.009111 -0.10486 -0.85095 0.00017 -0.492384
-0.077441 0.321776 -0.110013 -0.443649 -0.047105 -0.893664
0.216352 0.445915 -0.132765 -0.084379 -0.180613 -0.979352
-0.019101 -0.738596 0.010928 0.338804 -0.730097 0.591518
0.144832 0.287199 -0.106774 0.802821 -0.098437 -0.587075
0.194576 -0.186031 0.062696 0.950465 -0.085166 0.296536
0.060494 -0.793647 -0.013546 -0.962688 -0.231429 0.004449
0.206911 -0.167591 0.01798 0.994417 -0.015316 0.095038
0.129162 0.515834 -0.13377 0.129148 0.43994 -0.886946
0.026416 -0.652241 -0.0185 0.968828 -0.100692 0.192987
-0.071621 0.170203 0.093887 -0.63155 0.002607 0.774598
-0.308337 0.275845 0.005919 0.185155 -0.083372 0.96942
0.620834 0.049358 0.070828 -0.815481 -0.574335 0.000689
0.168957 -0.742287 -0.057929 0.864586 -0.108547 -0.490057
-0.092178 -0.121104 -0.085195 -0.650302 -0.0905 -0.753928
0.080883 -0.261016 0.080001 -0.399901 -0.133568 0.90333
0.164958 -0.092232 -0.100261 0.749982 -0.125803 -0.649029
0.047509 0.094509 -0.143288 -0.10876 0.238836 -0.963974
0.054108 0.168905 -0.119615 -0.060331 0.144913 -0.986322
-0.136093 -0.149561 0.06095 -0.960632 0.010432 0.276191
-0.052563 0.465756 -0.131041 -0.080465 0.078151 -0.992916
0.023175 -0.165066 -0.026438 0.230211 0.010531 -0.905097
0.059094 0.34059 0.111961 0.211915 0.180894 0.959091
0.094369 -0.611353 0.027804 -0.429321 -0.000959 0.896566
0.184264 0.482697 -0.135167 0.087879 0.165515 -0.981563
0.073455 -0.272271 -0.084692 -0.604158 0.031488 -0.793151
0.207066 0.538158 -0.004473 0.296027 0.669309 0.680453
0.560769 0.100953 0.047261 -0.840453 -0.354669 0.401316
0.186615 -0.437155 0.052146 0.882491 -0.085333 0.461691
0.076843 0.616107 0.004412 0.772587 -0.007985 0.634696
-0.122946 -0.380001 0.058501 -0.983651 -0.025738 0.176039
0.131418 0.43345 0.078744 0.386283 0.190157 0.900409
-0.144349 -0.126949 0.017596 -0.999676 -0.002378 0.017087
-0.135239 -0.220512 0.054072 -0.988233 -0.052523 0.14111
-0.469578 0.126464 0.01724 0.738216 -0.673043 0.018006
0.140891 -0.869437 0.106941 0.06455 -0.996606 0.019455
0.163355 0.193855 -0.066756 0.793341 0.039197 -0.607013
0.195795 -0.358741 0.038692 0.906252 -0.09045 0.412288
0.016753 -0.320646 0.063125 0.837576 -0.149904 0.520339
-0.058735 -0.771799 -0.135602 -0.255175 0.378643 -0.886642
-0.04886 0.251844 -0.121683 -0.515601 -0.098447 -0.851109
-0.052986 -0.449153 -0.093015 0.063047 0.201093 -0.975356
0.091747 0.32733 0.104165 0.259324 0.091927 0.961241
0.476895 0.182913 -0.013312 -0.594813 -0.799451 0.078211
-0.508662 0.13897 0.05523 -0.869723 0.490447 0.040143
-0.083301 -0.792366 0.028483 -0.683947 0.464377 0.561983
0.075696 0.29848 0.113237 0.367022 0.142473 0.918512
-0.158886 0.428241 0.037766 -0.362566 -0.477147 0.795688
-0.128724 -0.638668 -0.051161 -0.998494 -0.048547 -0.001591
0.61299 0.092285 0.035052 0.769469 0.637869 -0.017396
0.054548 0.675287 -0.0667 0.39356 -0.316966 -0.859726
0.186431 0.452932 -0.135752 0.146803 -0.052993 -0.9877
0.351463 0.408063 -0.106503 0.744243 0.658568 -0.100563
0.19858 -0.647532 -0.022121 0.996171 -0.022393 0.076204
0.198538 0.027316 -0.044075 0.956196 0.015314 -0.291837
0.000464 -0.682483 -0.077858 0.488372 0.216791 -0.845074
-0.0856 -0.707597 0.019009 -0.011413 -0.397025 0.914814
0.077242 0.194977 -0.120437 -0.029942 -0.249486 -0.966806
0.14174 -0.078542 0.112175 0.338395 0.034084 0.930034
0.314339 0.307735 -0.076782 -0.675413 -0.71849 0.14529
-0.05105 0.097282 0.112098 -0.487816 0.15216 0.859107
0.244971 0.521503 -0.019056 0.640692 0.612612 0.459246
-0.127268 0.398053 -0.07808 -0.971743 -0.152906 -0.179376
0.160804 -0.827887 0.009616 0.993261 -0.08465 0.045355
0.619368 0.073805 0.090307 0.813783 0.442558 0.329556
0.008458 -0.502624 0.026501 0.733564 -0.135334 0.66524
0.008456 -0.14306 0.105034 0.691338 -0.147366 0.704178
-0.010232 0.167368 0.127344 -0.3227 -0.012293 0.940195
-0.329508 0.260762 -0.084117 0.0154 -0.478144 -0.877618
0.308334 0.420857 -0.030459 0.802659 0.176514 0.564545
0.134071 -0.510406 0.054118 -0.423532 -0.177366 0.888222
-0.13931 -0.04441 -0.021614 -0.965898 0.02799 -0.2484
0.313857 0.364004 -0.034028 0.363767 -0.244914 0.882142
0.00065 -0.162357 -0.067988 0.768777 -0.018195 -0.639116
-0.057332 0.24893 0.095362 -0.557232 0.089644 0.825166
0.069369 0.594625 -0.086901 0.130811 0.689369 -0.712238
-0.108784 -0.525319 -0.081311 -0.678443 0.108897 -0.72639
0.013064 -0.153321 -0.051697 0.834556 -0.051419 -0.547598
-0.127339 0.196438 8.7e-05 -0.986014 0.138888 -0.063883
0.205945 0.024878 -0.016043 0.991 0.03763 -0.123226
0.193197 0.490223 -0.13281 0.102872 0.230471 -0.967437
-0.028025 -0.856748 0.012913 0.643752 -0.732891 -0.18517
0.272796 0.447577 -0.132837 0.230299 0.524359 -0.819326
-0.024331 0.78237 -0.093172 -0.801959 -0.084847 -0.588942
-0.0252 -0.384773 -0.073894 0.548377 -0.025593 -0.830854
0.59854 0.08444 0.077186 -0.816926 -0.073681 0.550905
0.132985 -0.074712 0.114407 0.202665 -0.009308 0.978577
-0.119501 0.12456 0.042603 -0.898854 0.127505 0.41704
-0.02402 -0.787884 -0.142487 0.392813 0.407445 -0.822547
-0.021454 0.372789 -0.129172 -0.012021 -0.023014 -0.999581
0.190222 0.170556 -0.011288 0.962567 0.209458 -0.147897
0.153699 -0.209415 -0.08851 0.55828 -0.164423 -0.812756
0.069822 0.37977 0.102221 0.240963 0.220252 0.944126
0.256787 0.496058 -0.011093 0.661278 0.335592 0.668586
-0.127162 -0.399811 0.04866 -0.959196 0.095106 0.259265
0.068387 0.155773 0.127756 0.263787 0.031388 0.960765
-0.089085 0.356752 0.071641 -0.750209 -0.107956 0.650284
-0.123757 -0.488376 0.02811 -0.810628 -0.243554 0.532254
0.052219 -0.596298 -0.046411 -0.826075 -0.022243 -0.561102
0.098826 -0.575625 -0.093773 -0.582224 -0.128618 -0.802751
-0.136742 -0.181897 0.051163 -0.994979 -0.045863 0.087697
-0.125133 0.110898 0.032767 -0.91949 0.102949 0.378907
0.081821 0.695175 0.060324 0.885452 -0.15676 0.431604
0.035917 0.062504 -0.149854 -0.18592 0.267492 -0.945039
-0.027913 -0.659556 -0.093484 0.530394 0.08879 -0.842543
0.001125 0.602774 -0.078379 -0.254703 0.660675 -0.704303
-0.018102 0.783554 -0.100464 -0.722981 -0.050037 -0.688381
0.148444 0.105868 0.083305 0.586969 0.086617 0.802676
0.15795 -0.339054 -0.072632 0.635413 0.012568 -0.772017
0.065032 0.458596 -0.137132 -0.294559 0.075294 -0.952169
0.198159 0.381679 -0.027946 0.997305 -0.057728 0.039368
-0.021204 0.694486 0.004417 -0.945309 -0.319656 -0.027407
0.135652 0.419108 0.079056 0.465135 0.112562 0.874515
-0.131998 -0.181079 0.071953 -0.853663 -0.064639 0.515509
0.44309 0.29207 -0.068414 0.581508 0.774693 0.220582
0.052365 0.384027 0.104026 0.111228 0.187202 0.975077
-0.077036 -0.863555 0.035722 -0.038052 -0.999238 -0.005908
0.543105 0.190388 -0.002226 0.980009 0.098194 0.144378
0.163438 -0.235739 0.083869 0.242418 -0.173199 0.953647
-0.125113 -0.524204 0.013864 -0.845021 -0.123701 0.519629
0.169422 0.360111 0.049177 0.802458 -0.103732 0.587405
0.08242 0.618742 -0.007017 0.93447 0.066192 0.343273
0.209583 -0.14002 0.024788 0.962852 -0.217564 0.156974
0.096604 -0.057813 0.122074 0.036777 -0.284283 0.954415
-0.159763 0.383051 -0.058266 0.709609 -0.655371 -0.257743
-0.126329 0.028278 -0.055012 -0.91334 0.094071 -0.394095
-0.100357 -0.22903 0.107965 -0.406804 -0.046097 0.908763
0.12994 0.164245 -0.101677 0.499802 0.129577 -0.856276
-0.193011 0.360724 -0.074179 0.561342 -0.662548 -0.493498
-0.044802 -0.4905 0.063595 0.331366 -0.286772 0.898404
0.149337 -0.860422 0.173924 0.299164 -0.763237 0.473227
-0.007645 -0.615066 -0.075117 0.681481 0.015601 -0.73161
0.183015 -0.325328 0.069179 0.76348 -0.057653 0.642183
0.174306 -0.852005 0.066722 0.906061 0.388292 -0.014048
-0.082817 -0.820976 -0.122987 -0.771511 -0.124237 -0.622438
0.147208 -0.866409 -0.034902 0.286447 -0.939923 0.141442
-0.087518 -0.602468 -0.101115 -0.459953 0.051205 -0.886343
0.584522 0.065701 -0.02117 0.400165 0.473816 -0.684584
0.131572 -0.097013 -0.122461 0.306546 -0.216037 -0.924851
0.587409 0.124624 0.010492 0.771041 0.584533 -0.176825
-0.037183 0.202645 0.110804 -0.49198 0.021688 0.869794
-0.082624 -0.352982 0.102866 0.064184 -0.144793 0.984403
-0.051623 -0.56992 0.047517 0.420441 -0.209648 0.879123
0.171179 -0.460121 0.064704 0.400066 -0.109466 0.908078
0.20515 -0.243615 0.012184 0.999224 -0.002169 0.03683
0.11058 -0.01213 0.124441 0.391953 -0.147339 0.888649
0.207038 0.022099 0.016066 0.999392 0.030886 0.01411
0.571014 0.104067 0.059129 -0.626684 0.031519 0.774014
0.20764 -0.195784 -0.005554 0.999058 -0.04079 0.004021
-0.13567 -0.472659 -0.03409 -0.943787 0.045858 -0.319608
-0.09333 -0.581063 -0.097046 -0.462496 0.044429 -0.884939
-0.074599 -0.526082 -0.099397 -0.228157 0.113627 -0.966164
0.061597 -0.780231 0.025109 -0.781874 -0.136704 0.491585
-0.013223 0.27186 0.11627 -0.356492 0.05493 0.932019
0.082485 0.420805 0.09093 0.097343 0.200081 0.973717
0.032606 0.297505 0.122167 0.051186 0.09796 0.993805
0.028703 0.868301 -0.02417 -0.250642 0.948864 -0.174697
0.01373 -0.788937 -0.046789 0.894102 -0.37085 0.250343
-0.109048 0.180114 0.056789 -0.814067 -0.037669 0.579537
0.008724 -0.418949 0.043513 0.801977 -0.199766 0.558086
0.117691 -0.869738 0.083928 0.004379 -0.999907 0.011938
-0.2195 0.436338 -0.081505 -0.437107 0.455725 -0.775032
0.02608 -0.38612 -0.002332 0.994486 -0.065089 -0.0397
-0.059127 -0.86415 0.093231 -0.000176 -0.999888 0.012969
0.156314 -0.831252 0.097896 0.631766 0.763626 0.126167
0.522314 0.147067 -0.010841 -0.718257 -0.69545 -0.006904
0.26917 0.362359 -0.122867 -0.376437 -0.739094 -0.553032
-0.004636 -0.24317 -0.073786 0.685088 -0.057225 -0.724494
0.028355 -0.181725 0.044771 0.945819 -0.118534 0.294793
0.181202 0.360377 0.031163 0.879398 -0.155164 0.450032
0.0458 0.136079 -0.125793 -0.12404 0.412681 -0.901817
-0.319442 0.307552 0.003777 -0.206302 0.113678 0.971367
0.029632 -0.295006 0.006027 0.996691 -0.06697 0.040122
-0.038095 -0.632631 -0.098315 0.461734 0.025466 -0.886476
0.039444 -0.25519 0.009968 -0.383115 -0.037466 0.836024
-0.004506 -0.054788 -0.122874 0.082602 -0.517994 -0.850967
0.209169 -0.112078 0.038891 0.945059 -0.016032 0.326455
0.091289 -0.650832 0.028561 -0.488744 0.29595 0.820454
-0.145242 0.519975 -0.080442 -0.45929 0.526805 -0.713157
0.110745 0.541249 0.027051 0.410056 0.575966 0.705857
0.007919 0.342935 0.112865 -0.05814 0.039698 0.997067
0.051516 0.063879 0.131446 0.135775 0.112956 0.982575
0.167608 -0.083156 -0.098613 0.771027 -0.107019 -0.627647
-0.035129 0.801236 -0.064915 -0.987596 -0.004116 -0.147566
-0.137628 -0.185142 0.037613 -0.99189 -0.064838 0.092454
0.180804 -0.750774 -0.038147 0.685796 -0.010645 -0.721573
0.152171 -0.835552 0.14074 0.602884 0.78482 0.1351
0.198467 -0.469692 0.001234 0.986599 -0.017659 0.15773
-0.136925 0.557877 -0.007265 -0.3135 0.935677 0.110421
0.30113 0.320009 -0.088369 -0.700898 -0.713008 -0.00617
-0.159168 0.460058 0.055112 -0.306454 -0.169393 0.936228
-0.572031 0.033105 0.009446 -0.985448 -0.050509 -0.018363
0.19065 -0.512698 0.02928 0.916097 -0.046198 0.3964
0.089794 -0.52744 0.027876 -0.548479 0.039895 0.834022
-0.00548 0.240618 -0.129131 0.057234 -0.056572 -0.995764
0.156342 -0.465194 -0.096823 0.452934 0.133174 -0.881505
-0.054336 -0.152413 0.122028 -0.088471 -0.021919 0.994848
0.123023 0.354112 0.089788 0.388312 0.054861 0.919605
-0.372946 0.247726 -0.081593 -0.09252 -0.283696 -0.9537
0.188667 -0.765014 -0.010446 0.948896 -0.297697 0.077874
0.46957 0.255021 -0.031808 0.342502 0.673068 0.628405
0.077595 -0.767281 -0.05819 -0.847133 0.224677 -0.480699
0.126301 -0.614505 0.036208 -0.055148 0.136612 0.986284
0.458043 0.241724 -0.093828 0.60329 -0.254047 -0.752066
0.104361 0.759917 -0.039481 0.995272 -0.056201 -0.076051
-0.034951 0.80695 0.002187 -0.97601 0.004784 0.202835
-0.046508 -0.172643 -0.095496 0.172131 -0.060431 -0.982894
-0.059662 0.433378 -0.128714 -0.150598 -0.112836 -0.981683
-0.307693 0.349487 -0.072543 -0.598196 0.677609 -0.413322
0.083577 0.687247 0.049254 0.903462 -0.36304 0.219951
0.066529 -0.809737 -0.014467 -0.9626 -0.248474 0.056507
-0.169642 0.530458 0.017634 -0.610319 0.681755 0.402393
0.147114 0.313058 -0.108229 0.765955 -0.115344 -0.632337
-0.062821 -0.441224 0.081137 0.156171 -0.190891 0.969011
0.37064 0.359494 -0.099 0.712826 0.699932 -0.005949
0.383562 0.279621 -0.128114 -0.123433 -0.218757 -0.964271
-0.005024 0.655774 -0.041372 -0.841898 0.028484 -0.536638
-0.041048 0.46295 0.08442 -0.187845 0.438603 0.869035
0.024241 0.653456 0.046196 -0.248428 -0.821699 0.492439
0.127079 -0.484978 -0.107356 0.017318 0.059056 -0.996105
0.566777 0.088622 0.047652 -0.855124 -0.43576 0.262627
0.098607 -0.151293 0.100909 -0.53177 -0.080909 0.842009
-0.018102 0.679539 -0.013322 -0.868651 -0.455097 -0.1667
-0.04244 -0.447286 0.075019 0.207962 -0.224176 0.951731
