0.006105 0.528141 0.055826 0.097724 0.572599 0.812135
-0.213658 0.361385 -0.089529 0.345168 -0.493161 -0.795162
0.046113 -0.589728 -0.027529 -0.977116 -0.029709 0.112578
0.639133 0.042947 0.076462 0.928644 0.332322 0.142101
-0.025145 0.395446 -0.129595 -0.015808 -0.01557 -0.999634
0.007468 -0.573246 -0.05857 0.790641 -0.005505 -0.612064
-0.114326 0.358869 0.032541 -0.916306 -0.250426 0.310707
-0.053708 -0.86119 0.140567 0.271829 -0.90821 0.256396
0.097911 -0.542884 0.033047 -0.468776 0.009661 0.881984
0.025974 0.863052 -0.048784 -0.079459 0.976673 -0.18841
-0.45356 0.167339 -0.049298 -0.426274 -0.094089 -0.804812
-0.108818 -0.848252 0.088977 -0.88559 0.179182 0.223268
0.15917 -0.566656 0.042942 0.108153 -0.155259 0.978467
0.05626 -0.528784 -0.001125 -0.754401 -0.024182 0.654167
0.1808 -0.792988 -0.04276 0.923438 -0.36634 0.025516
0.012299 -0.339037 -0.041656 0.746147 -0.053193 -0.663344
0.041797 0.271035 0.125276 0.14797 0.171675 0.973007
-0.053344 0.531941 0.046105 -0.200849 0.612149 0.764791
0.01367 0.207358 -0.123986 0.146634 -0.415735 -0.896703
0.146067 -0.678275 0.02726 0.173739 -0.181054 0.967414
0.027839 -0.322548 -0.009074 0.9823 -0.006604 -0.164636
0.142517 -0.869061 0.04457 0.155754 -0.980809 -0.043612
0.150545 0.248909 0.072096 0.775372 0.061399 0.628248
0.026174 0.003902 -0.148295 -0.218046 -0.251555 -0.938915
0.137177 -0.156917 -0.104868 0.418118 -0.136121 -0.894354
0.602881 0.10508 0.023467 0.898925 0.409387 -0.102156
-0.075738 -0.659732 -0.107608 -0.133254 0.036146 -0.988157
0.201887 0.009416 -0.03181 0.946374 0.028496 -0.319913
0.050181 -0.251152 0.052688 -0.830265 -0.075458 0.551164
-0.00283 -0.495259 -0.068227 0.781705 0.067056 -0.619867
-0.015661 -0.831958 -0.096914 0.336729 -0.938543 -0.033041
-0.079648 -0.7533 0.023949 -0.338876 -0.027832 0.863058
-0.30324 0.296187 0.005969 0.03612 -0.039699 0.996081
0.004229 -0.666754 -0.071596 0.535166 0.192861 -0.822
0.076417 0.637533 0.008882 0.813462 -0.186769 0.550075
0.13194 -0.696771 -0.094129 0.20485 0.018659 -0.977748
0.089285 0.694863 0.011057 0.984329 -0.157861 0.050172
0.203171 -0.220299 -0.044048 0.922629 -0.072918 -0.375498
-0.042336 -0.507274 -0.097999 0.218348 0.076207 -0.971556
0.017814 -0.539447 0.006763 0.895699 -0.084451 0.433197
-0.133199 -0.156176 -0.024978 -0.85447 -0.133606 -0.499118
0.078762 -0.326876 -0.088376 -0.628628 -0.023696 -0.777171
0.012325 -0.425698 0.035042 0.851148 -0.147254 0.503483
0.547257 0.158537 0.036707 -0.517564 0.213574 0.809001
-0.078598 -0.132532 -0.094951 -0.552077 -0.097666 -0.827694
0.301224 0.320416 -0.099513 -0.695203 -0.709929 -0.104082
-0.046229 -0.415402 -0.084537 0.145065 0.268733 -0.951371
-0.114543 -0.60594 0.021407 -0.90106 0.042945 0.428416
0.087037 -0.667005 -0.07571 -0.697754 -0.01117 -0.71476
-0.138624 -0.439704 -0.007757 -0.995079 0.0768 -0.058574
0.124416 0.211583 -0.109193 0.621696 -0.301782 -0.721886
0.004931 -0.714482 -0.083923 0.637463 0.190479 -0.742683
-0.02577 -0.025819 -0.135435 -0.097758 -0.22194 -0.969503
0.028205 -0.318156 0.019935 0.998107 -0.033715 0.04479
0.173341 0.31161 0.042472 0.906019 0.049491 0.407677
0.112768 0.497224 0.057552 0.28395 0.470481 0.833928
0.172485 -0.046293 -0.098054 0.800984 -0.126059 -0.584669
0.194147 -0.36822 0.040715 0.932171 -0.062014 0.356499
-0.440704 0.186406 -0.049528 -0.454437 0.281943 -0.841178
-0.016598 -0.795262 0.019147 0.884404 0.268595 0.37928
0.098523 -0.856427 0.15795 -0.866091 -0.10944 0.399708
-0.115899 -0.420439 0.071305 -0.756409 -0.252207 0.602878
0.350111 0.361402 -0.058309 0.594179 0.543322 0.587732
0.193046 -0.468952 0.022094 0.966783 -0.054071 0.248497
0.017959 0.692088 -0.076896 -0.271402 -0.60813 -0.740242
0.129939 -0.052821 0.11525 0.317169 -0.044783 0.946353
0.102395 0.771479 -0.057785 0.942188 -0.062992 -0.320523
0.46356 0.226731 -0.012685 -0.260746 0.28314 0.916599
-0.012892 0.181557 0.126453 -0.378366 0.026836 0.920341
0.096612 -0.832979 0.111802 -0.6608 0.728941 0.144789
0.165165 -0.859074 0.013384 0.790479 -0.557873 -0.219041
-0.006854 0.728269 0.067331 -0.561631 0.01022 0.825888
0.054001 -0.484759 -0.058796 -0.796947 -0.000964 -0.602757
-0.109238 -0.470446 0.06375 -0.778875 -0.295463 0.552326
0.635555 0.053351 0.023843 0.894093 0.444159 -0.0496
-0.11222 -0.844829 0.028655 -0.932421 0.275206 -0.01899
0.199958 -0.147539 -0.049889 0.855952 -0.013672 -0.513853
-0.061955 -0.553506 -0.102953 -0.012962 0.03986 -0.998803
-0.125731 0.403776 0.040063 -0.811618 -0.49575 0.297298
-0.105607 -0.41087 -0.058029 -0.688144 0.051805 -0.719662
0.004522 -0.813839 -0.043138 0.944843 -0.225255 0.224218
0.390002 0.309458 -0.048209 0.271292 0.481939 0.831804
-0.479237 0.173661 0.016911 -0.598653 0.788664 0.124867
0.294163 0.469875 -0.040587 0.791505 0.435081 0.422577
-0.141871 -0.102253 -0.014788 -0.955926 -0.023157 -0.289605
-0.015678 -0.338345 0.087386 0.466843 -0.097487 0.878808
-0.075643 0.194034 -0.085526 -0.691417 -0.082723 -0.717035
0.198615 -0.43069 -0.039579 0.979774 0.039339 -0.191265
-0.123344 -0.116453 0.083886 -0.837589 0.032524 0.544503
-0.412832 0.206043 0.017617 0.011356 0.255234 0.963759
-0.013071 0.262156 0.116968 -0.42001 0.055821 0.905622
0.087558 -0.841762 -0.070207 -0.98385 0.15142 -0.079325
0.021317 -0.420758 -0.000958 0.997589 0.021631 0.013407
-0.112787 0.173204 0.050231 -0.854047 -0.004788 0.518345
-0.199412 0.472756 -0.070813 -0.594034 0.437737 -0.673208
-0.058748 -0.855361 -0.134433 -0.11877 -0.604275 -0.760921
-0.103965 -0.122082 0.107308 -0.613053 0.068839 0.782904
-0.086116 -0.633768 0.046358 0.237433 -0.358364 0.901285
-0.183855 0.485651 -0.074413 -0.510115 0.415508 -0.750583
0.004088 -0.37596 -0.048702 0.659228 0.049632 -0.750037
0.104704 0.729325 -0.012662 0.690799 -0.581231 0.309631
-0.126907 -0.31285 0.037322 -0.993495 -0.054814 0.0993
0.176823 -0.773873 -0.063857 0.769082 0.50142 -0.392668
-0.052409 0.476294 -0.129894 -0.057278 0.12937 -0.989728
-0.099411 -0.827775 -0.0823 -0.927181 -0.270557 -0.253984
-0.012373 -0.726719 0.014343 0.640514 -0.259426 0.720793
0.158659 0.282009 0.058723 0.735139 0.014415 0.677204
-0.413167 0.181501 -0.051642 0.408901 -0.637283 -0.626472
-0.131889 -0.226185 0.065601 -0.936314 -0.089622 0.33926
-0.12579 0.185826 0.024434 -0.922821 0.109097 0.360563
-0.057871 0.184893 -0.096313 -0.529121 -0.182419 -0.82688
0.025352 -0.146903 0.077859 0.842149 -0.318073 0.434971
0.025813 -0.579118 -0.028109 0.958928 0.099186 -0.23747
0.102038 -0.42858 0.04838 -0.587029 -0.377007 0.716033
0.200352 -0.599676 -0.022907 0.994916 -0.099561 0.007074
-0.028812 -0.853678 -0.074009 0.69995 -0.672489 0.227391
0.095767 -0.854338 -0.009518 -0.702239 -0.708137 0.021974
-0.118509 0.36664 0.026682 -0.939642 -0.253109 0.229251
-0.094283 -0.681514 0.028646 -0.164714 -0.397129 0.900184
-0.006074 -0.132366 -0.08156 0.71317 -0.218466 -0.664465
0.066825 -0.379486 -0.072417 -0.740503 -0.052718 -0.66903
-0.097325 -0.81382 0.014286 -0.952117 0.205157 0.220447
-0.104346 0.087243 0.079829 -0.613776 0.274945 0.725637
0.138245 -0.285108 -0.087764 0.540414 -0.06266 -0.837823
-0.353311 0.26802 -0.08713 -0.033141 -0.224391 -0.97149
0.089205 -0.253537 -0.092925 -0.450763 0.043185 -0.891391
0.220987 0.464351 -0.133585 0.059397 0.064973 -0.994959
-0.092341 -0.694417 -0.103221 -0.538417 0.082042 -0.836719
0.058385 0.237824 -0.130216 -0.269598 -0.128345 -0.951754
0.089978 0.69909 -0.024502 0.963586 -0.233363 -0.068627
0.130064 0.580671 -0.081706 0.326317 0.845458 -0.408573
-0.129519 -0.530498 -0.054053 -0.889004 0.04082 -0.454826
0.458526 0.213887 -0.08003 0.618666 -0.408672 -0.663322
0.054787 0.192297 0.128527 0.098585 0.013564 0.994979
0.013029 -0.391908 -0.040496 0.782179 0.038515 -0.62116
-0.022903 0.141533 -0.11146 -0.231412 0.514414 -0.823461
0.115683 0.210169 0.104179 0.48246 0.04156 0.874923
-0.02884 -0.397776 -0.076135 0.431518 0.079701 -0.894265
-0.110352 -0.803512 -0.018401 -0.844389 -0.456551 0.268558
0.182253 -0.715639 -0.007984 0.061987 -0.344914 0.917946
-0.005121 -0.001594 -0.142467 -0.162829 -0.156444 -0.973789
-0.464627 0.153344 -0.037958 0.239612 -0.583824 -0.74895
0.188564 -0.524614 -0.070808 0.800858 0.002113 -0.597438
0.340063 0.41859 -0.075382 0.777015 0.569497 0.250784
-0.049889 -0.277331 0.106171 0.162695 -0.135182 0.977076
0.01179 0.717022 0.081017 -0.798862 0.045902 0.5941
0.074294 0.665206 0.026948 0.830033 -0.411285 0.366096
0.111701 0.015287 -0.149083 0.47148 -0.027792 -0.880717
0.135513 0.086218 -0.118764 0.639282 0.235116 -0.731575
-0.012784 0.165251 -0.111708 -0.333631 -0.232734 -0.909783
-0.019734 -0.383612 0.082131 0.397059 -0.210162 0.892472
0.200978 -0.504476 -0.001391 0.951436 0.056086 0.295391
0.092624 -0.376897 0.058333 -0.468452 -0.250864 0.846367
0.136135 -0.04201 0.113848 0.321994 -0.033849 0.945933
0.241534 0.49678 -0.115796 0.469243 0.533194 -0.703433
0.098223 0.747749 0.020448 0.981575 -0.046609 0.178652
0.542443 0.201202 0.000833 0.84999 0.34757 0.346949
-0.051623 -0.56992 0.047517 0.420441 -0.209648 0.879123
0.196553 -0.264007 0.054789 0.896909 -0.058496 0.437763
0.631648 0.03015 0.06976 -0.94918 -0.309245 -0.003048
0.082635 -0.548157 -0.08462 -0.699424 -0.087576 -0.709287
0.149968 0.44119 0.067764 0.601079 0.14409 0.784016
0.192077 0.085458 0.034659 0.949002 0.260099 0.170932
-0.222507 0.4796 -0.014991 -0.885084 0.460949 0.051933
0.167694 0.525782 -0.120948 0.201508 0.506945 -0.837664
-0.115965 -0.747891 -0.076484 -0.845603 0.049566 -0.528428
-0.075315 -0.732277 0.013159 -0.42842 0.390836 0.812598
0.579133 0.105801 -0.006941 0.57534 0.081704 -0.81299
-0.127766 0.002296 -0.055295 -0.925333 0.073116 -0.371174
0.048402 -0.376334 0.019146 -0.79247 -0.191755 0.571117
-0.06956 0.581496 -0.026676 -0.183521 0.953616 0.194616
0.026578 -0.332334 -0.014584 0.950246 -0.035934 -0.299902
0.011824 0.760228 -0.118338 -0.294455 -0.220272 -0.924239
-0.252991 0.294724 -0.029141 0.709611 -0.672231 0.208613
0.067296 -0.31607 -0.078533 -0.763755 -0.021381 -0.644142
0.020787 -0.392271 -0.024381 0.949732 -0.040569 -0.307966
0.043823 -0.396573 -0.00442 -0.974585 -0.115303 0.178856
0.006948 -0.803589 -0.040907 0.879056 -0.326971 0.345008
-0.529016 0.110582 0.069204 -0.834731 0.545984 0.067389
0.084432 -0.860793 0.104577 -0.788045 -0.540334 0.020548
0.212672 -0.049597 0.000805 0.985619 0.021328 -0.163683
0.18094 -0.525429 0.043449 0.74661 -0.143941 0.645559
0.45936 0.212855 -0.011573 -0.474992 0.17458 0.850895
-0.119577 0.329125 -0.01623 -0.993598 -0.036516 0.104323
0.076764 0.655234 -0.043043 0.788633 0.088305 -0.607637
-0.003522 0.229612 -0.128313 0.033489 -0.057365 -0.995995
0.057839 0.626175 -0.066581 0.302261 0.361488 -0.878201
0.042494 0.335652 -0.129289 -0.328758 -0.031817 -0.939264
-0.074047 -0.863493 0.014719 -0.020283 -0.999661 -0.014126
-0.099199 -0.008974 -0.104117 -0.76849 -0.041126 -0.636066
-0.044669 -0.859805 -0.049604 0.208416 -0.973391 0.074544
-0.114991 -0.523218 0.030053 -0.852227 -0.057435 0.518702
0.141359 0.279767 0.079733 0.742948 0.047948 0.667447
0.087916 -0.216485 -0.09376 -0.433315 -0.12438 -0.891278
0.156143 -0.729582 -0.079155 0.712795 0.015487 -0.700289
0.116681 -0.788163 -0.112386 -0.219311 0.47247 -0.852442
0.052339 -0.17131 -0.079625 -0.77278 -0.17752 -0.606757
-0.140674 -0.476994 -0.015766 -0.980594 0.085677 -0.148261
-0.072092 -0.069918 0.121348 -0.351272 -0.045804 0.933096
-0.128669 -0.458073 0.032737 -0.89509 -0.177924 0.407172
0.137834 -0.869715 0.095388 0.033559 -0.999046 0.01461
-0.078709 0.084511 0.095868 -0.535752 0.210604 0.810391
-0.042472 0.214744 -0.117139 -0.558026 -0.304411 -0.771859
0.17015 -0.606312 -0.083485 0.613233 -0.113254 -0.781685
0.032141 -0.138628 -0.06286 -0.858515 -0.345056 -0.378786
0.194137 0.411194 0.017782 0.891875 -0.293592 0.305451
0.16245 -0.391999 0.074298 0.208302 -0.022776 0.972691
0.242831 0.480185 -0.12484 0.35069 0.430891 -0.831445
0.021897 0.646448 0.038198 -0.426709 -0.480855 0.760706
0.20275 -0.558414 -0.036902 0.95674 -0.078986 -0.278978
0.080163 0.330428 0.106969 0.360871 0.118401 0.921824
0.046278 0.815583 -0.109024 0.1706 0.610029 -0.773397
0.052101 -0.686413 -0.014491 -0.996131 -0.043118 -0.070002
0.131194 -0.78672 -0.112265 0.092898 0.423043 -0.899014
0.24333 0.45185 -0.000582 0.353364 -0.137953 0.918791
0.113499 -0.446052 -0.10387 -0.151762 0.042753 -0.983236
0.148888 0.147277 0.081724 0.696927 0.042416 0.715869
-0.411777 0.255065 -0.012512 -0.72648 0.664208 0.169198
-0.120799 0.204104 -0.016939 -0.924994 0.12416 -0.35626
0.196581 -0.213422 0.051805 0.939993 -0.009471 0.339933
-0.129174 -0.62602 -0.054908 -0.998942 -0.015903 -0.039828
0.163096 0.272591 0.054076 0.742548 0.021385 0.669353
0.256794 0.486218 -0.006871 0.598023 0.291471 0.743868
-0.105778 -0.541943 -0.086259 -0.625979 0.110131 -0.771327
0.153681 0.155074 -0.081672 0.737831 0.049539 -0.672886
0.012295 -0.124961 0.105663 0.677368 -0.216394 0.702827
0.147697 -0.859617 -0.101845 0.701901 -0.421364 -0.570659
0.183261 0.129479 -0.037473 0.858139 0.205746 -0.468623
-0.09761 -0.305789 0.104995 -0.268773 -0.068812 0.952273
0.150553 0.427823 0.069592 0.677283 0.10723 0.727531
0.120488 0.370692 -0.140409 0.429036 -0.122744 -0.894705
0.047929 0.29513 -0.130953 -0.336124 -0.019107 -0.941252
0.453553 0.204878 -0.078541 0.752124 -0.439962 -0.488519
0.196688 -0.626695 -0.001024 0.968585 -0.089519 0.228121
-0.089401 0.312059 0.069922 -0.866907 0.03017 0.496279
-0.069742 0.575668 -0.014219 -0.230183 0.885659 0.400202
-0.373729 0.29008 -0.006796 -0.541397 0.617525 0.568015
-0.451996 0.186888 0.019161 -0.169094 0.600699 0.7806
-0.068117 -0.65149 -0.107842 0.009585 0.069817 -0.995571
-0.036134 -0.437422 -0.087809 0.30878 0.166254 -0.927433
0.055116 0.177452 0.128744 0.091402 0.031624 0.995243
0.08891 -0.083758 -0.129397 -0.138744 -0.392042 -0.90851
0.185242 -0.774266 -0.012763 0.935505 -0.33765 0.097196
0.070683 0.043039 0.134409 0.227805 0.185021 0.953461
0.075926 -0.691517 -0.059707 -0.843758 -0.08159 -0.529821
0.036002 0.323394 -0.127447 -0.187972 0.009077 -0.980135
-0.120728 0.364376 -0.074512 -0.957571 -0.159835 -0.227804
0.187689 -0.462189 0.044429 0.929829 -0.095755 0.354519
0.623176 0.07603 0.051844 0.855236 0.517364 0.020974
0.194401 -0.528329 -0.061486 0.843502 0.005996 -0.536735
-0.113125 -0.533414 0.032137 -0.872795 -0.058444 0.48448
0.158006 -0.831775 -0.094247 0.879081 -0.331847 -0.325254
0.026306 -0.568706 -0.022114 0.981058 0.071407 -0.13385
0.045707 0.504145 -0.126819 -0.20725 0.06804 -0.97575
0.270241 0.358055 -0.038452 -0.396132 -0.70757 0.577911
0.081575 -0.661192 -0.069987 -0.740999 -0.054424 -0.668941
-0.3178 0.234974 -0.049485 0.607403 -0.773328 -0.165438
0.199101 0.393003 -0.028231 0.985849 -0.150742 0.022502
-0.298707 0.278298 0.002268 0.46095 -0.19598 0.859759
-0.072774 -0.506771 0.070698 0.365537 -0.227252 0.902365
0.137778 0.031733 -0.133079 0.651211 0.110494 -0.75019
-0.25217 0.399374 -0.088507 -0.329659 0.489986 -0.804635
-0.070691 -0.301654 -0.086429 -0.504181 -0.087668 -0.85557
-0.075537 0.116679 -0.098329 -0.612646 0.228545 -0.75616
-0.118232 0.302349 -0.031529 -0.965139 -0.250521 0.011001
-0.037898 -0.104477 0.127596 -0.052541 -0.07186 0.994596
0.054535 0.5739 -0.103683 -0.045086 0.556116 -0.828369
-0.033647 -0.825345 0.080664 0.613049 0.72328 0.272103
-0.030079 0.713993 -0.004019 -0.897658 -0.422398 -0.099211
0.172205 0.1497 -0.055167 0.863961 0.016835 -0.502898
-0.085347 0.157078 -0.080135 -0.617764 0.211525 -0.75688
-0.093244 0.008441 0.111843 -0.517835 0.240191 0.820877
-0.086957 0.399943 -0.115716 -0.386605 -0.183308 -0.90346
0.124704 -0.842821 0.179914 -0.177981 0.42785 0.882407
-0.127783 -0.287195 -0.010867 -0.988453 -0.009534 -0.142987
0.199969 -0.164049 -0.049658 0.840824 -0.002828 -0.538887
0.10469 -0.375518 -0.100843 -0.215913 -0.014605 -0.969431
0.01217 -0.649191 -0.061935 0.611114 0.160238 -0.775104
0.100457 0.582587 -0.09437 0.14696 0.760152 -0.632665
-0.086907 0.21982 0.079203 -0.580524 0.13174 0.803357
0.009035 -0.108063 0.114302 0.577349 -0.294933 0.760489
-0.02612 -0.85117 0.083951 0.9843 -0.04298 0.166114
0.620952 0.04936 0.081417 -0.827718 -0.554565 0.016418
-0.07303 -0.792574 0.040345 -0.586143 0.53448 0.602017
-0.054625 0.336636 0.098417 -0.409666 -0.12448 0.903392
-0.014445 0.538095 0.050778 -0.061048 0.608751 0.789564
-0.028404 0.826958 -0.069945 -0.653402 0.603611 -0.451654
0.121631 -0.544481 -0.107573 -0.154985 -0.048434 -0.983489
-0.002149 0.296276 0.118313 -0.344001 0.125101 0.929485
-0.050673 0.300536 -0.124102 -0.4568 -0.016447 -0.888912
0.104424 -0.330494 0.076651 -0.279771 -0.135676 0.949986
0.044271 -0.438535 -0.038775 -0.978035 9.9e-05 -0.205449
0.072318 0.718899 0.073892 0.649734 0.088672 0.75385
-0.128681 -0.573277 -0.015208 -0.969988 -0.083693 0.227768
0.206082 -0.183979 -0.033559 0.982646 -0.004847 -0.174172
0.131677 -0.447251 0.062222 -0.574147 -0.212591 0.788787
0.186163 -0.246849 -0.060193 0.718236 -0.124762 -0.684218
-0.033836 0.054658 -0.138543 -0.221678 0.237038 -0.945469
0.153466 -0.346993 -0.07646 0.640904 0.037464 -0.766328
0.207391 -0.012184 0.034932 0.959318 0.125565 0.24729
0.112833 -0.387724 -0.10167 -0.071863 0.001238 -0.994025
0.133735 -0.869794 0.055196 0.020396 -0.999401 -0.018794
0.00693 0.383505 -0.128265 0.046362 -0.017339 -0.998745
-0.395557 0.200628 0.015895 0.2806 0.078207 0.938296
0.04453 0.189078 -0.113794 -0.140965 0.085849 -0.975464
0.048437 0.23221 0.127483 0.106146 0.067644 0.990877
-0.140309 -0.176387 0.027034 -0.948943 -0.278303 0.125559
0.137027 0.569972 -0.092695 0.369978 0.693704 -0.615917
0.18807 -0.168761 0.080367 0.759925 -0.045102 0.641614
0.165525 0.529121 0.019057 0.286993 0.618057 0.730186
-0.074906 -0.789932 -0.135318 -0.60465 0.231924 -0.752632
0.131604 0.017756 0.11813 0.368887 0.22323 0.900979
0.17509 0.150423 0.054986 0.749596 0.088845 0.655784
0.195857 -0.299088 -0.032456 0.848745 -0.069783 -0.522792
0.177159 -0.654445 0.020103 0.485644 -0.043077 0.872497
0.123828 -0.80122 0.054655 0.219039 0.676809 0.700341
0.087519 -0.758797 -0.071434 -0.80943 0.133608 -0.570913
-0.005811 -0.68114 0.0212 0.732199 -0.11926 0.669405
0.110776 -0.448883 0.045974 -0.654331 -0.217248 0.719401
0.477418 0.252056 -0.070646 0.793424 0.5832 -0.167728
0.17291 0.189786 0.05155 0.799141 0.079952 0.595311
-0.020496 0.333509 -0.129191 -0.032756 0.04575 -0.998131
0.06885 -0.357003 0.050012 -0.634677 -0.307761 0.707378
0.068242 0.534577 0.045791 0.069437 0.617979 0.776887
0.04992 0.62842 0.028357 0.307379 -0.338923 0.880231
0.207139 -0.178415 0.012708 0.997323 -0.00962 0.07044
-0.075849 -0.111857 -0.098971 -0.54164 -0.135615 -0.829023
-0.03922 0.172164 0.112573 -0.53837 0.108162 0.835682
-0.035363 -0.458001 0.070597 0.298771 -0.337113 0.892205
0.278617 0.486006 -0.029151 0.672295 0.586696 0.44857
0.191621 0.122694 -0.024981 0.857168 0.202766 -0.472762
0.057935 0.660161 0.056871 0.341797 -0.9201 0.135696
-0.112901 0.242352 -0.038815 -0.986819 0.139906 -0.078008
0.198187 0.116127 -0.00935 0.983093 -0.072374 -0.147146
0.067653 -0.744829 -0.030177 -0.862075 0.091935 -0.496357
0.147619 -0.154241 0.103647 0.283244 -0.24661 0.925696
0.138386 -0.189006 -0.100753 0.449535 -0.084731 -0.889109
-0.129501 -0.415852 0.04225 -0.948694 0.006802 0.312024
0.200089 0.444435 0.030127 0.640462 0.049887 0.765246
0.17196 -0.152298 0.093013 0.583445 -0.083106 0.805719
0.024559 0.784095 0.085606 -0.124128 0.433447 0.889946
0.090327 0.723218 0.046638 0.984113 -0.005883 0.177207
-0.120166 -0.075139 0.086014 -0.782343 0.018616 0.622516
0.17337 0.533835 -0.113813 0.251907 0.597446 -0.760733
-0.122384 -0.709438 -0.071856 -0.848136 -0.122559 -0.514254
-0.057104 -0.252028 -0.092953 -0.154101 0.020314 -0.98491
0.052843 -0.452247 -0.00299 -0.735877 -0.032684 0.671235
0.156342 -0.465194 -0.096823 0.452934 0.133174 -0.881505
0.150062 -0.757229 0.02522 0.005457 -0.180905 0.967178
0.187928 -0.18059 -0.064263 0.636926 0.018891 -0.770187
-0.128459 -0.350986 -0.001385 -0.999153 0.037326 -0.01186
0.054549 0.58456 -0.096587 0.014498 0.581252 -0.813226
0.089321 -0.845326 0.115044 -0.874964 0.457006 0.152345
-0.140459 0.450002 -0.100271 -0.481021 -0.034246 -0.87493
-0.083761 -0.863185 0.012891 -0.04584 -0.998667 -0.019429
-0.040335 0.570381 -0.095131 -0.314796 0.58649 -0.742532
-0.093175 0.222981 -0.070541 -0.735786 -0.346916 -0.581032
0.04396 -0.462744 -0.033901 -0.995281 -0.004254 -0.063816
0.147296 0.062614 -0.115051 0.694343 0.17434 -0.698191
0.086956 0.828764 0.021633 0.870216 0.312971 0.365459
0.064312 -0.715157 0.03534 -0.354813 0.105757 0.914017
-0.128638 -0.56249 -0.010418 -0.966789 -0.100787 0.234766
0.343719 0.371656 -0.132564 0.56826 0.289167 -0.769402
0.07385 0.585182 0.00936 0.637004 0.105959 0.759491
-0.008921 0.701944 -0.063198 -0.704181 -0.512661 -0.489318
0.052181 -0.407976 0.008017 -0.713901 -0.300062 0.630697
-0.048294 -0.517827 -0.099829 0.154572 0.072272 -0.984543
-0.025202 0.754249 0.0421 -0.894934 0.131459 0.420538
-0.098913 -0.688813 -0.098517 -0.582108 0.016303 -0.811921
0.124064 -0.238146 0.088448 0.084804 -0.155875 0.984045
-0.121791 -0.407227 0.06432 -0.919281 -0.06809 0.382689
0.089794 -0.52744 0.027876 -0.548479 0.039895 0.834022
0.08751 -0.514177 -0.092433 -0.612779 -0.031437 -0.788213
0.053878 -0.585225 -0.048885 -0.806199 -0.025461 -0.590089
0.377809 0.349362 -0.081804 0.667199 0.688791 0.268322
0.019553 -0.751787 -0.062153 0.982228 -0.100723 -0.152065
0.132405 0.290986 -0.122461 0.680945 -0.051799 -0.729667
0.079985 -0.303301 0.071168 -0.428673 -0.184197 0.882662
0.090792 -0.862661 -0.053283 -0.720233 -0.628073 0.174477
0.080862 -0.373253 -0.086686 -0.665457 -0.075012 -0.742333
0.192491 -0.338849 0.049787 0.915884 -0.073236 0.394108
0.152171 -0.835552 0.14074 0.602884 0.78482 0.1351
-0.061942 0.341996 0.093095 -0.642515 -0.081722 0.759769
-0.140748 0.4597 0.060301 -0.20148 -0.111504 0.972534
-0.027184 0.490243 0.07484 -0.098416 0.446805 0.888421
-0.100283 -0.736318 -0.100193 -0.793376 0.096792 -0.599862
0.015329 0.631876 -0.063718 -0.317037 0.322812 -0.890595
0.085968 -0.111579 0.096194 -0.572177 -0.146182 0.806684
-0.128874 0.111948 -0.014258 -0.980258 -0.030804 -0.189711
0.100624 0.792354 0.006095 0.916076 0.193807 0.346153
-0.034117 -0.447992 -0.088522 0.364489 0.111835 -0.923154
0.09106 0.751778 0.046001 0.92668 -0.016858 0.372787
0.084602 -0.560881 -0.084852 -0.580784 -0.070413 -0.801148
0.461794 0.250518 -0.026611 0.047342 0.621607 0.776172
-0.024797 0.065001 0.127749 -0.284451 0.149038 0.945595
0.072635 -0.705056 0.034585 -0.160564 0.165781 0.970725
0.032943 -0.247385 0.018524 0.904197 -0.092715 0.413098
-0.176599 0.399648 0.023129 0.152294 -0.411687 0.895185
-0.083819 -0.369047 0.099777 0.050485 -0.209933 0.974562
0.083274 -0.826262 -0.014119 -0.443738 -0.886212 0.026975
-0.101864 0.16221 0.066152 -0.748089 -0.032424 0.662221
0.171706 0.290507 -0.059621 0.852426 -0.254571 -0.456251
0.021145 0.836307 -0.091368 -0.159037 0.715193 -0.679902
0.186785 -0.09061 -0.071091 0.8155 -0.071781 -0.574064
0.097338 -0.816077 -0.107921 -0.732015 0.002199 -0.676251
-0.0101 -0.328301 0.084891 0.562303 -0.094554 0.821452
-0.052618 0.032782 0.122418 -0.405002 0.211328 0.887396
0.023655 -0.255601 0.056517 0.910826 -0.021457 0.411004
0.277138 0.455977 -0.014377 0.57964 0.147663 0.798706
-0.526212 0.074152 0.038777 0.553705 -0.724374 -0.403247
0.166318 0.013443 -0.105806 0.709804 0.014704 -0.676136
0.073029 -0.823006 -0.010398 -0.436 -0.889551 0.05437
0.080729 -0.559258 0.021829 -0.704863 0.006565 0.709245
-0.023321 -0.685674 0.026199 -0.152266 0.034959 0.987122
0.38396 0.266427 -0.123578 -0.353266 -0.421619 -0.833323
0.198619 -0.63234 -0.017801 0.997476 -0.029707 0.060447
-0.069424 -0.832697 -0.138387 -0.579757 -0.098733 -0.799934
0.086664 -0.843815 0.026485 -0.99873 -0.026666 -0.024126
0.213477 -0.079313 0.025312 0.989417 -0.008862 0.133335
0.211294 -0.074915 0.035748 0.947983 0.016201 0.310324
0.029904 -0.164345 0.049746 0.898319 -0.269722 0.341762
0.199295 -0.470387 -0.040265 0.995802 0.01211 -0.084943
-0.020867 0.601163 -0.018106 -0.827983 0.433685 0.338653
-0.011612 -0.578124 -0.07969 0.685161 -0.063359 -0.725609
0.215102 0.405243 -0.090222 -0.928297 -0.367291 -0.037838
-0.091628 -0.612784 -0.099847 -0.450541 0.097069 -0.887407
-0.055108 0.346329 0.09927 -0.471478 -0.100348 0.874188
-0.134029 -0.522376 -0.044414 -0.908158 0.030624 -0.395364
-0.530607 0.073625 0.076537 0.20592 -0.854616 0.463119
-0.189437 0.512329 -0.046052 -0.69801 0.582867 -0.414431
0.020618 -0.580889 -0.000462 0.799813 0.062589 0.594591
-0.02492 0.052378 -0.141503 -0.227598 0.278519 -0.932628
0.013462 0.176016 0.130365 -0.044702 0.018238 0.99852
0.158664 0.004789 -0.116107 0.724355 0.110365 -0.680191
-0.195304 0.431007 -0.09258 -0.159178 0.277577 -0.947217
0.107323 0.410647 -0.145702 0.042118 -0.028347 -0.998259
-0.082586 -0.482056 0.0791 0.137767 -0.118778 0.95815
-0.089552 -0.712047 -0.108329 -0.623849 0.181906 -0.759318
0.008743 -0.682099 -0.072907 0.565435 0.216461 -0.795105
0.157407 0.425523 0.063269 0.720169 0.075477 0.689028
0.234118 0.442772 -0.134839 -0.118395 0.046967 -0.990204
0.14902 -0.773657 0.035332 0.39579 0.295261 0.862957
-0.552719 0.055532 0.022322 0.88887 -0.437378 -0.118258
-0.096246 -0.353732 0.101656 -0.174329 -0.141959 0.974149
0.16471 -0.074741 -0.103557 0.717842 -0.099072 -0.687914
0.080542 0.71499 0.065522 0.758373 -0.003598 0.647824
-0.026619 0.183204 -0.111129 -0.316026 -0.251455 -0.914476
0.092696 -0.661708 0.031614 -0.295345 0.170882 0.938273
-0.024595 -0.836866 0.053998 0.956867 0.281628 0.05477
0.065347 -0.201083 0.078105 -0.653153 -0.080028 0.752969
-0.10915 -0.750578 -0.089064 -0.837097 0.041824 -0.545211
0.000921 0.654012 0.021723 -0.739078 -0.376785 0.54556
-0.0257 0.470238 0.08422 -0.134863 0.39638 0.907241
0.047782 -0.282073 0.043558 -0.858145 -0.04989 0.509315
0.006168 0.606129 0.017385 -0.622125 -0.003329 0.775638
0.063984 0.260335 -0.135014 -0.314552 -0.088841 -0.943349
0.204611 -0.510947 -0.027475 0.977346 0.101321 -0.159216
0.197644 -0.635882 -0.008707 0.982557 -0.07007 0.166627
0.090567 -0.839899 0.105711 -0.872847 0.47383 0.114922
-0.111338 -0.182638 -0.05281 -0.817491 -0.091359 -0.56811
0.155327 0.50736 -0.131539 0.198844 0.369592 -0.906457
0.161829 -0.330695 -0.069337 0.650824 0.004421 -0.758829
-0.067288 -0.8642 0.076068 -0.021705 -0.999688 -0.001253
0.236877 0.426611 -0.002237 0.439171 -0.493138 0.716959
-0.095786 -0.661772 0.03637 -0.176664 -0.33185 0.916813
0.008211 -0.186596 -0.060416 0.779808 0.064961 -0.622189
0.187837 -0.217173 -0.06253 0.630232 -0.036345 -0.774672
0.086297 -0.303227 -0.094237 -0.439205 0.0118 -0.897868
0.159887 -0.462651 0.067723 0.101469 -0.121705 0.979778
-0.003531 0.615948 -0.063124 -0.503538 0.602562 -0.618851
0.055138 0.314284 0.117736 0.320481 0.182991 0.927631
-0.048708 0.14926 -0.100678 -0.396731 0.517367 -0.721735
-0.128153 -0.624594 -0.06549 -0.975868 0.003149 -0.196469
0.091518 -0.253235 0.084441 -0.254247 -0.131898 0.957473
0.053092 0.374492 -0.13573 -0.333254 -0.016268 -0.94209
-0.209347 0.337143 -0.046064 0.608199 -0.775835 -0.159577
-0.036261 0.359819 -0.128349 -0.110552 -0.01899 -0.992568
-0.09 -0.383538 -0.072681 -0.686046 -0.058038 -0.673505
0.164617 -0.104586 -0.098402 0.722324 -0.12723 -0.679115
-0.125043 -0.169282 0.084098 -0.820964 0.003508 0.570828
-0.035347 -0.515002 -0.096589 0.333193 0.050823 -0.938711
0.143343 -0.714232 -0.089064 0.529262 0.05339 -0.84307
-0.327447 0.233311 -0.058761 0.361449 -0.825883 -0.422456
0.087908 -0.805666 0.043819 -0.754894 0.112341 0.637767
-0.093249 -0.046822 0.110019 -0.601623 -0.035707 0.797615
-0.007582 0.216685 -0.127376 -0.059753 -0.150433 -0.985107
0.492108 0.236645 -0.040032 0.682642 0.729759 0.035476
-0.003307 -0.807322 -0.013969 0.942019 -0.040672 0.326447
-0.006613 0.231025 0.1224 -0.371082 0.121495 0.92057
0.578176 0.093026 0.064389 -0.188227 -0.191686 0.941946
-0.305487 0.265312 0.003646 0.381283 -0.217279 0.895594
-0.144221 -0.117988 0.005738 -0.998719 -0.008437 -0.042069
0.011012 0.125725 -0.125791 -0.111461 0.43629 -0.892395
-0.571207 0.038165 0.04725 -0.98257 0.15207 0.034204
-0.074599 -0.526082 -0.099397 -0.228157 0.113627 -0.966164
-0.1294 0.033431 -0.044321 -0.936586 0.117408 -0.329216
-0.054867 0.087972 0.11145 -0.518601 0.099064 0.84902
-0.127923 0.160689 0.0095 -0.993149 -0.05342 0.084208
0.099299 -0.683893 0.035398 0.074823 0.055674 0.993434
-0.114256 -0.255417 -0.040345 -0.890556 -0.013641 -0.454229
0.191174 0.406147 0.027175 0.949922 -0.104133 0.288004
-0.101811 -0.583687 -0.092223 -0.54403 0.051964 -0.837281
-0.005024 0.655774 -0.041372 -0.841898 0.028484 -0.536638
-0.114904 -0.157467 0.098848 -0.706911 -0.044735 0.704684
-0.009875 -0.639967 -0.077687 0.661974 0.038138 -0.748322
0.177004 -0.278627 -0.060134 0.640015 -0.195955 -0.742129
0.490853 0.178417 -0.049756 -0.185455 -0.63384 -0.718207
0.620933 0.057858 0.016926 -0.674308 -0.571618 -0.434745
0.151177 -0.867332 0.103078 0.458505 -0.886937 0.015999
0.003775 -0.438735 0.044779 0.77841 -0.136966 0.612255
-0.091293 0.276709 -0.094918 -0.692296 -0.071913 -0.717847
0.12808 -0.268469 0.08399 0.05301 -0.085501 0.994594
0.066158 0.559675 0.020217 0.213861 0.402477 0.879669
0.056687 -0.358366 -0.061397 -0.79663 -0.051242 -0.602219
0.023447 -0.024535 -0.138414 -0.108089 -0.421401 -0.90031
-0.115627 0.321257 0.004277 -0.976267 -0.05645 0.208057
0.213516 -0.044523 0.011458 0.99824 0.013068 -0.012173
-0.08193 -0.863353 0.026991 -0.037977 -0.999269 -0.003383
-0.105925 -0.571009 0.03937 -0.911943 -0.00551 0.409529
-0.102859 -0.492599 -0.081314 -0.619532 0.12862 -0.773063
0.177223 0.169718 0.048466 0.816184 0.099542 0.567883
0.081519 -0.812649 -0.084086 -0.89869 0.063784 -0.426012
-0.077036 -0.863555 0.035722 -0.038052 -0.999238 -0.005908
0.026576 -0.518515 -0.007719 0.979307 -0.094187 0.168572
-0.113136 -0.726973 -0.080135 -0.8209 -0.092936 -0.561683
0.046377 -0.536567 -0.039889 -0.902495 -0.027424 -0.423306
-0.044702 -0.674587 -0.105628 0.405112 0.18448 -0.894627
-0.03658 -0.005288 -0.137016 -0.161896 -0.080986 -0.983024
0.314002 0.315619 -0.114785 -0.55941 -0.666439 -0.489311
0.199785 0.550525 -0.084103 0.287516 0.813752 -0.502518
0.334873 0.371815 -0.137362 0.372272 0.069737 -0.918969
-0.126809 -0.747776 -0.051257 -0.982054 -0.144176 -0.093997
-0.144149 0.539466 0.028283 -0.291755 0.757666 0.580082
-0.159743 0.535155 -0.053039 -0.490752 0.74039 -0.457717
-0.118609 0.224378 0.01674 -0.950911 0.269479 0.147991
-0.049666 -0.369542 0.093463 0.301475 -0.278624 0.911673
0.196512 -0.564373 -0.057266 0.88295 -0.011641 -0.459138
0.012158 -0.068174 0.122618 0.361498 -0.188605 0.912302
-0.100455 0.079528 -0.085124 -0.732516 0.205565 -0.648394
-0.120487 -0.508428 -0.064641 -0.782401 0.100473 -0.613893
0.098725 -0.137404 -0.115173 -0.151293 -0.247013 -0.953195
0.61299 0.092285 0.035052 0.769469 0.637869 -0.017396
-0.068011 0.038581 0.1137 -0.396201 0.234742 0.886028
0.134979 0.300193 0.085746 0.734479 0.047427 0.676959
0.19627 0.088592 -0.02943 0.946925 0.25345 -0.18764
0.210883 -0.093664 -0.020216 0.934129 0.072186 -0.34955
-0.087532 -0.251831 -0.07747 -0.723571 -0.048963 -0.688402
-0.082123 -0.137967 0.116428 -0.307024 0.006532 0.950735
0.186121 -0.385672 0.057898 0.840527 -0.029315 0.539688
-0.04199 -0.076822 0.128295 -0.10439 -0.062358 0.991608
0.149961 -0.794199 -0.107917 0.509094 0.244145 -0.821211
0.044524 0.850101 -0.075718 0.116653 0.820873 -0.556984
0.074815 0.16317 0.12462 0.492972 0.038799 0.868203
-0.115243 -0.208261 0.09756 -0.706174 -0.018346 0.707554
-0.110297 0.487532 -0.110921 -0.434117 0.215987 -0.873845
-0.01884 0.808011 0.037444 -0.90439 0.234216 0.352225
0.181688 -0.373024 -0.058245 0.638077 0.240657 -0.731038
0.137661 -0.056339 -0.130617 0.531105 -0.2463 -0.807649
0.154772 -0.374288 0.075292 0.131818 0.004211 0.990322
0.411906 0.308885 -0.060213 0.499348 0.680414 0.532109
0.204584 0.541752 -0.094099 0.273889 0.748913 -0.603198
-0.240585 0.36201 0.01749 0.11879 -0.226574 0.965877
-0.006081 -0.831413 -0.045092 0.152184 -0.972794 0.038237
0.03356 0.514888 0.059719 0.091477 0.502284 0.859369
0.56276 0.129339 0.050282 -0.32841 0.171789 0.926003
-0.019561 0.688449 -0.009539 -0.993092 -0.103136 -0.018743
-0.372496 0.258893 -0.084531 -0.139062 -0.134337 -0.977503
0.05709 -0.4435 -0.060101 -0.757891 0.037785 -0.651096
0.092996 0.541234 -0.125757 -0.022468 0.46595 -0.881001
-0.054125 -0.622582 0.035005 0.383814 -0.170323 0.906967
0.198512 -0.351537 0.032603 0.934924 -0.108073 0.336404
-0.098247 -0.270435 -0.064009 -0.756963 -0.025446 -0.652762
0.17779 -0.747465 0.009379 0.357024 0.758021 0.544054
-0.072135 0.021301 -0.130686 -0.476978 -0.33638 -0.802794
0.232385 0.436013 0.006558 0.544483 -0.346041 0.745834
-0.427581 0.160943 0.008213 0.510968 -0.856055 0.058489
0.254474 0.521364 -0.072822 0.670305 0.711786 -0.197721
-0.120497 -0.772781 -0.0361 -0.992195 -0.094973 0.063102
0.08221 -0.825946 -0.038542 -0.442346 -0.890456 -0.022225
0.090639 -0.840812 -0.094614 -0.976837 0.021648 -0.20895
0.286465 0.337172 -0.060426 -0.503562 -0.757409 0.395671
0.101972 -0.795086 0.051786 -0.293341 0.476778 0.82558
0.165158 0.415192 -0.131179 0.287153 -0.374089 -0.881727
0.28793 0.482726 -0.044435 0.760623 0.564434 0.320258
0.12849 -0.031721 0.117214 0.410682 -0.057293 0.909957
-0.078048 -0.535336 -0.099487 -0.267277 0.099794 -0.958359
0.089908 0.538002 0.040486 0.301733 0.502666 0.806143
0.138515 0.45899 -0.144714 0.115028 0.034315 -0.992719
-0.527546 0.111568 0.036187 -0.863483 0.458446 -0.200182
0.073224 -0.195781 0.084564 -0.555719 -0.063859 0.82863
0.14241 -0.20166 0.094132 0.02968 -0.151152 0.982693
0.132759 0.009337 -0.138725 0.548671 0.107239 -0.828383
-0.450808 0.165035 0.040495 0.17267 0.535901 0.814289
-0.545487 0.071996 0.01614 0.791461 -0.412015 -0.444998
0.380847 0.242619 -0.070901 -0.727909 -0.67032 0.142588
-0.315405 0.2971 -0.095592 -0.076086 -0.084678 -0.992276
0.009851 0.479185 0.08186 0.028928 0.446136 0.893547
0.166315 0.331782 0.05083 0.766071 -0.013395 0.639446
0.106621 -0.692964 -0.091215 -0.431614 0.077175 -0.894498
-0.007645 -0.615066 -0.075117 0.681481 0.015601 -0.73161
-0.11286 -0.354416 -0.05119 -0.768806 0.114186 -0.627551
-0.05506 -0.694305 -0.114148 0.130425 0.267005 -0.953686
-0.108194 0.162603 0.057449 -0.807327 -0.005596 0.589649
0.399662 0.305973 -0.049215 0.31818 0.502888 0.798439
0.002396 0.772345 -0.115635 -0.484071 -0.046209 -0.872104
0.007197 0.092069 -0.136916 -0.154881 0.218278 -0.963317
0.110806 -0.869134 0.035459 -0.040333 -0.997391 -0.056287
-0.072438 -0.050422 -0.116742 -0.463358 -0.324311 -0.821681
0.632311 0.024392 0.049055 -0.895663 -0.434347 -0.008128
0.159033 -0.823144 -0.099433 0.714507 -0.339025 -0.598891
0.109144 -0.354709 0.073464 -0.317027 -0.226394 0.919828
-0.017914 -0.274702 0.098021 0.366525 -0.220961 0.902918
-0.315405 0.341933 -0.009739 -0.5511 0.574146 0.595041
0.066065 -0.47275 -0.07156 -0.727066 0.039463 -0.685301
0.02728 -0.326405 0.028806 0.99262 -0.043847 0.109785
-0.093232 -0.551375 -0.095425 -0.465986 0.080106 -0.880313
0.393135 0.260337 -0.124498 -0.350502 -0.347413 -0.86839
-0.127755 -0.481867 -0.050661 -0.839927 0.07326 -0.537341
0.118056 0.555384 0.009205 0.367482 0.681883 0.632229
0.164236 -0.798702 0.015752 0.823457 0.386877 0.409984
0.121289 0.525396 0.034931 0.281034 0.625776 0.725621
0.191826 0.347222 -0.056361 0.911981 -0.337265 -0.219727
0.085656 0.836945 0.015936 0.76144 0.580805 0.280647
0.018236 0.063473 0.13644 0.161927 0.060991 0.984291
0.032415 -0.016401 -0.143992 -0.189853 -0.335548 -0.921998
0.146184 -0.336315 -0.082085 0.616599 0.023613 -0.786907
-0.136668 -0.041011 -0.032753 -0.964486 0.009255 -0.26078
-0.076553 -0.81059 0.053402 -0.683177 0.510789 0.52001
-0.012894 -0.428514 -0.070783 0.719044 0.087352 -0.688673
0.193048 -0.211852 0.062841 0.947836 -0.035588 0.314216
0.039784 0.124647 0.132322 0.081694 0.062899 0.994376
0.026175 -0.35846 0.022164 0.984183 -0.095322 0.14268
-0.002774 -0.445151 -0.061034 0.739194 0.064595 -0.670301
0.099129 0.451126 -0.146245 -0.108852 0.026312 -0.993322
0.001671 -0.151342 -0.067467 0.785961 -0.081098 -0.612163
0.628589 0.066661 0.038622 0.856912 0.50542 -0.017202
0.002145 0.029446 0.138855 -0.136224 0.151811 0.978373
0.198723 -0.290793 -0.028513 0.878404 -0.089055 -0.469362
0.02522 0.185804 0.130295 0.011113 0.029311 0.999441
-0.020877 0.426423 -0.129954 0.041705 -0.020016 -0.998772
-0.354288 0.294415 -0.085551 -0.491451 0.328084 -0.803754
-0.545085 0.062401 0.038336 0.550552 -0.831292 -0.059447
-0.112266 -0.337538 -0.04918 -0.796748 0.077413 -0.598255
-0.185973 0.407901 0.02767 0.182134 -0.333882 0.922449
-0.174876 0.510112 0.036046 -0.547721 0.518728 0.654257
0.166324 -0.729021 -0.003211 0.429319 0.218135 0.851733
-0.152059 0.549062 0.003317 -0.412509 0.873906 0.239429
0.078411 0.838861 0.031355 0.761476 0.377054 0.522522
0.089465 0.836223 -0.014424 0.933512 0.349941 0.0086
0.158084 -0.84799 -0.085146 0.936446 -0.065927 -0.339343
0.204371 0.406911 -0.059181 0.715991 -0.624836 0.048463
0.552548 0.1034 0.024015 -0.922212 -0.36336 0.122016
-0.126667 -0.532589 0.008771 -0.892089 -0.126361 0.430179
0.035273 0.102392 0.136131 0.019955 0.024584 0.996004
-0.084591 0.130979 0.084143 -0.669862 0.024042 0.741965
0.135809 -0.628873 -0.096582 0.182527 -0.114371 -0.973458
-0.270171 0.368225 0.013942 -0.578837 0.057118 0.810511
-0.129025 -0.163553 -0.029873 -0.853295 -0.143151 -0.50096
0.46087 0.234229 -0.087931 0.579845 -0.364072 -0.728715
0.195742 -0.477583 -0.057385 0.876685 0.032407 -0.473514
0.112474 -0.266017 -0.099421 0.059413 -0.01082 -0.990307
-0.016202 -0.671527 -0.087078 0.637868 0.172492 -0.750015
0.10338 -0.006132 -0.153427 0.249844 -0.001242 -0.965227
0.329118 0.334217 -0.040479 0.012526 -0.209253 0.966075
-0.013253 -0.538196 0.035916 0.556339 -0.18094 0.81028
0.109658 -0.823423 0.095176 -0.218484 0.94611 0.235764
-0.091813 -0.324368 -0.069896 -0.654526 0.026394 -0.755413
0.194272 -0.073055 0.070697 0.743454 0.078453 0.663932
-0.031174 -0.28292 -0.089237 0.36281 -0.077165 -0.928407
0.225848 0.485573 -0.128013 0.235674 0.287058 -0.92737
-0.10579 0.567864 -0.034064 -0.387862 0.900535 -0.108995
-0.054199 -0.82793 0.131694 0.530605 0.805285 0.229208
0.144788 -0.26232 -0.085803 0.533301 -0.105971 -0.83911
0.179735 -0.438621 -0.072866 0.684469 0.179459 -0.706517
-0.115275 0.29353 -0.039598 -0.957025 -0.279291 -0.041162
0.068429 -0.585953 0.00864 -0.652358 -0.142186 0.744257
0.310935 0.314723 -0.06636 -0.577403 -0.673188 0.461275
-0.126364 -0.496443 0.020112 -0.845973 -0.200057 0.492734
0.101234 -0.448785 -0.100344 -0.456975 0.055999 -0.887443
-0.106231 -0.403056 0.087394 -0.608122 -0.221251 0.737088
0.206066 -0.530273 -0.022835 0.998453 0.009878 -0.021426
0.076369 -0.405617 -0.080376 -0.685495 -0.014597 -0.727882
0.447752 0.205398 -0.023535 -0.806388 -0.458298 0.367763
0.017817 0.568449 -0.103935 -0.064723 0.439211 -0.895251
0.029287 0.426954 0.095735 0.133385 0.186081 0.973053
-0.11781 -0.198056 0.095052 -0.745545 -0.008676 0.663884
0.039906 -0.367067 -0.008571 -0.956959 -0.161783 0.240432
0.187562 0.339892 -0.062085 0.827071 -0.384529 -0.409231
0.020416 -0.712162 -0.063151 0.924934 0.008383 -0.377135
0.189638 0.172786 0.019216 0.964509 0.187118 0.171991
-0.011941 0.078086 0.12944 -0.309012 0.117469 0.942645
0.099779 0.300883 0.104593 0.262474 0.087286 0.960786
-0.313814 0.353606 -0.045234 -0.673934 0.735856 -0.054712
0.277606 0.499221 -0.068702 0.713788 0.695291 -0.076677
0.008974 -0.277406 -0.05265 0.756636 -0.122566 -0.641392
-0.043669 0.307083 -0.127085 -0.312825 0.014954 -0.945659
0.016882 0.793066 0.08091 -0.212069 0.289179 0.930948
0.11479 0.094202 0.1081 0.504619 -0.153047 0.846001
0.055848 0.512188 -0.127912 -0.15403 0.119909 -0.979511
-0.082084 -0.62163 0.048428 0.357044 -0.257411 0.88527
-0.123196 -0.365004 0.062351 -0.980876 -0.05313 0.185735
-0.12887 -0.259869 0.065612 -0.955924 -0.124466 0.261574
-0.137478 0.019118 -0.0184 -0.984664 -0.005525 -0.168635
0.190563 -0.487806 -0.066643 0.842704 0.009257 -0.537961
0.158734 -0.083849 -0.107466 0.84016 -0.09607 -0.506063
0.044299 -0.383226 -0.040963 -0.942942 -0.002223 -0.326417
0.073658 -0.808262 -0.064303 -0.926191 0.010828 -0.369685
0.082769 0.663998 0.000173 0.986722 -0.064722 0.147375
-0.129714 -0.256979 -0.008745 -0.966169 -0.036721 -0.251005
-0.072891 0.155036 0.092799 -0.646458 0.001648 0.762736
0.031626 0.211627 0.128969 0.002346 0.057303 0.998331
-0.238719 0.440486 -0.063569 -0.624033 0.569911 -0.53153
0.162963 -0.737568 0.004273 0.291293 0.781626 0.550788
0.055495 -0.271341 0.056489 -0.730403 -0.125126 0.671322
0.139908 0.349416 -0.124013 0.641218 -0.211227 -0.7374
0.163061 -0.308818 0.076186 0.25952 -0.06562 0.963378
-0.002843 0.859877 -0.003247 -0.586706 0.80381 0.038575
0.018634 0.683407 -0.071469 -0.40171 -0.512825 -0.756683
0.1185 -0.870027 -0.101437 0.041679 -0.994714 -0.090851
0.397166 0.332333 -0.084284 0.687451 0.715286 0.102374
0.052811 -0.520815 -0.005615 -0.832512 -0.0185 0.55111
-0.56222 0.04399 0.06562 -0.00463 -0.755804 0.572989
0.131648 -0.462283 -0.10527 0.128606 0.103699 -0.985047
0.107206 -0.861564 -0.114768 -0.405507 -0.22478 -0.851683
0.057483 0.032893 -0.16005 -0.07364 0.078171 -0.993046
-0.109168 0.189785 0.057549 -0.826821 -0.053421 0.559761
-0.347699 0.217629 -0.003569 0.575372 -0.737002 0.343738
-0.150402 0.540633 -0.053779 -0.459718 0.765653 -0.448693
0.000567 -0.13285 -0.073211 0.793951 -0.172734 -0.582893
0.017206 -0.373186 0.043519 0.88045 -0.115043 0.443856
0.308092 0.313285 -0.094802 -0.701321 -0.709917 -0.05187
0.104518 -0.754708 0.021732 -0.186322 -0.497264 0.811674
0.134716 -0.182661 0.097548 0.09365 -0.183767 0.977468
-0.069078 0.48959 -0.125404 -0.240208 0.333301 -0.909513
-0.345495 0.291303 -0.089833 -0.296521 0.120256 -0.94443
0.125334 -0.1771 0.099916 0.085744 -0.299614 0.948159
-0.126558 0.385121 0.006992 -0.966628 -0.206568 0.135905
0.200688 -0.211201 -0.048559 0.823592 -0.02722 -0.564557
0.101707 -0.284996 0.082168 -0.134037 -0.107107 0.984858
0.132482 0.355694 -0.131649 0.52634 -0.215234 -0.820741
0.060721 0.072938 -0.151087 -0.083773 0.240639 -0.965844
0.174168 0.191563 -0.047414 0.911174 0.043115 -0.408521
-0.31993 0.285864 -0.093888 -0.03579 -0.208142 -0.976946
-0.007211 -0.677431 -0.080935 0.552186 0.203726 -0.80728
-0.058346 0.320835 -0.120825 -0.414261 -0.012634 -0.909827
-0.101967 -0.853056 0.119865 -0.918517 -0.066679 0.36564
0.509828 0.220599 -0.038099 0.472364 0.851985 0.179635
0.130584 0.24189 -0.115816 0.692955 -0.202696 -0.690909
-0.015869 -0.832201 -0.038718 0.36645 -0.917459 0.005968
0.140057 0.308839 0.079166 0.732184 0.051739 0.679116
-0.230194 0.331837 -0.072726 0.542895 -0.671413 -0.500049
-0.103784 -0.195649 -0.062761 -0.815109 -0.038144 -0.57732
-0.096043 -0.480377 -0.084055 -0.581181 0.125694 -0.802744
0.001471 -0.234572 -0.068382 0.723523 -0.065215 -0.687092
0.002498 0.862155 0.005396 -0.346895 0.920907 0.071467
0.195101 -0.729583 -0.00712 0.54722 0.089789 0.821355
0.447731 0.278172 -0.049828 0.428953 0.688829 0.568799
0.054902 -0.161619 0.072274 -0.677874 0.021026 0.734633
0.087524 0.692824 0.040955 0.919085 -0.335662 0.136035
0.230185 0.544019 -0.037553 0.608401 0.754657 0.241703
0.003472 0.622515 -0.062704 -0.513656 0.507018 -0.68743
0.179918 -0.274782 0.073738 0.453424 -0.012685 0.890257
0.046022 0.162424 -0.119655 -0.093559 0.053126 -0.993688
0.440057 0.289518 -0.058028 0.406079 0.803944 0.415553
0.150548 -0.015214 -0.12748 0.703185 0.048774 -0.708941
0.048334 0.536955 0.043617 4.6e-05 0.744075 0.66695
-0.127863 -0.339399 0.022069 -0.99773 -0.004499 0.063366
0.224002 0.531934 -0.095756 0.401903 0.681204 -0.610562
-0.035139 0.327979 0.103248 -0.478722 0.012749 0.870733
-0.091748 -0.277616 -0.070911 -0.728831 -0.028052 -0.683843
0.161749 -0.78746 0.020919 0.520915 -0.490462 0.667892
0.031468 0.37184 0.107977 0.0476 0.199027 0.977979
0.117438 0.356864 -0.139861 0.385851 -0.142796 -0.91123
-0.032075 0.768779 0.021503 -0.918891 -0.034183 0.378053
-0.038391 -0.131202 -0.10243 0.241686 -0.197593 -0.948951
0.15486 -0.748417 0.026097 0.310118 0.541508 0.668946
-0.179558 0.35783 -0.037629 0.633728 -0.764969 -0.097588
0.203571 -0.291946 -0.018069 0.940685 -0.046065 -0.324175
0.050788 0.148122 -0.120927 -0.130298 0.266694 -0.953937
0.142422 0.581764 -0.062537 0.255351 0.95446 -0.091948
0.133451 -0.363964 -0.093751 0.657579 0.255841 -0.646014
-0.115714 -0.312853 0.090244 -0.791446 -0.058789 0.605551
0.159662 0.155322 0.070589 0.709172 0.059772 0.702482
-0.124479 -0.419796 -0.036375 -0.796207 0.190637 -0.568497
0.147261 0.403266 0.074118 0.579051 0.032673 0.814418
-0.091802 0.511734 -0.110293 -0.310966 0.42358 -0.848789
0.092278 0.422819 -0.145115 -0.120794 0.011454 -0.99238
-0.047167 -0.859713 -0.040334 0.203954 -0.978026 0.029588
0.147762 0.1225 -0.095339 0.635736 0.217161 -0.735893
-0.002873 -0.540865 0.027709 0.647428 -0.15592 0.744562
0.095615 -0.01442 -0.153865 0.131272 -0.151711 -0.977301
-0.137164 0.0382 0.010001 -0.967866 0.24762 0.003352
-0.114608 0.203786 -0.030896 -0.908822 0.062396 -0.411506
-0.559398 0.044953 0.014635 0.900987 -0.417468 -0.075074
0.384277 0.342666 -0.079271 0.706197 0.593483 0.363778
-0.39352 0.260748 -0.075604 -0.639291 0.109285 -0.743094
0.08553 -0.826235 -0.06062 -0.554372 -0.829709 -0.057649
0.075639 0.492416 0.06823 0.130033 0.464822 0.875658
0.045321 -0.032669 0.131881 0.185881 -0.161242 0.967564
-0.04058 -0.095457 -0.110005 0.077884 -0.235504 -0.967694
-0.093656 -0.065999 0.110195 -0.544132 0.045844 0.837687
-0.077009 -0.169332 0.117279 -0.263497 -0.145574 0.953463
0.186032 0.14592 0.041582 0.830513 0.129716 0.53818
-0.057185 -0.861096 -0.040008 0.085399 -0.995725 -0.006737
-0.236955 0.377311 -0.097219 0.041169 0.067592 -0.99603
-0.119308 -0.211965 -0.034394 -0.865268 -0.096282 -0.491503
0.019282 -0.215065 0.073027 0.958379 -0.02862 0.280518
0.155512 0.474336 -0.140536 0.281471 0.192058 -0.939617
-0.095555 0.55379 -0.077322 -0.404672 0.687302 -0.603131
-0.089627 -0.860629 -0.094867 -0.222731 -0.971686 -0.062657
0.162192 -0.707439 -0.073312 0.72948 -0.021981 -0.682664
-0.042693 0.273673 -0.126891 -0.329743 -0.02896 -0.941778
0.129056 0.575268 -0.089599 0.362621 0.745587 -0.558203
0.010764 0.485699 -0.124405 0.134394 0.14424 -0.977935
-0.062292 0.554207 0.022294 -0.187543 0.743349 0.641962
0.204587 -0.282638 -0.015802 0.97965 -0.031733 -0.193527
-0.012324 0.617959 -0.048724 -0.760197 0.537374 -0.356513
0.09562 0.355667 0.099029 0.261544 0.12597 0.956097
0.088929 -0.560058 0.028513 -0.542858 -0.021492 0.837759
0.049723 0.292 0.121313 0.123456 0.10502 0.98645
0.103772 -0.05051 0.123241 0.201197 -0.234758 0.946528
0.344293 0.346911 -0.046017 0.437502 0.246295 0.863214
-0.025365 -0.449331 -0.084655 0.524163 0.082452 -0.842941
-0.090041 -0.316132 0.105631 -0.105857 -0.04785 0.991511
0.121021 -0.807718 0.062952 0.115069 0.764349 0.625619
0.107637 -0.271644 0.08377 -0.034355 -0.13953 0.988803
0.199896 -0.426683 0.008112 0.981428 -0.105393 0.159193
0.012099 -0.670333 -0.066839 0.581942 0.209547 -0.785297
0.421213 0.210616 -0.087495 -0.648862 -0.757994 -0.026923
-0.567894 0.038771 -0.010564 0.46861 0.440981 -0.528513
0.049677 -0.447762 -0.050921 -0.829977 0.041195 -0.554256
0.007416 0.851566 -0.066114 -0.366745 0.77934 -0.507539
0.198525 0.122511 0.017453 0.949571 -0.182903 0.250091
0.04176 -0.18957 0.040098 -0.977671 -0.061328 0.200689
-0.109592 -0.015469 0.094333 -0.747642 -0.100172 0.655706
0.363311 0.363865 -0.114339 0.700094 0.611707 -0.329353
0.182878 0.082213 0.063777 0.82528 0.160401 0.539093
0.567673 0.088194 -0.018985 0.074606 -0.212035 -0.917504
0.029001 -0.301396 0.016016 0.998371 -0.043241 0.03225
0.155467 0.049684 0.097037 0.311058 0.31272 0.892138
0.644074 0.026982 0.033983 0.909203 -0.210405 -0.056935
-0.039217 -0.064371 -0.119963 -0.056712 -0.321851 -0.944699
-0.147372 0.478831 0.059062 -0.262509 0.108881 0.957673
-0.488974 0.160138 -0.023607 -0.781739 0.538065 -0.307056
0.020896 0.040154 -0.152807 -0.16754 0.19557 -0.966077
-0.146515 0.40572 0.017555 0.51546 -0.732655 0.440078
0.435508 0.243427 -0.024236 -0.23033 0.270466 0.897959
-0.053595 -0.612768 -0.103491 0.190258 0.054333 -0.980032
-0.214212 0.425231 0.03648 -0.356254 -0.042378 0.924911
0.079601 -0.792459 -0.07322 -0.841597 0.22424 -0.489729
0.457399 0.274293 -0.054384 0.592236 0.71772 0.363624
-0.034328 -0.126 0.125234 0.011221 -0.090735 0.995149
