-0.018978 -0.572896 -0.087106 0.655899 -0.053233 -0.750492
0.04223 -0.359766 0.003963 -0.971001 -0.095932 0.214779
0.187116 0.327587 -0.051056 0.856976 -0.357078 -0.371543
0.096326 -0.757355 -0.082919 -0.764578 0.04465 -0.642204
-0.093342 -0.094403 -0.089069 -0.67511 -0.137986 -0.723633
-0.005224 -0.28622 0.090083 0.402572 -0.157027 0.901215
0.088093 -0.863584 0.094362 -0.588652 -0.8069 -0.012287
-0.113605 0.314644 -0.068873 -0.910667 -0.161752 -0.377348
-0.018102 0.679539 -0.013322 -0.868651 -0.455097 -0.1667
0.132228 -0.544027 -0.108511 0.106252 -0.035842 -0.991722
0.048232 0.747312 0.08593 0.836227 0.222576 0.494675
0.257845 0.355773 -0.076727 -0.70627 -0.707794 0.000665
0.490001 0.234915 -0.018001 0.577977 0.713988 0.363914
0.026896 -0.494669 -0.010448 0.9921 0.018894 -0.03684
0.045976 -0.558455 -0.037352 -0.928416 -0.025614 -0.347945
-0.213519 0.358339 0.008216 0.250413 -0.548169 0.797141
-0.02387 -0.465171 0.064835 0.428695 -0.275813 0.858484
0.1322 0.290735 0.089011 0.648438 0.05066 0.759528
0.10866 -0.609073 0.031796 -0.197659 0.220656 0.954407
0.046739 -0.431329 -0.00753 -0.846098 -0.115582 0.510526
0.086033 0.51673 0.054183 0.218494 0.560866 0.797913
-0.028277 0.238324 -0.127766 -0.129082 -0.129772 -0.982122
-0.117548 -0.442379 0.060714 -0.83402 -0.186753 0.518991
-0.475225 0.173317 0.028486 -0.439535 0.843713 0.244501
-0.556037 0.04842 0.059157 0.727398 -0.678786 0.095919
0.084548 -0.82249 -0.084877 -0.740656 -0.6165 -0.2263
0.108523 0.744312 -0.013736 0.97729 0.098634 0.075504
-0.119813 0.312754 -0.031483 -0.996402 -0.083221 0.013422
0.584522 0.065701 -0.02117 0.400165 0.473816 -0.684584
0.157281 0.52352 0.025857 0.170173 0.593255 0.785217
-0.01907 0.770816 0.048829 -0.879866 0.030134 0.465627
0.003877 0.462105 0.089419 0.015104 0.338724 0.940079
0.044315 -0.522237 -0.025214 -0.990933 0.001239 0.103732
-0.234022 0.437579 0.01481 -0.726245 0.388992 0.565778
-0.050187 -0.86321 -0.09253 0.020041 -0.999354 0.020966
0.071273 0.11607 -0.135166 0.067644 0.400206 -0.913335
-0.128712 -0.467885 0.028539 -0.884063 -0.203017 0.420397
-0.128526 -0.026529 -0.055144 -0.922801 -0.013641 -0.384009
-0.113841 -0.440464 -0.059221 -0.725615 0.249435 -0.640408
-0.084591 0.130979 0.084143 -0.669862 0.024042 0.741965
-0.559759 0.046771 0.002936 0.964851 -0.16326 -0.178648
-0.13943 0.031568 0.020294 -0.93684 0.334831 0.087994
-0.127224 -0.058927 -0.054585 -0.88165 -0.067209 -0.466558
-0.024645 0.838909 -0.052232 -0.563301 0.763016 -0.314495
0.177048 0.146057 -0.045485 0.888638 0.017607 -0.456603
0.212052 -0.109129 0.029785 0.966133 -0.023502 0.252661
-0.062697 -0.084474 0.122408 -0.26555 -0.063382 0.961541
0.086323 0.682122 -0.021466 0.842556 -0.419735 -0.327311
0.095976 -0.55352 0.032118 -0.467025 -0.019015 0.882772
0.192487 -0.595121 -0.062325 0.804321 -0.026466 -0.593416
-0.075764 -0.834577 0.148092 -0.300748 0.887165 0.321412
0.163467 0.559881 -0.09136 0.331123 0.725568 -0.603018
-0.037584 -0.526836 0.050435 0.332371 -0.216798 0.917447
-0.339121 0.329835 -0.051074 -0.65677 0.752094 -0.047122
0.029798 0.483377 -0.125104 -0.212537 0.132555 -0.967964
-0.000299 -0.488135 0.038551 0.66647 -0.226691 0.709915
0.204018 0.053671 0.021208 0.954942 0.260927 0.132616
0.183261 0.129479 -0.037473 0.858139 0.205746 -0.468623
0.205483 -0.332192 -0.007133 0.993904 0.029203 -0.102592
-0.015678 -0.338345 0.087386 0.466843 -0.097487 0.878808
0.110712 -0.034788 -0.14649 0.184815 -0.280214 -0.94107
-0.107394 -0.356213 0.094368 -0.701771 -0.112173 0.696727
0.063574 -0.696002 0.029398 -0.569491 0.289345 0.7594
0.199132 0.537824 -0.101207 0.287727 0.696402 -0.655586
-0.093461 0.566411 -0.060579 -0.409667 0.822197 -0.3934
0.001471 -0.234572 -0.068382 0.723523 -0.065215 -0.687092
-0.028306 0.714667 -0.023673 -0.901554 -0.398508 -0.139185
0.075926 -0.691517 -0.059707 -0.843758 -0.08159 -0.529821
0.012295 -0.124961 0.105663 0.677368 -0.216394 0.702827
-0.00225 -0.409039 -0.058211 0.640156 0.093827 -0.758404
-0.02722 -0.211637 -0.088275 0.359909 -0.010557 -0.928737
0.03026 -0.05221 0.12287 -0.347823 -0.384531 0.849462
0.427318 0.226277 -0.038263 -0.290817 -0.397246 0.857801
-0.098893 -0.850722 -0.029736 -0.731901 -0.660651 -0.162816
-0.150402 0.540633 -0.053779 -0.459718 0.765653 -0.448693
-0.497096 0.106859 0.074212 0.636585 -0.179674 0.729083
0.078139 0.677903 0.051662 0.780414 -0.604618 0.151554
-0.023966 -0.170594 -0.088068 0.461075 -0.041154 -0.885709
0.560769 0.100953 0.047261 -0.840453 -0.354669 0.401316
0.213692 -0.126048 -0.010335 0.992323 -0.067721 -0.093905
-0.120147 0.134127 0.038762 -0.926894 0.074876 0.366937
0.083513 -0.852809 0.071858 -0.978952 -0.013544 -0.069445
0.053412 0.565518 0.021732 0.298224 0.183533 0.927807
0.008012 -0.117757 0.111972 0.596958 -0.219265 0.770679
0.197009 0.034794 0.059554 0.878851 0.111217 0.458303
0.003561 -0.701622 0.00156 0.851 -0.180648 0.492956
0.156694 -0.500653 -0.099821 0.473612 -0.002825 -0.880303
0.202612 -0.419536 -0.015657 0.980805 -0.162047 -0.105714
0.07023 0.031518 -0.160955 0.004575 0.065224 -0.997631
-0.145242 0.519975 -0.080442 -0.45929 0.526805 -0.713157
-0.388862 0.250382 -0.078369 -0.374242 -0.155343 -0.912622
0.267479 0.457201 -0.009758 0.447624 -0.031118 0.881327
-0.34005 0.328019 -0.028622 -0.680097 0.722913 0.11631
0.085656 0.836945 0.015936 0.76144 0.580805 0.280647
0.04992 0.62842 0.028357 0.307379 -0.338923 0.880231
-0.427207 0.160786 -0.013986 0.534259 -0.842891 -0.038785
0.020486 -0.532368 0.000375 0.924354 -0.139627 0.352829
0.054379 0.137752 0.130138 0.115474 0.037658 0.992588
0.04737 -0.585831 -0.038422 -0.922352 -0.018482 -0.37756
0.396646 0.237654 -0.049082 -0.521057 -0.732198 0.428949
0.064752 -0.312078 0.059476 -0.720599 -0.0866 0.687899
-0.021117 -0.474853 -0.084556 0.691329 0.096119 -0.716107
0.092547 0.820523 -0.056499 0.823939 0.517925 -0.219032
0.093219 0.029693 0.127975 0.213839 0.239941 0.946137
-0.381502 0.263513 -0.082523 -0.346762 0.026418 -0.933097
-0.026777 -0.53763 -0.093689 0.445095 0.019133 -0.894739
0.08297 -0.709461 0.0366 -0.062363 0.037232 0.995517
0.182738 0.279385 0.00854 0.994849 -0.018377 0.094147
-0.129894 -0.141886 0.074213 -0.88296 0.045751 0.466775
0.210681 -0.051632 0.031698 0.937296 0.069708 0.341307
-0.007148 -0.632244 0.023018 0.149437 0.150328 0.975111
-0.482245 0.17172 -0.002797 -0.690746 0.721293 -0.038075
-0.252969 0.337414 -0.092236 0.371689 -0.349685 -0.857833
-0.007453 -0.354887 -0.061063 0.677676 -0.113638 -0.726318
0.042502 -0.278304 0.022006 -0.991091 -0.018251 0.124691
0.138553 0.047734 0.109557 0.48967 0.260681 0.824251
0.047837 0.493825 0.070578 0.101211 0.547666 0.830111
0.066825 -0.379486 -0.072417 -0.740503 -0.052718 -0.66903
-0.00209 0.676085 0.065981 -0.85298 -0.221573 0.455324
-0.131785 -0.215808 0.067856 -0.930726 -0.048832 0.361969
-0.122946 -0.380001 0.058501 -0.983651 -0.025738 0.176039
-0.047906 0.337833 -0.125397 -0.317664 -0.016376 -0.947871
-0.117616 -0.4321 0.063966 -0.82028 -0.193776 0.537362
0.251025 0.526255 -0.056272 0.702465 0.71148 -0.00828
-0.071698 -0.860972 0.14681 -0.005486 -0.973478 0.225315
0.143009 -0.240401 -0.089679 0.495642 -0.148198 -0.855642
-0.113936 0.238052 0.019905 -0.974545 0.208326 0.070512
0.051726 -0.183863 -0.074528 -0.818563 -0.180159 -0.543849
-0.113461 0.345253 -0.082272 -0.77779 -0.213426 -0.589579
0.086956 0.828764 0.021633 0.870216 0.312971 0.365459
0.045321 -0.032669 0.131881 0.185881 -0.161242 0.967564
-0.127789 0.382931 -0.012504 -0.99265 -0.114323 0.034823
-0.125679 0.022163 0.071276 -0.837382 0.211704 0.502181
0.146416 0.087416 -0.108492 0.68594 0.224197 -0.691966
0.061934 -0.390746 0.027017 -0.702733 -0.335021 0.627609
0.098515 0.367475 0.097353 0.21875 0.084195 0.97171
0.093308 -0.855562 0.146383 -0.888905 0.228136 0.391043
-0.098156 -0.111084 -0.081634 -0.664473 -0.111138 -0.737363
-0.092475 -0.826645 0.068053 -0.576205 0.792169 0.152966
0.165061 0.539296 0.01023 0.19597 0.659343 0.722419
0.08784 0.361211 0.1006 0.370824 0.165707 0.906339
0.134414 -0.642945 -0.095542 0.148218 -0.089887 -0.984522
0.109194 -0.026839 0.124873 0.428666 -0.118566 0.895078
-0.12803 -0.667559 -0.047616 -0.997768 -0.016026 0.061821
-0.307238 0.302224 -0.096682 -0.053869 -0.068308 -0.995728
-0.068216 -0.459051 -0.094194 -0.143031 0.103225 -0.981181
0.035471 0.56102 0.026271 0.104318 0.154351 0.974822
-0.086125 -0.544966 -0.098121 -0.35159 0.086356 -0.931826
0.09431 -0.426936 -0.094985 -0.525954 0.014098 -0.849674
0.028168 -0.101082 0.104238 0.416537 -0.411069 0.806788
0.160156 0.57416 -0.064241 0.277446 0.952727 -0.115243
-0.043669 0.307083 -0.127085 -0.312825 0.014954 -0.945659
0.164033 0.397095 -0.124181 0.382341 -0.403311 -0.831098
-0.057137 -0.589343 0.043853 0.409402 -0.276292 0.869264
-0.056436 0.122915 -0.107937 -0.459005 0.321454 -0.82803
0.104981 0.792363 -0.035313 0.987225 0.11682 -0.028909
0.087816 0.529351 -0.12908 -0.053505 0.214658 -0.974443
0.132985 -0.074712 0.114407 0.202665 -0.009308 0.978577
0.619368 0.073805 0.090307 0.813783 0.442558 0.329556
-0.036552 0.786894 -0.010475 -0.993343 0.063005 0.094929
0.271321 0.398243 -0.016027 -0.163994 -0.426253 0.889475
-0.123195 -0.544759 -0.068203 -0.802109 0.110064 -0.586548
-0.156642 0.379561 -0.033453 0.712205 -0.698315 -0.056047
0.19003 -0.318448 -0.039252 0.771821 -0.00825 -0.635551
0.565369 0.155016 0.024537 0.738539 0.67313 0.032614
-0.012458 -0.081784 -0.108855 0.296472 -0.48989 -0.81824
0.190384 0.540083 0.00034 0.273573 0.642051 0.715042
0.126781 -0.789965 0.047083 0.304882 0.497156 0.806408
-0.027039 0.121583 -0.12084 -0.21935 0.353614 -0.908975
-0.022804 -0.06236 0.130449 0.021162 -0.102465 0.994158
0.105259 -0.130852 0.107205 -0.601371 -0.051816 0.796392
-0.231732 0.324293 -0.063906 0.71136 -0.558791 -0.383145
-0.038964 0.759916 -0.022784 -0.993273 -0.067559 0.061941
-0.476904 0.168883 0.036979 -0.310432 0.85601 0.370582
-0.163595 0.396582 0.018031 0.314687 -0.657741 0.677268
0.062424 -0.271381 0.064355 -0.725337 -0.120539 0.677697
0.053849 0.681484 0.087321 0.41971 0.214818 0.876063
-0.137937 -0.004019 0.018531 -0.994799 -0.01848 0.028357
0.078523 0.08238 0.127105 0.471138 0.02626 0.880806
-0.047985 -0.546596 0.050596 0.384216 -0.177109 0.905972
0.115381 -0.870374 -0.091646 0.017745 -0.999551 -0.0173
-0.134253 -0.4284 0.026609 -0.96544 -0.02366 0.252951
0.081577 0.695794 -0.049204 0.848215 -0.377756 -0.362813
-0.109692 -0.004119 0.098201 -0.766375 -0.184606 0.611702
0.006168 0.61216 -0.071943 -0.250016 0.62588 -0.735443
0.014063 0.862353 -0.045263 -0.185075 0.958014 -0.186986
0.188409 -0.759682 -0.000897 0.927495 -0.247033 0.273377
-0.00792 0.579608 0.011466 -0.537529 0.309699 0.782818
-0.527718 0.103904 0.028431 -0.761766 0.290066 -0.481923
0.193558 0.090057 0.018576 0.949535 0.239836 0.165017
0.211535 0.412928 -0.051608 -0.458375 -0.797533 0.107016
0.13927 -0.098791 0.112266 0.203403 -0.054933 0.976165
-0.043695 0.576698 -0.087572 -0.394284 0.661283 -0.635537
-0.249681 0.324835 -0.083664 0.59125 -0.49427 -0.636635
0.08931 -0.852968 0.032019 -0.894683 -0.418974 -0.12857
0.072973 -0.626723 -0.066473 -0.660213 -0.098563 -0.744535
0.376992 0.333668 -0.125103 0.577861 0.36018 -0.729833
0.119546 -0.867713 0.01346 -0.051704 -0.993023 -0.096618
-0.314299 0.349191 -0.020131 -0.60541 0.713802 0.342551
-0.012568 0.67227 0.004888 -0.899617 -0.424288 0.049259
0.150548 -0.015214 -0.12748 0.703185 0.048774 -0.708941
0.061011 -0.500214 -0.066655 -0.738622 -0.025677 -0.673473
0.044961 -0.42825 -0.041181 -0.950278 -0.024595 -0.283578
0.302736 0.43215 -0.027738 0.615433 0.326721 0.708867
0.110937 -0.627818 -0.093939 -0.444754 -0.086763 -0.889952
-0.25771 0.430158 -0.028307 -0.732383 0.657879 0.165157
0.044603 0.327212 0.117404 0.190565 0.234199 0.952512
0.421213 0.210616 -0.087495 -0.648862 -0.757994 -0.026923
-0.054867 0.087972 0.11145 -0.518601 0.099064 0.84902
-0.059662 0.433378 -0.128714 -0.150598 -0.112836 -0.981683
0.165026 0.497141 -0.133522 0.16082 0.295526 -0.941004
0.028373 0.685643 -0.074595 -0.077095 -0.519306 -0.845117
0.008612 -0.160344 -0.05816 0.811739 -0.016532 -0.58302
-0.032867 -0.856307 -0.006745 0.566151 -0.806195 -0.16599
0.389909 0.305567 -0.127946 0.306913 0.192018 -0.929427
0.285814 0.405031 -0.01414 0.126724 -0.063409 0.981021
-0.04399 -0.855125 0.136342 0.75124 -0.383659 0.464006
0.148409 0.569935 -0.086321 0.420774 0.689345 -0.588375
0.109249 0.732637 -0.022207 0.828784 -0.340553 -0.360329
0.344016 0.382968 -0.128857 0.817646 0.078695 -0.564368
0.182752 0.23573 0.005035 0.999664 -0.012964 0.02014
0.447795 0.221804 -0.09494 0.717883 -0.144799 -0.676576
0.097538 -0.813574 0.060573 -0.682462 0.518431 0.510655
0.186975 0.103394 0.050731 0.877915 0.144912 0.448846
0.187866 0.182113 0.01667 0.93116 0.32045 0.166745
-0.555317 0.075845 0.064294 -0.888286 0.445913 0.069756
0.202245 -0.048139 0.053056 0.888602 0.041699 0.45603
0.547523 0.177405 -0.007372 0.859152 0.51015 -0.0121
-0.085712 0.347093 0.074555 -0.786352 -0.015876 0.617012
0.042494 0.335652 -0.129289 -0.328758 -0.031817 -0.939264
0.199819 -0.440201 -0.005026 0.995464 -0.065304 0.05859
0.173458 -0.456105 -0.082795 0.654324 0.16896 -0.736799
0.089078 0.697018 0.031991 0.97087 -0.234759 0.039639
0.048045 0.543928 0.035247 0.065149 0.746156 0.659021
0.049764 0.594334 -0.089469 0.041899 0.608478 -0.792146
-0.097186 -0.700984 0.019226 -0.306733 -0.433028 0.836474
0.325411 0.438176 -0.102214 0.614285 0.699179 -0.363673
-0.10273 0.102347 -0.07531 -0.789491 0.162619 -0.588893
0.087443 -0.293274 -0.094513 -0.362613 0.018267 -0.923318
-0.056488 0.041949 -0.134407 -0.413316 0.281299 -0.863886
-0.103821 -0.146599 0.109367 -0.674919 0.007032 0.737362
0.021167 0.41244 -0.127971 -0.030479 0.031945 -0.998672
0.611334 0.094031 0.054267 0.76575 0.642706 0.023116
0.098223 0.747749 0.020448 0.981575 -0.046609 0.178652
-0.112771 0.280819 -0.039094 -0.994627 -0.101683 -0.015902
0.008458 -0.502624 0.026501 0.733564 -0.135334 0.66524
-0.113684 -0.58071 0.022098 -0.905724 -0.018246 0.421027
0.058114 -0.742139 0.018827 -0.959597 -0.240474 0.129729
-0.023292 -0.200236 0.116072 0.326988 -0.189905 0.925036
-0.007905 -0.288831 -0.071238 0.707333 -0.126967 -0.695345
-0.038391 -0.131202 -0.10243 0.241686 -0.197593 -0.948951
-0.012465 -0.205205 -0.079788 0.567571 0.024846 -0.822728
0.017678 0.349007 0.113313 -0.0538 0.10134 0.992583
0.066329 -0.48718 -0.072365 -0.719124 0.01013 -0.694621
-0.053909 -0.639305 0.030899 0.366695 -0.187108 0.910959
0.602782 0.078308 0.005336 0.408092 -0.335459 -0.834305
-0.140006 0.471054 0.061091 -0.176571 -0.009524 0.982392
0.029414 0.200431 0.129683 0.014411 0.049265 0.998602
-0.100201 -0.317806 -0.061903 -0.695417 0.037857 -0.716609
0.270241 0.358055 -0.038452 -0.396132 -0.70757 0.577911
0.020411 -0.32219 -0.028611 0.920923 -0.002172 -0.389502
-0.138296 -0.008056 0.005708 -0.996375 0.083768 -0.012905
-0.099107 -0.022469 0.105018 -0.616902 0.024309 0.780425
0.276964 0.47571 -0.10723 0.458661 0.667823 -0.584042
0.350557 0.364188 -0.130888 0.547386 0.326737 -0.759688
0.157733 -0.219379 -0.08421 0.567078 -0.105826 -0.816601
0.072968 -0.195352 -0.091662 -0.49372 -0.230428 -0.83505
-0.008859 0.007626 -0.143172 -0.169995 -0.193267 -0.966006
-0.314366 0.347761 -0.064163 -0.631203 0.704214 -0.323925
0.189828 -0.473294 0.03458 0.957738 -0.051352 0.278325
0.109992 -0.01435 -0.151016 0.289484 -0.078168 -0.951788
-0.027057 0.744747 0.038802 -0.969462 -0.005247 0.239333
0.009298 0.678172 -0.064121 -0.489925 -0.417981 -0.763542
-0.095509 0.244763 0.067667 -0.684012 0.125732 0.717737
-0.413167 0.181501 -0.051642 0.408901 -0.637283 -0.626472
0.016951 -0.078042 -0.0989 -0.069636 -0.706638 -0.692572
0.172264 0.375905 0.048303 0.772009 -0.086027 0.629602
0.098959 0.234179 0.11036 0.547314 0.152543 0.793365
-0.111509 0.257593 -0.051474 -0.995589 -0.006881 -0.084602
0.057539 -0.180614 -0.082847 -0.710007 -0.190897 -0.676452
0.171494 0.036538 -0.096892 0.790373 0.125181 -0.597883
0.080018 0.666803 0.018403 0.872454 -0.326443 0.356495
0.033223 0.704861 0.093485 0.001216 -0.364872 0.919574
-0.069479 0.265765 0.087214 -0.515873 0.070257 0.853663
0.12099 0.29467 0.096273 0.507053 0.068975 0.856449
-0.03339 0.497612 0.070271 -0.150801 0.491479 0.857655
0.04453 0.189078 -0.113794 -0.140965 0.085849 -0.975464
0.470558 0.260685 -0.058793 0.718237 0.694692 0.034381
0.012863 -0.715786 -0.015595 0.771152 -0.05487 0.632394
0.196512 -0.564373 -0.057266 0.88295 -0.011641 -0.459138
-0.001806 0.350024 0.112491 -0.073428 0.060704 0.99395
0.176363 0.269658 -0.039524 0.929883 -0.049447 -0.36363
0.191852 0.501197 -0.129534 0.080243 0.327224 -0.939963
0.157264 0.165962 0.072028 0.715994 0.053325 0.696031
-0.059041 -0.863991 0.103679 0.001829 -0.999738 0.020647
0.166378 0.151868 0.06402 0.711138 0.080228 0.698414
0.578262 0.060957 0.00293 -0.927738 -0.371742 0.02727
0.256156 0.387379 -0.025444 -0.280695 -0.57717 0.764978
-0.000426 -0.063646 -0.116768 0.248766 -0.584372 -0.77168
0.164028 0.551726 -0.100462 0.31106 0.718079 -0.621861
0.100624 0.792354 0.006095 0.916076 0.193807 0.346153
-0.352304 0.256218 -0.083883 0.101521 -0.298314 -0.948561
0.124412 0.350872 -0.135561 0.467888 -0.154912 -0.869871
-0.088934 0.435675 0.074492 -0.621665 0.11372 0.774831
0.085705 -0.139678 -0.111507 -0.336478 -0.208622 -0.917886
-0.021027 0.43897 0.095911 -0.130638 0.232855 0.96285
-0.082069 0.074289 -0.107019 -0.649377 0.20572 -0.729084
0.243328 0.533792 -0.048471 0.704198 0.709389 0.026307
0.066577 0.741971 0.072227 0.353806 0.244903 0.894637
-0.020885 0.697223 -0.014877 -0.867665 -0.38338 -0.052037
0.038647 -0.28886 -0.037225 -0.91426 -0.014755 -0.403374
0.111465 -0.28969 0.082426 -0.054626 -0.074345 0.995533
0.16653 -0.842828 0.075573 0.791163 0.611573 0.002182
-0.023627 0.761162 -0.088823 -0.782227 -0.218371 -0.581077
0.000288 -0.74194 -0.005278 0.546352 -0.490832 0.676771
-0.101405 0.336754 0.048256 -0.839882 -0.202657 0.50296
-0.262095 0.373478 0.017331 -0.303795 0.096116 0.944195
0.143806 0.060316 0.100955 0.698943 0.213156 0.679376
-0.117191 0.477856 0.061236 -0.033288 0.042061 0.998233
-0.087846 -0.505007 0.074959 -0.29972 -0.222721 0.870903
0.128633 0.305604 -0.126417 0.600055 -0.050926 -0.798083
-0.043105 -0.444214 -0.090552 0.194042 0.182829 -0.961645
0.132252 0.410809 -0.14203 0.330628 -0.166499 -0.926173
-0.111807 0.263333 0.011316 -0.996975 0.039276 0.060052
0.131604 0.017756 0.11813 0.368887 0.22323 0.900979
-0.031131 -0.038577 -0.131079 -0.063006 -0.346283 -0.935913
0.191021 -0.416289 0.045383 0.933484 -0.037558 0.355101
-0.101811 -0.583687 -0.092223 -0.54403 0.051964 -0.837281
-0.086852 -0.396545 -0.073076 -0.51975 -0.079317 -0.850147
-0.029315 -0.84939 -0.034105 0.582333 -0.810295 -0.031994
0.07682 -0.594233 0.015424 -0.725803 -0.132021 0.675009
-0.137173 -0.443252 -0.019563 -0.973371 0.106078 -0.196295
-0.072719 0.249491 0.08658 -0.578099 0.064908 0.811726
-0.114241 -0.324325 0.090908 -0.788736 -0.061085 0.605926
-0.024194 -0.8545 0.06378 0.927374 -0.291868 0.050448
0.094555 0.807146 0.019617 0.889536 0.186589 0.386764
-0.026382 0.842341 -0.03969 -0.60562 0.75986 -0.231945
-0.02193 -0.202868 -0.0862 0.532719 -0.014321 -0.844212
0.209338 0.458341 -0.133876 0.032918 -0.044524 -0.997497
-0.129129 0.108829 0.017566 -0.986202 -0.026913 0.159064
0.061111 0.021037 -0.159548 -0.082054 -0.19757 -0.974101
-0.098112 0.043228 -0.098722 -0.726291 0.234153 -0.645652
0.135279 0.507151 -0.135999 0.116709 0.266508 -0.955298
-0.064728 0.373748 -0.120602 -0.339061 -0.080335 -0.936792
-0.093268 -0.59907 0.055112 -0.302088 -0.191093 0.923704
0.202722 0.048651 -0.020619 0.964241 0.119815 -0.224739
-0.164611 0.46832 0.054023 -0.459688 -0.07594 0.884512
0.215317 0.435538 -0.130116 -0.149219 -0.292762 -0.93664
-0.082273 -0.802204 -0.128508 -0.718696 -0.176828 -0.671282
0.171983 -0.674413 -0.066377 0.683244 -0.20884 -0.699012
0.130405 0.08468 0.102703 0.316934 0.149645 0.928222
-0.032414 -0.274127 0.10344 0.232689 -0.212083 0.94883
0.192641 0.070872 0.049911 0.863043 0.26363 0.426289
-0.121971 -0.654734 -0.008257 -0.985098 -0.122931 0.118323
-0.086098 -0.74961 -0.117193 -0.577848 -0.010815 -0.815322
0.145195 0.325499 0.071915 0.772649 0.00327 0.634185
0.165555 -0.48649 0.063826 0.384213 -0.166832 0.89863
0.40422 0.316937 -0.062646 0.526624 0.675289 0.51607
0.13069 0.124504 0.098436 0.550316 0.026703 0.833011
0.077814 0.552291 0.022974 -0.066292 0.831968 0.532631
-0.128848 0.558482 -0.000976 -0.220122 0.953867 0.196498
-0.051106 0.326071 0.097701 -0.326063 -0.085484 0.938685
0.042628 0.740618 0.097671 0.774202 0.267576 0.560181
0.091814 -0.824751 -0.10121 -0.882766 -0.062406 -0.441885
-0.047456 -0.663851 -0.104993 0.365811 0.123904 -0.921352
0.143324 -0.276946 -0.084877 0.575721 -0.096831 -0.8118
-0.315886 0.284726 0.005911 -0.083155 0.043873 0.994785
0.550706 0.115845 0.03141 -0.919947 -0.322303 0.219598
0.052843 -0.452247 -0.00299 -0.735877 -0.032684 0.671235
-0.079902 -0.55842 0.0612 0.440788 -0.175386 0.879474
-0.121996 0.361361 -0.062128 -0.977801 -0.179824 -0.088075
-0.013267 -0.806639 0.019389 0.941045 0.207401 0.258147
0.09377 0.308748 0.105095 0.205447 0.08691 0.97471
-0.072438 -0.050422 -0.116742 -0.463358 -0.324311 -0.821681
0.277138 0.455977 -0.014377 0.57964 0.147663 0.798706
0.078494 -0.34656 -0.087176 -0.680973 -0.05457 -0.729005
-0.103582 -0.626992 -0.095084 -0.550349 0.075971 -0.829956
-0.089401 0.312059 0.069922 -0.866907 0.03017 0.496279
0.19909 -0.263692 -0.03661 0.90004 -0.16087 -0.404116
0.062399 0.063478 -0.15303 -0.06801 0.191597 -0.979092
-0.072126 -0.487789 -0.096536 -0.194863 0.090243 -0.975041
0.015284 -0.022211 0.131756 0.241108 -0.349582 0.89805
0.161648 0.174563 0.066681 0.720325 0.060472 0.690856
0.526437 0.14964 0.022338 -0.722636 -0.316111 0.586618
0.265207 0.434376 -0.00972 0.041332 -0.046164 0.996239
0.143766 0.037167 0.108983 0.591452 0.23111 0.770693
0.054947 0.862901 -0.045792 0.174389 0.96292 -0.20038
-0.004856 -0.53552 -0.074785 0.79121 0.032944 -0.610533
-0.064497 -0.537945 0.059044 0.358979 -0.176242 0.915806
-0.135785 -0.081214 0.061225 -0.945069 0.008927 0.322493
-0.458157 0.136229 0.003925 0.55562 -0.823377 -0.04342
0.17358 -0.035901 -0.098456 0.849562 -0.081228 -0.519269
0.12751 -0.285652 -0.093784 0.401261 -0.026096 -0.915258
-0.265835 0.288139 -0.014088 0.629138 -0.627734 0.454584
-0.087302 0.546521 0.02832 -0.037049 0.741444 0.669788
-0.028271 0.600692 -0.048659 -0.692152 0.714914 -0.054774
-0.070304 0.025609 0.118341 -0.384783 0.36477 0.845615
0.034915 -0.31142 -3e-05 -0.955405 -0.059548 0.28844
-0.065622 0.547422 0.029691 -0.153926 0.667411 0.722556
-0.232339 0.415289 -0.087495 -0.33038 0.437772 -0.834862
-0.332144 0.33529 -0.056308 -0.649776 0.749005 -0.119801
0.125115 0.294499 -0.12839 0.584609 -0.044736 -0.810056
-0.092057 -0.373729 -0.07193 -0.543647 -0.032099 -0.838171
0.098412 -0.473167 -0.100169 -0.519897 0.034897 -0.853121
0.134552 -0.812708 -0.11833 0.240911 -0.209819 -0.944552
-0.090748 -0.533439 -0.094721 -0.458579 0.095984 -0.880171
-0.036756 -0.58254 -0.097177 0.388275 -0.026696 -0.920606
-0.11781 -0.198056 0.095052 -0.745545 -0.008676 0.663884
-0.080118 -0.299095 -0.08014 -0.589934 -0.061824 -0.804916
0.178234 0.204728 -0.036075 0.924477 0.020022 -0.380368
-0.397531 0.250002 0.007528 -0.238922 0.343846 0.905527
0.183789 -0.571231 -0.074159 0.742472 -0.032529 -0.66881
0.181708 0.220993 -0.023798 0.982732 0.004314 -0.181087
-0.093534 0.497246 0.0587 -0.078212 0.301631 0.949482
0.213857 -0.0616 0.007646 0.997605 0.034541 -0.057598
0.203004 -0.232705 -0.039839 0.939616 -0.145597 -0.305115
0.509453 0.170975 0.018208 -0.010307 0.180556 0.932682
0.20246 -0.096306 0.056738 0.852629 -0.042944 0.518678
0.202537 -0.177119 0.036548 0.947101 -0.04892 0.316424
-0.439302 0.153009 -0.01511 0.590111 -0.800816 -0.085064
-0.07759 0.2163 0.086468 -0.572822 0.138552 0.807765
0.088198 -0.693439 0.035923 -0.096499 0.088202 0.989626
0.150022 0.342976 0.067558 0.727101 -0.089682 0.680541
0.127173 0.269296 0.093832 0.5929 0.047255 0.803809
0.024613 -0.323473 -0.018928 0.900165 0.016166 -0.430466
0.192922 -0.004642 0.066289 0.790961 -0.125034 0.585582
0.111137 -0.864835 -0.005563 -0.299892 -0.944546 -0.07268
0.082045 0.705526 -0.0591 0.780833 -0.475192 -0.401759
0.013708 0.750853 -0.115702 -0.290918 -0.359491 -0.884321
-0.102395 0.023944 0.101413 -0.548716 0.205509 0.809343
0.114817 0.517203 -0.134191 0.032365 0.417507 -0.904536
0.14875 -0.164024 0.100028 0.25172 -0.265265 0.93039
0.030452 0.02074 -0.155274 -0.162367 -0.449065 -0.871952
0.0458 0.136079 -0.125793 -0.12404 0.412681 -0.901817
0.027035 -0.358629 0.009994 0.997991 -0.045059 0.032381
0.052928 0.265419 0.123836 0.213147 0.129689 0.968296
0.184091 -0.661649 0.015009 0.641174 -0.116416 0.753942
-0.014799 -0.648473 -0.082513 0.651953 0.05033 -0.756547
-0.024293 0.199209 -0.118179 -0.260009 -0.412309 -0.872478
0.023877 0.765692 -0.121196 -0.072494 -0.050631 -0.995851
0.134841 0.549647 0.008236 0.217623 0.724066 0.654181
0.519529 0.176265 0.016108 -0.226474 0.49109 0.833339
-0.291399 0.379803 -0.045708 -0.957278 0.207067 -0.010096
-0.087301 0.366927 0.075023 -0.710215 -0.12836 0.691875
0.205399 -0.301157 -0.008406 0.991607 -0.009876 -0.123847
0.317858 0.308582 -0.108802 -0.591191 -0.687825 -0.415679
-0.089562 -0.01443 -0.113398 -0.642202 -0.115646 -0.757432
0.048672 -0.381251 -0.049413 -0.907487 0.001823 -0.393711
-0.428199 0.238762 -0.026103 -0.730992 0.682101 0.005039
-0.109198 -0.11109 -0.069207 -0.754405 -0.099019 -0.64884
0.060494 -0.793647 -0.013546 -0.962688 -0.231429 0.004449
-0.192258 0.359796 -0.002841 0.457074 -0.721679 0.517917
0.048532 0.042703 0.134643 0.091223 0.136366 0.985732
-0.133199 -0.156176 -0.024978 -0.85447 -0.133606 -0.499118
-0.318238 0.29603 0.004994 -0.152892 0.072565 0.984939
0.03025 -0.195813 0.033359 0.972508 -0.031707 0.229916
0.182274 0.006462 -0.080883 0.869545 0.068564 -0.483263
-0.031133 0.356134 0.105791 -0.009797 -0.075602 0.996988
-0.180905 0.360235 -0.050617 0.646663 -0.726756 -0.231404
0.175529 -0.798193 -0.014923 0.920643 -0.338717 0.180614
-0.060367 0.563447 0.010878 -0.120429 0.791229 0.59843
0.00777 -0.436017 -0.048134 0.787312 0.018137 -0.616069
-0.068117 -0.270553 0.10987 0.061306 -0.144277 0.987467
-0.145699 0.393302 -0.01537 0.750259 -0.651602 0.109254
-0.130868 -0.171247 -0.023547 -0.874903 -0.160511 -0.456371
0.017816 -0.770197 -0.069785 0.987582 -0.000895 -0.153175
0.083438 0.614718 -0.058969 0.537507 0.670411 -0.502589
0.205943 -0.344097 0.001183 0.998926 -0.012502 0.021317
0.064421 0.632488 -0.061136 0.494005 0.315583 -0.808122
-0.079651 0.355185 0.082874 -0.742199 -0.057441 0.666186
0.057231 -0.127071 0.069785 -0.748891 0.208939 0.62215
-0.022084 -0.837825 0.017595 0.975769 -0.174495 0.034747
0.420084 0.292066 -0.047696 0.321359 0.629235 0.706681
-0.133693 0.040891 -0.026627 -0.95926 0.158568 -0.230057
0.020251 -0.356049 -0.027385 0.915114 -0.017213 -0.401402
-0.048259 -0.862837 -0.083082 0.044824 -0.997185 0.054484
-0.154701 0.547533 -0.035318 -0.506775 0.786297 -0.337674
-0.113648 0.294589 -0.056481 -0.974135 -0.156952 -0.153087
-0.025364 0.31635 0.110868 -0.432613 0.142804 0.878122
-0.115933 -0.646369 -0.087318 -0.669558 0.04498 -0.739892
0.039983 0.735761 0.105803 0.418256 0.124026 0.839287
0.167157 0.329697 -0.08972 0.746913 -0.33097 -0.575046
0.046209 -0.168737 0.059364 -0.890006 -0.039613 0.450057
0.068611 -0.083112 -0.125324 -0.272965 -0.437402 -0.856302
0.170991 0.256611 0.047411 0.744779 0.079365 0.662169
0.104471 -0.583659 -0.095909 -0.491639 -0.128643 -0.859957
0.085522 -0.86058 0.077251 -0.708943 -0.667626 -0.141132
0.014353 -0.281268 -0.045133 0.819299 -0.102983 -0.561574
0.057289 -0.682799 0.016548 -0.840559 0.137146 0.520244
0.003405 -0.208983 0.099577 0.64773 -0.113463 0.751508
0.005786 -0.089622 0.121186 0.386471 -0.155987 0.908371
0.075787 0.099406 -0.142543 0.088761 0.40708 -0.905701
-0.069323 -0.698095 -0.11434 -0.201761 0.259402 -0.942303
0.041472 0.870463 -0.014373 0.027355 0.995957 -0.013724
-0.141871 -0.102253 -0.014788 -0.955926 -0.023157 -0.289605
-0.363 0.253318 -0.083828 0.00495 -0.268159 -0.961695
0.246607 0.428149 -0.007247 0.457714 -0.354839 0.812663
0.534544 0.141587 0.02781 -0.779735 -0.267208 0.525472
-0.05162 0.384035 -0.125967 -0.200026 -0.048981 -0.97673
0.162372 -0.198657 0.09159 0.24402 -0.145805 0.957516
0.204808 -0.313714 0.020667 0.984081 -0.03126 0.166127
-0.000986 -0.188938 -0.070556 0.643754 0.01349 -0.764981
0.183188 -0.538711 0.0379 0.789337 -0.119994 0.601046
0.161986 0.446503 0.055122 0.740307 0.081014 0.666627
0.204444 -0.259748 0.029312 0.990349 0.007142 0.132712
-0.131818 -0.267913 0.041877 -0.976441 -0.182431 0.099226
-0.00207 -0.719582 -0.091197 0.61408 0.235947 -0.752302
-0.038907 -0.293821 -0.091203 0.211894 -0.085219 -0.973038
-0.055345 -0.815514 0.07282 -0.037551 0.896715 0.433602
-0.124032 -0.670596 -0.025137 -0.951164 -0.102435 0.290971
0.001187 -0.683074 0.012417 0.772937 -0.193211 0.600308
0.450213 0.256467 -0.105113 0.68952 -0.105606 -0.710642
-0.154551 0.429224 -0.093968 0.077441 -0.104592 -0.990425
0.163355 0.193855 -0.066756 0.793341 0.039197 -0.607013
0.050995 0.694344 -0.077934 0.216433 -0.599749 -0.769591
0.030852 0.251416 0.12755 0.011093 0.036737 0.999186
0.085968 -0.111579 0.096194 -0.572177 -0.146182 0.806684
0.62861 0.048276 0.015195 -0.850807 -0.383643 -0.330941
-0.121491 0.06555 0.060636 -0.955475 0.177195 0.234862
0.037052 -0.32548 -0.031121 -0.964007 -0.02143 -0.2645
-0.124744 0.037769 -0.055541 -0.623412 0.037145 -0.759877
0.01627 -0.222228 -0.050572 0.866274 -0.016774 -0.497505
0.086672 0.687756 0.025825 0.877463 -0.476073 0.033148
0.181814 0.239085 0.022795 0.989926 -0.013276 0.139153
0.198712 -0.405354 0.022482 0.955745 -0.06552 0.286286
-0.020049 0.061625 -0.139945 -0.244617 0.272426 -0.929935
0.103809 -0.329101 -0.100169 -0.089361 0.018237 -0.989263
0.169393 -0.173853 -0.080421 0.663384 -0.035396 -0.747002
0.074149 -0.729635 0.034562 0.004851 -0.200951 0.96957
-0.079888 0.516952 0.05162 -0.11856 0.504461 0.854461
-0.002585 -0.735434 0.001346 0.635061 -0.374697 0.665979
-0.014443 -0.108746 -0.097306 0.499572 -0.350324 -0.791186
0.089938 -0.849507 0.011542 -0.85161 -0.476672 -0.084855
0.074544 0.360278 0.104538 0.21983 0.154612 0.962478
-0.032578 0.271468 -0.129351 -0.177804 -0.038175 -0.98191
0.062195 0.184965 0.127796 0.145963 0.029326 0.988732
-0.089552 0.333096 0.068783 -0.882214 -0.010321 0.469173
0.002186 -0.546973 0.021556 0.732117 -0.158046 0.662431
0.042824 0.247928 -0.126976 -0.201386 -0.024374 -0.977547
0.039275 -0.073079 0.117302 -0.001539 -0.535079 0.843851
0.171697 -0.304598 -0.060214 0.702295 -0.059115 -0.709392
-0.27118 0.290588 -0.006501 0.48518 -0.577936 0.653414
-0.046154 0.257675 0.103434 -0.613832 0.046559 0.786473
0.054549 0.58456 -0.096587 0.014498 0.581252 -0.813226
-0.099141 0.351555 0.058081 -0.765934 -0.248111 0.591189
0.071051 -0.227629 -0.083312 -0.616442 -0.085379 -0.782063
0.477893 0.210524 -0.002453 0.211626 0.461918 0.818436
-0.102454 -0.168266 0.109441 -0.650553 -0.020315 0.757743
-0.012163 0.141091 -0.114756 -0.2239 0.49621 -0.836337
0.049356 0.618037 0.025985 0.27829 -0.189348 0.933517
0.027529 -0.291964 0.033447 0.994605 -0.011846 0.10298
0.097558 0.127473 -0.125884 0.3025 0.367609 -0.875677
0.043113 -0.316985 0.022903 -0.990283 -0.019751 0.134644
-0.098236 0.03258 -0.101963 -0.737642 0.205338 -0.643164
-0.183168 0.361724 -0.061775 0.628512 -0.720534 -0.292285
0.156283 -0.845602 0.163527 0.812668 0.459866 0.345005
-0.051592 -0.189437 0.121652 -0.016154 -0.110909 0.991624
0.024276 -0.570061 -0.008355 0.904191 0.070385 0.413057
-0.008124 0.442852 -0.129362 0.10155 -0.006782 -0.994772
-0.129282 0.124507 0.001986 -0.989183 0.141867 0.019313
-0.045602 -0.478486 -0.095677 0.173257 0.10765 -0.977838
-0.512839 0.129875 0.014799 -0.85126 0.473552 -0.135522
0.169422 0.360111 0.049177 0.802458 -0.103732 0.587405
-0.19213 0.43755 0.041907 0.088498 -0.299231 0.946293
0.079688 -0.739075 0.031026 -0.034636 -0.548513 0.835267
-0.131392 0.029203 0.058089 -0.857574 0.179807 0.480166
-0.037999 0.812603 -0.0503 -0.958246 -0.21594 -0.170354
-0.000361 0.185707 -0.11751 0.047034 -0.146393 -0.987505
0.476103 0.254089 -0.045875 0.713226 0.69522 0.081456
-0.02577 -0.025819 -0.135435 -0.097758 -0.22194 -0.969503
-0.291656 0.393251 -0.043651 -0.957084 0.166897 0.027924
-0.084813 -0.728067 0.009121 -0.436681 -0.182402 0.846775
0.363311 0.363865 -0.114339 0.700094 0.611707 -0.329353
-0.111598 -0.766358 -0.010065 -0.699641 0.017778 0.628952
0.182566 0.494789 -0.132125 0.077023 0.31352 -0.945708
-0.116104 0.229936 -0.032432 -0.942942 0.040938 -0.298494
-0.128453 0.39752 0.002657 -0.948928 -0.288382 0.085143
-0.103217 0.112312 -0.072141 -0.808597 0.123659 -0.572392
-0.339691 0.220209 -0.018156 0.59794 -0.791618 0.05598
0.641904 0.02255 0.051211 0.290368 -0.86191 -0.004194
-0.048545 -0.591744 0.039061 0.481402 -0.291019 0.826746
0.136119 -0.648832 0.032677 0.173633 0.006913 0.983285
0.134601 -0.499755 0.056177 -0.44935 -0.139432 0.880833
0.084546 0.706861 0.059693 0.830318 -0.136281 0.538779
0.01169 0.174286 -0.116452 -0.01872 0.026042 -0.996379
0.000464 -0.682483 -0.077858 0.488372 0.216791 -0.845074
0.202125 -0.376997 0.014129 0.943804 0.004836 0.330003
-0.009079 -0.458404 0.055227 0.672128 -0.222876 0.705765
0.292131 0.48399 -0.06013 0.772224 0.621296 0.111053
0.087146 -0.278529 -0.09375 -0.431136 0.062135 -0.90003
-0.122382 0.106553 0.04118 -0.934194 0.094971 0.342803
0.259478 0.393832 -0.137316 -0.33926 -0.1859 -0.918777
0.441276 0.222791 -0.026566 -0.859821 -0.2426 0.434024
-0.220789 0.473421 0.008344 -0.84804 0.413386 0.327942
-0.009338 -0.304978 -0.06933 0.704353 -0.129944 -0.697597
0.096083 -0.391372 -0.096104 -0.461892 -0.07006 -0.881096
0.004664 -0.074564 -0.104805 0.329075 -0.629811 -0.697354
0.132015 0.526991 -0.128107 0.141175 0.414776 -0.89692
0.079406 -0.753781 -0.055688 -0.862625 0.161545 -0.474061
0.296271 0.344173 -0.126158 -0.522598 -0.450193 -0.723104
-0.343816 0.322036 -0.019792 -0.688791 0.662374 0.275478
-0.086907 0.21982 0.079203 -0.580524 0.13174 0.803357
-0.08202 0.094855 -0.100487 -0.649874 0.208444 -0.730765
-0.052068 -0.573677 -0.102562 0.195918 -0.006592 -0.978127
0.002122 -0.719248 -0.001513 0.801575 -0.06402 0.593847
-0.143207 -0.055037 -0.003407 -0.994504 0.024106 -0.091273
-0.020206 0.796996 0.04027 -0.910527 0.186292 0.367778
-0.039324 -0.195968 -0.09306 0.242662 -0.081416 -0.966344
-0.015513 -0.367999 0.083032 0.414806 -0.149956 0.897315
-0.395413 0.273259 -0.015508 -0.649602 0.691901 0.314934
0.165525 0.529121 0.019057 0.286993 0.618057 0.730186
0.07148 0.751016 0.068499 0.416352 0.125829 0.89404
0.04607 0.869882 -0.005156 0.14383 0.982834 0.086653
0.169822 -0.818603 -0.044462 0.780021 -0.625429 0.00735
0.186121 -0.385672 0.057898 0.840527 -0.029315 0.539688
-0.100487 -0.090885 -0.082804 -0.706827 -0.133397 -0.694449
-0.056712 -0.863251 -0.102522 -0.010655 -0.999724 -0.012781
0.178446 -0.635549 0.019324 0.36937 0.02549 0.927443
-0.098101 -0.511674 -0.087661 -0.558018 0.11726 -0.82004
-0.417342 0.168561 -0.022816 0.636813 -0.763892 -0.100523
-0.145007 0.414109 -0.084549 0.336648 -0.724773 -0.590812
0.087098 0.815191 0.030914 0.812999 0.330088 0.478933
-0.036197 0.470697 -0.130873 0.028584 0.114576 -0.992761
0.411842 0.239022 -0.036409 -0.313997 -0.564248 0.745809
0.032028 0.869659 -0.006054 -0.203162 0.97365 0.068582
0.053648 -0.613539 -0.046665 -0.83946 -0.095475 -0.534006
0.335652 0.306611 -0.050665 -0.543665 -0.563941 0.620328
-0.013497 0.17714 -0.114284 -0.294198 -0.205774 -0.928984
0.59854 0.08444 0.077186 -0.816926 -0.073681 0.550905
0.305094 0.346025 -0.132342 -0.392478 -0.337748 -0.854722
0.014105 -0.026953 -0.137369 -0.014161 -0.37818 -0.92533
0.175744 -0.805094 -0.062593 0.961119 -0.269689 -0.05066
-0.127166 -0.298459 0.049419 -0.989773 -0.107246 0.085616
0.200605 0.53395 0.001605 0.253395 0.63743 0.727264
-0.003577 0.554769 -0.110179 0.021291 0.495508 -0.867627
0.151849 -0.37636 -0.082153 0.560375 0.172856 -0.809789
0.075529 0.833037 -0.077747 0.585412 0.636626 -0.501685
-0.001424 0.580288 -0.095491 -0.070821 0.56929 -0.817976
0.064692 -0.423992 -0.068206 -0.744658 -0.000454 -0.667369
0.087667 0.041543 -0.157245 0.286031 0.226068 -0.926745
0.158224 -0.674921 -0.078858 0.630451 -0.076153 -0.771944
-0.014889 -0.708564 0.022129 0.631171 -0.212265 0.744302
0.073455 -0.050334 -0.140947 -0.203646 -0.414901 -0.886037
0.073657 -0.350552 0.056515 -0.574454 -0.32202 0.749371
-0.007919 -0.380753 0.07676 0.588752 -0.22559 0.775575
0.024782 0.744108 -0.11494 -0.096576 -0.440606 -0.890664
0.036054 -0.342819 -0.014491 -0.99397 -0.086644 0.009142
0.44802 0.196582 -0.054357 -0.541402 -0.834643 0.045847
0.195929 -0.662784 -0.010717 0.953097 0.00161 0.296825
0.004718 0.102577 -0.134214 -0.143262 0.29706 -0.942615
-0.096019 0.572737 -0.038978 -0.377908 0.902429 -0.122304
0.062574 0.578998 -0.100515 -0.006683 0.657604 -0.752901
-0.167034 0.519464 0.035171 -0.513233 0.596656 0.614202
0.131677 -0.447251 0.062222 -0.574147 -0.212591 0.788787
0.121006 -0.531034 -0.107844 -0.132027 -0.010322 -0.988029
-0.120509 0.336245 -0.041014 -0.99984 -0.015754 0.003086
0.143191 0.276935 -0.10764 0.810233 -0.096189 -0.577374
0.05012 -0.293733 -0.055674 -0.822455 -0.014716 -0.568597
0.195277 -0.079241 -0.056472 0.861047 0.013588 -0.508317
0.027637 -0.174121 0.051053 0.942891 -0.157761 0.289018
-0.108224 -0.050733 -0.084785 -0.779644 -0.148013 -0.60832
-0.040763 0.068999 -0.134199 -0.369413 0.252601 -0.891631
0.035968 -0.197119 -0.037952 -0.677585 -0.281438 -0.624623
0.590984 0.122108 0.035866 0.727253 0.685714 0.010974
-0.070748 -0.861351 -0.119945 -0.142172 -0.966367 -0.199976
0.162431 -0.85292 -0.058294 0.972667 -0.147313 -0.044456
0.194754 -0.159831 0.065473 0.908295 -0.036372 0.413268
-0.110292 -0.624756 0.03234 -0.868623 -0.016739 0.494877
-0.093175 0.222981 -0.070541 -0.735786 -0.346916 -0.581032
-0.007303 -0.5615 -0.077345 0.753515 -0.058442 -0.654251
-0.058766 0.214889 -0.105332 -0.594377 -0.283079 -0.752101
-0.016466 0.713281 -0.063273 -0.917249 -0.249278 -0.274179
-0.134682 0.52495 0.044361 -0.136209 0.576176 0.805194
0.166487 -0.863168 0.101955 0.219874 -0.965476 0.020195
-0.131218 0.065694 -0.011801 -0.944814 0.299108 -0.100332
-0.123021 -0.007523 -0.066577 -0.864635 0.02665 -0.501511
0.097876 0.746295 -0.061743 0.972013 -0.148153 -0.181965
-0.08011 -0.777353 -0.125939 -0.599466 0.256406 -0.755857
-0.010142 0.621322 -0.002154 -0.905993 0.060372 0.400531
-0.136947 -0.103231 -0.028383 -0.937735 -0.054575 -0.342829
0.047091 0.156603 0.130363 0.121419 0.039586 0.991801
0.013064 -0.153321 -0.051697 0.834556 -0.051419 -0.547598
-0.11387 0.559504 -0.052667 -0.438893 0.794655 -0.415829
0.105421 -0.43917 0.04562 -0.613838 -0.382867 0.690285
-0.105466 0.370534 -0.098599 -0.628246 -0.242625 -0.738618
0.024068 -0.236598 -0.030064 0.422184 -0.084907 -0.886368
-0.084612 -0.156069 -0.087052 -0.616298 -0.176363 -0.766527
-0.131754 -0.211511 -0.009248 -0.907254 -0.117108 -0.40361
0.319249 0.41302 -0.13552 0.330826 0.513845 -0.789519
0.089636 -0.835866 0.070805 -0.959799 0.275254 0.052985
0.132927 -0.86992 0.08423 0.006005 -0.999907 0.010047
0.085566 0.583616 -0.096046 0.068867 0.755165 -0.650734
0.120598 0.541763 0.021553 0.34208 0.633168 0.693707
0.120606 -0.827439 0.158619 -0.078797 0.947679 0.251309
0.518964 0.212973 -0.02893 0.481884 0.822039 0.30019
0.126728 0.221099 -0.111153 0.625709 -0.289957 -0.724105
0.162721 -0.0519 -0.109687 0.721455 -0.192953 -0.664007
-0.036233 0.512699 0.062522 -0.160202 0.531349 0.831779
0.324274 0.345469 -0.038317 0.143502 -0.106482 0.975905
-0.113211 0.072413 -0.068196 -0.8573 0.145515 -0.492213
-0.113769 0.086876 -0.061726 -0.870107 0.165548 -0.464074
0.150663 0.261722 -0.093211 0.862799 -0.094236 -0.496084
0.066616 0.410202 0.095814 0.132704 0.240991 0.959355
-0.073471 -0.085164 0.119922 -0.304169 -0.036261 0.948949
-0.35872 0.305419 -0.013687 -0.500232 0.727771 0.461273
-0.415655 0.221333 0.014097 -0.148543 0.247613 0.953629
0.018868 -0.229997 0.072984 0.954908 -0.031483 0.283795
0.059522 0.522866 0.0529 0.040466 0.530197 0.846083
-0.17637 0.442988 -0.091958 -0.144079 0.194823 -0.969784
0.120451 -0.402363 0.066815 -0.316071 -0.201869 0.926188
-0.305155 0.361752 -0.038184 -0.67958 0.73144 0.036318
-0.245852 0.437402 -0.056642 -0.65967 0.633579 -0.40039
0.120285 0.525666 -0.129524 0.06936 0.39014 -0.917614
0.135513 0.086218 -0.118764 0.639282 0.235116 -0.731575
-0.020015 0.271466 -0.130919 -0.054523 -0.050983 -0.996473
0.025212 0.458196 -0.126606 -0.062626 0.057298 -0.995975
0.05872 0.039693 0.134683 -0.022611 0.209722 0.97722
0.564528 0.154372 -0.005705 0.849947 0.443712 -0.269119
-0.112748 -0.189453 0.100252 -0.695914 0.003999 0.717704
-0.025383 -0.476173 0.061477 0.413774 -0.322528 0.849507
0.620952 0.04936 0.081417 -0.827718 -0.554565 0.016418
-0.073805 -0.769957 0.020657 -0.484387 0.284834 0.805126
0.572806 0.135376 0.050786 0.173015 0.576195 0.535325
-0.314546 0.336761 -0.080706 -0.499692 0.605031 -0.617952
0.022209 -0.728711 -0.057409 0.975388 -0.009101 -0.210124
0.179063 0.103108 -0.060942 0.795769 0.282374 -0.535238
0.109461 -0.646264 -0.091719 -0.408149 -0.076017 -0.909724
0.064598 0.635159 0.022309 0.619717 -0.28462 0.727362
0.120374 -0.199716 0.096301 0.051126 -0.186516 0.980401
-0.177311 0.480135 -0.081225 -0.434983 0.317381 -0.842593
-0.053149 -0.641766 -0.105053 0.254236 0.068586 -0.963122
0.100209 0.71751 -0.01144 0.945671 -0.286041 -0.060172
-0.034192 0.316199 0.104808 -0.527109 0.125237 0.837699
0.059712 -0.380385 -0.064046 -0.771473 -0.030218 -0.635442
0.200385 0.061669 0.02942 0.966151 0.215865 0.139147
-0.131563 -0.576334 -0.028737 -0.968538 -0.138301 0.204316
0.197847 0.479403 -0.134219 0.112089 0.107568 -0.986634
0.478614 0.21995 -0.073539 0.264479 -0.295877 -0.916122
0.097343 -0.042414 -0.145714 0.051177 -0.319764 -0.945229
-0.126123 -0.654282 -0.073011 -0.918637 -0.012563 -0.376569
-0.032327 -0.713579 -0.109827 0.520048 0.205082 -0.828754
0.198374 0.079214 -0.026392 0.978338 0.147669 -0.13321
0.151335 -0.831651 -0.103633 0.633633 -0.229483 -0.736588
0.195405 -0.377253 0.035497 0.945041 -0.048605 0.323162
-0.099164 -0.500922 -0.085341 -0.539507 0.133696 -0.830296
0.172245 -0.809819 -0.01124 0.937239 -0.263228 0.176056
0.075884 0.308133 -0.141146 -0.199458 -0.095112 -0.97492
0.135652 0.419108 0.079056 0.465135 0.112562 0.874515
0.145498 -0.844627 0.17881 0.430396 0.48315 0.730824
0.075548 0.087325 -0.14684 0.066607 0.337239 -0.937661
0.042206 -0.096467 0.099661 0.466051 -0.550318 0.690171
0.17206 -0.656542 -0.071767 0.58643 -0.222459 -0.77873
-0.005076 -0.341648 -0.060265 0.713165 -0.067265 -0.697625
-0.042906 -0.133684 0.124375 -0.021627 -0.099474 0.994665
-0.048196 -0.76334 0.021302 0.218247 0.668007 0.705903
-0.013087 -0.716963 0.017816 0.684768 -0.223444 0.693094
0.003065 -0.827484 -0.048417 0.901248 -0.424613 0.064981
0.154787 0.552454 -0.001342 0.144127 0.736306 0.660902
0.611343 0.094198 0.044654 0.773815 0.633345 0.00637
0.171591 -0.199145 -0.077074 0.627465 -0.099152 -0.771927
0.036002 0.323394 -0.127447 -0.187972 0.009077 -0.980135
0.187456 0.130699 -0.028693 0.847817 0.20014 -0.488599
0.163007 -0.836943 -0.029092 0.985325 0.168312 0.012644
-0.181891 0.527504 -0.027639 -0.69385 0.706861 -0.13079
0.095945 0.599177 -0.072918 0.424294 0.821711 -0.347676
-0.059187 -0.86278 -0.077786 0.009084 -0.998525 0.052389
0.178609 -0.386459 0.06744 0.606967 -0.051667 0.790316
0.155613 -0.579215 0.04164 0.089317 -0.12451 0.987695
-0.02583 0.289861 -0.131182 -0.11871 -0.002546 -0.991851
0.122195 0.342941 0.090794 0.444166 0.0671 0.892454
0.150545 0.248909 0.072096 0.775372 0.061399 0.628248
-0.205705 0.374557 0.016932 0.116493 -0.531839 0.838687
0.018031 -0.61959 0.004872 0.765738 0.016392 0.641269
0.176383 0.473179 0.038698 0.586499 0.255978 0.766953
0.614973 0.059239 0.029986 -0.742695 -0.639248 -0.186444
0.090839 0.615205 -0.037617 0.85257 0.500972 0.063902
-0.135981 -0.540436 -0.023482 -0.990284 -0.088851 0.099607
0.482521 0.246936 -0.058708 0.75577 0.652068 -0.039558
-0.066186 -0.241547 -0.090549 -0.301939 -0.000577 -0.949782
0.171859 -0.496843 -0.089096 0.693363 0.005792 -0.720468
0.011065 -0.328863 0.067675 0.753291 -0.218505 0.619837
0.206934 -0.206862 -0.016148 0.998837 -0.039227 -0.026254
-0.071101 0.3372 0.087095 -0.519745 -0.15402 0.840005
0.027984 -0.246325 -0.030077 0.141931 -0.090839 -0.902832
0.180986 -0.782479 -0.003557 0.899148 -0.381255 0.206693
0.083646 0.804206 0.045699 0.878058 0.265075 0.393988
-0.036227 -0.750885 0.004736 0.554644 -0.210042 0.785045
0.378023 0.290353 -0.129658 -0.063687 -0.153745 -0.980163
0.188564 -0.524614 -0.070808 0.800858 0.002113 -0.597438
-0.028404 0.826958 -0.069945 -0.653402 0.603611 -0.451654
-0.284032 0.262885 -0.066188 0.628554 -0.660471 -0.379813
0.212776 -0.13716 -0.008434 0.975222 -0.193726 -0.064851
-0.075286 -0.147647 0.119428 -0.298716 0.004556 0.951146
0.019755 0.504545 -0.123063 -0.009637 0.01777 -0.999157
-0.076239 0.303604 0.081802 -0.58392 0.005615 0.811393
-0.112901 0.296058 0.007062 -0.988953 -0.098099 0.109225
-0.057104 -0.252028 -0.092953 -0.154101 0.020314 -0.98491
0.042169 0.348383 -0.13001 -0.339128 -0.067957 -0.932919
-0.013783 -0.757831 -0.115046 0.68199 0.337133 -0.647987
-0.281162 0.278483 -0.079516 0.532747 -0.528369 -0.659832
0.009979 -0.405416 0.047009 0.859457 -0.1989 0.470835
0.103147 -0.024489 -0.151286 0.164399 -0.233091 -0.95698
-0.136668 -0.041011 -0.032753 -0.964486 0.009255 -0.26078
-0.119026 -0.635042 -0.083143 -0.724093 0.050687 -0.683075
0.073397 0.806881 0.062535 0.774228 0.261813 0.57242
-0.034821 0.571665 0.005353 -0.143508 0.778392 0.609402
-0.095543 -0.512036 0.064829 -0.834116 -0.101704 0.535647
0.157374 -0.39719 -0.083223 0.524244 0.159019 -0.836198
0.001703 -0.655972 -0.070967 0.556578 0.141532 -0.818631
0.145539 0.291223 0.073673 0.786022 0.04764 0.615209
0.177738 -0.204949 -0.0713 0.592493 -0.10484 -0.798377
-0.262612 0.281812 -0.04911 0.723493 -0.686441 -0.050175
0.034689 -0.026409 0.133605 -0.186702 -0.220563 0.939909
0.084694 -0.012767 0.131664 0.222308 -0.276543 0.927137
-0.078048 -0.535336 -0.099487 -0.267277 0.099794 -0.958359
0.184073 -0.617837 -0.070425 0.672093 -0.082053 -0.735717
0.007205 -0.138717 -0.062719 0.804074 -0.123513 -0.581474
0.197409 0.547265 -0.009673 0.304686 0.74238 0.594848
0.169447 0.270974 -0.056029 0.902545 -0.094483 -0.418733
0.016558 -0.760277 -0.035692 0.909813 -0.231864 0.316667
-0.134964 -0.472986 0.012343 -0.929726 -0.101107 0.332172
0.194414 0.108158 0.022567 0.941586 -0.228123 0.241451
-0.213011 0.347029 -0.001227 0.460254 -0.645131 0.603501
-0.233048 0.463285 -0.018971 -0.774584 0.612583 0.133613
-0.160407 0.468802 -0.091595 -0.374563 0.157768 -0.913431
0.023859 -0.593012 -0.003718 0.877897 0.045975 0.467561
-0.11529 -0.365027 -0.050035 -0.769383 0.087503 -0.628789
-0.144093 -0.073752 0.005786 -0.999441 0.012054 -0.021688
0.045191 -0.196715 -0.05851 -0.869185 -0.154231 -0.454678
0.119367 0.426522 0.083352 0.257973 0.177477 0.949019
0.103371 -0.385516 -0.100341 -0.296381 -0.048284 -0.948678
0.198644 -0.671849 -0.02585 0.994306 -0.021511 -0.043897
0.334377 0.373625 -0.050712 0.688244 0.364613 0.620502
0.141964 -0.829146 0.131508 0.463409 0.881724 0.076
0.073658 -0.808262 -0.064303 -0.926191 0.010828 -0.369685
0.020198 -0.157232 0.082549 0.902935 -0.157675 0.39677
-0.277736 0.401763 -0.067289 -0.498997 0.785156 -0.346684
-0.1102 -0.230086 -0.04945 -0.855036 -0.030749 -0.516865
0.349536 0.381051 -0.106467 0.847094 0.504752 0.004792
-0.002044 0.375049 0.107556 -0.111162 0.184452 0.975241
0.204768 -0.534009 -0.033087 0.983921 0.011353 -0.176348
-0.231065 0.327332 -0.009357 0.600692 -0.662895 0.443969
0.201388 -0.580911 -0.013775 0.984645 -0.090754 0.143111
0.15271 -0.058301 0.106282 0.506724 0.000949 0.861992
0.155465 0.137371 -0.081943 0.768829 0.12313 -0.627366
0.050029 -0.644544 -0.018459 -0.990343 -0.125317 -0.029335
0.157207 0.361232 -0.113764 0.579169 -0.297819 -0.758537
-0.066069 0.480497 0.072594 -0.185172 0.400959 0.895165
0.117405 -0.793407 0.050917 0.115162 0.546659 0.828544
-0.037412 0.778912 -0.046432 -0.989907 0.078346 -0.116556
0.091188 -0.071402 0.117274 -0.077537 -0.580531 0.808897
0.097187 -0.866779 0.049004 -0.575494 -0.811571 -0.075431
