0.116783 -0.281298 0.083079 -0.026686 -0.064148 0.997568
0.12945 -0.864855 0.157638 -0.026087 -0.984875 0.168905
-0.009343 0.660632 0.012248 -0.849594 -0.386644 0.348778
-0.339242 0.3201 -0.010057 -0.600223 0.52408 0.597216
0.109989 0.244826 0.104716 0.390413 0.057794 0.917204
0.207462 -0.017613 -0.017789 0.974074 0.055402 -0.21828
-0.126451 -0.537217 -0.062267 -0.876795 0.087988 -0.471941
-0.080284 0.309172 -0.107209 -0.652064 -0.049316 -0.756101
-0.090718 0.467071 0.067628 -0.407718 0.189776 0.888548
0.021504 0.847645 -0.078584 -0.166639 0.803599 -0.569007
0.031005 0.77358 -0.120891 -0.001918 0.038621 -0.999201
0.006695 -0.571781 0.011966 0.657999 -0.089764 0.745783
0.130064 0.580671 -0.081706 0.326317 0.845458 -0.408573
0.28793 0.482726 -0.044435 0.760623 0.564434 0.320258
0.061518 0.595081 0.017957 0.487203 -0.00269 0.871846
0.163623 -0.652387 -0.078928 0.573345 -0.203591 -0.792939
0.152976 0.030255 0.104996 0.490286 0.240249 0.837663
0.05136 -0.078619 0.111202 0.132065 -0.5923 0.792814
0.175627 0.119995 -0.056656 0.848178 0.245077 -0.467917
-0.437215 0.156902 0.019999 0.531427 -0.822511 0.185877
0.070754 -0.23904 -0.082241 -0.646526 -0.04292 -0.76102
-0.037069 0.449808 -0.132083 0.023011 -0.03687 -0.997534
0.093299 -0.419815 0.045093 -0.628483 -0.361557 0.688538
-0.127458 0.377869 -0.046167 -0.982656 -0.172867 -0.001507
-0.154786 0.394979 -0.071125 0.667068 -0.623456 -0.407479
-0.104196 -0.519321 0.048237 -0.825981 -0.051186 0.56039
0.120285 0.525666 -0.129524 0.06936 0.39014 -0.917614
-0.390596 0.272882 -0.006015 -0.542943 0.653414 0.526778
0.095212 0.736773 -0.065981 0.896581 -0.292358 -0.325467
-0.083797 0.481856 0.066291 -0.294905 0.309651 0.902557
0.12477 0.096436 -0.123837 0.596259 0.287603 -0.748751
-0.317503 0.263814 0.005537 0.101229 -0.08343 0.988258
-0.042316 -0.641358 -0.100792 0.436457 0.054065 -0.897371
0.10549 -0.821491 0.085605 -0.360939 0.868184 0.325777
0.166971 0.161603 -0.06439 0.841609 0.018937 -0.538109
0.204923 0.034162 -0.018885 0.975319 0.087262 -0.197217
0.61299 0.092285 0.035052 0.769469 0.637869 -0.017396
-0.183906 0.521865 -0.04024 -0.691943 0.659595 -0.288128
0.190428 0.138786 -0.022376 0.81977 0.041745 -0.567722
-0.063895 -0.654239 0.03118 0.363374 -0.272989 0.890716
0.179229 -0.303621 -0.052598 0.739246 -0.084683 -0.667559
0.148493 -0.749211 -0.091176 0.696508 0.154593 -0.700224
-0.129854 -0.510989 -0.051131 -0.863606 0.069135 -0.498467
0.198825 -0.621113 -0.043649 0.994174 -0.007658 -0.089384
0.477893 0.210524 -0.002453 0.211626 0.461918 0.818436
0.014214 -0.339765 0.05959 0.8033 -0.154687 0.573849
0.169393 -0.173853 -0.080421 0.663384 -0.035396 -0.747002
0.054301 -0.025757 -0.146575 -0.277596 -0.383561 -0.880622
-0.055704 -0.864287 0.071784 -0.004001 -0.999987 0.00119
0.195098 0.366539 -0.075575 0.821889 -0.440143 -0.359939
0.210001 0.555527 -0.065122 0.519425 0.774625 -0.339473
0.139381 -0.864545 0.159287 0.040019 -0.983142 0.176381
-0.100077 0.464474 0.064281 -0.270981 0.078749 0.95795
0.072131 0.124426 0.127688 0.274958 0.039644 0.956847
-0.559398 0.044953 0.014635 0.900987 -0.417468 -0.075074
0.031933 0.852773 -0.072609 -0.032899 0.839273 -0.541305
-0.328347 0.239899 0.003495 0.291038 -0.36932 0.869766
-0.135746 0.023677 0.049655 -0.939739 0.153886 0.296179
0.061683 0.766569 -0.11237 0.432122 -0.080434 -0.897863
0.157915 -0.030299 0.103213 0.578152 0.017553 0.815149
0.080904 0.471609 -0.141115 -0.358265 0.200358 -0.910418
-0.229953 0.465649 -0.009818 -0.833337 0.515671 0.189905
0.311575 0.377896 -0.026623 0.604276 -0.24313 0.748797
-0.112314 0.0469 0.088889 -0.769355 0.090647 0.606957
0.187689 -0.462189 0.044429 0.929829 -0.095755 0.354519
-0.101405 0.336754 0.048256 -0.839882 -0.202657 0.50296
-0.056651 -0.122274 0.123605 -0.207317 0.038746 0.976766
-0.036155 -0.857546 0.120285 0.812474 -0.414061 0.341565
-0.500047 0.151017 0.025628 -0.746345 0.665483 0.005464
3.4e-05 -0.399435 -0.055364 0.624414 0.099111 -0.77465
0.000108 0.039072 0.137125 -0.172983 0.076119 0.98189
0.088612 0.384132 0.097437 0.152989 0.115057 0.981366
0.490609 0.172382 -0.019237 -0.650948 -0.757731 0.007871
-0.034429 -0.093674 0.128021 -0.038004 -0.035188 0.997577
0.131572 -0.097013 -0.122461 0.306546 -0.216037 -0.924851
-0.315405 0.341933 -0.009739 -0.5511 0.574146 0.595041
-0.013473 0.825211 -0.08681 -0.463891 0.659366 -0.59074
-0.485552 0.124429 -0.001077 0.194122 -0.781451 -0.591205
0.080415 -0.211249 -0.090813 -0.44586 -0.181586 -0.87627
-0.343816 0.322036 -0.019792 -0.688791 0.662374 0.275478
-0.475225 0.173317 0.028486 -0.439535 0.843713 0.244501
0.095945 0.599177 -0.072918 0.424294 0.821711 -0.347676
0.053795 -0.705478 0.014922 -0.975837 0.069851 0.197778
0.134684 -0.751694 0.031258 -0.086227 -0.753048 0.634887
-0.049218 0.540601 0.040527 -0.188548 0.634817 0.74872
0.08693 -0.122197 -0.114848 -0.338816 -0.209533 -0.915667
0.052283 -0.311484 -0.0585 -0.814982 0.005868 -0.579392
-0.117841 0.16229 0.041576 -0.871925 0.020227 0.486978
0.17433 -0.541568 0.044801 0.522536 -0.246537 0.809933
-0.321111 0.30715 -0.094567 -0.217134 0.167046 -0.957765
-0.072126 -0.487789 -0.096536 -0.194863 0.090243 -0.975041
-0.045602 -0.478486 -0.095677 0.173257 0.10765 -0.977838
0.059709 0.598069 -0.085305 0.11981 0.652878 -0.747204
0.043211 0.372567 0.106927 0.103089 0.247954 0.958686
0.091072 0.492369 -0.138051 -0.169235 0.256503 -0.950341
0.321333 0.42601 -0.049859 0.736212 0.308947 0.596732
0.014897 -0.706203 -0.016331 0.801627 -0.139927 0.57948
0.140594 0.008446 -0.133009 0.619576 0.129804 -0.772863
-0.093232 -0.551375 -0.095425 -0.465986 0.080106 -0.880313
0.062852 -0.527295 -0.065883 -0.763815 -0.083017 -0.63996
0.159918 -0.491454 -0.097979 0.499508 0.038786 -0.862848
0.33785 0.414298 -0.063093 0.765936 0.484135 0.422031
-0.172909 0.433097 -0.094049 -0.066846 0.126539 -0.989105
0.135254 0.515337 0.038754 0.375498 0.613993 0.693534
-0.070533 -0.864088 0.060756 -0.030378 -0.999516 -0.005426
0.164236 -0.798702 0.015752 0.823457 0.386877 0.409984
-0.001847 0.69451 -0.065161 -0.657428 -0.516563 -0.54798
0.010764 0.485699 -0.124405 0.134394 0.14424 -0.977935
0.095936 -0.412015 -0.095681 -0.475468 0.019272 -0.877783
-0.005138 0.54657 0.039382 0.32101 0.745111 0.580379
-0.078958 -0.076857 0.11831 -0.450659 -0.027738 0.89075
0.157551 -0.864544 0.096394 0.285235 -0.955725 0.011864
-0.494031 0.151152 -0.024612 -0.8115 0.319683 -0.449838
-0.288298 0.395011 -0.025696 -0.782329 0.568584 0.221507
-0.282466 0.383387 -0.004059 -0.882531 0.148245 0.434754
0.083164 -0.766964 -0.067219 -0.840301 0.217613 -0.496031
0.076704 -0.671358 0.026047 -0.549571 0.31308 0.773473
0.199184 -0.004434 -0.044882 0.950407 0.074091 -0.301584
0.265156 0.460582 -0.126832 0.27461 0.515354 -0.811029
-0.009468 0.669677 0.027101 -0.771355 -0.608215 0.166994
0.248295 0.375945 -0.043123 -0.586557 -0.672201 0.448592
0.329118 0.334217 -0.040479 0.012526 -0.209253 0.966075
0.161589 -0.622119 0.024655 0.380438 -0.097556 0.90552
0.139908 0.349416 -0.124013 0.641218 -0.211227 -0.7374
-0.238561 0.391412 0.023096 -0.330543 -0.163054 0.927201
-0.113396 -0.279832 0.095218 -0.726831 -0.051373 0.6845
0.048473 -0.472027 -0.050326 -0.8565 0.007799 -0.514718
0.501465 0.216314 -0.009313 0.313104 0.560303 0.742111
0.01627 -0.222228 -0.050572 0.866274 -0.016774 -0.497505
0.029483 -0.135615 0.078529 0.821399 -0.33404 0.461287
-0.202169 0.478407 0.030323 -0.643788 0.281583 0.710646
-0.047077 -0.006579 0.137984 -0.334975 -0.054144 0.915299
-0.126905 0.387369 -0.072235 -0.970489 -0.158741 -0.168705
0.105949 -0.864761 0.009149 -0.384105 -0.891185 -0.149739
0.132445 -0.020552 0.11571 0.388428 0.001243 0.921132
0.023476 -0.127125 -0.045281 -0.157461 -0.650219 -0.721621
0.003636 0.717457 0.074174 -0.541745 0.11606 0.829474
-0.108923 -0.796514 -0.00464 -0.841009 -0.309597 0.432992
0.34777 0.385491 -0.116369 0.94692 0.135696 -0.152564
-0.128017 0.397871 0.015278 -0.97678 -0.20275 0.063872
-0.114607 0.449888 0.062224 -0.150008 0.026791 0.987718
0.047869 0.340072 0.113795 0.149905 0.169299 0.973555
0.163664 0.43441 -0.137415 0.188411 -0.19639 -0.962069
0.175256 0.338525 0.037586 0.879777 -0.05004 0.471763
0.016472 -0.703821 -0.070117 0.816231 0.080999 -0.569977
0.113225 0.532674 -0.128005 0.068971 0.328365 -0.938725
-0.044473 -0.775704 -0.139786 -0.025612 0.439699 -0.894017
0.173017 -0.687032 0.014982 0.463486 -0.423265 0.777337
-0.126907 -0.31285 0.037322 -0.993495 -0.054814 0.0993
-0.037096 0.797771 -0.040032 -0.997061 -0.029948 -0.062052
0.088252 0.776344 0.052098 0.893858 -0.024013 0.410524
0.070739 -0.529174 -0.074762 -0.718672 -0.070637 -0.691734
0.28021 0.354306 -0.12058 -0.504013 -0.629524 -0.590452
0.196858 -0.708303 -0.028008 0.973289 -0.010029 -0.200592
-0.010419 0.362346 -0.128938 0.026171 -0.011799 -0.999384
-0.079726 -0.860243 -0.115996 -0.315685 -0.890513 -0.270139
-0.091231 0.532546 0.04109 -0.013268 0.591674 0.805678
0.153278 -0.827624 0.088664 0.475588 0.865039 0.145816
0.196289 -0.386376 0.032068 0.942281 -0.031272 0.333303
-0.122451 0.002355 0.083806 -0.799879 -0.144246 0.558149
0.049356 0.618037 0.025985 0.27829 -0.189348 0.933517
0.529835 0.202662 -0.000987 -0.119978 0.935763 0.32288
0.025276 -0.517372 -0.021794 0.936585 -0.030339 -0.325331
0.106224 -0.539163 -0.103124 -0.405108 -0.065732 -0.910478
-0.074979 -0.763268 -0.125366 -0.518779 0.188751 -0.829208
-0.469487 0.156827 0.05237 0.359842 0.606355 0.705065
0.205624 -0.113399 0.04841 0.921916 -0.024591 0.385675
0.276432 0.46861 -0.01708 0.684762 0.159946 0.710914
-0.411777 0.172681 -0.014827 0.611915 -0.788194 -0.034506
0.14244 -0.39589 -0.09261 0.519104 0.133571 -0.843902
0.083493 -0.624724 0.013596 -0.744331 -0.171673 0.643779
0.135812 0.305419 -0.119958 0.715371 -0.067254 -0.693844
-0.120166 -0.075139 0.086014 -0.782343 0.018616 0.622516
0.149947 -0.1007 0.108844 0.487794 -0.012872 0.87276
0.021878 0.714893 -0.096826 -0.172445 -0.600387 -0.779565
-0.014822 0.607425 -0.062325 -0.528173 0.690712 -0.490925
-0.016064 -0.236618 -0.082748 0.523456 -0.009237 -0.851861
-0.09431 0.326105 -0.097304 -0.652571 -0.118734 -0.748266
-0.070602 -0.197831 -0.090033 -0.376963 -0.057039 -0.923347
-0.351626 0.244326 -0.079549 0.202468 -0.39003 -0.89732
0.209583 -0.14002 0.024788 0.962852 -0.217564 0.156974
-0.363836 0.210274 -0.056993 0.457828 -0.735623 -0.495186
-0.011868 0.157841 0.12654 -0.394213 0.00243 0.910314
0.19065 -0.512698 0.02928 0.916097 -0.046198 0.3964
-0.09333 0.195916 0.076013 -0.672915 -0.003888 0.739479
-0.122482 -0.614865 -0.07757 -0.762473 0.063375 -0.64256
0.265341 0.475209 -0.116239 0.453091 0.553546 -0.69832
-0.119026 -0.635042 -0.083143 -0.724093 0.050687 -0.683075
-0.118411 -0.596619 -0.080103 -0.687459 0.043556 -0.723476
-0.04479 -0.534633 0.051493 0.375836 -0.188546 0.906793
0.121021 -0.807718 0.062952 0.115069 0.764349 0.625619
-0.200104 0.382787 0.021093 0.161637 -0.496691 0.851802
0.034613 -0.016282 0.135648 -0.053771 -0.331845 0.931185
-0.121659 0.142933 0.032202 -0.949171 0.060562 0.306593
0.095883 0.738976 0.026763 0.962693 -0.12375 0.237766
0.022658 -0.507243 -0.026678 0.858732 0.030782 -0.508609
-0.552477 0.080768 0.024191 -0.747583 0.644614 -0.108192
-0.013887 -0.47975 0.052879 0.589015 -0.257232 0.76535
0.235897 0.508823 0.002317 0.658288 0.347775 0.665385
0.164468 0.123227 0.071714 0.602877 0.212497 0.768013
-0.026557 -0.370016 0.08774 0.322734 -0.158514 0.930673
-0.32479 0.336776 -0.069393 -0.569481 0.709982 -0.410307
0.031051 0.279064 -0.127412 -0.052621 -0.039616 -0.997631
-0.11774 0.309381 -0.054347 -0.941276 -0.218665 -0.250991
-0.001148 -0.293152 -0.062352 0.756522 -0.123305 -0.642233
-0.106155 -0.024305 0.09833 -0.739137 0.04432 0.671946
0.081512 -0.271177 0.078512 -0.448076 -0.170899 0.874887
-0.395313 0.183997 -0.030356 0.505167 -0.847653 -0.150713
0.208499 -0.003138 0.003656 0.968891 0.2263 -0.075216
0.110712 -0.034788 -0.14649 0.184815 -0.280214 -0.94107
-0.06075 -0.825518 0.11481 -0.019852 0.990294 0.105657
-0.045702 0.202803 0.106162 -0.483429 0.01937 0.874736
0.011274 -0.265732 -0.052023 0.786933 -0.118429 -0.605067
0.486077 0.195888 0.007986 0.558435 0.671347 0.43537
0.431262 0.211892 -0.04918 -0.534363 -0.741962 0.39389
0.063626 -0.024622 -0.149853 -0.253789 -0.365763 -0.894776
-0.140309 -0.176387 0.027034 -0.948943 -0.278303 0.125559
-0.526307 0.088939 0.026352 0.214491 -0.132127 -0.879401
0.070667 -0.284776 -0.083059 -0.680134 0.013038 -0.731989
0.110136 0.382506 0.092217 0.351619 0.098896 0.930592
0.175245 0.219374 -0.043346 0.927865 -0.009583 -0.37216
0.195404 0.447222 -0.133962 0.145364 -0.108318 -0.982967
0.086142 -0.859786 -0.074087 -0.853626 -0.470252 -0.077451
0.039486 -0.244707 0.010229 -0.353262 -0.083387 0.820741
0.059417 0.861839 0.024649 0.335867 0.900256 0.240314
0.021485 0.241365 -0.125541 0.077075 0.01737 -0.996268
0.15375 -0.866208 0.081865 0.407584 -0.909546 0.001059
0.199681 -0.411619 -0.034143 0.96466 -0.060693 -0.251709
0.011497 0.056591 -0.146321 -0.179671 0.246214 -0.951819
-0.108218 0.063161 -0.077701 -0.826217 0.123671 -0.54933
0.011112 -0.035807 -0.133593 0.021023 -0.417053 -0.907665
0.064854 -0.498037 0.007644 -0.586729 0.040261 0.808427
0.184383 -0.779794 -0.029586 0.970274 -0.234403 -0.003338
0.180628 -0.674056 -0.057077 0.697953 -0.314182 -0.642496
-0.007734 0.48174 0.080857 -0.029358 0.462247 0.88557
-0.138372 -0.032806 -0.02127 -0.976587 0.123213 -0.168112
0.18772 0.185609 0.000524 0.93932 0.339544 -0.026842
-0.065356 -0.170504 0.120057 -0.240354 -0.074055 0.966152
0.29181 0.330707 -0.067703 -0.596874 -0.765652 0.217471
0.161831 -0.850957 -0.015838 0.88036 -0.461749 -0.095603
-0.091748 -0.277616 -0.070911 -0.728831 -0.028052 -0.683843
0.056106 -0.724767 0.025641 -0.919669 -0.069475 0.356836
-0.108194 0.162603 0.057449 -0.807327 -0.005596 0.589649
0.048825 -0.605632 -0.040124 -0.895927 -0.09788 -0.427244
0.066149 0.114898 0.129433 0.197186 0.102155 0.973643
-0.071443 0.231708 0.088478 -0.547548 0.068098 0.832961
-0.140105 -0.059723 -0.01919 -0.94556 0.015299 -0.323552
-0.058843 -0.757618 0.019406 0.247536 0.122648 0.939685
0.099057 -0.674226 0.034664 -0.001639 0.082913 0.994951
-0.366739 0.201077 -0.028602 0.641536 -0.766157 -0.032067
0.174091 -0.860709 0.09352 0.754198 -0.523711 0.012183
0.151691 0.566149 -0.01767 0.210904 0.813268 0.539008
-0.120262 0.038405 -0.064326 -0.875035 0.142124 -0.462122
-0.036508 0.733564 -0.033976 -0.865172 -0.361906 -0.328082
0.074294 0.665206 0.026948 0.830033 -0.411285 0.366096
0.273006 0.487979 -0.097427 0.600954 0.597146 -0.53098
-0.033837 -0.381933 0.087612 0.27105 -0.18407 0.942885
0.135849 -0.802418 0.049854 0.429343 0.574776 0.691804
-0.102276 -0.454508 0.078973 -0.597176 -0.142122 0.766933
0.597417 0.066995 0.009032 0.896384 -0.3705 -0.187308
-0.009283 -0.524827 -0.079265 0.684697 0.075249 -0.724432
-0.140459 0.450002 -0.100271 -0.481021 -0.034246 -0.87493
-0.030793 -0.786419 0.037764 0.567686 0.519378 0.637624
-0.114425 0.148472 0.048839 -0.837969 0.076059 0.538655
0.030712 -0.035258 0.130554 -0.361347 -0.226155 0.89914
0.056982 -0.336919 0.044532 -0.716327 -0.18657 0.671826
-0.011715 -0.601574 0.024452 0.280521 -0.128029 0.949929
-0.03623 0.395262 -0.129165 -0.082151 -0.024456 -0.995746
0.105302 -0.419795 -0.100575 -0.351394 0.043341 -0.932091
0.042977 -0.170375 -0.06468 -0.870667 -0.197569 -0.449386
0.19385 0.056863 -0.049944 0.891318 0.127868 -0.430021
-0.100181 -0.802704 -0.10514 -0.83212 -0.116541 -0.539897
0.010621 -0.34813 0.062736 0.799164 -0.123244 0.587967
0.193183 -0.32779 0.050315 0.916633 -0.082519 0.39099
0.076915 -0.069848 -0.133604 -0.199359 -0.401433 -0.893659
-0.078284 -0.024434 0.118688 -0.50455 0.036675 0.862234
0.282144 0.361156 -0.128669 -0.38413 -0.614258 -0.685962
0.192773 -0.693752 -0.03811 0.783096 -0.115134 -0.606386
0.020411 -0.32219 -0.028611 0.920923 -0.002172 -0.389502
0.205672 -0.285266 0.005108 0.99973 0.020149 0.00954
-0.141525 -0.051412 -0.013991 -0.97198 0.019645 -0.229499
-0.134289 -0.250129 0.048953 -0.983992 -0.084308 0.147075
0.478453 0.210151 -0.069503 0.230129 -0.524965 -0.813063
-0.083858 -0.863251 0.117282 -0.041848 -0.998868 0.020058
0.089816 0.49031 0.067424 0.15265 0.465537 0.870695
-0.029301 -0.668198 0.024088 -0.206486 -0.022208 0.972996
-0.026435 0.110822 -0.125403 -0.243661 0.350909 -0.903502
-0.238719 0.440486 -0.063569 -0.624033 0.569911 -0.53153
-0.076961 -0.464406 -0.092244 -0.361768 0.136069 -0.922196
0.080729 -0.559258 0.021829 -0.704863 0.006565 0.709245
0.094064 0.554702 0.023467 0.256946 0.697824 0.665883
0.214469 -0.097409 0.012914 0.99914 -0.001519 0.033062
0.054177 0.651504 -0.062794 0.448139 0.016218 -0.887553
0.034503 0.029351 -0.157246 -0.198376 0.032642 -0.965342
0.005337 -0.520649 -0.059716 0.817043 0.05985 -0.573334
0.081744 -0.491092 -0.087906 -0.68252 -0.013303 -0.729773
0.126701 0.574167 -0.018821 0.299542 0.797555 0.499
0.003239 -0.785456 -0.10689 0.87018 0.198581 -0.444107
0.172437 0.309338 -0.069776 0.840138 -0.291987 -0.456138
0.161935 0.493019 0.04254 0.453016 0.391813 0.795738
0.017429 -0.196062 0.081708 0.920752 -0.056765 0.367694
0.052057 0.602972 0.022329 0.389187 -0.08666 0.916138
-0.105132 -0.778257 -0.096203 -0.843526 0.061505 -0.533334
-0.475985 0.139307 -0.022372 0.235202 -0.891249 -0.386635
-0.04054 -0.673605 0.021606 -0.041409 -0.180313 0.981134
0.03431 0.731277 -0.109301 -0.001783 -0.551729 -0.831811
0.13927 -0.098791 0.112266 0.203403 -0.054933 0.976165
0.064783 -0.449723 -0.068963 -0.741717 0.024802 -0.670249
0.004235 -0.493181 -0.058658 0.797361 0.06079 -0.600366
-0.414648 0.213851 -0.059421 -0.415236 -0.093854 -0.902586
-0.031209 -0.55982 -0.095572 0.397771 -0.026328 -0.917078
-0.015356 -0.714102 -0.098816 0.541284 0.291946 -0.78783
0.153767 -0.60025 0.037322 0.244955 -0.362444 0.885363
0.055549 0.71241 0.08534 0.536283 -0.056952 0.838174
-0.098247 -0.270435 -0.064009 -0.756963 -0.025446 -0.652762
-0.126882 -0.347767 -0.022306 -0.980254 0.070356 -0.17982
-0.064458 -0.793162 0.045631 -0.347186 0.514298 0.76929
0.008006 0.588679 0.01989 -0.462826 0.122998 0.876763
0.187797 -0.721214 -0.040496 0.700885 -0.189593 -0.683911
-0.109211 -0.115975 0.102006 -0.685244 0.042684 0.726704
0.04396 -0.462744 -0.033901 -0.995281 -0.004254 -0.063816
0.138502 0.363262 -0.129152 0.587942 -0.205189 -0.781716
0.139464 -0.246793 0.08513 0.115812 -0.134982 0.983484
0.167793 0.567033 -0.074899 0.351093 0.86857 -0.337436
-0.360521 0.208625 -0.047556 0.449905 -0.861264 -0.225679
0.325617 0.44178 -0.092768 0.709661 0.684411 -0.158468
0.557643 0.095749 0.029259 -0.814292 -0.559288 0.148131
0.022672 -0.22566 0.059519 0.928857 -0.023083 0.366322
0.087037 -0.667005 -0.07571 -0.697754 -0.01117 -0.71476
0.027383 0.291023 -0.127455 -0.021286 0.000268 -0.998384
-0.066012 -0.862502 -0.016716 0.007655 -0.998886 -0.045754
-0.050004 0.506039 -0.122523 -0.118966 0.294962 -0.947674
-0.119629 -0.690412 -0.080435 -0.776294 -0.124266 -0.614309
0.117201 -0.333361 -0.099069 0.274997 0.039462 -0.960629
0.161993 0.142358 -0.072666 0.75355 0.10308 -0.649036
0.090589 -0.815461 0.052039 -0.845614 0.289804 0.424437
0.266824 0.469314 -0.009059 0.655024 0.064359 0.7499
0.183298 0.351395 0.023577 0.915428 -0.101361 0.388151
-0.10781 -0.248213 0.102329 -0.607432 -0.023257 0.78903
0.178554 -0.092417 -0.082746 0.788692 -0.078394 -0.609698
0.574912 0.069783 0.007358 -0.866243 -0.496415 0.011525
-0.117813 -0.791409 -0.025025 -0.922465 -0.298547 0.213752
-0.343697 0.309764 -0.08466 -0.450916 0.467264 -0.759086
-0.106902 -0.346233 0.096315 -0.589089 -0.096929 0.795155
0.070904 -0.573911 -0.069102 -0.695229 -0.12437 -0.707774
0.192945 0.348961 -0.00962 0.984332 -0.084698 0.152142
0.176743 0.210003 0.044231 0.82312 0.060475 0.561963
-0.143449 -0.090042 0.02933 -0.991572 0.023676 0.123161
-0.096443 -0.219409 0.109608 -0.249629 -0.059914 0.966334
-0.397222 0.222254 0.013198 0.11318 0.085341 0.989567
0.410114 0.320385 -0.090164 0.68965 0.722757 -0.002536
0.401304 0.244969 -0.036993 -0.423426 -0.336415 0.828322
0.097208 0.712009 -0.021164 0.851513 -0.499046 -0.125129
0.027446 0.822337 -0.10535 -0.026117 0.643156 -0.764026
0.156838 0.145689 0.073989 0.701217 0.065366 0.70978
-0.056942 -0.045585 -0.123597 -0.224139 -0.338065 -0.913366
-0.132519 -0.117788 -0.035245 -0.851157 -0.100422 -0.51517
0.131501 0.254314 -0.118354 0.688033 -0.208096 -0.694451
-0.527718 0.103904 0.028431 -0.761766 0.290066 -0.481923
0.027151 -0.587909 -0.022396 0.996399 0.041423 -0.044884
0.155164 0.082634 -0.101165 0.683216 0.250212 -0.683565
0.079733 0.373089 0.100561 0.283 0.19041 0.939707
0.000207 -0.13963 0.112197 0.576359 -0.157382 0.801865
0.073824 0.647463 -0.048545 0.745921 0.17382 -0.638887
-0.235559 0.317377 -0.057408 0.707207 -0.648284 -0.2599
-0.082949 -0.825312 0.085001 -0.239557 0.954312 0.148841
0.00833 0.349883 -0.127158 0.07246 -0.017926 -0.997136
-0.087567 -0.655168 -0.105143 -0.31963 0.015282 -0.944322
-0.103203 -0.804702 -0.003451 -0.848022 -0.394954 0.347348
-0.269898 0.405645 -0.006051 -0.722749 0.522175 0.451749
0.02449 -0.356047 0.031654 0.938072 -0.158133 0.303676
0.142996 -0.868491 0.128937 0.15014 -0.976976 0.068048
0.187959 -0.625408 -0.065826 0.71691 -0.093781 -0.689921
-0.115714 -0.312853 0.090244 -0.791446 -0.058789 0.605551
-0.180905 0.360235 -0.050617 0.646663 -0.726756 -0.231404
0.046096 0.31072 0.119688 0.118158 0.111081 0.98665
0.02256 -0.39961 0.011664 0.946796 -0.222533 0.223502
0.083383 -0.781724 0.03706 -0.432272 0.367013 0.809484
0.188646 0.369609 0.017526 0.922191 -0.172926 0.345001
0.336554 0.341705 -0.041635 0.298774 0.077873 0.946509
-0.052563 0.465756 -0.131041 -0.080465 0.078151 -0.992916
-0.110131 -0.851903 0.00487 -0.791623 -0.555199 -0.117213
-0.204781 0.465489 0.032376 -0.577269 0.265456 0.771157
0.092742 -0.713163 -0.081802 -0.747963 0.015415 -0.661732
0.019755 0.504545 -0.123063 -0.009637 0.01777 -0.999157
0.156239 0.395817 0.066027 0.70853 0.013285 0.705525
0.002067 0.753743 0.069325 -0.25473 -0.028101 0.964959
0.038795 -0.148838 0.049789 0.094959 -0.478552 0.821564
0.08297 -0.709461 0.0366 -0.062363 0.037232 0.995517
-0.501512 0.147981 0.052737 -0.756296 0.648935 0.079625
0.083655 0.752468 -0.093137 0.682216 -0.237526 -0.689903
-0.068622 -0.115596 0.120883 -0.211302 -0.034252 0.97667
0.187866 0.182113 0.01667 0.93116 0.32045 0.166745
-0.092562 -0.272327 0.108175 -0.212429 -0.056746 0.975449
0.087814 0.795629 0.042789 0.894962 0.246111 0.358742
-0.053591 -0.165795 -0.097369 0.045845 -0.139898 -0.986918
-0.114738 -0.802911 -0.042816 -0.884203 -0.457238 0.061316
0.028818 -0.280765 0.025228 0.987322 -0.046238 0.150155
0.026602 -0.341834 0.027281 0.987668 -0.065104 0.135315
-0.04001 0.550775 0.033332 -0.201067 0.7017 0.683244
-0.040908 0.485261 0.075177 -0.164154 0.439679 0.882796
0.088198 -0.693439 0.035923 -0.096499 0.088202 0.989626
0.303515 0.420063 -0.137055 0.26998 0.451509 -0.848166
-0.287158 0.380504 -0.016311 -0.923564 0.235228 0.244274
-0.005005 -0.014928 0.136508 -0.026468 -0.614097 0.776174
-0.439292 0.224611 -0.036341 -0.722435 0.628248 -0.236593
0.547838 0.118475 -0.016717 -0.521686 -0.418642 -0.678028
0.186623 -0.474852 0.043623 0.915407 -0.075051 0.395123
-0.057732 -0.808852 -0.145388 -0.398858 -0.07368 -0.910846
0.10334 -0.618099 0.033679 -0.363794 0.144665 0.908359
-0.354288 0.294415 -0.085551 -0.491451 0.328084 -0.803754
0.034897 -0.148042 -0.060489 -0.892149 -0.291219 -0.344628
0.061344 -0.415197 -0.064545 -0.751078 -0.011051 -0.660114
0.107561 -0.207153 0.094575 -0.071965 -0.171664 0.980471
-0.031992 -0.408749 -0.07927 0.371738 0.17271 -0.910162
0.124209 -0.869917 0.056795 -0.00043 -0.999856 -0.016214
-0.265835 0.288139 -0.014088 0.629138 -0.627734 0.454584
0.169167 0.192387 -0.056771 0.879544 0.045099 -0.473221
0.080481 0.185064 -0.11835 0.13886 -0.16266 -0.969452
-0.011477 0.643059 -0.027852 -0.985059 0.068034 -0.124811
0.490853 0.178417 -0.049756 -0.185455 -0.63384 -0.718207
0.016558 -0.760277 -0.035692 0.909813 -0.231864 0.316667
0.081266 0.627707 -0.002563 0.932966 -0.032446 0.339112
0.097911 -0.542884 0.033047 -0.468776 0.009661 0.881984
-0.113008 -0.023898 0.089599 -0.764185 0.051915 0.642549
0.618528 0.085861 0.028303 0.869602 0.490936 -0.046759
-0.068117 -0.65149 -0.107842 0.009585 0.069817 -0.995571
0.039814 0.740127 -0.113391 0.118434 -0.391908 -0.910657
0.027347 -0.309864 0.034036 0.991784 -0.029897 0.121055
-0.024542 -0.613974 0.02483 0.220084 -0.173277 0.958247
-0.083392 -0.123998 -0.092254 -0.601546 -0.070985 -0.795252
0.055707 -0.1924 -0.076897 -0.746109 -0.22091 -0.62749
0.597706 0.066386 0.0205 0.71883 -0.588338 0.018906
-0.011169 0.422186 0.100523 -0.045774 0.303261 0.950244
0.044322 -0.150985 0.058282 -0.863729 -0.111217 0.478339
-0.083953 -0.222786 -0.081722 -0.592901 -0.011792 -0.804176
0.132158 -0.435092 -0.102306 0.240605 0.107227 -0.964185
0.00341 -0.291436 0.084648 0.562951 -0.20319 0.796151
0.019102 -0.759073 -0.049424 0.990312 -0.111461 0.059362
0.037326 0.002414 0.143581 0.079024 -0.078132 0.982347
-0.12434 -0.262753 -0.023763 -0.853654 0.035652 -0.51935
-0.072438 -0.050422 -0.116742 -0.463358 -0.324311 -0.821681
0.170216 -0.207593 0.087904 0.366802 -0.168557 0.911217
-0.38724 0.287615 -0.03825 -0.700929 0.711421 0.044855
0.086016 0.483856 -0.139821 -0.285981 0.294484 -0.911387
-0.098171 0.305634 0.055256 -0.871009 0.191555 0.451151
-0.006283 -0.553017 0.028142 0.602535 -0.153497 0.780141
-0.024331 0.78237 -0.093172 -0.801959 -0.084847 -0.588942
0.066616 0.410202 0.095814 0.132704 0.240991 0.959355
0.112919 -0.487567 0.043472 -0.61252 -0.09585 0.784276
-0.046997 -0.824718 0.099003 0.182404 0.961021 0.204029
0.573533 0.080886 -0.015937 0.22038 -0.296544 -0.771101
-0.069855 0.380375 0.092757 -0.565483 -0.030375 0.82229
0.176364 0.520858 -0.121851 0.181818 0.519594 -0.834713
-0.088185 0.183546 -0.073557 -0.69709 0.057705 -0.714402
-0.113884 -0.397172 0.081718 -0.724941 -0.223121 0.645477
-0.12088 -0.42981 -0.046068 -0.752726 0.2807 -0.595301
-0.205953 0.426193 -0.091447 -0.234923 0.29069 -0.927446
-0.081423 0.19172 0.086085 -0.627533 0.011594 0.77826
-0.114415 -0.452325 0.062087 -0.844603 -0.183396 0.502647
0.105375 -0.556567 -0.100972 -0.464098 -0.121448 -0.875933
-0.06066 0.42194 0.091737 -0.208869 0.222153 0.950951
0.001125 0.602774 -0.078379 -0.254703 0.660675 -0.704303
-0.138018 -0.152885 0.051595 -0.972624 -0.028193 0.226293
0.172832 0.139186 -0.055208 0.881135 0.080633 -0.464573
-0.077756 -0.721836 0.011855 -0.025202 -0.170724 0.950318
0.156212 -0.554778 0.045976 0.091085 -0.350893 0.931836
0.602698 0.070154 0.075549 -0.736934 -0.585415 0.283218
-0.087049 0.379285 -0.112031 -0.414421 -0.180833 -0.89163
0.607035 0.065642 0.047259 -0.485119 -0.863394 -0.030249
0.168734 -0.064643 -0.100046 0.780216 -0.08055 -0.62028
0.14161 0.581883 -0.052926 0.244742 0.965147 0.027406
0.075061 0.181304 0.123712 0.467644 0.035395 0.880403
0.123373 -0.824425 0.116136 0.007295 0.996873 0.041451
-0.016833 -0.095891 0.126653 0.13277 -0.128498 0.98265
0.088201 0.064477 -0.151494 0.243882 0.201537 -0.937085
0.175895 0.328504 -0.075372 0.814093 -0.335101 -0.473915
0.00266 0.04856 0.137588 -0.134214 0.007932 0.988115
0.085173 -0.477586 0.02174 -0.631787 0.09001 0.769581
0.079009 0.536486 0.043688 0.111542 0.543786 0.828057
-0.072278 0.113535 0.095612 -0.561481 0.237384 0.78331
-0.213464 0.461578 0.027007 -0.634069 0.334839 0.694945
-0.045524 -0.758918 -0.131701 0.051885 0.416526 -0.904881
0.530757 0.138435 0.006574 -0.769413 -0.637206 0.041326
-0.105607 -0.41087 -0.058029 -0.688144 0.051805 -0.719662
-0.065948 0.089181 0.104235 -0.518003 0.040052 0.846336
-0.012928 -0.030476 0.133426 -0.053797 0.112403 0.992068
-0.518393 0.09678 0.024239 0.111562 -0.382191 -0.895564
-0.129569 -0.140657 -0.035195 -0.858134 -0.131939 -0.495885
-0.072202 0.013092 0.121657 -0.352779 0.287832 0.888404
0.41751 0.245286 -0.030697 -0.310949 -0.186136 0.890909
0.069969 0.278952 0.119019 0.362229 0.126368 0.922154
-0.028812 -0.853678 -0.074009 0.69995 -0.672489 0.227391
0.08651 0.023156 0.130087 0.307776 0.22376 0.923762
0.070086 0.861587 -0.003399 0.483237 0.870245 0.082333
0.05257 0.302964 0.119824 0.17515 0.127938 0.975086
0.023905 0.448481 -0.126877 -0.049337 0.016444 -0.998359
0.153075 -0.034351 -0.124126 0.70455 -0.108867 -0.700615
0.012325 -0.425698 0.035042 0.851148 -0.147254 0.503483
0.014865 -0.348809 -0.037916 0.783774 -0.038736 -0.61675
-0.395751 0.21257 -0.066149 -0.240946 -0.336836 -0.909177
0.064038 -0.37691 0.036099 -0.704611 -0.286853 0.648808
0.037027 0.381271 0.105734 0.0592 0.179113 0.981717
0.19 0.319326 -0.018556 0.993436 -0.109149 0.012706
-0.128526 -0.026529 -0.055144 -0.922801 -0.013641 -0.384009
0.172931 -0.326673 -0.058483 0.729462 0.003974 -0.683873
0.092547 0.820523 -0.056499 0.823939 0.517925 -0.219032
-0.142438 -0.037932 0.020746 -0.980824 0.155637 0.103964
0.080666 0.679564 -0.040085 0.905757 -0.174105 -0.368188
0.026607 0.592352 -0.090333 -0.066726 0.591832 -0.803259
-0.041015 0.054246 0.124224 -0.495853 0.178408 0.849745
0.17053 -0.237565 -0.074209 0.525877 -0.117816 -0.842074
0.013458 0.0294 0.139927 -0.020633 0.174666 0.983313
-0.123701 -0.406011 -0.036151 -0.813186 -0.019923 -0.580342
-0.129362 -0.284547 0.012399 -0.995761 -0.086597 -0.015967
-0.080688 -0.056411 0.117434 -0.565469 -0.014379 0.823684
-0.00976 -0.803055 -0.134167 0.709128 -0.122904 -0.692435
-0.545653 0.086002 0.01458 -0.254414 0.684991 -0.552594
-0.310764 0.302134 0.005442 -0.111553 0.064201 0.991296
-0.12413 -0.39371 0.056191 -0.957015 0.09309 0.269051
-0.131552 -0.447551 0.03043 -0.909306 -0.125352 0.396325
-0.0144 -0.358014 -0.067347 0.681765 -0.105701 -0.72385
-0.109214 -0.136525 -0.065661 -0.764687 -0.117015 -0.633254
-0.109048 0.180114 0.056789 -0.814067 -0.037669 0.579537
0.089881 -0.000428 0.134894 0.274377 -0.153306 0.946469
0.008732 -0.644024 0.014644 0.688278 -0.126726 0.712289
0.070916 -0.731023 -0.035888 -0.87318 -0.105259 -0.468627
-0.041382 -0.170062 0.122812 0.043774 -0.056147 0.996583
0.157319 -0.835309 0.121019 0.638617 0.75421 0.131952
-0.078067 0.028335 -0.124815 -0.674149 0.245227 -0.696659
-0.099909 -0.511769 0.056262 -0.860977 -0.131516 0.48776
-0.129296 -0.043182 0.071024 -0.847529 0.055313 0.525335
0.029071 0.560248 -0.107841 -0.087126 0.445593 -0.888704
-0.143101 -0.045203 -0.002605 -0.994479 0.041428 -0.078218
-0.007919 -0.380753 0.07676 0.588752 -0.22559 0.775575
0.198988 0.426823 0.027249 0.666902 -0.419205 0.598428
-0.252073 0.430052 -0.058421 -0.674184 0.64523 -0.356557
0.156496 -0.652362 0.028495 0.197483 -0.009389 0.978304
0.098069 -0.546926 -0.097516 -0.565237 -0.102064 -0.817946
-0.027294 0.459769 0.08837 -0.141141 0.321333 0.93541
0.070562 0.240642 -0.134654 -0.223724 -0.159482 -0.960956
0.058439 -0.188038 0.073613 -0.657862 -0.092586 0.746862
0.046525 -0.395198 0.006726 -0.862684 -0.246979 0.432087
-0.042218 0.458296 -0.131973 -0.019217 0.038629 -0.99763
-0.349395 0.321464 -0.05845 -0.576546 0.806745 -0.101038
-0.034571 -0.477068 0.064464 0.287408 -0.285209 0.913544
0.021897 0.646448 0.038198 -0.426709 -0.480855 0.760706
-0.047152 0.041807 -0.137936 -0.322575 0.223308 -0.919755
0.046306 -0.560552 -0.017425 -0.969907 -0.045297 0.230486
-0.008794 0.855569 -0.024497 -0.48818 0.868942 -0.068557
0.189859 0.05207 0.064356 0.767861 0.253008 0.587899
0.125232 0.238105 0.096906 0.54539 0.042072 0.837007
0.086801 -0.813679 -0.09428 -0.832153 0.116223 -0.539002
-0.043519 0.556827 0.02527 -0.169436 0.763632 0.621278
0.124683 0.316573 0.091723 0.5519 0.080743 0.829865
0.112008 0.478108 0.068638 0.279862 0.490569 0.822586
0.063081 0.520581 -0.127823 -0.165738 0.173181 -0.969078
0.013462 0.176016 0.130365 -0.044702 0.018238 0.99852
0.023877 0.765692 -0.121196 -0.072494 -0.050631 -0.995851
0.184024 0.289108 -0.004782 0.99116 -0.127976 0.014482
0.167882 0.140429 -0.063615 0.859605 0.062719 -0.505021
0.313857 0.364004 -0.034028 0.363767 -0.244914 0.882142
0.014063 0.862353 -0.045263 -0.185075 0.958014 -0.186986
0.545857 0.122221 0.025337 -0.819095 -0.546739 0.168209
-0.250203 0.42384 0.003178 -0.708775 0.51536 0.480478
0.020416 -0.712162 -0.063151 0.924934 0.008383 -0.377135
0.021085 -0.647742 -0.00369 0.866409 -0.133643 0.480696
-0.036626 0.4442 0.090944 -0.172844 0.251942 0.950607
0.158152 0.126192 -0.081189 0.766466 0.176931 -0.617216
0.014595 -0.400835 0.039709 0.871076 -0.206303 0.445595
0.543851 0.135844 0.037962 -0.719268 -0.106465 0.637183
-0.051281 -0.309479 0.10245 0.203955 -0.105698 0.971102
0.063141 0.250253 0.122464 0.251008 0.060843 0.966014
0.000448 -0.301008 0.083764 0.488165 -0.216272 0.844219
0.191804 -0.182613 0.072219 0.907679 -0.057188 0.406071
0.428892 0.292446 -0.112825 0.561849 0.494838 -0.661579
0.005786 -0.089622 0.121186 0.386471 -0.155987 0.908371
-0.404397 0.258845 -0.002953 -0.590612 0.657182 0.456636
0.040012 0.565884 -0.106587 -0.10772 0.432195 -0.894362
-0.291266 0.387951 -0.051927 -0.993539 0.008097 -0.091411
-0.023261 -0.147156 0.123625 0.208948 -0.101447 0.972224
-0.071764 0.13651 -0.096268 -0.502315 0.24446 -0.826276
-0.491133 0.09862 0.049717 0.76132 -0.619262 0.040781
-0.112273 0.255258 -0.017544 -0.99876 0.037693 -0.007319
-0.570127 0.031047 -0.01805 0.300676 -0.369084 -0.572937
0.16341 -0.117275 0.1026 0.504483 -0.028971 0.862201
0.553443 0.119536 0.045565 -0.862321 -0.16286 0.456973
0.177936 -0.784563 -0.07134 0.866866 0.169356 -0.435475
0.132871 0.582305 -0.072328 0.323512 0.912106 -0.246089
-0.098044 -0.14079 -0.077211 -0.691257 -0.128011 -0.710844
0.129997 -0.867905 0.015024 0.051531 -0.993209 -0.095855
-0.134431 0.424259 0.056429 -0.485735 -0.362423 0.784209
-0.045859 0.322808 -0.126075 -0.331464 0.016472 -0.941388
-0.031633 -0.22019 -0.089597 0.264753 -0.001994 -0.963959
0.064598 0.635159 0.022309 0.619717 -0.28462 0.727362
0.019464 -0.646459 -0.055308 0.667854 0.171368 -0.723939
0.046125 -0.452307 -0.012962 -0.902983 -0.075739 0.405577
-0.376738 0.240537 0.010675 0.053109 0.054783 0.997023
0.027077 -0.349783 0.01811 0.995271 -0.054095 0.069461
-0.124755 0.187103 -0.015351 -0.86619 0.183359 -0.463575
-0.460092 0.147541 0.049185 0.656499 -0.297621 0.658803
-0.087518 -0.602468 -0.101115 -0.459953 0.051205 -0.886343
-0.098112 0.043228 -0.098722 -0.726291 0.234153 -0.645652
-0.026828 -0.568205 -0.093094 0.480662 -0.041175 -0.873771
-0.104681 0.352124 -0.094134 -0.653585 -0.197977 -0.730154
-0.291288 0.37024 -0.069066 -0.854723 0.41723 -0.293211
0.022904 0.54174 0.038517 0.09037 0.71702 0.690122
0.135036 -0.835757 -0.114629 0.446674 -0.032305 -0.891155
-0.11153 -0.810374 -0.070405 -0.888889 -0.430185 -0.109884
-0.088037 -0.280998 0.108651 -0.112792 -0.076951 0.989258
-0.074049 -0.036427 0.121535 -0.436708 0.020278 0.897821
0.053773 -0.625667 -0.044382 -0.869422 -0.114129 -0.476144
0.412268 0.236454 -0.117251 0.042162 -0.556548 -0.820786
-0.560689 0.064863 0.055287 -0.813184 0.551101 0.119828
0.17613 -0.066303 0.088858 0.691685 0.040688 0.721003
-0.15793 0.503786 0.049817 -0.260683 0.346497 0.89792
0.042998 0.772938 -0.119968 0.208327 0.016093 -0.972925
0.00997 -0.538637 -0.054709 0.86749 0.041653 -0.495666
-0.125434 -0.243942 0.078676 -0.882774 -0.066988 0.464119
-0.033388 0.215383 0.112114 -0.376474 0.045307 0.921427
0.55043 0.168816 -0.01335 0.868335 0.323064 -0.275416
-0.048484 -0.468636 -0.095005 0.124463 0.110884 -0.98524
0.08714 0.618802 -0.016899 0.875936 0.204491 0.42553
-0.124309 -0.697098 -0.07176 -0.87722 -0.121408 -0.461165
-0.00964 0.416427 -0.129371 0.058422 0.003488 -0.998196
-0.140674 -0.476994 -0.015766 -0.980594 0.085677 -0.148261
-0.090776 -0.8633 0.075636 -0.023772 -0.999707 0.002345
0.043515 -0.404488 -0.011668 -0.989934 -0.07092 0.109865
0.041485 -0.305161 -0.041602 -0.871572 -0.018909 -0.489496
-0.00196 -0.607409 -0.069401 0.696218 0.023893 -0.717303
0.195433 -0.431277 0.027267 0.957156 -0.080905 0.277112
-0.146244 0.511245 -0.085468 -0.434865 0.441382 -0.783985
0.002811 -0.644728 -0.068503 0.605668 0.112183 -0.787162
-0.029619 -0.339758 0.092603 0.297203 -0.09662 0.946517
0.098739 -0.168531 0.09874 -0.35311 -0.176186 0.917407
0.207303 0.012308 0.017124 0.999594 0.019757 0.014576
0.144071 -0.715635 0.011562 0.399689 -0.240855 0.873367
0.003525 0.580209 0.018911 -0.468653 0.218731 0.852965
0.097538 -0.813574 0.060573 -0.682462 0.518431 0.510655
-0.110567 0.361573 0.044435 -0.85886 -0.285999 0.422862
0.03511 -0.134826 -0.072078 -0.8372 -0.313887 -0.446591
-0.031512 0.527979 -0.117617 -0.184141 0.401556 -0.895603
0.056375 -0.717288 -0.014134 -0.93667 -0.181164 -0.298006
0.205399 -0.301157 -0.008406 0.991607 -0.009876 -0.123847
0.196601 0.405521 0.006971 0.932315 -0.196553 0.301707
0.045066 -0.57167 -0.024944 -0.983395 -0.069975 0.122792
0.195929 -0.662784 -0.010717 0.953097 0.00161 0.296825
-0.139095 -0.487102 -0.020757 -0.976045 -0.094073 -0.147511
0.145186 -0.865458 0.15098 0.131998 -0.977601 0.151893
-0.122699 -0.149145 0.088215 -0.839102 0.031861 0.542503
-0.229554 0.433599 0.022514 -0.716683 0.294277 0.629835
0.039405 -0.194732 0.028347 -0.660748 -0.208742 0.598734
0.072342 0.321562 -0.141631 -0.302326 -0.061302 -0.94739
-0.279976 0.323987 0.008347 -0.029666 -0.042379 0.997284
0.172016 0.011734 -0.097591 0.810498 0.037355 -0.583785
-0.125827 -0.453943 0.041879 -0.868951 -0.201499 0.448233
0.151734 0.179425 -0.081997 0.716091 0.160986 -0.671668
-0.020755 -0.425223 -0.077378 0.670176 0.158113 -0.724601
-0.024797 0.065001 0.127749 -0.284451 0.149038 0.945595
-0.1334 -0.219213 -0.00242 -0.956255 -0.068255 -0.278907
0.194446 0.082248 -0.040921 0.911987 0.165679 -0.36799
-0.274692 0.346884 -0.096356 -0.189965 0.063398 -0.975764
-0.086313 -0.271097 -0.077288 -0.614166 -0.037345 -0.773187
0.30808 0.315941 -0.106588 -0.6413 -0.691102 -0.307677
0.135809 -0.628873 -0.096582 0.182527 -0.114371 -0.973458
0.164832 0.053159 0.093112 0.476662 0.279123 0.828838
0.198795 -0.289671 0.045485 0.924927 -0.073362 0.371327
0.045419 -0.580082 -0.03061 -0.992881 -0.048395 -0.051889
0.169775 -0.133633 -0.085257 0.711923 -0.164153 -0.682506
0.319348 0.380953 -0.031686 0.7407 -0.213746 0.630171
0.017582 0.014939 -0.149903 -0.189933 -0.401472 -0.895282
-0.121791 -0.407227 0.06432 -0.919281 -0.06809 0.382689
0.176981 0.004785 0.090826 0.680227 -0.236477 0.680843
0.058582 -0.38126 0.028427 -0.700936 -0.332845 0.629418
0.176634 0.240695 -0.038432 0.9333 0.017006 -0.358104
-0.314014 0.237891 -0.015035 0.623225 -0.763237 0.163349
0.027295 -0.604301 -0.015392 0.992691 0.008128 0.116553
-0.042144 -0.580724 0.039435 0.493784 -0.315709 0.809183
0.168092 0.386815 -0.117758 0.417313 -0.408572 -0.808525
0.140733 -0.13714 -0.107543 0.483682 -0.250527 -0.838248
-0.144334 -0.105719 0.005244 -0.999275 -0.003739 -0.031664
-0.081246 0.004992 0.119844 -0.457322 0.222807 0.859079
0.630981 0.037246 0.023975 -0.94364 -0.293003 -0.12272
0.02244 -0.405874 0.004215 0.975273 -0.18411 0.113096
-0.013562 0.768854 -0.103155 -0.781527 -0.145689 -0.588562
0.077982 0.589108 -0.090765 0.087737 0.71172 -0.648085
-0.114137 0.202114 0.048285 -0.926339 0.032458 0.371606
-0.054994 0.14043 0.105443 -0.53052 0.066398 0.844916
0.030347 0.350901 -0.127622 -0.135092 -0.051721 -0.988952
0.117801 -0.692367 -0.094897 -0.112137 0.061247 -0.990813
0.164842 -0.842414 0.116827 0.773466 0.627381 0.073846
0.151368 0.578958 -0.053284 0.585379 0.795535 0.031991
-0.234415 0.357936 -0.094963 0.192026 -0.29449 -0.934988
0.076607 0.54707 0.033489 -0.232193 0.739411 0.626419
0.109302 -0.734079 0.028479 0.319506 0.14636 0.935138
0.044265 -0.216651 -0.052101 -0.917747 -0.055489 -0.391402
0.167074 -0.383434 0.072942 0.31606 -0.005068 0.945356
0.063849 0.239824 0.123097 0.278107 0.092851 0.955661
0.046024 -0.047715 0.128094 0.053712 -0.391125 0.914882
-0.130963 -0.566032 -0.021188 -0.952443 -0.13017 0.272122
0.108869 -0.203655 -0.103005 -0.143436 -0.176801 -0.973073
0.026286 -0.221219 -0.03241 0.1454 -0.073256 -0.901562
-0.042808 0.354736 0.104643 -0.218802 -0.106188 0.964958
0.06281 0.429864 0.090845 0.13051 0.232936 0.963564
0.04241 0.678859 0.090481 0.161714 0.261659 0.946394
0.205425 -0.171784 0.02743 0.976154 -0.036806 0.207659
0.060989 -0.789528 -0.027975 -0.981138 -0.026643 -0.170638
-0.089631 0.124468 -0.084709 -0.693371 0.122436 -0.709911
-0.066216 -0.832066 0.144547 0.016399 0.926412 0.330308
0.163965 0.482293 0.045954 0.57582 0.320786 0.751537
-0.01193 0.511654 -0.123504 -0.004694 0.225452 -0.973904
0.083282 -0.411274 -0.086846 -0.675294 0.004675 -0.736297
-0.009818 0.844553 0.032856 -0.739243 0.424494 0.491999
-0.103305 -0.6761 0.02831 -0.473265 -0.357952 0.789938
-0.285959 0.271073 -0.01304 0.693934 -0.521868 0.477227
-0.127952 0.151012 0.004834 -0.996619 0.021156 0.059255
-0.014383 0.343221 -0.128915 0.004651 0.016632 -0.999587
-0.112 0.436007 -0.113693 -0.416912 -0.166515 -0.892879
0.135139 -0.078044 -0.125937 0.484755 -0.259308 -0.830851
0.13324 -0.869923 0.065144 0.01703 -0.999753 -0.008954
-0.10585 0.208374 0.063659 -0.785146 0.026391 0.615794
0.057289 -0.682799 0.016548 -0.840559 0.137146 0.520244
-0.305734 0.354784 -0.06465 -0.630228 0.712037 -0.308214
0.078494 -0.34656 -0.087176 -0.680973 -0.05457 -0.729005
-0.479237 0.173661 0.016911 -0.598653 0.788664 0.124867
0.02146 0.056159 -0.148661 -0.214777 0.297698 -0.930014
-0.064418 -0.403188 -0.081565 -0.188789 0.028245 -0.978464
-0.029357 0.817883 -0.077517 -0.785354 0.373824 -0.476748
0.022935 -0.362232 -0.020382 0.931798 -0.01682 -0.362541
0.187928 -0.18059 -0.064263 0.636926 0.018891 -0.770187
-0.000974 -0.170623 0.107511 0.610221 -0.111153 0.78424
-0.128309 0.394815 -0.06268 -0.963728 -0.206655 -0.080995
0.066158 0.559675 0.020217 0.213861 0.402477 0.879669
0.080018 0.666803 0.018403 0.872454 -0.326443 0.356495
-0.060353 0.3622 0.096825 -0.497336 -0.083544 0.861498
-0.06539 -0.862912 -0.005859 0.004032 -0.999248 -0.038431
0.140693 -0.787612 -0.110067 0.329534 0.426622 -0.841036
-0.112041 0.212399 0.052518 -0.921233 0.076686 0.375652
0.178611 0.346568 0.031736 0.852347 -0.108106 0.505067
0.198418 -0.662001 -0.031888 0.995289 -0.0371 -0.080794
-0.083975 -0.60336 0.054183 0.375622 -0.22911 0.881674
-0.135077 0.422985 -0.093244 -0.386428 -0.603065 -0.676532
0.105421 -0.43917 0.04562 -0.613838 -0.382867 0.690285
0.150391 -0.767052 0.027207 0.042224 0.411605 0.88965
0.190306 0.357271 -0.074453 0.819676 -0.436207 -0.369359
-0.018323 0.356608 -0.128865 -0.009988 -0.007394 -0.999857
0.181202 0.360377 0.031163 0.879398 -0.155164 0.450032
0.042494 0.335652 -0.129289 -0.328758 -0.031817 -0.939264
-0.117981 0.513544 -0.098248 -0.420988 0.431474 -0.793517
-0.175381 0.523236 0.021511 -0.648927 0.600471 0.403511
-0.020312 -0.835608 -0.061702 0.831015 -0.525283 -0.012061
0.194263 -0.332002 -0.034419 0.800863 0.085522 -0.590462
-0.003522 0.229612 -0.128313 0.033489 -0.057365 -0.995995
-0.021458 -0.747862 -0.117955 0.611204 0.309636 -0.726013
0.105932 -0.587799 0.032112 -0.314957 -0.15813 0.93516
0.055725 0.350443 -0.135997 -0.356507 -0.035588 -0.933471
0.150405 -0.638505 0.028203 0.18161 0.119546 0.975449
-0.042974 -0.770342 0.02851 0.139453 0.687581 0.651549
0.035737 0.540467 0.039054 -0.000776 0.706778 0.707018
-0.024593 0.730829 0.044973 -0.911815 -0.071409 0.387212
-0.100518 0.200333 0.069438 -0.693176 -0.011309 0.719621
-0.015644 -0.809007 0.029019 0.871188 0.348319 0.345685
-0.01625 -0.78313 0.010842 0.843224 0.317877 0.430161
-0.102984 0.131679 -0.069142 -0.837558 0.115826 -0.533667
0.230761 0.418663 -0.131623 -0.444893 -0.218081 -0.867809
-0.223497 0.476273 -0.027036 -0.850436 0.518803 -0.060108
0.001255 -0.792323 -0.020439 0.876257 -0.170063 0.446241
-0.106866 -0.601178 -0.089852 -0.618049 0.055372 -0.78397
0.074544 0.360278 0.104538 0.21983 0.154612 0.962478
-0.445476 0.218683 -0.009946 -0.787925 0.59676 0.126957
0.622336 0.074889 0.018689 0.858549 0.482554 -0.162398
-0.029014 0.138743 0.119457 -0.404757 0.008852 0.914151
0.012784 -0.213051 -0.055931 0.803666 0.008507 -0.594063
-0.128373 0.171263 -0.001979 -0.996783 -0.002173 -0.061017
0.254598 0.453724 -0.004494 0.365146 -0.229483 0.901776
0.137042 0.469394 -0.144319 0.102226 0.076203 -0.991558
-0.00593 0.532614 0.054608 0.03154 0.546018 0.834295
0.30113 0.320009 -0.088369 -0.700898 -0.713008 -0.00617
0.108523 0.744312 -0.013736 0.97729 0.098634 0.075504
-0.093268 -0.59907 0.055112 -0.302088 -0.191093 0.923704
0.153011 -0.172776 0.097463 0.168562 -0.173948 0.96968
-0.241329 0.374255 0.019774 -0.023914 -0.16646 0.984794
-0.114345 -0.267119 0.095283 -0.717621 -0.061028 0.69337
0.118779 -0.70529 0.026252 0.366685 -0.292636 0.881545
0.199948 -0.467229 -0.017813 0.999721 -0.00243 0.017233
0.196583 -0.466598 0.010561 0.967023 -0.04315 0.249223
0.205164 0.052532 -0.0043 0.98199 0.156065 -0.085262
-0.002478 -0.225474 -0.072793 0.665453 -0.000618 -0.743298
0.04223 -0.359766 0.003963 -0.971001 -0.095932 0.214779
0.201388 -0.580911 -0.013775 0.984645 -0.090754 0.143111
0.106843 0.126208 -0.122304 0.40017 0.33595 -0.850934
-0.240585 0.36201 0.01749 0.11879 -0.226574 0.965877
-0.107394 -0.356213 0.094368 -0.701771 -0.112173 0.696727
-0.031279 0.729776 -0.04324 -0.820109 -0.425459 -0.367145
-0.03743 -0.382388 -0.079965 0.346645 -0.116101 -0.927715
0.066907 0.736092 -0.100676 0.494268 -0.399211 -0.770921
-0.019777 0.044739 0.131569 -0.330846 0.137388 0.930623
0.202233 -0.53311 -0.005008 0.934507 -0.042229 0.33914
-0.237842 0.449773 -0.003604 -0.753434 0.587432 0.29429
-0.046991 -0.833862 0.129193 0.443614 0.82482 0.308464
-0.474794 0.140614 0.063241 0.760438 -0.207604 0.604783
0.198525 0.122511 0.017453 0.949571 -0.182903 0.250091
0.264838 0.48205 -0.011398 0.564749 0.365364 0.733244
-0.144349 -0.126949 0.017596 -0.999676 -0.002378 0.017087
-0.109053 -0.304407 -0.050438 -0.802767 0.034286 -0.595265
0.578162 0.078856 0.058451 -0.03277 -0.753921 0.634401
-0.073649 -0.340913 -0.082686 -0.423516 -0.024236 -0.904002
-0.196742 0.489143 0.030745 -0.691753 0.295254 0.658068
0.093331 -0.848555 -0.10284 -0.84067 -0.022113 -0.529651
0.072318 0.718899 0.073892 0.649734 0.088672 0.75385
0.032943 -0.247385 0.018524 0.904197 -0.092715 0.413098
0.072573 -0.369121 -0.079665 -0.633098 -0.079089 -0.769494
-0.126896 0.529208 -0.083508 -0.357518 0.599036 -0.715216
-0.132342 -0.01619 0.058525 -0.898961 0.118413 0.42159
-0.120509 0.336245 -0.041014 -0.99984 -0.015754 0.003086
0.105822 -0.808989 -0.115131 -0.504286 0.057394 -0.848806
0.5938 0.057349 0.020232 0.944766 -0.272898 0.0849
0.019112 0.308854 -0.12709 0.060886 0.046094 -0.995775
0.310456 0.454499 -0.097576 0.61314 0.668335 -0.420276
0.175134 -0.130609 0.092506 0.654954 -0.031713 0.75447
-0.093711 0.29023 0.066745 -0.749364 0.065899 0.65826
0.038938 -0.161815 -0.061066 -0.86257 -0.261691 -0.431479
0.095008 -0.464064 -0.097474 -0.53248 0.057993 -0.84418
0.195461 -0.411916 0.031624 0.949777 -0.063215 0.305927
0.042814 -0.400801 -0.021115 -0.994339 -0.096524 0.009708
0.157207 0.361232 -0.113764 0.579169 -0.297819 -0.758537
0.082424 -0.194514 0.089483 -0.406079 -0.066142 0.909761
-0.204934 0.416264 -0.094472 -0.167117 0.222917 -0.959388
0.019806 -0.537088 -0.033258 0.956195 0.025325 -0.286293
0.531209 0.210324 -0.025561 -0.293198 0.91619 0.265046
-0.091628 -0.612784 -0.099847 -0.450541 0.097069 -0.887407
0.43676 0.284049 -0.049286 0.283413 0.718777 0.604858
0.02357 0.516959 0.059736 0.128171 0.504089 0.854018
-0.200899 0.48556 -0.059459 -0.641553 0.505568 -0.576266
-0.128108 -0.280745 0.055715 -0.986281 -0.0992 0.127533
0.14488 -0.005467 0.110899 0.495538 -0.198073 0.843032
0.169585 0.298521 -0.068284 0.858898 -0.248885 -0.446404
-0.10165 -0.045424 0.104314 -0.630474 0.011908 0.77593
-0.137561 0.441334 0.058089 -0.391356 -0.173332 0.885086
0.022497 -0.495593 -0.026085 0.863724 0.056637 -0.495678
0.096931 -0.82585 0.083403 -0.610508 0.740871 0.224672
0.490001 0.234915 -0.018001 0.577977 0.713988 0.363914
0.070445 0.831494 0.047417 0.636177 0.561846 0.525314
-0.092188 0.236354 0.072342 -0.636982 0.141177 0.757166
0.326719 0.295096 -0.094549 -0.680177 -0.720588 -0.1175
-0.043274 0.177408 -0.102645 -0.468587 -0.278295 -0.834053
0.021601 0.398444 -0.128123 -0.035037 0.001285 -0.999041
-0.135797 0.001669 -0.027883 -0.987669 0.043303 -0.143525
-0.335018 0.327148 -0.074544 -0.494295 0.738286 -0.45159
0.108659 -0.100324 0.111923 -0.424205 -0.06179 0.901607
0.623369 0.075375 0.028943 0.864786 0.497516 -0.06522
0.26962 0.495084 -0.026437 0.708788 0.507876 0.483736
