0.146341 -0.702603 0.017441 0.33633 -0.464637 0.818172
-0.007647 0.668992 0.039375 -0.710359 -0.698411 0.085582
0.102429 0.801927 -0.038305 0.89375 0.425311 -0.065524
0.205736 -0.220999 -0.030443 0.994222 -0.048771 -0.092538
0.627479 0.06482 0.080868 0.861041 0.490175 0.114901
-0.090921 -0.577417 0.059343 -0.30966 -0.133919 0.892452
-0.061903 0.030674 0.11954 -0.342332 0.297746 0.890196
0.056345 -0.635564 -0.045916 -0.830463 -0.14478 -0.537425
-0.135626 -0.505382 -0.003239 -0.960518 -0.105793 0.238958
-0.045072 -0.049899 -0.124346 -0.15987 -0.417133 -0.89251
0.064598 0.635159 0.022309 0.619717 -0.28462 0.727362
-0.312321 0.312374 -0.09535 -0.194589 0.184571 -0.962951
-0.049889 -0.277331 0.106171 0.162695 -0.135182 0.977076
-0.192107 0.505376 0.022361 -0.653481 0.596555 0.465055
0.154654 -0.816187 -0.106623 0.651931 -0.181164 -0.729185
0.057818 -0.228584 0.067186 -0.702448 -0.133977 0.698447
0.161544 0.481958 -0.137784 0.17403 0.192785 -0.964369
-0.000986 -0.188938 -0.070556 0.643754 0.01349 -0.764981
-0.098901 -0.717357 0.006405 -0.564663 -0.593561 0.568181
0.09745 0.131301 0.117414 0.463843 0.035276 0.884511
0.014626 0.103145 -0.135642 -0.16487 0.280157 -0.944801
-0.109057 0.298292 0.027244 -0.957041 0.003598 0.289276
-0.04199 -0.076822 0.128295 -0.10439 -0.062358 0.991608
0.194581 0.157905 -0.012338 0.843579 0.373667 -0.358464
0.197751 -0.367178 0.03067 0.952013 -0.076178 0.296172
-0.120799 0.204104 -0.016939 -0.924994 0.12416 -0.35626
0.008663 0.556298 0.027286 -0.073739 0.429575 0.891661
-0.013783 -0.757831 -0.115046 0.68199 0.337133 -0.647987
0.146602 -0.867431 0.031062 0.181917 -0.977362 -0.104541
0.040624 0.347475 0.113733 0.086041 0.167633 0.981741
-0.004333 -0.08964 0.124962 0.392694 -0.125862 0.91052
-0.183801 0.509654 -0.057313 -0.643061 0.520706 -0.559704
0.199927 -0.425041 -0.031131 0.987571 -0.025205 -0.153221
-0.079902 -0.55842 0.0612 0.440788 -0.175386 0.879474
-0.037915 -0.856081 -0.042404 0.544893 -0.833058 0.061257
0.064428 0.400687 0.098021 0.111966 0.205264 0.972267
-0.003618 0.649213 0.012431 -0.837001 -0.220926 0.496581
0.264838 0.48205 -0.011398 0.564749 0.365364 0.733244
-0.019758 0.55007 0.038456 0.041675 0.838562 0.533922
0.371311 0.273306 -0.121313 -0.455973 -0.501482 -0.724332
-0.093985 -0.595129 -0.097359 -0.463115 0.043574 -0.885209
0.16109 0.224747 0.061228 0.752299 0.057012 0.655759
-0.095701 0.340201 0.058479 -0.806377 -0.164182 0.563734
0.193451 -0.485558 0.020767 0.954082 0.039316 0.29515
0.625356 0.042644 0.044854 -0.827251 -0.560089 -0.031097
0.119056 -0.824524 0.124983 -0.078563 0.994119 0.028226
-0.406461 0.247121 0.005227 -0.434744 0.508352 0.739233
0.032943 -0.247385 0.018524 0.904197 -0.092715 0.413098
-0.215625 0.399706 0.031175 -0.155387 -0.323993 0.929235
-0.0914 -0.854551 -0.10496 -0.830017 -0.286475 -0.37251
-0.184006 0.427445 -0.094316 -0.048147 0.172299 -0.983377
0.202069 -0.000737 -0.034613 0.915935 0.118764 -0.376008
0.164733 -0.142734 0.098342 0.478137 -0.124653 0.868563
0.015257 -0.069824 -0.106982 0.012963 -0.690587 -0.721606
0.303515 0.420063 -0.137055 0.26998 0.451509 -0.848166
-0.021077 -0.526533 -0.089588 0.593361 0.040882 -0.800865
0.207548 -0.193821 -0.015208 0.998735 -0.033624 -0.034281
-0.126409 -0.721891 -0.034157 -0.968008 0.03685 0.236546
0.225291 0.445315 0.014853 0.428475 -0.221405 0.870899
0.461382 0.259699 -0.034659 0.202903 0.709603 0.654547
-0.030929 0.424218 -0.130086 0.000711 -0.038245 -0.999144
0.006105 0.528141 0.055826 0.097724 0.572599 0.812135
0.098525 0.083363 -0.143264 0.388323 0.284601 -0.872246
-0.068622 -0.115596 0.120883 -0.211302 -0.034252 0.97667
0.16096 0.20308 -0.069365 0.775317 0.017761 -0.630875
-0.037862 0.254864 0.109013 -0.419227 0.029494 0.905252
-0.447848 0.216469 -0.027291 -0.742681 0.653167 -0.095283
0.055264 -0.139816 -0.09159 -0.661817 -0.224713 -0.714723
0.474581 0.22937 -0.077533 0.404967 -0.22406 -0.884174
0.054787 0.192297 0.128527 0.098585 0.013564 0.994979
0.15827 -0.69432 0.017688 0.302268 -0.472047 0.826693
-0.069224 -0.400615 0.090794 0.134261 -0.160128 0.977807
0.095255 0.351227 -0.144948 0.045731 -0.040663 -0.996817
0.070739 -0.529174 -0.074762 -0.718672 -0.070637 -0.691734
0.190289 0.150949 -0.022205 0.834952 0.07107 -0.537526
-0.053639 -0.630118 -0.104522 0.235069 0.052993 -0.969412
0.080914 0.675803 0.024078 0.876816 -0.409509 0.223726
0.128494 0.316169 -0.127288 0.581346 -0.080983 -0.808849
0.150134 0.571899 -0.025636 0.266791 0.829406 0.484332
0.065002 0.570391 -0.106598 -0.07193 0.577569 -0.812566
0.078523 0.08238 0.127105 0.471138 0.02626 0.880806
-0.268919 0.278686 -0.064238 0.730385 -0.587224 -0.339544
-0.144279 -0.128891 0.007396 -0.999102 -0.008644 -0.037537
0.166775 -0.744772 0.013138 0.315833 0.818908 0.476787
0.020101 -0.579254 -0.040654 0.850905 0.110385 -0.511228
-0.127646 -0.348265 0.026338 -0.996166 0.0352 0.076631
0.192945 0.348961 -0.00962 0.984332 -0.084698 0.152142
0.195685 -0.740232 -0.021664 0.923579 -0.3279 -0.131157
0.636407 0.052597 0.037076 0.888188 0.457099 -0.0182
-0.113251 -0.317299 -0.045335 -0.861317 0.05252 -0.490157
-0.060341 0.466546 0.079267 -0.202561 0.390859 0.895021
-0.42269 0.172072 -0.046019 0.482247 -0.720365 -0.495899
0.137764 0.249513 -0.109075 0.793796 -0.14034 -0.591715
-0.070842 0.180345 0.094454 -0.547396 0.017319 0.833755
-0.068629 0.457936 -0.129198 -0.170512 -0.00246 -0.984964
0.063593 -0.03808 0.13042 0.033917 -0.176254 0.983305
-0.02898 -0.650562 0.023903 0.015784 0.009921 0.997698
-0.449447 0.211838 -0.00418 -0.733794 0.620364 0.260545
0.105314 -0.161301 0.102589 -0.351536 -0.197611 0.907348
-0.013807 0.140352 0.125991 -0.428521 0.026219 0.897239
0.135652 0.419108 0.079056 0.465135 0.112562 0.874515
0.029366 0.471039 0.084051 0.117157 0.399393 0.908679
0.152976 0.030255 0.104996 0.490286 0.240249 0.837663
-0.06211 0.582295 -0.057042 -0.342118 0.925137 -0.134164
0.272461 0.341542 -0.080003 -0.639308 -0.766352 -0.004046
0.175667 -0.574743 -0.0823 0.677937 -0.051866 -0.730754
-0.135171 -0.243363 0.04088 -0.99666 -0.045704 0.058641
0.323795 0.297655 -0.08453 -0.700786 -0.710514 0.037656
-0.236197 0.425963 0.019484 -0.650504 0.316477 0.687445
-0.098508 -0.861833 0.109796 -0.361052 -0.906864 0.100439
0.003314 -0.828027 -0.070982 0.832573 -0.553421 -0.016061
-0.194203 0.349638 -0.05492 0.631192 -0.752967 -0.183213
-0.276261 0.268441 -0.061911 0.701131 -0.680253 -0.209516
-0.07391 -0.831185 0.1385 -0.236635 0.935033 0.24845
0.113769 -0.111173 0.113456 -0.266293 -0.017086 0.937783
-0.041078 -0.270593 0.105747 0.170675 -0.16775 0.970881
-0.008655 -0.169445 -0.077322 0.629108 -0.05701 -0.774006
-0.003388 0.762915 -0.111053 -0.510967 -0.198933 -0.834485
-0.029178 -0.055041 0.130511 -0.068572 -0.092864 0.992974
0.343679 0.417861 -0.099217 0.743305 0.667701 -0.024757
0.066993 0.196219 -0.119716 -0.200212 -0.220843 -0.949649
0.134979 0.300193 0.085746 0.734479 0.047427 0.676959
0.101806 0.175205 -0.113072 0.268635 0.038366 -0.959407
-0.423649 0.211257 -0.054589 -0.528132 0.06194 -0.846837
-0.029619 -0.339758 0.092603 0.297203 -0.09662 0.946517
0.19013 0.32677 -0.007357 0.99075 -0.100431 0.088068
-0.043105 -0.444214 -0.090552 0.194042 0.182829 -0.961645
-0.00205 -0.45677 -0.061808 0.73957 0.095527 -0.666121
-0.011806 -0.171743 0.114564 0.477661 -0.137255 0.866976
0.17474 0.360451 -0.097865 0.649631 -0.434106 -0.622259
-0.053001 0.27692 0.096762 -0.582988 0.04652 0.810209
-0.020809 0.216321 -0.125457 -0.186031 -0.221233 -0.956411
-0.056665 -0.093273 -0.109894 -0.229268 -0.195598 -0.95043
-0.058433 -0.863119 -0.087396 0.001288 -0.999588 0.025578
-0.199811 0.344484 -0.023579 0.638372 -0.747234 0.180427
-0.1355 -0.399402 0.008969 -0.982921 0.169719 0.051501
-0.123528 0.005413 -0.063597 -0.891832 0.073335 -0.445871
-0.074906 -0.789932 -0.135318 -0.60465 0.231924 -0.752632
0.007071 -0.464825 0.03624 0.753763 -0.090399 0.650301
0.118974 -0.780561 0.040229 0.076343 0.673379 0.728709
0.069211 0.730348 0.07372 0.518027 0.193166 0.8289
0.119684 -0.187131 0.098034 0.01774 -0.145716 0.988124
0.17655 0.048747 -0.085157 0.819307 0.196127 -0.537873
0.072357 0.296105 -0.139318 -0.219096 -0.07736 -0.972175
-0.002933 0.629645 -0.052593 -0.694287 0.395747 -0.596635
-0.02132 -0.2686 -0.085532 0.624586 -0.060697 -0.778354
-0.375803 0.273337 -0.083609 -0.326093 0.195264 -0.923335
0.007205 -0.138717 -0.062719 0.804074 -0.123513 -0.581474
-0.095967 0.129836 -0.077417 -0.734004 0.138129 -0.664345
-0.124822 -0.216219 -0.0239 -0.856223 -0.094473 -0.507617
0.204029 0.503752 -0.126966 0.169242 0.393449 -0.899882
0.212404 0.42235 -0.005264 0.334293 -0.854714 0.373773
-0.004834 -0.336845 0.080145 0.632676 -0.070632 0.769092
0.075511 0.672374 0.036488 0.803452 -0.573671 0.13735
0.008012 -0.117757 0.111972 0.596958 -0.219265 0.770679
-0.071621 0.170203 0.093887 -0.63155 0.002607 0.774598
0.040463 0.43803 -0.129023 -0.238808 0.021499 -0.968388
0.354779 0.330562 -0.045768 0.31529 0.250222 0.913548
-0.031688 0.750031 -0.064317 -0.885241 -0.360492 -0.293704
0.123979 -0.167624 0.103391 0.045885 -0.321403 0.944489
-0.121675 0.391336 0.037026 -0.942323 -0.249056 0.218604
0.038795 -0.148838 0.049789 0.094959 -0.478552 0.821564
-0.071348 -0.104017 -0.103375 -0.463137 -0.153038 -0.868509
-0.0856 -0.707597 0.019009 -0.011413 -0.397025 0.914814
-0.086439 0.388932 -0.11397 -0.390034 -0.166138 -0.905495
0.120513 -0.146883 -0.111945 0.163475 -0.246978 -0.9533
-0.010445 -0.092017 -0.102846 0.416389 -0.395742 -0.814164
-0.027321 0.770006 -0.086093 -0.84297 -0.114377 -0.52375
-0.109211 -0.115975 0.102006 -0.685244 0.042684 0.726704
-0.349395 0.321464 -0.05845 -0.576546 0.806745 -0.101038
-0.172639 0.363714 -0.033828 0.672815 -0.737078 -0.029601
-0.130444 0.114436 -0.004936 -0.991372 -0.015983 -0.094808
-0.468891 0.148786 0.058653 0.637874 0.073652 0.752327
0.119006 0.216999 -0.115936 0.583771 -0.335971 -0.738381
-0.288298 0.380554 -0.066385 -0.898619 0.313124 -0.2827
0.219842 0.394718 -0.088719 -0.73358 -0.676031 -0.056132
-0.07474 0.487788 0.066872 -0.243496 0.379795 0.889958
-0.014315 0.731509 -0.086149 -0.695766 -0.477377 -0.535962
-0.003575 0.169608 -0.115158 -0.145353 -0.161434 -0.970678
0.156483 0.35208 -0.110964 0.605756 -0.278165 -0.745284
-0.114616 0.329538 0.01251 -0.962602 -0.132992 0.23291
-0.007873 0.516287 0.063806 -0.000768 0.444075 0.895372
0.082964 -0.349897 0.062978 -0.500439 -0.324935 0.800987
0.084981 -0.263633 -0.091406 -0.484705 0.0618 -0.872273
-0.093919 -0.862976 0.023252 -0.076995 -0.995408 -0.034561
0.197236 -0.581896 -0.055384 0.924077 -0.020897 -0.374063
0.256794 0.486218 -0.006871 0.598023 0.291471 0.743868
0.198409 0.372021 -0.043338 0.999509 -0.0156 0.02527
0.07463 -0.247855 -0.084498 -0.590279 -0.000887 -0.804841
-0.024847 0.706484 -0.019524 -0.676645 -0.667564 -0.147126
-0.307693 0.349487 -0.072543 -0.598196 0.677609 -0.413322
-0.025423 0.328551 0.108373 -0.47214 0.288336 0.824376
0.100845 0.725462 -0.000753 0.989592 0.017348 0.108471
-0.288125 0.262603 -0.01994 0.737554 -0.554103 0.383343
-0.128328 0.118139 0.020485 -0.972992 0.073414 0.213974
0.081251 -0.395094 0.045273 -0.673927 -0.26986 0.687309
0.020666 0.620048 -0.070114 -0.19214 0.517392 -0.830605
0.204827 -0.2661 -0.016074 0.994489 -0.003005 -0.100261
0.07709 0.051354 0.129904 0.37553 0.12464 0.914182
0.182585 0.245143 0.015213 0.998002 -0.013531 0.060852
-0.101759 -0.838087 -0.067265 -0.877417 -0.442601 -0.168302
-0.105419 -0.441472 0.077159 -0.742801 -0.112946 0.65934
-0.029298 0.727788 0.017952 -0.987828 0.028097 0.148454
-0.064313 0.157654 -0.092899 -0.345849 0.246879 -0.901996
-0.109692 -0.004119 0.098201 -0.766375 -0.184606 0.611702
0.20017 0.069285 -0.02275 0.985011 0.108738 -0.133492
0.070563 -0.50484 0.011802 -0.603518 0.030286 0.796613
0.171477 0.467478 -0.138059 0.162674 0.064952 -0.984186
0.008932 -0.301977 0.078743 0.736219 -0.175293 0.64581
0.210599 0.415417 -0.03593 0.08827 -0.947353 0.129646
0.069922 -0.217449 0.080227 -0.558089 -0.111189 0.821098
0.205697 -0.105626 -0.036562 0.915772 0.070463 -0.39408
0.025496 -0.679645 -0.028799 0.956436 -0.113718 0.244184
-0.037084 -0.610817 0.02936 0.338063 -0.111124 0.933484
-0.250251 0.364387 -0.097857 0.015869 -0.049495 -0.996281
0.015472 0.804219 0.075886 -0.340022 0.395315 0.853189
-0.187012 0.357035 -0.013634 0.523351 -0.778975 0.338778
-0.089194 -0.806986 -0.119187 -0.779829 -0.168219 -0.601898
0.092696 -0.661708 0.031614 -0.295345 0.170882 0.938273
-0.014443 -0.108746 -0.097306 0.499572 -0.350324 -0.791186
0.484948 0.227044 -0.006231 0.289627 0.096408 0.939027
-0.111921 0.307006 0.017294 -0.967656 -0.038675 0.246795
-0.344184 0.250665 -0.080197 0.194195 -0.411097 -0.889899
-0.084589 -0.085315 0.115167 -0.433935 0.000786 0.900535
-0.018028 0.071468 -0.137849 -0.184916 0.229166 -0.955006
0.126301 -0.614505 0.036208 -0.055148 0.136612 0.986284
-0.002683 0.840328 0.041513 -0.616276 0.362643 0.690883
-0.114415 -0.452325 0.062087 -0.844603 -0.183396 0.502647
0.59136 0.121303 0.020362 0.744753 0.66471 -0.051214
0.19171 -0.477827 0.026323 0.966628 -0.008511 0.255488
0.184566 0.313668 0.010451 0.939378 -0.083038 0.328625
0.193199 -0.457023 0.025344 0.965324 -0.076436 0.24923
0.168916 0.246434 0.050628 0.714065 0.063662 0.696901
0.099299 -0.683893 0.035398 0.074823 0.055674 0.993434
0.051325 -0.556063 -0.046995 -0.857937 -0.036951 -0.51236
0.196036 0.521497 0.012503 0.26395 0.510141 0.816867
-0.114014 -0.470216 0.054376 -0.880291 -0.233096 0.412848
0.008052 -0.317504 -0.048101 0.761922 -0.039064 -0.646408
0.180648 0.274488 0.020623 0.970053 0.032507 0.235693
0.01458 0.148898 -0.115069 -0.147209 0.215929 -0.961231
-0.018102 0.679539 -0.013322 -0.868651 -0.455097 -0.1667
0.132984 0.199666 0.094802 0.552231 0.057682 0.829939
0.158859 0.294423 -0.086304 0.841643 -0.178135 -0.509201
0.168512 -0.041192 -0.105239 0.807433 -0.129454 -0.575429
0.165293 0.180138 -0.065357 0.823202 0.055517 -0.561337
0.164895 -0.094209 0.100684 0.615971 0.036228 0.786853
-0.147662 0.442863 -0.096307 -0.287766 -0.10551 -0.947852
-0.081185 -0.826807 0.098573 -0.235821 0.961079 0.116881
-0.293338 0.252167 -0.029942 0.707961 -0.684335 0.162276
0.168885 -0.678222 0.020312 0.393562 -0.265684 0.878239
0.12921 0.485339 0.059611 0.234071 0.521062 0.820673
0.084318 -0.849964 0.084002 -0.937929 0.320165 0.010549
0.090567 -0.839899 0.105711 -0.872847 0.47383 0.114922
-0.120445 -0.700152 -0.027146 -0.88387 -0.118587 0.430056
0.006074 -0.024461 0.1333 0.100188 -0.131063 0.981562
0.165046 -0.852092 0.005603 0.9681 -0.162363 -0.165212
-0.072512 -0.136668 0.119796 -0.299255 0.043353 0.952632
0.166976 -0.159963 -0.083664 0.622321 -0.087956 -0.773744
0.130584 0.24189 -0.115816 0.692955 -0.202696 -0.690909
-0.43175 0.164316 0.03435 0.536536 -0.348002 0.730038
0.201028 -0.515419 -0.001203 0.935295 -0.007491 0.352952
0.087507 0.748559 0.054859 0.835332 0.089919 0.537396
0.1291 0.040479 -0.137862 0.522144 0.228364 -0.819446
0.159983 -0.859514 -0.076464 0.848474 -0.489701 -0.17974
-0.40545 0.214956 0.014982 0.1587 0.186415 0.963585
0.17137 -0.772004 -0.072292 0.752061 0.500512 -0.42726
0.022707 -0.4774 -0.023094 0.903361 0.048149 -0.426011
-0.020823 -0.346619 0.08886 0.381557 -0.092341 0.916965
-0.054053 -0.478083 0.070265 0.35309 -0.295193 0.887707
0.09163 -0.724429 -0.080101 -0.805752 -0.073484 -0.584539
-0.451189 0.142337 -0.002934 0.523205 -0.837692 -0.055466
0.171814 0.115385 -0.065718 0.792567 0.270199 -0.546421
-0.035803 0.796187 -0.006416 -0.995978 -0.002222 0.087987
-0.020049 0.061625 -0.139945 -0.244617 0.272426 -0.929935
-0.162391 0.544159 -0.006817 -0.644393 0.760094 0.076181
-0.120893 -0.247521 0.087224 -0.883367 -0.034404 0.467045
-0.017106 -0.730782 -0.106762 0.539889 0.346673 -0.765505
0.084119 0.637848 -0.016529 0.980827 0.005288 0.170091
0.128925 0.178436 0.097671 0.5218 0.023226 0.852475
0.028913 -0.290486 0.021148 0.993477 -0.040733 0.102229
0.214107 -0.067024 0.015748 0.999084 0.025606 0.032404
0.091402 -0.578374 0.028099 -0.409331 -0.094934 0.903592
0.321261 0.433059 -0.115087 0.539239 0.663257 -0.518712
-0.479237 0.173661 0.016911 -0.598653 0.788664 0.124867
0.097538 -0.813574 0.060573 -0.682462 0.518431 0.510655
0.188646 0.369609 0.017526 0.922191 -0.172926 0.345001
0.158084 -0.84799 -0.085146 0.936446 -0.065927 -0.339343
0.328136 0.364101 -0.139272 0.170919 -0.086182 -0.97921
0.277138 0.455977 -0.014377 0.57964 0.147663 0.798706
-0.081497 -0.829569 0.119276 -0.317714 0.928786 0.170961
-0.427711 0.23629 -0.005024 -0.694388 0.640084 0.287519
0.335803 0.297978 -0.059701 -0.583668 -0.634402 0.506401
0.472179 0.249473 -0.083023 0.859977 0.104085 -0.457658
0.100412 -0.518132 -0.101283 -0.542605 -0.018504 -0.839573
0.170607 -0.20921 -0.076212 0.616166 -0.091818 -0.781927
0.146549 -0.162636 -0.098776 0.539201 -0.09342 -0.836657
-0.134332 -0.130095 -0.029388 -0.890376 -0.111897 -0.436999
0.02884 -0.264172 0.029839 0.984259 -0.048361 0.169864
-0.04277 -0.723329 0.02493 -0.377 0.325538 0.855576
0.084038 0.660327 -0.009254 0.988122 -0.026277 0.120298
-0.140094 -0.135697 -0.012975 -0.922812 -0.095157 -0.372992
-0.035748 0.519346 -0.120318 -0.109117 0.302853 -0.945981
0.064527 0.74708 -0.106115 0.473844 -0.285732 -0.831868
0.148048 0.274902 -0.099531 0.837482 -0.100981 -0.537026
0.090927 -0.162524 0.095994 -0.479561 -0.064264 0.870662
0.286501 0.446353 -0.020969 0.676114 0.173415 0.716065
0.277034 0.338939 -0.089082 -0.62714 -0.767013 -0.119777
0.006917 -0.429617 0.042669 0.798196 -0.156814 0.581569
0.533556 0.136519 0.017373 -0.77722 -0.584325 0.173292
-0.054936 -0.48116 -0.097314 0.044565 0.111714 -0.992554
0.019596 -0.378637 0.035238 0.942754 -0.105017 0.316262
0.107794 0.260276 -0.135778 0.340075 -0.091515 -0.932184
0.192979 -0.198255 0.064868 0.949431 -0.066514 0.304233
-0.020569 0.018537 0.136794 -0.183299 0.130928 0.97412
-0.126923 -0.001831 0.074436 -0.84743 -0.242706 0.466623
-0.087968 0.061281 -0.103978 -0.713477 0.14314 -0.68535
-0.136286 0.510091 -0.091474 -0.423054 0.398045 -0.812595
0.204699 -0.36799 -0.022703 0.983647 0.036231 -0.173226
0.153995 0.298777 0.063129 0.75148 0.021701 0.65933
0.124561 -0.380604 0.072642 -0.269341 -0.189608 0.943714
0.05046 -0.195897 -0.068398 -0.817164 -0.164239 -0.551222
0.087276 0.838082 0.002866 0.838635 0.521006 0.090335
0.205943 -0.344097 0.001183 0.998926 -0.012502 0.021317
0.017355 0.588478 -0.092071 -0.11734 0.685979 -0.711664
0.073993 0.362976 -0.143098 -0.262425 -0.01361 -0.96224
0.16471 -0.074741 -0.103557 0.717842 -0.099072 -0.687914
0.018494 -0.467878 0.018797 0.893987 -0.07109 0.440289
0.054018 0.030178 0.137115 0.034095 0.254618 0.966105
-0.105336 -0.789755 -0.097464 -0.868997 0.040795 -0.491889
0.183182 0.209777 -0.002505 0.999662 0.01982 -0.00916
0.437559 0.201385 -0.102188 -0.160346 -0.961642 -0.121405
0.134684 -0.751694 0.031258 -0.086227 -0.753048 0.634887
-0.18837 0.491617 0.038088 -0.600419 0.326475 0.727459
-0.028018 -0.466425 -0.087712 0.427547 0.115512 -0.896504
-0.037775 0.125328 -0.11621 -0.343167 0.425284 -0.836512
0.035302 0.85464 0.047325 0.054338 0.711227 0.695946
-0.081391 0.364497 -0.111901 -0.474505 -0.140968 -0.868134
-0.084484 -0.672532 0.033075 0.167328 -0.352658 0.915656
0.108579 0.049395 -0.146723 0.476459 0.235332 -0.846874
-0.360521 0.208625 -0.047556 0.449905 -0.861264 -0.225679
0.024613 -0.323473 -0.018928 0.900165 0.016166 -0.430466
0.008335 0.23324 -0.12746 0.098895 0.002291 -0.994999
0.209265 0.416639 -0.020294 0.39193 -0.851212 0.186373
0.018068 -0.551235 0.003236 0.886935 -0.054467 0.437158
0.163755 -0.032587 -0.113139 0.750654 -0.071802 -0.656192
0.134746 0.547481 -0.115904 0.264762 0.549159 -0.790755
0.005758 0.858459 -0.049242 -0.410585 0.824788 -0.385714
-0.093157 0.488041 0.061785 -0.176608 0.351318 0.917843
0.611077 0.093885 0.025558 0.771675 0.633424 -0.055648
0.052518 -0.671211 -0.024676 -0.969184 -0.075299 -0.218904
0.074622 -0.760617 -0.049716 -0.860219 0.216227 -0.461105
0.557007 0.095042 -0.011205 -0.732316 -0.670177 -0.096188
-0.036399 -0.16455 -0.093422 0.371199 -0.116746 -0.92093
-0.037584 -0.526836 0.050435 0.332371 -0.216798 0.917447
0.068237 -0.663617 -0.054241 -0.766908 -0.146425 -0.624685
-0.133693 0.040891 -0.026627 -0.95926 0.158568 -0.230057
0.171529 -0.719919 -0.06015 0.815828 -0.08649 -0.571205
0.160529 -0.834594 0.077272 0.81219 0.580604 0.033684
-0.145699 0.393302 -0.01537 0.750259 -0.651602 0.109254
0.368877 0.339224 -0.056684 0.515357 0.548866 0.655245
-0.085391 -0.622199 -0.10382 -0.268562 0.084425 -0.958768
0.129189 -0.055001 -0.135445 0.328099 -0.269224 -0.900362
0.190017 0.329149 -0.041687 0.971983 -0.176432 -0.136479
0.179735 -0.438621 -0.072866 0.684469 0.179459 -0.706517
-0.125064 -0.12795 0.081882 -0.827533 0.030109 0.560224
0.01169 0.174286 -0.116452 -0.01872 0.026042 -0.996379
0.197639 -0.273177 -0.035757 0.880086 -0.155662 -0.446375
0.20812 -0.055507 -0.018038 0.969355 0.041723 -0.241059
0.093546 -0.845711 0.137672 -0.83895 0.456319 0.290653
0.186032 0.14592 0.041582 0.830513 0.129716 0.53818
0.196955 -0.148852 0.063164 0.892701 -0.094559 0.44045
0.007581 0.140575 -0.11839 -0.092914 0.409873 -0.907384
0.045397 -0.481413 -0.043288 -0.950365 -0.006226 -0.286232
0.197409 0.547265 -0.009673 0.304686 0.74238 0.594848
-0.058576 -0.747852 -0.126819 -0.077434 0.2474 -0.961721
-0.135649 -0.463206 0.012736 -0.962168 -0.077835 0.254039
-0.060013 0.097123 0.106998 -0.498157 0.133487 0.845512
0.029166 0.131721 -0.125604 -0.147301 0.440014 -0.885727
0.129538 0.176095 -0.100915 0.510548 0.045572 -0.857822
-0.37323 0.2905 -0.075196 -0.536442 0.585702 -0.599765
-0.142876 -0.048295 0.023306 -0.994468 0.044308 0.094928
-0.540782 0.068192 0.079007 0.460119 -0.827439 0.296186
0.503241 0.164873 0.008468 -0.601053 -0.776953 0.184006
-0.03395 0.817119 0.005531 -0.900594 0.009852 0.421045
0.205328 0.471178 0.02381 0.511738 0.097115 0.851275
-0.074327 0.161075 -0.086749 -0.542205 0.190071 -0.815165
0.098826 -0.575625 -0.093773 -0.582224 -0.128618 -0.802751
-0.090627 -0.858225 -0.033471 -0.596337 -0.794897 -0.064427
-0.060111 0.441792 0.08782 -0.18043 0.254061 0.948608
-0.24528 0.303553 -0.048345 0.779054 -0.616491 -0.108399
0.387157 0.239448 -0.062962 -0.607626 -0.759467 0.225554
-0.095728 -0.334141 -0.067046 -0.644827 0.063062 -0.76158
-0.132606 -0.573939 -0.048114 -0.959448 -0.080261 -0.249875
0.138477 0.373309 -0.131504 0.594772 -0.165578 -0.786531
0.575696 0.135319 0.001012 0.662454 0.422978 -0.557683
-0.096367 -0.847361 -0.08459 -0.983208 -0.054004 -0.162972
-0.559398 0.044953 0.014635 0.900987 -0.417468 -0.075074
-0.068045 -0.534963 -0.101785 -0.129226 0.070622 -0.986632
0.118661 -0.120993 0.114384 -0.014504 -0.065722 0.992659
0.032606 0.297505 0.122167 0.051186 0.09796 0.993805
0.157319 -0.835309 0.121019 0.638617 0.75421 0.131952
-0.128266 -0.062788 0.073578 -0.843613 0.028822 0.53578
-0.279553 0.404082 -0.030337 -0.66489 0.739349 0.088194
-0.115132 -0.375628 -0.0509 -0.753343 -0.002853 -0.656846
0.091818 0.7257 -0.062974 0.867203 -0.365693 -0.335858
0.195592 -0.223038 0.05463 0.928579 0.03167 0.368783
0.068998 0.218901 -0.128961 -0.157189 -0.284038 -0.94525
-0.074653 -0.268693 -0.086142 -0.577143 -0.035893 -0.814207
0.25367 0.376972 -0.127566 -0.469287 -0.544835 -0.687952
-0.01247 -0.353907 0.083967 0.587871 -0.123774 0.782251
0.02105 0.498216 0.070967 0.090836 0.557043 0.824497
0.158906 0.116982 0.07666 0.575583 0.176429 0.797391
0.141943 0.340321 -0.119885 0.662977 -0.173535 -0.727925
0.114947 -0.658018 -0.093336 -0.380863 -0.044945 -0.923251
0.114753 0.566581 -0.106493 0.250777 0.642079 -0.723024
-0.140006 0.471054 0.061091 -0.176571 -0.009524 0.982392
0.179402 0.510223 0.023602 0.42238 0.444653 0.789215
0.063102 0.848911 -0.067781 0.424874 0.759127 -0.49227
0.094632 -0.50584 -0.097446 -0.557181 -0.020469 -0.83006
0.119259 -0.137448 -0.115189 0.175587 -0.303498 -0.933643
0.069063 0.627295 0.015668 0.659853 -0.246957 0.705892
-0.031001 0.376564 0.106095 -0.047646 0.060079 0.997019
0.195798 -0.427561 -0.048453 0.88768 0.099034 -0.442451
-0.151811 0.421512 0.037929 -0.407594 -0.50244 0.759281
0.596196 0.070867 -0.000477 0.913261 -0.115104 -0.364047
0.171983 -0.674413 -0.066377 0.683244 -0.20884 -0.699012
0.06682 -0.077908 0.110179 0.021255 -0.629861 0.775545
-0.485443 0.141066 -0.028824 -0.123487 -0.741208 -0.596772
0.158599 -0.277784 -0.074107 0.56303 -0.140918 -0.814046
-0.141696 0.399792 -0.00697 0.528588 -0.819774 0.130241
0.002246 0.670533 -0.053679 -0.700285 -0.232423 -0.671436
-0.110352 -0.570696 0.030394 -0.89503 -0.060577 0.441699
0.089285 0.694863 0.011057 0.984329 -0.157861 0.050172
-0.127514 -0.477234 0.02619 -0.869775 -0.197272 0.45188
-0.131818 -0.267913 0.041877 -0.976441 -0.182431 0.099226
-0.214212 0.425231 0.03648 -0.356254 -0.042378 0.924911
0.100145 0.759655 -0.060864 0.956109 -0.127065 -0.26041
-0.123426 0.055972 0.060541 -0.922679 0.224335 0.310274
0.0085 -0.515933 0.023298 0.757821 -0.181136 0.626492
0.159042 0.08839 0.083292 0.327915 0.28075 0.899731
-0.361107 0.303323 -0.075411 -0.600076 0.570378 -0.552365
-0.327857 0.340089 -0.043277 -0.685884 0.726783 -0.014695
0.09634 0.142778 0.117075 0.480779 0.080241 0.873019
-0.102868 0.256204 0.056453 -0.906515 0.08113 0.403962
0.059714 -0.479277 -0.065126 -0.733461 0.028056 -0.679048
-0.363541 0.306102 -0.023428 -0.587695 0.766973 0.257134
-0.130013 -0.599546 -0.037274 -0.996734 -0.061472 0.038589
0.379212 0.316406 -0.048149 0.276823 0.420572 0.863725
-0.015973 0.84548 -0.050998 -0.529165 0.788038 -0.312306
-0.06948 -0.577178 0.052592 0.406918 -0.229036 0.883777
0.18857 -0.140661 -0.064994 0.718866 -0.047816 -0.693255
-0.139162 0.025703 -0.008552 -0.971979 0.112526 -0.195502
0.067145 0.37694 -0.141039 -0.400018 -0.005517 -0.914863
0.023389 0.830036 -0.098532 -0.082613 0.700272 -0.708609
0.06121 -0.559355 0.003978 -0.697012 0.013921 0.716491
0.319629 0.406701 -0.037131 0.600248 0.359732 0.712997
0.00764 -0.42465 -0.048536 0.785266 -0.016333 -0.618752
-0.056467 -0.861596 -0.058521 0.041564 -0.997551 0.052
0.201556 -0.276556 -0.026131 0.897659 -0.12001 -0.423218
0.14258 -0.869501 0.060948 0.133303 -0.985454 -0.018196
0.164939 -0.321272 -0.066578 0.680974 0.002575 -0.731999
-0.034509 -0.852206 -0.131614 0.525631 -0.515642 -0.649101
0.017017 0.514493 -0.122581 0.003215 0.114303 -0.992762
-0.023787 -0.315675 0.093693 0.28904 -0.067193 0.951416
-0.113667 -0.383723 0.085132 -0.728483 -0.089501 0.677772
0.173511 0.288765 0.04182 0.895208 -0.047316 0.431871
0.174921 -0.521975 -0.08546 0.697581 -0.02808 -0.715923
0.19036 0.086004 -0.049599 0.87749 0.169726 -0.442029
-0.51668 0.079498 0.046138 0.620846 -0.763881 -0.166252
-0.035972 0.751736 0.001123 -0.965178 -0.106512 0.232266
0.028128 -0.334435 0.00367 0.998552 -0.049552 -0.003761
-0.044118 0.139997 0.112156 -0.484085 0.014402 0.873757
0.196017 0.388311 -0.00092 0.967846 -0.120215 0.219146
-0.112901 0.296058 0.007062 -0.988953 -0.098099 0.109225
-0.095796 -0.249424 0.10828 -0.296952 -0.020003 0.951613
-0.122894 -0.224269 0.085893 -0.861304 -0.044678 0.506119
0.167 0.04662 -0.100175 0.776523 0.22769 -0.587251
-0.071665 -0.614041 -0.105022 -0.047412 0.065465 -0.995923
-0.079051 -0.862329 -0.07587 -0.069772 -0.996747 0.031612
0.201116 -0.569629 -0.006948 0.963532 -0.081501 0.252846
0.058191 0.654741 0.038999 0.610793 -0.566363 0.549552
0.043434 -0.327772 0.023634 -0.987551 -0.038006 0.149651
0.027077 -0.349783 0.01811 0.995271 -0.054095 0.069461
0.006726 -0.480304 0.033734 0.731997 -0.165548 0.659033
-0.28546 0.401408 -0.047218 -0.553206 0.832348 -0.008509
0.227068 0.411287 -0.126512 -0.56444 -0.388177 -0.724567
-0.200873 0.463823 -0.075115 -0.549126 0.445918 -0.703467
-0.029784 0.717016 0.018558 -0.973749 -0.084131 0.175846
0.313589 0.349639 -0.037344 -0.022661 -0.265519 0.962348
0.022364 -0.543471 -0.02504 0.951608 0.051592 -0.298457
0.049354 0.732617 0.091158 0.855596 0.144142 0.492137
0.026726 -0.669983 -0.030686 0.990536 -0.070366 0.102309
0.231192 0.458675 0.011153 0.728168 0.012852 0.682302
-0.539604 0.088334 0.088307 -0.172538 0.309314 0.715181
0.086672 0.687756 0.025825 0.877463 -0.476073 0.033148
-0.01137 0.344156 0.111296 -0.28986 0.071206 0.943326
0.117891 -0.040767 -0.143546 0.211072 -0.284276 -0.933453
-0.129783 0.068623 0.020029 -0.948415 0.287257 0.096149
-0.000466 0.502727 -0.124155 0.108487 0.096827 -0.988271
0.51338 0.189489 -0.052683 0.221595 -0.367849 -0.902208
-0.125542 0.472994 -0.106097 -0.432684 0.135582 -0.890764
0.086801 -0.813679 -0.09428 -0.832153 0.116223 -0.539002
-0.007148 -0.632244 0.023018 0.149437 0.150328 0.975111
-0.10038 -0.574056 -0.092629 -0.523389 0.041246 -0.851077
0.156496 -0.652362 0.028495 0.197483 -0.009389 0.978304
0.117438 0.356864 -0.139861 0.385851 -0.142796 -0.91123
-0.244551 0.31992 -0.003711 0.549198 -0.553562 0.624044
0.012299 -0.339037 -0.041656 0.746147 -0.053193 -0.663344
0.081779 0.122523 -0.130655 0.151417 0.399424 -0.900527
-0.131363 -0.015525 -0.047006 -0.936286 0.015904 -0.350871
0.324274 0.345469 -0.038317 0.143502 -0.106482 0.975905
0.082666 0.681942 0.033383 0.821106 -0.55631 0.116414
-0.068885 -0.808408 -0.13929 -0.566189 -0.136326 -0.80997
0.037994 0.761074 0.091093 0.32784 0.364044 0.822622
0.029064 -0.157748 0.058804 0.862502 -0.33517 0.352854
0.073549 -0.470644 -0.079138 -0.710503 0.036756 -0.702718
-0.112127 -0.852284 0.035258 -0.909435 -0.381137 -0.021101
0.33686 0.4258 -0.086898 0.778248 0.62375 0.066086
-0.097647 -0.834217 0.085238 -0.664476 0.734962 0.123628
0.33134 0.397847 -0.044199 0.806283 -0.048229 0.578294
0.207059 0.006222 0.025756 0.99775 0.016506 0.057592
-0.081154 -0.232109 -0.083199 -0.576691 -0.034157 -0.815363
-0.314366 0.347761 -0.064163 -0.631203 0.704214 -0.323925
0.000567 -0.13285 -0.073211 0.793951 -0.172734 -0.582893
0.076713 -0.425733 0.025142 -0.697524 -0.349624 0.625356
0.093361 0.054919 0.121669 0.336383 0.13046 0.930734
-0.069662 -0.47559 -0.096021 -0.15708 0.09659 -0.982176
0.003502 0.859875 0.022546 -0.517116 0.809378 0.256888
-0.124628 0.064431 0.050716 -0.901708 0.256884 0.344801
0.242349 0.371055 -0.078806 -0.702716 -0.711416 0.007826
0.114247 0.416619 0.087105 0.307538 0.197823 0.929129
-0.091628 -0.612784 -0.099847 -0.450541 0.097069 -0.887407
-0.101972 -0.65194 0.038951 -0.49109 -0.312947 0.801105
0.187116 0.327587 -0.051056 0.856976 -0.357078 -0.371543
-0.11031 -0.426988 0.075548 -0.725799 -0.236821 0.644944
-0.098234 -0.325214 0.103846 -0.29927 -0.056838 0.944
-0.015803 0.099826 0.129011 -0.338199 0.023144 0.935773
0.03511 -0.134826 -0.072078 -0.8372 -0.313887 -0.446591
-0.136674 -0.505412 -0.01286 -0.99231 -0.09029 0.06061
0.186615 -0.437155 0.052146 0.882491 -0.085333 0.461691
0.631002 0.055533 0.09546 0.863446 0.424614 0.263196
-0.044882 0.493456 0.070299 -0.22979 0.503368 0.831913
-0.016466 0.713281 -0.063273 -0.917249 -0.249278 -0.274179
0.048402 -0.376334 0.019146 -0.79247 -0.191755 0.571117
0.133451 -0.363964 -0.093751 0.657579 0.255841 -0.646014
0.063657 0.365798 -0.139215 -0.385463 -0.019582 -0.922074
0.201791 -0.513784 -0.039007 0.957794 0.075194 -0.276573
0.259129 0.365092 -0.042713 -0.647501 -0.595964 0.470692
0.074587 -0.822788 -0.044996 -0.436799 -0.890412 -0.063564
0.174641 -0.31602 0.073509 0.244976 -0.021083 0.960266
0.025067 -0.083598 0.112287 0.290831 -0.326459 0.88641
-0.040042 -0.273102 -0.092588 0.176028 -0.051986 -0.981746
0.447981 0.197409 -0.043424 -0.658346 -0.74569 0.099183
0.177631 -0.666374 -0.06389 0.662461 -0.262453 -0.700902
-0.040419 0.331641 -0.127566 -0.205055 0.008783 -0.976846
0.192108 -0.148445 0.073395 0.901439 -0.041691 0.427729
0.008476 -0.748005 -0.016227 0.601276 -0.431177 0.665431
-0.114352 -0.061066 -0.07424 -0.785614 -0.178557 -0.592074
-0.122506 -0.173862 -0.037499 -0.826045 -0.12256 -0.550036
-0.020408 -0.392787 -0.07057 0.618424 0.058184 -0.782585
0.138565 0.342375 0.079932 0.680904 -0.023298 0.729605
0.043525 0.807227 -0.114053 0.141935 0.381278 -0.90763
-0.393502 0.190098 0.013366 0.567138 -0.419181 0.634898
0.192103 0.10605 0.03192 0.977292 -0.075144 0.191258
-0.071037 -0.003565 0.12836 -0.412661 0.061941 0.871799
0.049764 0.594334 -0.089469 0.041899 0.608478 -0.792146
0.073455 -0.050334 -0.140947 -0.203646 -0.414901 -0.886037
0.185516 -0.304436 -0.045192 0.759642 -0.072094 -0.64626
-0.017239 0.81728 0.034806 -0.826053 0.362399 0.427926
-0.128756 0.397252 -0.036497 -0.926162 -0.354195 -0.004036
0.035477 -0.278308 -0.031757 -0.888293 -0.079008 -0.449346
-0.143856 -0.104485 0.027647 -0.995372 0.007321 0.090342
0.486077 0.195888 0.007986 0.558435 0.671347 0.43537
0.022672 -0.22566 0.059519 0.928857 -0.023083 0.366322
0.0795 0.814228 -0.091774 0.661518 0.407598 -0.62567
0.115676 -0.869827 -0.060314 0.011166 -0.998688 0.048942
0.018722 -0.765951 -0.061098 0.996374 -0.034388 -0.064585
0.173086 0.248169 -0.048164 0.90924 0.019933 -0.413537
-0.094702 -0.554563 0.059473 -0.717303 -0.108604 0.680979
-0.020877 0.426423 -0.129954 0.041705 -0.020016 -0.998772
-0.042027 -0.222986 -0.091688 0.126328 0.008242 -0.991018
-0.084218 -0.203872 -0.081794 -0.591593 -0.027843 -0.805607
0.202504 -0.232388 0.035226 0.965358 0.01153 0.260079
-0.144396 -0.112125 0.015767 -0.999906 -0.00056 0.012094
-0.126039 -0.737222 -0.060028 -0.974743 -0.031782 -0.21369
0.417393 0.28416 -0.042902 0.173119 0.441473 0.871912
-0.099685 -0.812652 0.001237 -0.969544 0.062939 0.232917
0.015393 0.71054 -0.091122 -0.245936 -0.632535 -0.734082
-0.010465 -0.769387 -0.009373 0.643836 0.301973 0.686013
0.074799 -0.72704 -0.045568 -0.903954 -0.130545 -0.406294
-0.250935 0.328257 0.004844 0.260728 -0.472077 0.8405
-0.125043 -0.169282 0.084098 -0.820964 0.003508 0.570828
0.031128 0.395793 -0.128992 -0.119382 0.004145 -0.992779
0.033432 0.361847 0.111156 0.035015 0.219679 0.97322
-0.072767 0.566912 0.003374 -0.119898 0.827052 0.547535
0.335448 0.326666 -0.041279 -0.083811 -0.1473 0.974862
0.035518 0.783168 0.086229 0.012251 0.394987 0.91643
-0.08556 0.254557 -0.096037 -0.632998 -0.224118 -0.73965
-0.052559 0.07824 -0.125983 -0.388371 0.2043 -0.898434
0.041797 0.271035 0.125276 0.14797 0.171675 0.973007
0.640311 0.023019 0.07699 0.091638 -0.986991 0.0821
0.205007 0.000526 -0.024382 0.969388 0.095924 -0.214542
-0.016354 0.718317 0.05856 -0.781066 -0.077596 0.613917
-0.045628 0.375728 -0.12718 -0.229507 -0.03646 -0.971458
-0.104401 -0.708145 -0.094208 -0.71911 -0.009487 -0.693586
-0.076024 -0.249179 -0.085837 -0.564411 -0.021814 -0.825169
0.103181 0.791101 -0.054439 0.947179 0.153802 -0.266405
-0.061896 -0.490887 0.069542 0.395444 -0.249538 0.883717
-0.201846 0.505343 -0.029011 -0.741481 0.654956 -0.137688
0.068734 -0.296207 -0.080872 -0.72847 -0.012926 -0.681676
-0.097692 0.465004 -0.120439 -0.329597 0.074808 -0.940832
0.254516 0.359493 -0.066279 -0.711273 -0.694349 0.091735
-0.018102 0.783554 -0.100464 -0.722981 -0.050037 -0.688381
0.158234 -0.305493 -0.072085 0.607487 -0.006564 -0.794068
0.268384 0.507298 -0.043089 0.732341 0.645284 0.201845
-0.019217 0.035742 -0.145926 -0.170572 0.13094 -0.974656
0.049172 -0.272716 0.047008 -0.85201 -0.088551 0.515617
-0.043695 0.576698 -0.087572 -0.394284 0.661283 -0.635537
-0.026698 -0.163926 0.121591 0.207304 -0.114721 0.969097
-0.163865 0.496221 -0.082424 -0.469959 0.327324 -0.818811
0.027173 0.58427 -0.095817 -0.073293 0.534212 -0.841833
-0.040223 -0.547099 -0.099245 0.319658 0.006087 -0.947188
0.11628 -0.32896 0.079546 -0.140452 -0.087835 0.985293
0.121931 -0.866173 -0.010532 -0.062503 -0.995739 -0.000613
0.111137 -0.864835 -0.005563 -0.299892 -0.944546 -0.07268
-0.119914 0.521524 -0.09259 -0.373355 0.535739 -0.756594
0.201823 -0.168463 0.040745 0.94508 -0.116024 0.299078
0.014594 -0.456959 -0.038674 0.83193 0.075887 -0.549582
0.161758 -0.831256 -0.001176 0.975369 0.016511 0.020836
0.064752 -0.312078 0.059476 -0.720599 -0.0866 0.687899
0.027295 -0.604301 -0.015392 0.992691 0.008128 0.116553
-0.194329 0.350891 -0.016571 0.567267 -0.76223 0.308182
0.118836 -0.315977 -0.097655 0.318121 0.027429 -0.945772
0.005034 -0.100241 -0.084576 0.68022 -0.42073 -0.590924
-0.112 0.436007 -0.113693 -0.416912 -0.166515 -0.892879
-0.0048 0.819636 0.052885 -0.592607 0.519082 0.615276
0.145195 0.325499 0.071915 0.772649 0.00327 0.634185
0.109249 0.732637 -0.022207 0.828784 -0.340553 -0.360329
0.132645 -0.107035 -0.120074 0.302275 -0.211542 -0.929126
-0.041732 0.823775 -0.024341 -0.975085 0.021724 0.03478
0.119526 0.408915 -0.144514 0.145508 -0.067734 -0.986805
0.128683 -0.603031 0.035123 -0.196176 -0.028122 0.975648
-0.049736 -0.678743 0.020955 0.080472 -0.285075 0.953188
-0.085044 -0.35211 -0.076392 -0.523154 0.010785 -0.851907
-0.070028 -0.848534 0.163106 -0.035002 -0.379474 0.908732
0.021306 -0.224794 -0.039794 0.946776 -0.0153 -0.319176
0.066907 0.736092 -0.100676 0.494268 -0.399211 -0.770921
0.199915 -0.472997 -0.026706 0.998122 0.038012 -0.023155
-0.057983 -0.163955 0.121845 -0.145875 0.008066 0.988517
-0.125742 0.171671 -0.016511 -0.920757 0.008529 -0.384461
-0.412801 0.239655 0.007368 -0.390497 0.507815 0.76506
0.077607 0.700366 0.068142 0.746817 -0.067468 0.659918
-0.057152 -0.036263 -0.127101 -0.265407 -0.287891 -0.918827
-0.136655 -0.029467 -0.030409 -0.981246 0.059055 -0.181416
-0.112787 0.173204 0.050231 -0.854047 -0.004788 0.518345
-0.427799 0.196371 -0.053394 -0.35543 0.052301 -0.930053
-0.118232 -0.402145 0.074218 -0.850633 -0.158537 0.48357
0.098568 0.728034 -0.042948 0.952758 -0.228883 -0.195355
-0.096043 -0.480377 -0.084055 -0.581181 0.125694 -0.802744
0.092938 -0.040174 0.127915 0.125841 -0.177649 0.973176
-0.036149 0.798129 -0.053586 -0.995874 -0.025221 -0.083637
0.056829 -0.10458 -0.1073 -0.431662 -0.469283 -0.76853
-0.030064 0.276341 0.11118 -0.351054 0.027767 0.934682
-0.007112 0.063145 0.133621 -0.37041 0.215087 0.903068
-0.027148 0.084264 -0.133222 -0.256536 0.314713 -0.912888
-0.095509 0.244763 0.067667 -0.684012 0.125732 0.717737
0.0987 0.447967 0.083025 0.144361 0.228611 0.962621
-0.176497 0.461805 -0.087386 -0.308988 0.272243 -0.91007
-0.306658 0.245221 -0.011171 0.6363 -0.710337 0.29271
0.465312 0.236595 -0.016706 -0.198618 0.489662 0.841101
0.376992 0.333668 -0.125103 0.577861 0.36018 -0.729833
-0.168054 0.390435 -0.083163 0.578052 -0.594754 -0.55744
0.140786 -0.06905 -0.124887 0.586829 -0.250073 -0.770079
-0.006283 -0.553017 0.028142 0.602535 -0.153497 0.780141
0.119682 0.019611 -0.145243 0.451197 0.009135 -0.891809
0.035343 -0.319041 -0.021568 -0.992146 -0.016567 -0.119747
0.0477 -0.491493 -0.014165 -0.948792 0.000772 0.302022
-0.02402 -0.787884 -0.142487 0.392813 0.407445 -0.822547
-0.097386 0.045701 0.098649 -0.367 0.186236 0.911058
0.567434 0.141184 -0.006876 0.633084 0.179168 -0.735963
0.203762 -0.242481 0.030048 0.984051 0.025085 0.171985
0.113134 -0.868336 -0.039942 -0.048494 -0.992296 0.110421
0.2177 0.527561 0.00041 0.337396 0.614788 0.712242
-0.05995 -0.261948 0.110519 0.089101 -0.145327 0.985151
-0.132393 -0.199947 -0.01101 -0.904178 -0.111123 -0.412355
-0.318433 0.232924 -0.024246 0.650184 -0.75823 0.04054
-0.054488 -0.223563 -0.092584 -0.046632 0.011388 -0.998489
-0.061955 -0.553506 -0.102953 -0.012962 0.03986 -0.998803
0.020329 0.751964 0.083784 -0.870981 0.211095 0.433218
0.096693 -0.868006 0.083472 -0.404918 -0.903642 -0.017372
-0.112977 0.159036 0.049913 -0.838558 0.033748 0.541215
0.628745 0.064638 0.070803 0.851477 0.513729 0.077838
-0.543454 0.094306 0.052015 -0.718427 0.694268 -0.023752
-0.523287 0.071826 0.070294 0.47015 -0.860126 0.191308
0.158734 -0.083849 -0.107466 0.84016 -0.09607 -0.506063
0.003677 -0.128327 0.112139 0.575725 -0.180918 0.79701
0.198173 -0.373687 -0.041792 0.902323 0.049811 -0.425902
0.025352 -0.146903 0.077859 0.842149 -0.318073 0.434971
0.205624 0.041114 0.027229 0.983565 0.128668 0.117502
0.100329 0.765375 0.009803 0.955011 -0.075571 0.277397
-0.501942 0.09458 0.066107 0.691287 -0.65464 0.277621
0.510444 0.158809 -0.030303 -0.581339 -0.78389 -0.199263
-0.347123 0.276762 -0.08939 -0.112094 -0.145767 -0.980892
0.109873 0.226595 0.105712 0.428983 0.064189 0.900918
-0.066227 0.448615 -0.129287 -0.170981 -0.066221 -0.98235
0.003877 0.462105 0.089419 0.015104 0.338724 0.940079
-0.077881 -0.387081 0.094926 0.143039 -0.211708 0.966694
0.013708 0.750853 -0.115702 -0.290918 -0.359491 -0.884321
-0.13318 -0.050309 0.065025 -0.869005 0.034723 0.489524
0.44277 0.209084 -0.030881 -0.877398 -0.320823 0.346679
0.054452 0.843274 0.051935 0.49513 0.565955 0.658356
-0.056491 0.413614 0.095025 -0.25704 0.215836 0.941451
-0.129519 -0.530498 -0.054053 -0.889004 0.04082 -0.454826
0.17433 -0.541568 0.044801 0.522536 -0.246537 0.809933
0.147865 -0.500736 -0.104051 0.339871 0.015868 -0.940093
0.044723 0.114567 -0.135539 -0.073534 0.392741 -0.916534
-0.418508 0.178846 0.027209 0.138001 0.173777 0.919931
0.015652 -0.435824 0.027406 0.846112 -0.055691 0.529084
-0.031206 -0.259736 -0.090277 0.320269 0.00094 -0.94716
0.156474 -0.003275 0.104487 0.535022 -0.239359 0.804821
0.100768 -0.527975 -0.101257 -0.527052 -0.037537 -0.84883
0.587409 0.124624 0.010492 0.771041 0.584533 -0.176825
-0.103604 0.189531 0.065468 -0.769571 -0.045226 0.634338
0.017433 -0.719423 -0.071151 0.883645 0.058245 -0.457121
0.037418 -0.352733 -0.009383 -0.967905 -0.12962 0.192637
-0.307699 0.3578 -0.052177 -0.654554 0.728269 -0.187443
-0.095789 0.054439 -0.096968 -0.728989 0.195196 -0.655973
0.154083 0.27108 -0.087904 0.875125 -0.112178 -0.470259
0.113225 0.532674 -0.128005 0.068971 0.328365 -0.938725
-0.082565 0.152842 0.084535 -0.663312 -0.00012 0.747928
0.145146 -0.851012 -0.106199 0.714917 -0.025195 -0.696436
-0.070164 -0.749711 0.029181 -0.019693 -0.098839 0.988054
-0.119107 -0.723156 -0.073448 -0.769266 -0.129896 -0.62387
0.197644 -0.635882 -0.008707 0.982557 -0.07007 0.166627
-0.063234 -0.86279 -0.111645 -0.039435 -0.995378 -0.075345
-0.025289 -0.857404 0.030175 0.746921 -0.646432 -0.093184
0.147261 0.403266 0.074118 0.579051 0.032673 0.814418
0.195285 -0.206479 -0.056225 0.728511 -0.06686 -0.681647
0.243167 0.526398 -0.083786 0.606848 0.643784 -0.464531
-0.178982 0.485371 0.044695 -0.402535 0.161961 0.899879
0.048244 -0.236707 -0.055314 -0.814407 -0.146123 -0.561135
-0.031907 -0.116349 0.125943 0.048991 -0.100369 0.99349
-0.001219 -0.529272 0.028609 0.651904 -0.15459 0.742051
-0.016508 -0.013161 0.138014 -0.053141 -0.721109 0.667213
-0.051989 -0.604003 0.037067 0.538755 -0.244894 0.771039
0.038456 0.549751 0.030704 0.062568 0.548297 0.830666
-0.10613 -0.507756 0.047463 -0.8025 -0.192923 0.56453
0.16114 -0.536257 0.051999 0.192484 -0.283372 0.934493
0.067637 0.002604 0.140004 0.211073 -0.077043 0.967522
0.194579 0.523828 -0.116307 0.180557 0.641141 -0.745827
0.024714 0.630888 -0.066433 -0.162401 0.280724 -0.943187
-0.092318 -0.484896 0.075955 -0.568423 -0.198923 0.795718
-0.100177 -0.773157 -0.10298 -0.733484 0.110833 -0.670207
0.249714 0.392097 -0.132624 -0.439791 -0.279041 -0.852977
0.167462 0.235831 0.053317 0.72475 0.063972 0.68544
-0.085893 -0.062712 -0.104336 -0.584993 -0.224828 -0.779227
0.078411 0.838861 0.031355 0.761476 0.377054 0.522522
0.157338 0.437457 0.061963 0.740299 0.08407 0.66688
-0.137173 -0.443252 -0.019563 -0.973371 0.106078 -0.196295
-0.162682 0.543356 -0.030695 -0.619773 0.765098 -0.16921
0.168591 0.095759 -0.079823 0.795749 0.222808 -0.562851
0.207638 -0.18851 0.003214 0.999109 -0.013986 0.034846
-0.039318 0.431803 0.09445 -0.234315 0.32787 0.91386
0.061683 0.766569 -0.11237 0.432122 -0.080434 -0.897863
0.100245 -0.577005 0.032021 -0.387601 -0.151759 0.908678
-0.111511 0.174184 -0.043551 -0.886566 0.075443 -0.45589
0.0575 -0.664837 0.012963 -0.63496 0.191506 0.730295
0.030294 0.598863 0.026288 -0.033488 -0.018285 0.996071
-0.09187 -0.788519 -0.116689 -0.791027 0.130072 -0.597757
0.329104 0.367296 -0.043284 0.609721 0.183446 0.767825
0.190006 0.558102 -0.022829 0.285984 0.880835 0.372629
0.053977 0.182242 -0.116835 -0.17889 0.189798 -0.963885
0.059371 -0.706732 -0.02836 -0.869897 -0.234353 -0.431505
0.096977 0.186135 -0.11501 0.244785 -0.202098 -0.944509
0.033678 0.837399 0.063049 0.004494 0.574443 0.809261
-0.213011 0.347029 -0.001227 0.460254 -0.645131 0.603501
0.492445 0.20304 -0.06305 0.042701 -0.388498 -0.920364
0.004767 0.2111 -0.126303 0.051672 -0.23595 -0.969767
-0.036863 -0.459732 -0.091047 0.35057 0.121993 -0.927228
-0.086116 -0.633768 0.046358 0.237433 -0.358364 0.901285
-0.051203 0.395186 0.09913 -0.317433 0.130869 0.937839
-0.109111 0.078627 0.080562 -0.675439 0.406622 0.612156
0.214383 -0.109195 0.01345 0.998441 -0.010499 0.049132
-0.182703 0.519934 0.016159 -0.807636 0.442893 0.312458
0.158749 -0.604407 -0.091268 0.521794 -0.158913 -0.837524
0.005799 0.802563 -0.112628 -0.310527 0.279887 -0.906737
-0.038534 -0.813782 0.061662 0.376975 0.71198 0.547847
0.031223 -0.26885 -0.025781 -0.596384 -0.243697 -0.762576
-0.127755 -0.30218 0.035062 -0.995928 -0.058842 0.065556
0.128829 -0.019215 -0.143825 0.405129 -0.030917 -0.908231
-0.000901 0.356488 -0.128218 0.092941 -0.019235 -0.995346
0.029731 0.798013 0.08142 -0.051153 0.230118 0.970248
-0.037056 -0.007746 0.142621 -0.278431 -0.087582 0.952014
0.162218 -0.051333 0.100136 0.602818 0.004982 0.797588
-0.106933 0.077307 -0.076539 -0.825548 0.162012 -0.539836
-0.492593 0.157104 0.045392 -0.653615 0.729532 0.189752
0.080194 0.646556 -0.040601 0.882353 0.160219 -0.433404
0.166728 -0.822426 -0.060276 0.76886 -0.638793 -0.027259
0.027193 -0.656801 -0.02922 0.9966 -0.03226 0.041397
0.611343 0.094198 0.044654 0.773815 0.633345 0.00637
0.028656 -0.005804 -0.146423 -0.170153 -0.21343 -0.958532
0.068519 0.216702 0.12432 0.342404 0.09699 0.934502
0.145131 -0.816932 -0.112456 0.406809 -0.213933 -0.880452
0.087305 -0.64392 -0.077432 -0.656168 -0.055953 -0.752061
0.199604 0.049137 -0.034252 0.9686 0.081713 -0.234142
-0.087322 -0.840036 -0.114066 -0.902608 -0.018211 -0.428341
-0.130375 -0.190188 0.074637 -0.893998 -0.033296 0.44651
-0.051851 -0.142172 0.122945 -0.065909 -0.118265 0.990331
-0.10278 0.444747 0.064295 -0.324139 0.018078 0.943056
0.405464 0.324221 -0.082508 0.675468 0.728602 0.096601
-0.05668 0.308373 0.094457 -0.483171 -0.036346 0.873796
0.15526 0.019119 0.106522 0.508003 0.185595 0.840856
0.120261 0.030797 -0.144651 0.480903 0.101201 -0.870274
0.641795 0.035787 0.006304 0.913786 -0.101509 -0.255894
0.198467 -0.469692 0.001234 0.986599 -0.017659 0.15773
0.017482 0.681558 0.086653 -0.437993 0.146335 0.878858
0.067594 -0.388093 0.034884 -0.690358 -0.328067 0.644402
0.174689 -0.489481 0.057672 0.570345 -0.176821 0.798482
0.123551 0.503756 -0.137419 0.044835 0.256795 -0.96486
0.118113 0.589862 -0.049063 0.322636 0.941308 0.082639
-0.143532 0.529193 -0.07382 -0.453567 0.616416 -0.642198
-0.192924 0.349428 -0.045165 0.627208 -0.772753 -0.087418
-0.128931 0.075525 0.012976 -0.985155 0.134136 0.039965
-0.1311 0.016398 0.064502 -0.828915 0.292085 0.475435
-0.529345 0.094966 0.084405 -0.576682 0.073805 0.743853
0.025909 0.342003 -0.126395 -0.068449 -0.043638 -0.995383
0.184253 -0.471782 -0.074739 0.75907 0.082631 -0.644468
-0.108652 -0.420957 -0.056841 -0.720973 0.22576 -0.6534
-0.068095 -0.230225 -0.090249 -0.303848 -0.006574 -0.948902
-0.092341 -0.694417 -0.103221 -0.538417 0.082042 -0.836719
0.070645 0.677204 -0.053863 0.705875 -0.275112 -0.64944
0.107886 -0.494709 0.039167 -0.590316 -0.066246 0.804272
-0.02577 -0.025819 -0.135435 -0.097758 -0.22194 -0.969503
0.004403 -0.53039 -0.061892 0.807695 0.044879 -0.587842
0.069541 -0.812559 -0.055337 -0.951992 -0.091083 -0.283808
-0.137095 -0.502172 -0.023888 -0.995306 -0.077656 -0.042638
-0.09261 -0.798356 -0.116547 -0.798257 -0.040411 -0.599159
-0.148737 0.451155 0.056306 -0.333319 -0.265265 0.902286
0.016472 -0.703821 -0.070117 0.816231 0.080999 -0.569977
-0.086081 -0.643045 -0.105181 -0.27068 0.05922 -0.960299
0.020754 0.40767 0.10045 0.140421 0.276612 0.950008
0.199091 -0.177871 0.048291 0.967462 -0.051322 0.247557
-0.096315 -0.541919 0.059358 -0.848353 -0.079027 0.522735
0.145065 -0.445426 -0.098892 0.394769 0.176736 -0.90114
-0.142049 -0.035717 -0.004959 -0.972424 0.174774 -0.119506
0.029483 -0.135615 0.078529 0.821399 -0.33404 0.461287
0.018197 0.669141 -0.064439 -0.393321 -0.295728 -0.861571
0.091278 -0.83556 0.094999 -0.873937 0.468658 0.089668
0.105996 -0.05979 0.120997 0.10744 -0.174583 0.975235
0.047772 0.538681 -0.120481 -0.143834 0.240525 -0.959711
-0.129282 0.124507 0.001986 -0.989183 0.141867 0.019313
0.119546 -0.867713 0.01346 -0.051704 -0.993023 -0.096618
