-0.104245 0.203844 -0.050118 -0.81787 0.072408 -0.567085
0.208334 -0.04011 0.036903 0.952979 0.030094 0.30139
0.0448 -0.268835 0.03928 -0.949453 -0.054378 0.305706
0.02207 -0.524587 -0.02767 0.906221 -0.044149 -0.41527
-0.060448 -0.528821 0.059064 0.368828 -0.196976 0.907967
0.011432 -0.744951 -0.081542 0.812369 0.058695 -0.578637
-0.08267 -0.494723 0.077329 0.460056 -0.151037 0.869896
0.004767 0.2111 -0.126303 0.051672 -0.23595 -0.969767
0.169586 -0.81851 -0.030035 0.785233 -0.617429 0.039205
0.006757 0.863266 -0.015561 -0.13658 0.98518 -0.002815
-0.14269 -0.135007 0.036825 -0.977529 -0.015917 0.202473
0.072935 -0.304455 -0.084538 -0.640324 -0.020657 -0.765692
-0.565392 0.049535 0.052184 -0.950847 0.228545 0.178167
0.145124 0.297292 -0.108186 0.782479 -0.096811 -0.614976
0.625344 0.064172 0.095202 0.698331 0.621021 0.318905
0.058773 0.217687 -0.126242 -0.209013 -0.302174 -0.929202
-0.086439 0.388932 -0.11397 -0.390034 -0.166138 -0.905495
0.046096 0.31072 0.119688 0.118158 0.111081 0.98665
0.021306 -0.224794 -0.039794 0.946776 -0.0153 -0.319176
-0.0313 0.548015 0.039052 -0.200168 0.71247 0.672536
0.000794 -0.5386 -0.067383 0.791218 0.030868 -0.610672
-0.074599 -0.526082 -0.099397 -0.228157 0.113627 -0.966164
-0.117495 -0.297736 -0.035573 -0.828172 0.048323 -0.558357
0.200289 -0.114682 -0.048722 0.879477 0.043019 -0.473649
0.126728 0.221099 -0.111153 0.625709 -0.289957 -0.724105
0.055797 0.80456 0.076518 0.377768 0.37901 0.843245
0.196394 -0.706874 -0.011225 0.951832 -0.026107 0.276413
-0.011477 0.643059 -0.027852 -0.985059 0.068034 -0.124811
-0.411777 0.255065 -0.012512 -0.72648 0.664208 0.169198
0.169003 -0.846026 0.051535 0.788524 0.613074 -0.019284
0.105735 0.555848 0.016559 0.414945 0.644746 0.635409
0.062887 0.300638 0.117507 0.373065 0.21628 0.900999
-0.030156 0.804373 0.015635 -0.858301 0.204832 0.470374
0.071606 0.392412 -0.142508 -0.298998 0.035738 -0.952428
0.190015 0.349842 -0.066073 0.866651 -0.384136 -0.314849
0.029004 0.867082 0.004076 -0.382421 0.890275 0.239843
-0.128791 -0.395864 0.039032 -0.969619 0.136205 0.202148
-0.020633 -0.360118 0.087088 0.415707 -0.15045 0.894223
0.427318 0.226277 -0.038263 -0.290817 -0.397246 0.857801
0.375799 0.247751 -0.088306 -0.705165 -0.691532 -0.135856
-0.039217 -0.064371 -0.119963 -0.056712 -0.321851 -0.944699
-0.012894 -0.428514 -0.070783 0.719044 0.087352 -0.688673
0.136293 -0.568252 0.042991 -0.052339 -0.197313 0.977716
-0.128017 0.397871 0.015278 -0.97678 -0.20275 0.063872
0.444269 0.261653 -0.110816 0.663388 -0.001858 -0.740353
-0.114129 -0.050942 -0.07717 -0.800854 -0.124462 -0.585158
0.029001 -0.301396 0.016016 0.998371 -0.043241 0.03225
-0.112105 -0.553692 0.031006 -0.882434 -0.105679 0.458206
-0.077009 -0.647639 -0.106967 -0.123538 0.063732 -0.989347
0.085339 0.498443 0.064424 0.173374 0.483677 0.857336
-0.556624 0.072843 0.046255 -0.90339 0.428293 0.016012
0.099926 -0.780711 -0.09755 -0.646838 0.411107 -0.636941
0.065324 -0.326154 0.05721 -0.687767 -0.223546 0.686556
-0.13567 -0.472659 -0.03409 -0.943787 0.045858 -0.319608
-0.114442 -0.623852 -0.086352 -0.611174 0.101061 -0.784996
-0.010473 0.823353 0.042949 -0.818245 0.363688 0.44098
0.024313 0.674335 0.093355 -0.272051 0.413441 0.86218
0.544157 0.122126 0.010657 -0.85909 -0.498613 0.044842
0.162019 -0.17536 -0.086479 0.616313 -0.045448 -0.786171
-0.124822 -0.216219 -0.0239 -0.856223 -0.094473 -0.507617
-0.119557 -0.025505 -0.072486 -0.849065 -0.032357 -0.526563
-0.141525 -0.051412 -0.013991 -0.97198 0.019645 -0.229499
-0.015287 0.067777 0.1297 -0.252618 0.124435 0.958787
-0.004834 -0.336845 0.080145 0.632676 -0.070632 0.769092
0.142885 0.078557 -0.115076 0.640798 0.290335 -0.710123
0.187329 0.388738 -0.108595 0.471946 -0.561713 -0.67845
-0.243334 0.30949 -0.017269 0.714836 -0.641908 0.273124
-0.045521 0.452804 0.087527 -0.193665 0.318442 0.926899
-0.09435 0.240489 -0.081116 -0.688559 -0.368678 -0.621854
0.053475 -0.321184 -0.060205 -0.820548 -0.008254 -0.571408
-0.127833 0.100313 0.024357 -0.984968 -0.036489 0.164842
-0.063492 0.537712 0.039454 -0.172156 0.613798 0.769928
0.287135 0.482788 -0.085308 0.651248 0.656746 -0.379425
-0.12579 0.185826 0.024434 -0.922821 0.109097 0.360563
0.200515 0.403335 -0.01511 0.961026 -0.236126 0.134163
-0.135368 -0.513206 -0.04 -0.957993 0.023071 -0.270136
0.146134 -0.210492 0.091768 0.076371 -0.22258 0.96887
0.360663 0.327547 -0.133785 0.169599 0.011015 -0.98506
0.197706 -0.697389 -0.016535 0.991193 -0.031311 0.11133
0.089922 0.460166 0.081251 0.124593 0.286522 0.949396
0.17474 0.360451 -0.097865 0.649631 -0.434106 -0.622259
0.036458 -0.006864 0.140353 0.282914 -0.549852 0.778695
0.039079 0.015335 0.142144 0.059444 0.176941 0.982313
0.137468 0.066956 0.104438 0.456222 0.225131 0.82952
-0.211768 0.39015 -0.096378 -0.028119 -0.022251 -0.999117
0.025467 -0.299467 0.047996 0.94853 -0.035511 0.306831
0.027363 0.072981 0.134489 0.106162 0.108081 0.98742
0.009369 0.186692 -0.116971 0.139442 -0.133335 -0.980208
0.007349 -0.682101 0.004571 0.781881 -0.286909 0.552861
-0.118712 -0.273675 0.088748 -0.861803 -0.046174 0.497569
-0.070995 -0.001457 -0.128315 -0.420807 -0.052613 -0.903207
0.138319 -0.215962 -0.096408 0.416742 -0.144921 -0.894466
-0.069256 -0.138426 -0.099133 -0.356276 -0.124755 -0.924508
-0.08775 -0.562044 -0.098775 -0.37579 0.057876 -0.923608
0.027035 -0.358629 0.009994 0.997991 -0.045059 0.032381
0.102798 0.736351 -0.003265 0.80158 -0.348796 0.484595
0.025067 -0.083598 0.112287 0.290831 -0.326459 0.88641
0.15271 -0.058301 0.106282 0.506724 0.000949 0.861992
0.62861 0.048276 0.015195 -0.850807 -0.383643 -0.330941
0.558337 0.162107 0.029476 0.720857 0.688801 0.073255
-0.38359 0.227891 0.011528 0.084119 0.030935 0.995837
-0.089552 0.333096 0.068783 -0.882214 -0.010321 0.469173
-0.019907 -0.615009 -0.086423 0.666959 0.00679 -0.744006
0.059177 -0.43227 0.0047 -0.634188 -0.222741 0.739616
0.012351 0.21508 0.128605 -0.048419 0.057334 0.996774
0.081138 0.659972 0.009357 0.941663 -0.17197 0.270227
-0.033656 0.532665 0.050259 -0.202551 0.535179 0.818599
0.019419 0.09378 -0.13884 -0.18264 0.23742 -0.954063
-0.132632 -0.391533 0.016899 -0.903518 0.391986 0.157809
0.126762 0.415308 0.082864 0.326698 0.131393 0.935261
0.112298 0.364435 -0.14286 0.309201 -0.098383 -0.943633
0.183182 0.209777 -0.002505 0.999662 0.01982 -0.00916
0.012485 -0.565754 -0.051222 0.829682 0.024645 -0.557025
0.126406 -0.742224 -0.099621 0.018062 0.070286 -0.992429
-0.03304 -0.551742 0.04282 0.372097 -0.211831 0.903282
-0.032018 0.057773 0.12671 -0.300186 0.17521 0.934914
-0.017914 -0.274702 0.098021 0.366525 -0.220961 0.902918
-0.279825 0.365155 0.005786 -0.671789 0.179929 0.713466
0.107996 0.201147 -0.115961 0.445572 -0.374153 -0.811032
-0.124783 0.370043 -0.058149 -0.931481 -0.343042 -0.113898
0.178962 0.566806 -0.050554 0.273864 0.952231 0.028622
0.061194 -0.757994 0.017514 -0.749097 -0.248091 0.413789
-0.054675 0.48311 0.073401 -0.178491 0.413453 0.892735
-0.050272 0.185367 0.104126 -0.485544 0.030046 0.873367
-0.237842 0.449773 -0.003604 -0.753434 0.587432 0.29429
0.051204 0.603907 -0.081868 0.100009 0.690904 -0.692399
0.091818 0.7257 -0.062974 0.867203 -0.365693 -0.335858
0.132757 -0.571323 -0.105951 0.063473 -0.135944 -0.988558
0.097798 -0.370247 0.063504 -0.462952 -0.27331 0.842523
-0.07392 0.435022 0.085108 -0.535469 0.186763 0.822812
-0.070085 0.461037 0.079876 -0.266773 0.349808 0.897878
0.087371 0.082086 -0.146944 0.230136 0.320746 -0.916935
-0.041702 -0.781696 0.040084 0.122793 0.742658 0.647691
-0.092084 -0.208376 0.111066 -0.194697 -0.046828 0.979693
-0.056929 -0.838292 0.151701 0.559575 0.532347 0.610622
-0.032276 -0.728129 0.025521 0.266695 -0.30333 0.907458
-0.104196 -0.519321 0.048237 -0.825981 -0.051186 0.56039
0.20667 0.03635 0.005623 0.999004 0.040926 -0.005937
-0.339525 0.22411 -0.001763 0.439159 -0.665019 0.57766
-0.076005 -0.840044 0.156315 -0.481232 0.686155 0.532619
-0.380185 0.19391 -0.000969 0.553271 -0.803237 0.200801
0.172437 0.309338 -0.069776 0.840138 -0.291987 -0.456138
-0.09303 -0.133105 -0.083406 -0.665008 -0.090394 -0.741304
-0.262981 0.41869 -0.059066 -0.684806 0.674494 -0.263335
0.029552 -0.279138 -0.018341 -0.185829 -0.5154 -0.703877
0.515096 0.200134 -0.057381 0.120297 -0.482401 -0.865313
0.048334 0.536955 0.043617 4.6e-05 0.744075 0.66695
0.11134 0.447123 -0.147002 -0.011208 -0.002434 -0.999439
-0.118578 0.308094 -0.017529 -0.97982 -0.160159 0.095715
0.144174 -0.037744 -0.131685 0.621002 -0.179802 -0.762006
0.092413 0.825351 -0.03482 0.834239 0.529893 -0.050034
-0.02587 0.594477 -0.073042 -0.510077 0.711634 -0.479061
-0.07486 -0.239363 -0.086835 -0.500804 -0.026989 -0.860652
0.095792 -0.30437 -0.097809 -0.279765 0.012875 -0.955937
0.067594 -0.388093 0.034884 -0.690358 -0.328067 0.644402
0.121241 0.0195 0.12116 0.306419 0.26878 0.912208
-0.052325 -0.717989 0.015771 -0.528171 0.343832 0.774792
-0.112555 -0.849428 0.054479 -0.947085 -0.084707 0.015221
0.073657 -0.350552 0.056515 -0.574454 -0.32202 0.749371
0.08777 -0.072949 -0.134172 -0.120552 -0.382323 -0.915518
0.285617 0.46865 -0.026653 0.725513 0.262829 0.632326
0.020896 0.040154 -0.152807 -0.16754 0.19557 -0.966077
0.119219 0.385436 0.089206 0.333259 0.072197 0.938471
-0.070644 -0.55722 0.05748 0.351135 -0.175756 0.91951
-0.101322 0.534171 -0.092612 -0.372797 0.573792 -0.728922
0.141788 0.354026 0.077548 0.696682 -0.04747 0.715111
-0.004506 -0.054788 -0.122874 0.082602 -0.517994 -0.850967
-0.033394 -0.862311 -0.105921 0.221876 -0.968737 -0.028869
0.066601 0.082896 0.13024 0.050815 0.017261 0.991979
-0.030877 0.383463 -0.129129 -0.047559 -0.023607 -0.998563
0.113382 0.377629 -0.143681 0.256314 -0.066588 -0.962615
0.046975 -0.466948 -0.013928 -0.866629 -0.074085 0.493363
-0.241329 0.374255 0.019774 -0.023914 -0.16646 0.984794
-0.103217 0.112312 -0.072141 -0.808597 0.123659 -0.572392
0.063623 0.131657 0.129071 0.151307 0.023719 0.987333
-0.127766 0.495317 -0.100697 -0.403373 0.266574 -0.874895
-0.097813 -0.849888 -0.056756 -0.920705 -0.38045 0.035026
-0.124923 0.015369 -0.059661 -0.893396 0.034078 -0.447903
-0.001525 0.708575 0.071943 -0.640562 0.003277 0.763289
0.187928 -0.18059 -0.064263 0.636926 0.018891 -0.770187
-0.03634 0.808008 -0.007407 -0.983252 -0.090444 0.141976
-0.025365 -0.449331 -0.084655 0.524163 0.082452 -0.842941
0.179634 0.178848 0.043333 0.84871 0.082894 0.522204
-0.105898 0.269938 -0.075754 -0.876622 -0.090679 -0.468075
0.094872 -0.482294 0.029658 -0.615177 0.014114 0.788028
0.262172 0.448305 -0.008763 0.272889 -0.069271 0.956965
0.000106 0.447705 -0.128353 0.136024 0.006696 -0.990589
0.005091 0.273743 0.122936 -0.277218 0.116776 0.952381
0.031857 0.847293 0.054565 -0.039188 0.703255 0.708648
-0.077081 -0.711476 0.015459 0.270998 -0.380991 0.882509
0.225187 0.395285 -0.110376 -0.744371 -0.542393 -0.386266
0.055686 0.812917 -0.108678 0.274983 0.482382 -0.830143
-0.057726 -0.339431 -0.088184 -0.163403 -0.044792 -0.980814
-0.053925 -0.863128 0.126929 0.116386 -0.984905 0.09552
0.004304 0.118911 -0.127683 -0.11578 0.368319 -0.921948
0.006273 0.715137 -0.091295 -0.421634 -0.575677 -0.695955
0.430813 0.254281 -0.029542 -0.1442 0.355875 0.917986
-0.080054 -0.756271 -0.121102 -0.55157 0.067179 -0.828965
0.199055 -0.015569 -0.047381 0.954548 0.042524 -0.29363
-0.120396 -0.2151 0.090957 -0.823212 -0.041974 0.564276
0.165329 -0.717924 -0.069523 0.811918 -0.051584 -0.581302
0.008769 -0.465865 -0.049737 0.821349 0.066438 -0.564749
0.132984 0.199666 0.094802 0.552231 0.057682 0.829939
0.25449 0.407374 -0.13806 -0.26823 -0.158066 -0.948862
0.021284 0.539397 -0.116793 -0.064004 0.394372 -0.916473
0.176438 -0.219262 -0.071176 0.605917 -0.001009 -0.795263
0.249176 0.513623 -0.093645 0.537591 0.644119 -0.543995
-0.448229 0.1594 -0.040715 0.152004 -0.878034 -0.434758
0.23247 0.382799 -0.054876 -0.687295 -0.692995 0.216661
0.113277 -0.253097 -0.099529 0.028468 -0.006557 -0.993649
-0.429866 0.229301 0.002818 -0.629988 0.577843 0.504003
-0.197847 0.394515 0.025993 0.228862 -0.368011 0.899856
-0.126512 -0.330979 -0.02055 -0.977381 0.003709 -0.203939
-0.1361 -0.222712 0.015626 -0.997732 -0.035009 -0.057373
-0.061896 -0.490887 0.069542 0.395444 -0.249538 0.883717
-0.0048 0.819636 0.052885 -0.592607 0.519082 0.615276
0.074113 -0.794254 -0.062445 -0.910978 0.10736 -0.395847
-0.081154 -0.232109 -0.083199 -0.576691 -0.034157 -0.815363
0.172608 -0.762664 0.020491 0.541892 0.097677 0.83073
0.547523 0.177405 -0.007372 0.859152 0.51015 -0.0121
-0.09084 -0.297019 0.106764 -0.108611 -0.086581 0.98901
-0.015949 -0.298561 0.092092 0.405104 -0.17383 0.897226
-0.129246 -0.613766 -0.05597 -0.996896 -0.014893 -0.065309
0.109691 -0.855501 0.172394 -0.678125 0.276843 0.65028
-0.069479 0.265765 0.087214 -0.515873 0.070257 0.853663
-0.033388 0.215383 0.112114 -0.376474 0.045307 0.921427
0.089908 0.538002 0.040486 0.301733 0.502666 0.806143
0.016672 0.596376 0.022568 -0.447763 0.035271 0.891228
0.387677 0.342053 -0.090754 0.698286 0.709663 0.059406
0.120374 -0.199716 0.096301 0.051126 -0.186516 0.980401
-0.065047 -0.334775 0.10243 0.178262 -0.135507 0.974335
-0.077009 -0.169332 0.117279 -0.263497 -0.145574 0.953463
0.186975 0.103394 0.050731 0.877915 0.144912 0.448846
-0.136668 -0.041011 -0.032753 -0.964486 0.009255 -0.26078
-0.106917 0.288405 0.037613 -0.986415 0.002985 0.163018
0.075761 -0.494751 0.015565 -0.644061 0.048689 0.763393
-0.023635 -0.006757 0.144726 -0.186647 -0.092311 0.94257
0.044165 -0.375425 0.009097 -0.969889 -0.07887 0.21867
0.028642 0.528045 0.053141 0.083438 0.58354 0.803654
0.117405 -0.793407 0.050917 0.115162 0.546659 0.828544
0.15885 -0.104328 0.104327 0.487381 0.016206 0.869308
0.177505 -0.05187 -0.089192 0.814267 -0.108065 -0.569972
-0.106941 -0.550969 0.040313 -0.850743 -0.093106 0.516551
-0.072643 0.524313 0.048323 -0.112519 0.564919 0.816741
0.119546 -0.867713 0.01346 -0.051704 -0.993023 -0.096618
-0.119744 0.458186 0.06137 -0.06474 0.010786 0.997288
0.020482 -0.309435 -0.028071 0.937328 -0.001135 -0.347319
0.206694 0.020967 0.026686 0.997915 0.029561 0.054699
0.172247 0.347511 0.043235 0.827068 -0.060837 0.558017
0.199101 0.393003 -0.028231 0.985849 -0.150742 0.022502
-0.164611 0.46832 0.054023 -0.459688 -0.07594 0.884512
0.197529 -0.018432 0.060567 0.863048 0.093484 0.493864
0.028168 -0.101082 0.104238 0.416537 -0.411069 0.806788
-0.321111 0.30715 -0.094567 -0.217134 0.167046 -0.957765
0.134071 -0.510406 0.054118 -0.423532 -0.177366 0.888222
-0.123344 -0.116453 0.083886 -0.837589 0.032524 0.544503
-0.128254 0.170986 0.011905 -0.994913 -0.024579 0.081321
0.168295 0.172645 0.059591 0.731268 0.086785 0.676085
0.126809 -0.84483 -0.117132 0.338345 0.14072 -0.923374
0.262986 0.379059 -0.028154 -0.393149 -0.458437 0.790044
0.056608 -0.397047 0.017803 -0.682637 -0.341062 0.646222
0.188669 0.165717 0.027851 0.92609 0.212073 0.30588
-0.126923 -0.001831 0.074436 -0.84743 -0.242706 0.466623
0.024529 0.697165 -0.083343 -0.144792 -0.6167 -0.771982
-0.06082 -0.613265 0.039668 0.441866 -0.161844 0.882112
-0.113284 0.506598 -0.103731 -0.440084 0.355371 -0.814959
0.188835 -0.401142 0.051699 0.916561 -0.028831 0.397562
-0.038056 0.779065 -0.016307 -0.983631 0.123311 0.127787
-0.040419 0.331641 -0.127566 -0.205055 0.008783 -0.976846
-0.068933 0.00908 -0.129513 -0.400206 -0.089797 -0.906644
0.177116 -0.718063 -0.052266 0.793472 -0.097571 -0.596838
-0.123451 0.377696 -0.076129 -0.906571 -0.27508 -0.313957
0.126043 0.201475 -0.104756 0.558481 -0.20588 -0.801815
0.030929 0.327276 0.118937 0.042713 0.197275 0.978943
-0.048704 -0.853434 0.14528 0.766251 -0.320825 0.498553
-0.069902 -0.379831 0.095547 0.164827 -0.228638 0.95914
0.505935 0.164072 -0.038027 -0.404492 -0.874262 -0.257907
0.045095 0.306488 -0.130045 -0.323286 0.002057 -0.943288
0.135014 -0.389691 -0.096103 0.464495 0.127619 -0.874584
0.082731 -0.529355 -0.086899 -0.693581 -0.073118 -0.716189
0.159887 -0.462651 0.067723 0.101469 -0.121705 0.979778
0.174095 -0.735668 -0.003582 0.25351 0.547191 0.786636
-0.095531 -0.863045 0.032924 -0.12134 -0.982001 -0.019476
-0.093244 0.008441 0.111843 -0.517835 0.240191 0.820877
-0.029929 0.251758 -0.128786 -0.126465 -0.063864 -0.989694
0.105074 0.160936 0.111743 0.488668 0.045619 0.865853
0.029558 0.749189 0.097217 -0.31895 0.453026 0.810062
0.200385 0.061669 0.02942 0.966151 0.215865 0.139147
-0.121654 0.073915 0.054222 -0.948978 0.177555 0.260463
0.110477 0.513867 0.04899 0.295286 0.537839 0.787949
0.063858 0.324825 0.113234 0.240408 0.127643 0.961699
0.142274 0.227107 0.083313 0.729407 0.070587 0.680063
-0.270449 0.413677 -0.037477 -0.745779 0.665636 0.009317
0.112562 0.478967 -0.144588 -0.018799 0.146104 -0.988048
0.05238 0.864348 -0.036119 0.168096 0.969405 -0.166427
-0.11529 -0.365027 -0.050035 -0.769383 0.087503 -0.628789
-0.264006 0.395545 0.009572 -0.595988 0.35158 0.717527
-0.341058 0.320103 -0.078429 -0.469431 0.638116 -0.609071
0.132921 -0.669852 0.030124 0.117184 -0.133023 0.984109
0.182357 0.464296 0.037428 0.492392 0.234232 0.837631
0.069274 0.334231 0.110784 0.317731 0.17866 0.929741
0.01902 0.814483 0.07285 -0.33062 0.452973 0.823287
-0.087137 -0.748309 0.018006 -0.56843 0.430708 0.697584
0.041997 -0.393147 -0.027182 -0.985317 -0.128979 -0.081015
-0.114879 0.292292 -0.030048 -0.959888 -0.269695 0.018742
0.129748 -0.857667 0.183372 -0.012526 -0.445647 0.835843
-0.122792 -0.750824 -0.019216 -0.955173 -0.075335 0.272612
-0.042068 -0.599684 0.033326 0.432049 -0.21015 0.876752
-0.098836 0.321594 0.049233 -0.885311 0.016106 0.461083
-0.074328 -0.234912 0.112851 -0.103076 -0.086357 0.99045
-0.127095 -0.330183 0.031238 -0.992433 -0.014556 0.121881
-0.109689 0.260099 0.027529 -0.963076 0.113866 0.240739
0.548273 0.149201 -0.020776 0.620137 0.042581 -0.780993
0.086269 -0.827947 -0.029545 -0.766569 -0.609726 -0.001973
0.205328 0.471178 0.02381 0.511738 0.097115 0.851275
0.045191 -0.196715 -0.05851 -0.869185 -0.154231 -0.454678
-0.068059 -0.807915 0.06124 -0.396257 0.469802 0.76729
-0.115627 0.321257 0.004277 -0.976267 -0.05645 0.208057
0.095945 0.599177 -0.072918 0.424294 0.821711 -0.347676
0.171517 -0.103761 -0.090299 0.770276 -0.099693 -0.62977
0.155512 0.474336 -0.140536 0.281471 0.192058 -0.939617
0.193796 0.161783 0.007356 0.856848 0.501204 0.045297
0.136779 0.140188 -0.101633 0.66831 0.175051 -0.72287
-0.010104 -0.784463 -0.129585 0.687049 0.387032 -0.606426
-0.487871 0.105388 0.023909 0.773202 -0.609939 -0.159881
0.189505 0.317605 -0.029875 0.981107 -0.163022 -0.079423
-0.115899 -0.420439 0.071305 -0.756409 -0.252207 0.602878
0.11291 -0.413044 -0.102253 -0.121425 0.040036 -0.987674
-0.002601 0.38482 -0.128893 0.057045 -0.011676 -0.99825
0.099052 -0.82675 0.093788 -0.53349 0.814163 0.191901
-0.016297 -0.054832 -0.123542 0.0151 -0.452758 -0.891345
0.180863 -0.367598 0.067039 0.658845 -0.074976 0.731943
-0.235231 0.456638 -0.010297 -0.80731 0.546289 0.216327
0.197639 -0.273177 -0.035757 0.880086 -0.155662 -0.446375
0.310456 0.454499 -0.097576 0.61314 0.668335 -0.420276
0.612721 0.091072 0.074706 0.734993 0.672519 0.079104
0.192244 0.370906 0.005335 0.964841 -0.138345 0.222089
0.141201 -0.107443 -0.115537 0.48483 -0.211133 -0.848181
-0.091223 0.566961 -0.002604 -0.171433 0.906777 0.377524
0.132376 -0.530285 0.049546 -0.365766 -0.174885 0.913429
0.108615 0.388097 -0.145114 0.140303 -0.030676 -0.98915
0.34651 0.39495 -0.08043 0.725122 -0.637667 0.201573
-0.089595 -0.44823 0.082257 -0.075057 -0.140071 0.985289
0.000297 0.836081 -0.082488 -0.398336 0.728411 -0.557371
-0.259165 0.384278 -0.094023 -0.320796 0.367573 -0.870178
-0.023353 0.740928 0.048536 -0.824803 0.031166 0.563557
0.185216 -0.514789 0.039032 0.844537 -0.083903 0.528735
0.18175 0.148857 -0.036665 0.853083 0.014649 -0.521308
-0.046714 0.107789 0.112226 -0.491975 0.180216 0.851681
-0.115916 0.29891 -0.014773 -0.951851 -0.278099 0.124212
0.198367 0.419605 0.020231 0.716519 -0.599682 0.345855
-0.016988 0.449413 0.093187 -0.133244 0.371587 0.918094
0.02382 -0.34703 0.037545 0.890521 -0.21137 0.391947
-0.013464 -0.31465 -0.071861 0.696532 -0.106276 -0.709589
0.086718 0.688884 -0.028868 0.835385 -0.402632 -0.354482
0.201399 -0.571951 -0.037188 0.974641 -0.100356 -0.194925
0.115926 0.160305 0.105737 0.524581 0.02883 0.850099
0.405791 0.26791 -0.128087 0.0019 -0.068506 -0.994936
0.47112 0.194826 -0.054754 -0.232768 -0.622309 -0.739083
0.383562 0.279621 -0.128114 -0.123433 -0.218757 -0.964271
-0.092444 -0.424413 -0.072615 -0.551254 0.328243 -0.765698
0.041222 0.091306 0.132606 0.136351 -0.416088 0.894898
0.044886 0.863777 -0.044641 0.07376 0.978955 -0.185769
-0.136742 -0.181897 0.051163 -0.994979 -0.045863 0.087697
-0.252969 0.337414 -0.092236 0.371689 -0.349685 -0.857833
0.187924 0.02735 -0.069917 0.922175 0.012202 -0.358729
-0.136777 0.002129 -0.017624 -0.995569 0.009237 -0.085471
-0.295359 0.26938 -0.003013 0.724107 -0.249526 0.629699
0.118516 -0.283368 -0.098087 0.291658 -0.026489 -0.954472
0.188629 0.180703 -0.008559 0.952716 0.269548 -0.125635
-0.029441 0.099348 -0.12828 -0.21102 0.259311 -0.942232
0.034532 -0.31567 -0.009577 -0.998679 -0.032973 0.002815
-0.485011 0.167893 0.025764 -0.649874 0.745208 0.130071
-0.116114 0.138241 0.047152 -0.882496 0.054877 0.466778
0.256794 0.486218 -0.006871 0.598023 0.291471 0.743868
0.321261 0.433059 -0.115087 0.539239 0.663257 -0.518712
-0.021934 -0.814693 0.053376 0.905221 -0.011255 0.365483
-0.003886 0.570876 0.017609 -0.401658 0.36306 0.833288
-0.123101 0.363026 -0.030036 -0.959146 -0.275256 -0.005251
0.166971 0.161603 -0.06439 0.841609 0.018937 -0.538109
0.045463 -0.280779 -0.048928 -0.834477 0.008468 -0.550543
0.576833 0.068288 0.030566 -0.865443 -0.484782 0.123751
0.130998 -0.580751 -0.104384 0.008282 -0.148745 -0.985891
-0.128153 -0.624594 -0.06549 -0.975868 0.003149 -0.196469
0.199529 0.037739 -0.038166 0.967391 0.068806 -0.242991
-0.009818 0.844553 0.032856 -0.739243 0.424494 0.491999
0.066997 0.313551 -0.139143 -0.333635 -0.066938 -0.939592
0.02525 0.261966 0.127086 -0.018013 0.074778 0.996592
-0.034413 -0.087725 -0.111233 0.098819 -0.28233 -0.95314
0.325617 0.44178 -0.092768 0.709661 0.684411 -0.158468
-0.107004 0.340122 -0.088277 -0.714373 -0.20146 -0.667786
0.107641 0.306926 -0.138319 0.33133 -0.070819 -0.939452
0.103371 -0.385516 -0.100341 -0.296381 -0.048284 -0.948678
-0.025298 -0.159115 -0.089714 0.456014 -0.14107 -0.877257
-0.128339 -0.213854 0.07687 -0.908552 -0.040582 0.414988
0.623369 0.075375 0.028943 0.864786 0.497516 -0.06522
0.051939 0.782846 0.084191 0.297949 -0.000752 0.937088
-0.026765 0.468065 -0.130458 0.086394 0.080868 -0.992839
0.069122 0.154619 -0.121558 -0.007761 0.168618 -0.983206
-0.068974 -0.258139 -0.089831 -0.386127 -0.016136 -0.920467
-0.086098 -0.74961 -0.117193 -0.577848 -0.010815 -0.815322
0.477893 0.210524 -0.002453 0.211626 0.461918 0.818436
-0.0914 -0.854551 -0.10496 -0.830017 -0.286475 -0.37251
-0.249984 0.438323 -0.020452 -0.767669 0.612802 0.176066
-0.381502 0.263513 -0.082523 -0.346762 0.026418 -0.933097
0.529715 0.171576 -0.038686 0.425409 -0.326673 -0.84317
0.453273 0.228974 -0.091337 0.612519 -0.242484 -0.747381
0.019469 0.001664 0.143894 0.015039 0.145962 0.988915
-0.059768 -0.178259 0.121252 -0.249923 -0.021645 0.962786
0.177159 -0.654445 0.020103 0.485644 -0.043077 0.872497
-0.128001 -0.347125 -0.011346 -0.996189 0.037713 -0.069085
0.15346 -0.330198 -0.076183 0.631793 0.010768 -0.775054
0.183238 -0.03842 0.080717 0.738845 0.022857 0.673372
-0.05824 -0.203115 0.119453 -0.133348 -0.139784 0.976466
0.204642 -0.312986 -0.010949 0.980048 -0.025358 -0.187573
-0.03604 -0.398001 0.084323 0.287446 -0.22562 0.930797
-0.136284 -0.125727 0.058112 -0.954307 0.014191 0.294852
0.18518 -0.234607 0.072187 0.654285 -0.162757 0.735038
0.123828 -0.80122 0.054655 0.219039 0.676809 0.700341
-0.098783 0.515899 0.051271 0.011719 0.457912 0.888681
0.008456 -0.14306 0.105034 0.691338 -0.147366 0.704178
0.290696 0.439715 -0.130848 0.381199 0.489881 -0.780977
0.188964 -0.038341 -0.072351 0.865328 -0.036836 -0.496961
0.165108 0.004225 -0.108857 0.821307 0.104191 -0.559541
0.180982 0.208287 0.034465 0.972524 0.059604 0.219198
-0.129882 -0.202137 0.074139 -0.920112 -0.058859 0.386079
0.189463 -0.459822 -0.065814 0.813675 0.099476 -0.570706
0.210883 -0.093664 -0.020216 0.934129 0.072186 -0.34955
0.088106 -0.834549 -0.010082 -0.975373 -0.124753 0.005223
-0.104396 -0.823013 -0.043029 -0.955083 -0.229747 -0.000693
0.176085 0.310897 0.033129 0.960395 0.001234 0.277836
-0.102485 0.250927 -0.075721 -0.793711 -0.251417 -0.550196
-0.062123 -0.131464 0.122472 -0.243442 0.013467 0.969566
0.194866 0.354884 -0.018189 0.970479 -0.12033 0.204588
-0.106598 0.565697 -0.047584 -0.361473 0.890546 -0.275168
0.056106 -0.724767 0.025641 -0.919669 -0.069475 0.356836
0.522314 0.147067 -0.010841 -0.718257 -0.69545 -0.006904
-0.12804 -0.685139 -0.050543 -0.996818 0.00709 0.061136
-0.113884 -0.397172 0.081718 -0.724941 -0.223121 0.645477
0.096835 -0.265668 0.083652 -0.163918 -0.151085 0.97391
-0.405637 0.224352 -0.065407 -0.419287 -0.145146 -0.895582
-0.041518 -0.651743 0.025122 0.194185 -0.109721 0.973987
-0.460461 0.164916 0.042413 0.167495 0.629202 0.755443
-0.225707 0.378611 -0.096485 0.062012 -0.00356 -0.996938
0.163438 -0.235739 0.083869 0.242418 -0.173199 0.953647
0.063671 0.343102 -0.138745 -0.399334 -0.018424 -0.916205
0.078264 -0.101715 -0.118715 -0.323965 -0.388218 -0.862648
0.190958 -0.06167 -0.065306 0.885315 -0.033684 -0.461906
-0.103134 0.048434 -0.090267 -0.797945 0.208029 -0.563033
0.127706 -0.152837 -0.108924 0.278775 -0.203619 -0.937042
0.021873 0.247038 0.127698 -0.028127 0.033375 0.998973
0.05057 -0.329669 -0.055938 -0.823277 -0.034263 -0.565812
0.146914 -0.524536 -0.104138 0.367073 -0.009885 -0.929336
0.096294 -0.316829 0.075479 -0.33243 -0.116499 0.935675
-0.080145 0.481898 -0.124051 -0.325937 0.229242 -0.915816
0.098888 0.766493 -0.068075 0.964278 -0.035439 -0.260918
-0.073668 0.526124 -0.10881 -0.319684 0.492647 -0.808127
0.12921 0.502598 0.04947 0.256834 0.483213 0.836003
-0.041194 0.030581 0.128595 -0.319396 0.165845 0.928827
0.045035 -0.217176 0.049761 -0.938892 -0.082927 0.316654
0.084913 0.226908 0.115874 0.4736 0.111392 0.871906
0.036616 -0.340399 -0.024787 -0.986122 -0.061492 -0.143641
0.197524 0.137057 -0.012314 0.825206 0.098903 -0.543099
-0.128724 -0.638668 -0.051161 -0.998494 -0.048547 -0.001591
0.093859 0.467924 -0.144573 -0.119487 0.090649 -0.988619
0.158076 -0.456046 -0.094408 0.487404 0.161281 -0.857648
0.097531 -0.806394 -0.107425 -0.771927 0.112641 -0.623749
0.38396 0.266427 -0.123578 -0.353266 -0.421619 -0.833323
-0.111511 0.174184 -0.043551 -0.886566 0.075443 -0.45589
-0.127458 0.377869 -0.046167 -0.982656 -0.172867 -0.001507
0.184041 -0.008042 0.076046 0.737116 -0.05863 0.67219
-0.024739 0.387192 0.105816 -0.051186 0.0653 0.996533
0.197544 -0.672163 -0.014224 0.976858 0.041666 0.20789
-0.053386 0.284179 -0.122074 -0.44468 -0.048465 -0.894102
0.112474 -0.266017 -0.099421 0.059413 -0.01082 -0.990307
-0.087532 -0.251831 -0.07747 -0.723571 -0.048963 -0.688402
0.091134 0.741311 0.044487 0.964979 -0.032197 0.255171
-0.04223 0.503369 0.066169 -0.166555 0.418065 0.892712
-0.10165 -0.045424 0.104314 -0.630474 0.011908 0.77593
0.047158 0.072442 0.131482 0.224938 0.11892 0.966196
0.056867 -0.127186 -0.096879 -0.576788 -0.250615 -0.776991
0.188579 -0.199632 0.076115 0.830807 -0.10942 0.531388
0.133506 0.326511 -0.125143 0.643784 -0.134888 -0.752241
0.200067 -0.078153 0.062039 0.864446 0.029513 0.50179
-0.073628 0.371983 -0.117157 -0.449675 -0.117479 -0.884892
-0.10822 -0.722529 -0.088705 -0.818706 -0.058354 -0.57024
0.06768 -0.497121 -0.07384 -0.711915 -0.009144 -0.701803
-0.028641 -0.504082 -0.092855 0.548863 0.065826 -0.830935
0.05856 -0.287608 -0.067571 -0.81529 0.002413 -0.578961
-0.027359 0.733604 0.03208 -0.987961 -0.051665 0.143331
0.292722 0.397407 -0.144793 -0.049295 0.062421 -0.994536
-0.50095 0.093051 0.042829 0.527892 -0.808911 -0.226018
-0.126727 -0.300397 -0.01832 -0.974177 0.01841 -0.214196
0.128249 -0.869612 0.103898 -0.008219 -0.999781 0.017704
0.150175 0.015042 -0.123723 0.675218 0.066288 -0.734263
-0.24528 0.303553 -0.048345 0.779054 -0.616491 -0.108399
0.128689 -0.869383 -0.100344 0.108759 -0.981569 -0.142926
0.05635 -0.01563 0.134444 0.073287 -0.332184 0.940278
-0.497096 0.106859 0.074212 0.636585 -0.179674 0.729083
-0.113483 0.185901 0.048984 -0.885064 -0.019642 0.462758
-0.200104 0.382787 0.021093 0.161637 -0.496691 0.851802
-0.017448 -0.333028 -0.073425 0.697037 -0.084546 -0.71185
-0.027579 0.800411 -0.086905 -0.884085 0.054877 -0.459156
0.138477 0.373309 -0.131504 0.594772 -0.165578 -0.786531
0.203881 -0.398765 0.00858 0.955127 -0.080757 0.279414
0.174133 -0.469645 0.061879 0.520277 -0.137564 0.838435
0.007155 -0.555985 0.014002 0.685176 -0.144327 0.712752
-0.069343 0.335754 -0.115596 -0.499094 -0.050107 -0.865037
-0.403319 0.263779 -0.011529 -0.689517 0.673461 0.264513
0.102699 0.421233 -0.146077 -0.033516 -0.016431 -0.99901
-0.003577 0.554769 -0.110179 0.021291 0.495508 -0.867627
-0.107751 -0.472021 -0.073407 -0.684144 0.120673 -0.719249
-0.113936 0.238052 0.019905 -0.974545 0.208326 0.070512
-0.057013 0.544699 0.034714 -0.188116 0.64892 0.734577
0.066895 -0.551812 0.008736 -0.627266 0.018071 0.778364
0.051401 -0.064438 -0.127511 -0.344461 -0.391126 -0.853229
0.252843 0.422263 -0.138865 -0.200117 0.014652 -0.978751
0.155243 -0.294652 -0.0745 0.583017 -0.038414 -0.811231
0.047938 -0.016228 -0.148039 -0.308527 -0.352244 -0.883576
0.153234 0.257887 0.067653 0.783294 0.072527 0.617353
-0.112636 -0.706963 -0.006459 -0.883465 -0.367604 0.276942
-0.10781 -0.248213 0.102329 -0.607432 -0.023257 0.78903
0.005368 -0.388401 -0.049048 0.659932 0.098292 -0.744376
0.139836 -0.860353 -0.108832 0.615011 -0.461828 -0.626672
0.428274 0.293354 -0.054046 0.415356 0.695784 0.583784
-0.127035 -0.074768 0.076576 -0.833556 0.020239 0.551847
0.11242 0.392445 0.090623 0.28559 0.112734 0.95149
0.095244 0.787897 -0.077095 0.891851 0.090675 -0.438964
0.153892 -0.738771 -0.082164 0.776985 0.087874 -0.621655
-0.050673 0.300536 -0.124102 -0.4568 -0.016447 -0.888912
0.121424 -0.567145 -0.105241 -0.18623 -0.134569 -0.970546
-0.131244 0.458292 0.061486 -0.063896 -0.047041 0.995345
0.165903 -0.68166 -0.071062 0.725001 -0.110283 -0.678531
0.159092 -0.807083 0.03162 0.813639 0.278336 0.478296
0.195679 0.364779 -0.016922 0.973972 -0.1235 0.188994
-0.205864 0.419964 0.036648 0.015398 -0.252695 0.963404
0.192485 0.563126 -0.053245 0.551342 0.821239 -0.034377
-0.51204 0.087699 0.084796 0.797984 -0.41485 0.408706
-0.129226 -0.161846 0.077134 -0.873242 0.018912 0.48674
0.102515 -0.072532 0.117686 -0.066944 -0.466186 0.876665
-0.021117 -0.474853 -0.084556 0.691329 0.096119 -0.716107
-0.115822 -0.004988 0.088645 -0.77537 -0.247905 0.576458
0.011612 0.441889 0.095585 0.095991 0.207629 0.971489
0.099146 0.01419 -0.153978 0.305107 -0.069614 -0.949362
0.184035 -0.127447 -0.070695 0.734262 -0.058607 -0.67609
0.008015 0.562394 -0.105661 -0.01663 0.414219 -0.909994
-0.276741 0.334797 0.008585 -0.139547 -0.047305 0.986045
0.073071 -0.547942 -0.075322 -0.71219 -0.070267 -0.698382
-0.287759 0.361214 -0.083605 -0.645439 0.424343 -0.630854
0.065002 0.570391 -0.106598 -0.07193 0.577569 -0.812566
-0.019073 0.526092 -0.119966 -0.073385 0.257485 -0.962601
-0.081246 0.004992 0.119844 -0.457322 0.222807 0.859079
-0.284586 0.400808 -0.057618 -0.512551 0.842564 -0.151526
-0.21228 0.339373 -0.062208 0.544407 -0.775233 -0.318803
0.213615 -0.133213 0.000821 0.99087 -0.124503 -0.000488
-0.408521 0.175058 -0.003206 0.571021 -0.817167 0.008442
-0.030391 -0.54185 0.044021 0.367304 -0.214221 0.904807
0.077447 0.55755 -0.116548 -0.095422 0.564917 -0.819197
-0.132313 -0.403666 0.028714 -0.962525 0.138218 0.229997
0.108504 0.095884 -0.134687 0.470662 0.278462 -0.834076
-0.068267 -0.861729 -0.05787 0.001458 -0.999248 0.036279
-0.112379 -0.701236 0.00185 -0.849764 -0.391012 0.344305
0.063587 -0.100093 0.082061 -0.070767 -0.618449 0.74787
0.000108 0.039072 0.137125 -0.172983 0.076119 0.98189
0.089234 -0.825917 0.050906 -0.98602 -0.032693 0.130148
0.149968 -0.282495 -0.079492 0.586868 -0.101491 -0.80315
0.19849 0.381601 -0.0732 0.992817 -0.094102 -0.060949
-0.228147 0.435404 -0.076954 -0.470628 0.502585 -0.725185
-0.051643 0.473187 0.07847 -0.246513 0.457686 0.849939
0.556673 0.164528 0.00678 0.742761 0.668857 -0.027604
-0.027553 0.813877 0.015947 -0.805861 0.216198 0.548662
0.013477 0.371576 -0.127723 0.03087 -0.034654 -0.998767
-0.164071 0.496265 0.051003 -0.381174 0.277482 0.88088
-0.120262 0.038405 -0.064326 -0.875035 0.142124 -0.462122
0.175529 -0.798193 -0.014923 0.920643 -0.338717 0.180614
-0.121224 -0.233771 0.087777 -0.848977 -0.053502 0.52199
0.141584 -0.676169 -0.089928 0.445085 -0.019279 -0.894623
0.057308 -0.605983 -0.052356 -0.756923 -0.036329 -0.652018
-0.078048 -0.854454 -0.125169 -0.63205 -0.488394 -0.599072
0.131057 0.134887 0.097952 0.581025 0.022295 0.813373
-0.028191 -0.04125 0.13271 -0.075859 -0.217791 0.972063
0.017416 0.710343 0.08815 -0.724576 -0.218603 0.625486
-0.031279 0.729776 -0.04324 -0.820109 -0.425459 -0.367145
0.068163 0.766941 0.06947 0.3693 -0.376372 0.825559
-0.063203 -0.799862 0.05312 -0.175243 0.821198 0.530506
0.004403 -0.53039 -0.061892 0.807695 0.044879 -0.587842
0.203261 0.028014 -0.02795 0.948725 0.091298 -0.298141
0.160677 0.323118 -0.094653 0.728808 -0.270954 -0.626943
-0.102912 -0.120725 -0.075653 -0.709261 -0.096787 -0.696033
0.162587 -0.85189 -0.040683 0.94904 -0.290115 0.079869
0.305094 0.346025 -0.132342 -0.392478 -0.337748 -0.854722
0.1315 0.113735 0.098595 0.563318 0.086882 0.820817
-0.002596 -0.429792 -0.059964 0.739832 0.019551 -0.672458
-0.114857 0.304211 -0.000202 -0.974797 -0.15642 0.157713
-0.231627 0.386161 -0.096268 -0.005313 0.109956 -0.993261
-0.066968 0.222769 0.092247 -0.541171 0.124374 0.831585
0.089509 0.834163 -0.038773 0.929869 0.364029 -0.052395
0.067597 -0.519789 -0.072422 -0.736738 -0.071994 -0.671583
0.181628 0.295685 -0.036633 0.936546 -0.21894 -0.270213
-0.033642 0.735674 -0.0028 -0.931619 -0.208921 0.291371
0.147618 -0.841452 -0.103733 0.672975 -0.124015 -0.725066
0.128967 -0.685666 -0.094197 0.137013 0.021314 -0.985004
0.126357 -0.869945 0.075982 -0.007282 -0.999928 0.006864
-0.076071 -0.786022 0.031123 -0.516753 0.704807 0.483184
0.214107 -0.067024 0.015748 0.999084 0.025606 0.032404
0.129422 0.366375 -0.135972 0.457646 -0.16131 -0.872057
-0.047152 0.268274 0.102006 -0.627375 0.054539 0.775818
-0.127783 0.191018 0.008701 -0.993719 0.093484 0.047841
0.027822 0.756666 -0.119866 -0.045186 -0.201208 -0.974792
0.01734 -0.738635 -0.023837 0.920063 -0.120725 0.367861
0.154599 0.101945 -0.095255 0.783671 0.259017 -0.560545
0.279737 0.461315 -0.119505 0.412902 0.605173 -0.6799
-0.010465 -0.769387 -0.009373 0.643836 0.301973 0.686013
0.153995 0.298777 0.063129 0.75148 0.021701 0.65933
-0.012918 -0.008556 0.145894 -0.094472 -0.391933 0.864785
0.175951 -0.745509 -0.04566 0.848819 -0.052627 -0.519712
0.020546 -0.722088 -0.031818 0.957674 -0.044305 0.283121
0.066738 -0.164357 -0.094484 -0.623962 -0.153636 -0.765292
0.544025 0.12692 -0.019371 -0.487447 -0.4107 -0.652083
0.014594 -0.456959 -0.038674 0.83193 0.075887 -0.549582
0.043449 -0.0216 0.134692 0.077497 -0.220281 0.967699
-0.229393 0.469099 -0.030339 -0.786972 0.611012 -0.07965
0.074622 -0.760617 -0.049716 -0.860219 0.216227 -0.461105
0.124228 0.324614 -0.130949 0.558121 -0.102629 -0.82311
-0.053366 0.329358 -0.123173 -0.380535 -0.021811 -0.924444
0.123054 -0.471185 0.052891 -0.576481 -0.101452 0.810695
-0.036149 0.798129 -0.053586 -0.995874 -0.025221 -0.083637
0.165915 -0.419842 0.071745 0.315175 -0.101045 0.937613
-0.428351 0.227558 -0.050039 -0.662865 0.2252 -0.708142
-0.093534 0.497246 0.0587 -0.078212 0.301631 0.949482
-0.213519 0.358339 0.008216 0.250413 -0.548169 0.797141
0.429886 0.20629 -0.086066 -0.467691 -0.883595 0.007897
0.146462 0.109092 -0.101233 0.692514 0.251056 -0.676058
0.180726 0.285719 0.020917 0.962122 -0.021484 0.267897
0.168591 0.095759 -0.079823 0.795749 0.222808 -0.562851
0.393135 0.260337 -0.124498 -0.350502 -0.347413 -0.86839
0.099129 0.451126 -0.146245 -0.108852 0.026312 -0.993322
0.076764 0.655234 -0.043043 0.788633 0.088305 -0.607637
0.059401 -0.781293 0.010633 -0.989034 -0.117864 0.071356
0.117492 -0.126343 -0.118689 0.098015 -0.202587 -0.973022
-0.140849 -0.121022 -0.014316 -0.935595 -0.083222 -0.339784
-0.013208 -0.488054 -0.078804 0.694328 0.096355 -0.713155
-0.081403 -0.611928 0.050573 0.345688 -0.220167 0.898191
0.169822 -0.818603 -0.044462 0.780021 -0.625429 0.00735
0.191448 0.168032 -0.001873 0.94846 0.287756 -0.03678
0.533556 0.136519 0.017373 -0.77722 -0.584325 0.173292
-0.024331 0.78237 -0.093172 -0.801959 -0.084847 -0.588942
0.165682 0.043368 0.095375 0.479717 0.207561 0.84614
0.07704 -0.68454 0.030811 -0.424005 0.282744 0.859809
-0.353311 0.26802 -0.08713 -0.033141 -0.224391 -0.97149
0.378258 0.249784 -0.100103 -0.67521 -0.664446 -0.318492
0.353005 0.398192 -0.099727 0.941317 -0.318244 0.016208
0.185465 -0.237466 -0.06265 0.699126 -0.117705 -0.705026
-0.125156 0.195674 0.021228 -0.935328 0.204157 0.284744
-0.12786 0.187136 -0.003071 -0.987677 0.077363 -0.112341
0.008458 -0.502624 0.026501 0.733564 -0.135334 0.66524
-0.094507 -0.861663 -0.000701 -0.261859 -0.953306 -0.091567
0.097825 0.312297 -0.141863 0.210923 -0.097604 -0.968013
0.386111 0.255688 -0.118468 -0.517158 -0.520907 -0.672584
0.212982 0.42223 -0.122669 -0.225589 -0.685038 -0.668221
0.08365 0.67132 -0.018235 0.988178 -0.071479 -0.120512
0.195458 -0.718416 -0.008378 0.965608 0.007835 0.25759
0.184848 -0.561409 0.031425 0.715712 -0.139353 0.683484
0.084106 0.601687 -0.075548 0.291683 0.704739 -0.644353
-0.009526 -0.748303 -0.005388 0.282338 -0.748296 0.597813
0.205399 -0.301157 -0.008406 0.991607 -0.009876 -0.123847
0.162697 0.565745 -0.083255 0.332353 0.805912 -0.48557
0.013159 -0.410214 -0.040274 0.822604 -0.030167 -0.567614
-0.252696 0.301436 -0.013581 0.665273 -0.617316 0.413377
-0.083608 -0.010316 0.119146 -0.517511 -0.277169 0.804657
-0.118848 -0.262658 -0.032444 -0.827851 0.003763 -0.560436
-0.058192 -0.725489 0.017651 -0.34397 0.463935 0.814205
0.17771 -0.178467 -0.072485 0.647589 -0.005829 -0.760492
-0.115714 -0.312853 0.090244 -0.791446 -0.058789 0.605551
0.039553 -0.053779 -0.127546 -0.329022 -0.432695 -0.839217
0.043793 -0.200041 0.048998 -0.962952 -0.04894 0.248466
0.319629 0.406701 -0.037131 0.600248 0.359732 0.712997
0.629084 0.035874 0.078653 -0.862138 -0.479766 0.004097
-0.278078 0.406263 -0.04331 -0.694661 0.718329 -0.016211
-0.06309 -0.268651 -0.091039 -0.273214 -0.034834 -0.960228
0.085916 0.320307 -0.143799 -0.036556 -0.068656 -0.996952
0.055498 0.852063 0.042035 0.425449 0.65904 0.61867
0.011593 -0.801633 -0.068747 0.975996 -0.19744 0.003175
-0.120291 -0.384067 -0.0433 -0.841506 -0.040318 -0.537374
0.187273 -0.589646 0.021691 0.628398 -0.181353 0.752886
-0.046895 -0.748809 0.014746 0.558155 -0.472446 0.658607
0.191017 -0.377988 0.047922 0.930187 -0.032587 0.364282
0.053829 -0.654126 0.006849 -0.88974 0.110374 0.415561
0.089769 0.834432 -0.028788 0.935569 0.352026 -0.016228
-0.082777 -0.792161 -0.12859 -0.7005 0.10736 -0.698866
-0.140009 -0.108433 0.046008 -0.945343 0.001551 0.325917
0.37735 0.250401 -0.062976 -0.74553 -0.607738 0.273288
-0.063726 0.078798 -0.119663 -0.483084 0.267981 -0.832933
-0.128046 -0.37382 -0.020399 -0.994374 0.015008 -0.097577
-0.066593 0.519553 -0.11419 -0.220625 0.42137 -0.879126
0.210257 0.490129 0.019031 0.239081 0.200027 0.94726
0.170665 0.234577 -0.053392 0.883628 0.020151 -0.467683
-0.002575 0.78554 0.074292 -0.57172 0.178558 0.791126
0.109494 -0.84387 0.16885 -0.811388 0.1877 0.553279
-0.079692 -0.093259 0.117573 -0.435138 -0.014681 0.89942
-0.082146 0.269292 -0.102466 -0.655597 -0.108224 -0.746946
-0.080972 0.444064 0.079395 -0.53757 0.157423 0.826671
0.190684 -0.128471 -0.063242 0.752905 -0.01706 -0.657531
-0.037584 -0.526836 0.050435 0.332371 -0.216798 0.917447
0.186464 0.492303 0.026865 0.321173 0.252301 0.91097
0.037003 0.626507 0.030556 0.032192 -0.450037 0.886621
-0.028065 -0.798814 0.048205 0.635824 0.572744 0.51332
0.212404 0.42235 -0.005264 0.334293 -0.854714 0.373773
-0.013473 0.825211 -0.08681 -0.463891 0.659366 -0.59074
0.198615 -0.43069 -0.039579 0.979774 0.039339 -0.191265
-0.109907 -0.167922 0.102944 -0.670803 -0.018929 0.741247
-0.307238 0.302224 -0.096682 -0.053869 -0.068308 -0.995728
0.051035 0.202116 0.128626 0.085426 0.021131 0.995956
0.167537 -0.615641 -0.083878 0.610152 -0.149817 -0.777299
-0.092033 -0.839774 0.133073 -0.687214 0.681305 0.247009
0.122945 -0.813321 -0.119832 0.037454 -0.134961 -0.984548
-0.042545 0.295032 -0.127504 -0.315573 -0.009702 -0.944475
-0.021204 0.694486 0.004417 -0.945309 -0.319656 -0.027407
0.055495 -0.271341 0.056489 -0.730403 -0.125126 0.671322
-0.131966 -0.545747 -0.050268 -0.89845 0.01612 -0.43618
-0.015356 -0.714102 -0.098816 0.541284 0.291946 -0.78783
0.458043 0.241724 -0.093828 0.60329 -0.254047 -0.752066
-0.00484 0.801597 -0.107862 -0.470822 0.291062 -0.830198
-0.026698 -0.163926 0.121591 0.207304 -0.114721 0.969097
0.331693 0.352783 -0.041299 0.38892 0.182906 0.897234
0.140786 -0.06905 -0.124887 0.586829 -0.250073 -0.770079
-0.103821 -0.146599 0.109367 -0.674919 0.007032 0.737362
-0.270246 0.381703 -0.089808 -0.471905 0.344514 -0.80926
0.020158 -0.419371 -0.01762 0.992303 0.002624 -0.119519
-0.404397 0.258845 -0.002953 -0.590612 0.657182 0.456636
-0.058843 -0.757618 0.019406 0.247536 0.122648 0.939685
-0.068674 -0.863937 0.040523 -0.022792 -0.99964 -0.012926
0.413177 0.217922 -0.067911 -0.643429 -0.756584 0.111054
-0.039891 0.034179 -0.142614 -0.285037 0.164916 -0.941375
0.097232 -0.559185 -0.095191 -0.599929 -0.125544 -0.788551
-0.036255 0.18554 -0.108309 -0.394793 -0.278147 -0.874597
0.190067 -0.004704 -0.068127 0.892664 0.087708 -0.439343
-0.128426 0.087833 -0.016087 -0.997468 0.02522 -0.057682
0.191647 -0.307691 -0.037691 0.784256 -0.052855 -0.617377
-0.007344 0.030307 0.137313 -0.158911 0.158321 0.974504
-0.136376 0.011335 -0.024038 -0.987274 -0.019155 -0.156178
0.197642 -0.247911 0.052493 0.920274 0.032002 0.387053
0.185092 -0.072249 0.08074 0.706289 0.068975 0.704335
-0.009374 0.322904 0.113351 -0.110604 0.073943 0.991015
0.329147 0.337946 -0.135841 -0.104694 -0.210953 -0.968565
0.177632 0.181334 -0.039116 0.926378 0.068286 -0.370087
-0.0456 0.347279 -0.126278 -0.27109 -0.017764 -0.96093
-0.012525 0.633206 -0.020301 -0.981162 0.159609 0.065075
-0.001778 0.124358 0.129435 -0.186172 0.014079 0.981135
0.147619 -0.154241 0.103647 0.283244 -0.24661 0.925696
-0.129367 0.542747 -0.068341 -0.377782 0.722394 -0.578383
0.129463 -0.188106 -0.104237 0.242818 -0.090384 -0.962409
0.070226 -0.647854 -0.059821 -0.716966 -0.134636 -0.683961
-0.11526 -0.777022 -0.014273 -0.869037 -0.041652 0.490772
-0.059325 0.51483 -0.118489 -0.184972 0.424792 -0.883045
0.206926 -0.068249 0.046869 0.930663 0.072916 0.358381
0.087037 -0.667005 -0.07571 -0.697754 -0.01117 -0.71476
0.025909 0.342003 -0.126395 -0.068449 -0.043638 -0.995383
0.267562 0.509318 -0.068725 0.703738 0.705298 -0.078577
-0.080845 -0.593684 -0.102568 -0.139302 0.026622 -0.989331
-0.123874 -0.205358 -0.027832 -0.855755 -0.09832 -0.507717
0.396617 0.284284 -0.128823 0.082919 0.004006 -0.991053
0.024508 -0.631036 -0.046236 0.887409 0.096388 -0.443074
0.596751 0.066822 0.036813 0.286549 -0.899303 0.124408
0.017433 -0.238695 0.077287 0.918109 -0.047909 0.38956
0.167695 -0.220536 0.086047 0.365183 -0.255331 0.893344
-0.482078 0.160274 0.05003 -0.205514 0.803951 0.509682
-0.04622 0.062647 0.120233 -0.462601 0.145598 0.873459
0.045089 -0.534387 -0.020007 -0.954975 0.006862 0.256739
0.0758 0.403501 0.096255 0.136463 0.212233 0.967198
-0.154551 0.429224 -0.093968 0.077441 -0.104592 -0.990425
-0.100177 -0.773157 -0.10298 -0.733484 0.110833 -0.670207
0.309951 0.370415 -0.141259 -0.044874 -0.246393 -0.967444
0.214509 -0.112795 0.004077 0.999581 -0.005448 0.00295
-0.133568 -0.463354 -0.039127 -0.896905 0.078299 -0.43377
0.081327 -0.132563 0.091022 -0.569794 -0.005479 0.821349
0.500783 0.228105 -0.036849 0.662422 0.745834 0.060208
0.097859 -0.868539 -0.090598 -0.446356 -0.869598 -0.07294
-0.00684 -0.764802 -0.111177 0.734325 0.358326 -0.572932
-0.027347 0.34653 0.10516 -0.159092 -0.033276 0.983591
0.205585 0.023834 0.038967 0.982935 0.059848 0.173289
-0.356111 0.283544 0.002892 -0.058074 0.298119 0.951553
-0.081423 0.19172 0.086085 -0.627533 0.011594 0.77826
0.201106 0.071103 -0.009809 0.980574 0.190627 -0.036029
0.001651 -0.657766 0.018178 0.623314 -0.110554 0.773331
0.626014 0.041555 0.055647 -0.828182 -0.559497 -0.031779
0.105598 0.196253 0.110069 0.50582 0.031829 0.859702
0.090248 -0.52398 -0.093924 -0.58147 -0.054707 -0.8117
0.000421 -0.273377 -0.06432 0.75666 -0.12724 -0.641231
-0.082084 -0.62163 0.048428 0.357044 -0.257411 0.88527
-0.118564 -0.420664 -0.044166 -0.779893 0.23203 -0.576773
-0.345495 0.291303 -0.089833 -0.296521 0.120256 -0.94443
0.578174 0.137074 0.029196 0.746176 0.664736 0.02984
-0.030787 -0.41676 0.078989 0.335294 -0.180218 0.924484
0.002906 -0.000441 0.144376 -0.012057 0.232324 0.95894
-0.0101 -0.328301 0.084891 0.562303 -0.094554 0.821452
0.083438 0.614718 -0.058969 0.537507 0.670411 -0.502589
0.081251 -0.395094 0.045273 -0.673927 -0.26986 0.687309
0.177694 -0.242189 -0.068769 0.599679 -0.123732 -0.789685
0.070066 -0.263467 0.073661 -0.606104 -0.119147 0.785584
-0.101151 -0.072406 0.105621 -0.608846 0.041632 0.792154
-0.13634 -0.163468 0.058897 -0.977525 -0.016176 0.203077
0.084318 -0.849964 0.084002 -0.937929 0.320165 0.010549
0.284486 0.392097 -0.143941 -0.14715 -0.03239 -0.986248
0.007747 0.816843 -0.106376 -0.317246 0.579746 -0.747358
-0.140748 0.4597 0.060301 -0.20148 -0.111504 0.972534
0.089881 -0.000428 0.134894 0.274377 -0.153306 0.946469
-0.02898 -0.650562 0.023903 0.015784 0.009921 0.997698
0.001796 0.641831 0.01848 -0.737092 -0.237148 0.632517
0.130138 -0.826935 0.1508 0.190079 0.968876 0.136583
-0.262095 0.373478 0.017331 -0.303795 0.096116 0.944195
0.007919 0.342935 0.112865 -0.05814 0.039698 0.997067
0.15033 -0.389502 -0.085994 0.546366 0.174354 -0.819177
0.19145 -0.648347 0.007659 0.909848 -0.10478 0.401258
-0.412832 0.206043 0.017617 0.011356 0.255234 0.963759
-0.036956 -0.861837 0.01396 0.2481 -0.955284 -0.099764
-0.032453 -0.509602 0.053268 0.356719 -0.267696 0.89458
0.168956 -0.280285 -0.066264 0.605121 -0.1638 -0.778704
0.024836 -0.281809 0.049986 0.948034 -0.022329 0.308092
-0.002044 0.375049 0.107556 -0.111162 0.184452 0.975241
0.065889 -0.62215 -0.060449 -0.70114 -0.081343 -0.707524
0.131194 -0.78672 -0.112265 0.092898 0.423043 -0.899014
0.114227 0.507504 -0.136815 -0.003992 0.207538 -0.977866
-0.010837 0.403816 0.104858 0.01663 0.122867 0.991561
-0.044699 -0.379431 0.090223 0.177215 -0.157684 0.971038
-0.004403 0.110868 0.130471 -0.222827 0.204225 0.951256
0.200934 -0.482728 -0.023745 0.993019 0.112581 -0.026402
0.107355 0.077071 -0.140703 0.532266 0.264576 -0.804013
0.19236 -0.658059 -0.052027 0.783477 -0.272357 -0.55483
0.000207 -0.13963 0.112197 0.576359 -0.157382 0.801865
0.116804 -0.141386 0.112211 -0.112532 -0.155626 0.976801
0.089211 0.168819 0.118513 0.421051 0.052406 0.903155
0.062195 0.184965 0.127796 0.145963 0.029326 0.988732
0.010373 -0.395083 0.050201 0.851821 -0.184969 0.489377
0.091409 -0.860114 -0.04039 -0.811073 -0.512877 0.237795
-0.199412 0.472756 -0.070813 -0.594034 0.437737 -0.673208
-0.288949 0.393504 -0.064044 -0.900213 0.151071 -0.39104
0.204611 -0.510947 -0.027475 0.977346 0.101321 -0.159216
-0.038391 -0.131202 -0.10243 0.241686 -0.197593 -0.948951
0.343001 0.299943 -0.050866 -0.559867 -0.569575 0.600813
0.176098 0.532903 0.011161 0.304529 0.602015 0.737063
0.632885 0.060215 0.032226 0.823299 0.565734 -0.034346
-0.036168 -0.688761 -0.105162 0.450248 0.269162 -0.851182
-0.035489 -0.737108 -0.118993 0.283042 0.356764 -0.888173
-0.004803 0.285845 0.11847 -0.337515 0.086229 0.936398
0.054195 0.387312 -0.136174 -0.304242 0.007856 -0.952255
-0.46727 0.189472 -0.000239 -0.747624 0.66116 0.041256
-0.089472 0.209579 -0.069869 -0.783559 -0.067003 -0.615631
-0.122274 -0.479097 -0.05827 -0.765663 0.106169 -0.633777
-0.095701 0.340201 0.058479 -0.806377 -0.164182 0.563734
-0.024593 0.730829 0.044973 -0.911815 -0.071409 0.387212
0.122375 -0.064849 -0.134537 0.237639 -0.28489 -0.927916
