0.188669 0.165717 0.027851 0.92609 0.212073 0.30588
0.393135 0.260337 -0.124498 -0.350502 -0.347413 -0.86839
0.170607 -0.20921 -0.076212 0.616166 -0.091818 -0.781927
-0.032276 -0.728129 0.025521 0.266695 -0.30333 0.907458
-0.081995 -0.862138 -0.088385 -0.130115 -0.990345 -0.010377
-0.136428 -0.521528 -0.032018 -0.996077 -0.003946 -0.068175
-0.411087 0.258103 -0.035748 -0.813682 0.580643 -0.006256
0.201389 -0.335538 -0.022099 0.88983 0.109973 -0.441694
0.095255 0.351227 -0.144948 0.045731 -0.040663 -0.996817
0.035212 0.230806 -0.125855 -0.045067 -0.048385 -0.99548
0.097722 -0.016882 0.12858 0.206181 -0.029499 0.976473
0.097502 0.093406 -0.140007 0.361579 0.365842 -0.856085
0.270405 0.370098 -0.132391 -0.332287 -0.59481 -0.728699
-0.3581 0.229347 0.00933 0.141116 -0.179887 0.968944
0.350612 0.353547 -0.052394 0.537606 0.43008 0.72277
0.101906 0.800527 -0.048641 0.877043 0.430638 -0.192591
0.031705 -0.21975 0.027716 0.916205 -0.079899 0.385387
0.437537 0.292454 -0.102974 0.663457 0.566107 -0.486097
0.597706 0.066386 0.0205 0.71883 -0.588338 0.018906
0.265156 0.460582 -0.126832 0.27461 0.515354 -0.811029
-0.131726 -0.271663 0.02268 -0.970357 -0.239272 -0.02049
0.165293 0.180138 -0.065357 0.823202 0.055517 -0.561337
-0.094274 -0.863159 0.101013 -0.099645 -0.991147 0.02323
-0.112314 0.0469 0.088889 -0.769355 0.090647 0.606957
-0.126364 -0.496443 0.020112 -0.845973 -0.200057 0.492734
0.082248 0.003374 -0.157293 0.089245 -0.068315 -0.990647
-0.09335 0.327853 0.059826 -0.871515 -0.03163 0.486582
0.213316 -0.068016 -0.001158 0.98667 0.06054 -0.141686
-0.448148 0.2111 -0.037337 -0.751177 0.36228 -0.529774
0.051516 0.063879 0.131446 0.135775 0.112956 0.982575
0.048045 0.543928 0.035247 0.065149 0.746156 0.659021
0.183179 -0.596793 -0.072895 0.700797 -0.058307 -0.710457
0.087469 0.263871 0.111877 0.41794 0.080784 0.902737
0.05581 0.157194 -0.12068 -0.073717 0.067651 -0.994675
-0.113667 -0.383723 0.085132 -0.728483 -0.089501 0.677772
0.126809 -0.84483 -0.117132 0.338345 0.14072 -0.923374
-0.116432 0.53261 -0.086075 -0.365125 0.625052 -0.689779
0.085566 0.583616 -0.096046 0.068867 0.755165 -0.650734
-0.070053 -0.615372 0.043384 0.437427 -0.192451 0.878206
0.178725 -0.003682 0.083672 0.694936 -0.248867 0.655148
-0.015287 0.067777 0.1297 -0.252618 0.124435 0.958787
-0.052836 0.130946 0.107073 -0.520995 -0.0304 0.852536
0.109249 0.732637 -0.022207 0.828784 -0.340553 -0.360329
-0.114303 0.089482 0.06506 -0.883307 0.16586 0.434305
-0.036508 0.733564 -0.033976 -0.865172 -0.361906 -0.328082
-0.10326 0.214975 -0.052426 -0.814528 -0.185382 -0.544154
0.074431 0.857646 -0.023857 0.667365 0.740057 -0.077086
0.053144 -0.549964 -0.005499 -0.814058 -0.002293 0.579869
-0.140006 0.471054 0.061091 -0.176571 -0.009524 0.982392
0.469406 0.205011 -0.064267 0.152395 -0.718729 -0.677652
-0.149084 0.463905 -0.095964 -0.337474 0.060001 -0.939146
-0.148737 0.451155 0.056306 -0.333319 -0.265265 0.902286
-0.036199 -0.237529 0.111411 0.122732 -0.191924 0.973621
0.055092 0.513677 0.05918 0.020561 0.510176 0.859581
-0.102276 -0.454508 0.078973 -0.597176 -0.142122 0.766933
-0.292804 0.362641 -0.075331 -0.737358 0.498063 -0.44042
-0.337964 0.227802 -0.058798 0.504385 -0.712454 -0.484161
0.089923 0.275805 0.109885 0.394849 0.107925 0.912336
0.083765 0.028673 -0.159729 0.165039 0.008027 -0.98093
-0.438075 0.22727 -0.015618 -0.715923 0.69448 0.07088
0.19766 -0.695725 -0.026092 0.98275 -0.04207 -0.142526
0.548273 0.149201 -0.020776 0.620137 0.042581 -0.780993
-0.34323 0.266839 0.006253 0.015736 0.179261 0.983563
0.071772 -0.298142 0.06778 -0.569991 -0.152159 0.804549
0.163943 0.451862 -0.140012 0.235548 -0.06045 -0.969489
0.150497 0.283432 0.068209 0.719358 0.053997 0.690943
-0.1355 -0.399402 0.008969 -0.982921 0.169719 0.051501
-0.105623 -0.859335 0.036809 -0.670159 -0.741518 -0.029153
0.190944 0.34983 0.001275 0.972041 -0.055094 0.225484
0.133419 0.438335 -0.144961 0.141611 -0.077771 -0.986814
0.122292 -0.868467 0.132346 -0.042068 -0.992088 0.115506
-0.086811 0.574205 -0.041774 -0.342549 0.934356 -0.06991
0.007601 -0.752408 -0.088014 0.776956 0.078292 -0.624571
0.076495 -0.600844 -0.07112 -0.684283 -0.047823 -0.727527
0.148493 -0.749211 -0.091176 0.696508 0.154593 -0.700224
0.489797 0.216228 -0.069046 0.168914 -0.338874 -0.919739
-0.027359 0.733604 0.03208 -0.987961 -0.051665 0.143331
-0.132541 -0.069125 -0.042484 -0.858915 -0.03285 -0.51073
0.197529 -0.018432 0.060567 0.863048 0.093484 0.493864
0.219842 0.394718 -0.088719 -0.73358 -0.676031 -0.056132
-0.022079 0.725277 -0.061491 -0.861131 -0.415902 -0.289874
-0.136971 -0.188305 0.003483 -0.986002 -0.090831 -0.136653
0.053504 -0.064987 0.11926 0.041685 -0.459316 0.884904
0.014694 0.195248 -0.11774 0.17796 -0.319812 -0.930054
0.158084 -0.84799 -0.085146 0.936446 -0.065927 -0.339343
0.179312 0.073669 -0.071885 0.817567 0.193455 -0.542072
0.109461 -0.646264 -0.091719 -0.408149 -0.076017 -0.909724
-0.010077 0.653124 0.002605 -0.921393 -0.188397 0.305087
0.071959 -0.107494 -0.113734 -0.367374 -0.361587 -0.856124
0.271685 0.424846 -0.010644 0.121913 -0.113966 0.981575
-0.079051 -0.862329 -0.07587 -0.069772 -0.996747 0.031612
0.053466 -0.039497 0.130373 0.053537 -0.20125 0.976638
-0.184608 0.437946 -0.091917 -0.129595 0.234977 -0.96297
-0.019456 -0.514704 -0.087472 0.638685 0.05413 -0.764898
0.492108 0.236645 -0.040032 0.682642 0.729759 0.035476
-0.128652 -0.408943 -0.027704 -0.882899 0.053731 -0.462882
0.027132 0.842515 -0.086598 -0.113352 0.800289 -0.556576
0.361309 0.265425 -0.089074 -0.772017 -0.627337 -0.069713
0.019438 -0.688707 -0.018509 0.874871 -0.175679 0.451044
-0.301942 0.358067 -0.016054 -0.670093 0.662413 0.333319
-0.050555 0.117331 0.107609 -0.553841 0.076886 0.828194
0.006917 -0.429617 0.042669 0.798196 -0.156814 0.581569
-0.118687 -0.550772 -0.075398 -0.759395 0.122926 -0.638005
0.189985 -0.242859 0.065467 0.788171 -0.045336 0.60705
0.289014 0.350527 -0.124713 -0.556785 -0.473445 -0.681857
0.026578 -0.332334 -0.014584 0.950246 -0.035934 -0.299902
-0.102579 0.101444 0.078693 -0.699126 0.284358 0.652136
0.194087 -0.542143 0.016455 0.929927 -0.063246 0.361637
0.336722 0.403223 -0.052633 0.740318 0.128949 0.591608
0.121424 -0.567145 -0.105241 -0.18623 -0.134569 -0.970546
0.076704 -0.671358 0.026047 -0.549571 0.31308 0.773473
0.09377 0.308748 0.105095 0.205447 0.08691 0.97471
-0.127483 0.012881 0.073414 -0.840524 0.233555 0.481305
0.022662 -0.172986 0.068494 0.931924 -0.154456 0.32597
0.004637 -0.53758 0.021261 0.699786 -0.169095 0.693932
0.100845 0.725462 -0.000753 0.989592 0.017348 0.108471
-0.354288 0.294415 -0.085551 -0.491451 0.328084 -0.803754
-0.004419 -0.579476 -0.072167 0.735431 -0.037189 -0.676261
-0.134581 -0.411583 -0.014745 -0.958384 0.083125 -0.269854
0.114057 -0.472138 0.046283 -0.654064 -0.06829 0.753267
0.191997 -0.523142 0.02484 0.919807 -0.042997 0.388642
0.009393 0.470537 0.086131 0.032568 0.484899 0.873123
0.180863 -0.367598 0.067039 0.658845 -0.074976 0.731943
0.046909 0.855016 -0.067184 0.152205 0.855469 -0.49464
0.34513 0.39306 -0.127181 0.82681 0.016582 -0.550194
0.027609 0.111241 0.134083 -0.021465 0.18272 0.982004
-0.08233 0.33792 0.078696 -0.718845 -0.020588 0.691072
-0.159168 0.460058 0.055112 -0.306454 -0.169393 0.936228
0.018914 -0.311076 0.06043 0.896852 -0.085933 0.433817
0.591971 0.089005 0.06928 -0.831208 -0.179573 0.512213
-0.169825 0.46094 0.04886 -0.456337 -0.165753 0.873965
-0.033748 0.195489 -0.112417 -0.36695 -0.353361 -0.860036
0.017297 -0.134323 -0.049491 0.811851 -0.249086 -0.522864
-0.101983 -0.604617 0.050126 -0.667457 -0.076181 0.723111
-0.089374 -0.8264 0.077377 -0.444074 0.871225 0.161708
-0.12588 0.089613 -0.032212 -0.955287 0.11537 -0.26524
-0.020206 0.796996 0.04027 -0.910527 0.186292 0.367778
-0.109111 0.078627 0.080562 -0.675439 0.406622 0.612156
0.147865 -0.500736 -0.104051 0.339871 0.015868 -0.940093
-0.077619 0.56163 0.010669 -0.066638 0.778157 0.624492
0.192475 -0.050235 -0.062788 0.902803 -0.050733 -0.426798
0.018986 0.466109 -0.125953 0.008062 0.07552 -0.995739
0.200978 -0.504476 -0.001391 0.951436 0.056086 0.295391
0.123373 -0.824425 0.116136 0.007295 0.996873 0.041451
-0.451059 0.17275 0.033353 0.051047 0.722665 0.6892
0.097852 0.069725 -0.147073 0.431525 0.228175 -0.871309
-0.060094 -0.686301 -0.112185 0.010816 0.214743 -0.971417
0.076713 -0.425733 0.025142 -0.697524 -0.349624 0.625356
0.121553 -0.468095 -0.106037 -0.04662 0.08272 -0.993011
-0.478049 0.165788 -0.031376 -0.612758 0.524403 -0.59105
0.265341 0.475209 -0.116239 0.453091 0.553546 -0.69832
0.098951 -0.768314 0.021214 -0.249396 0.804134 0.537685
-0.012411 0.688922 0.05272 -0.801479 -0.302884 0.510329
0.105421 -0.43917 0.04562 -0.613838 -0.382867 0.690285
0.120821 -0.869064 -0.047897 0.002777 -0.998061 0.061789
0.168327 0.023093 -0.102694 0.806893 0.03383 -0.58896
-0.059897 -0.425461 -0.086865 -0.110233 0.240364 -0.963107
0.159954 0.220728 -0.070865 0.791276 -0.044356 -0.609406
0.097728 0.224082 0.111736 0.367661 0.090025 0.923498
0.175921 0.290305 -0.04856 0.934587 -0.169576 -0.311848
0.144318 0.536723 0.017482 0.287355 0.640541 0.710962
-0.002585 -0.735434 0.001346 0.635061 -0.374697 0.665979
-0.345495 0.291303 -0.089833 -0.296521 0.120256 -0.94443
0.145591 0.370184 0.074853 0.640645 -0.030984 0.766873
-0.096396 -0.525087 0.061694 -0.860086 -0.049271 0.507326
0.065104 -0.250613 0.070421 -0.708708 -0.108718 0.696689
0.092781 0.470452 0.076336 0.167219 0.397697 0.901827
0.016315 -0.305459 -0.038586 0.865499 -0.043413 -0.496933
0.19173 -0.649162 -0.056236 0.746701 -0.207626 -0.630378
-0.093695 0.411137 0.073678 -0.636818 0.053203 0.768873
0.115676 -0.869827 -0.060314 0.011166 -0.998688 0.048942
0.143009 -0.240401 -0.089679 0.495642 -0.148198 -0.855642
-0.090718 0.467071 0.067628 -0.407718 0.189776 0.888548
-0.049462 0.437928 -0.130352 -0.087892 -0.108227 -0.990068
0.066311 0.853385 0.031568 0.519651 0.665352 0.535584
-0.065218 -0.862135 -0.067182 0.001619 -0.998379 0.056322
0.20246 -0.096306 0.056738 0.852629 -0.042944 0.518678
-0.124495 0.415986 -0.09861 -0.696595 -0.384981 -0.60301
-0.106018 0.481394 0.061767 -0.0875 0.155787 0.981371
0.028355 -0.181725 0.044771 0.945819 -0.118534 0.294793
0.121974 0.142307 -0.110229 0.454388 0.227465 -0.860084
0.607035 0.065642 0.047259 -0.485119 -0.863394 -0.030249
-0.12348 0.120529 0.034456 -0.902715 0.116272 0.412132
-0.124309 -0.697098 -0.07176 -0.87722 -0.121408 -0.461165
0.084231 -0.550108 0.025105 -0.646357 0.022654 0.759036
0.166775 -0.744772 0.013138 0.315833 0.818908 0.476787
0.016791 -0.252569 0.076682 0.879402 -0.078083 0.457885
0.027041 -0.638204 -0.037971 0.987961 0.015145 -0.145234
0.1649 -0.58437 0.03924 0.47325 -0.211109 0.852294
0.096705 -0.302328 0.07799 -0.407453 -0.214829 0.886787
-0.140495 -0.027203 0.00688 -0.956325 0.289544 0.012777
-0.134351 -0.093201 -0.036617 -0.897094 -0.055999 -0.429623
-0.047394 0.014682 -0.136631 -0.259844 -0.281124 -0.921681
0.140945 0.081459 0.097636 0.651758 0.19304 0.732268
-0.142314 -0.153224 4.8e-05 -0.970549 -0.101215 -0.217199
0.187511 -0.048649 -0.073238 0.827981 -0.068343 -0.55649
-0.032075 0.768779 0.021503 -0.918891 -0.034183 0.378053
0.284527 0.459338 -0.022127 0.691369 0.217444 0.688316
0.033774 0.712003 -0.095601 0.021606 -0.655393 -0.735608
0.018751 -0.55792 -0.039884 0.914902 0.048241 -0.397884
-0.005062 0.753635 -0.107092 -0.609115 -0.297471 -0.732316
-0.339525 0.22411 -0.001763 0.439159 -0.665019 0.57766
0.106028 0.56998 -0.000382 0.397036 0.718533 0.570883
-0.00365 0.679906 -0.051813 -0.7218 -0.351566 -0.595656
-0.07854 0.225676 0.083967 -0.595825 0.118869 0.794187
0.166863 -0.063543 0.096866 0.630746 0.035453 0.774335
0.072768 0.245943 0.120359 0.34029 0.06872 0.931883
0.073854 -0.395047 -0.078357 -0.674152 -0.042273 -0.73734
0.388885 0.240381 -0.10288 -0.664346 -0.670938 -0.32479
-0.120316 0.33667 -0.027538 -0.999421 -0.017149 0.026921
0.090118 0.123165 0.120589 0.374152 0.028387 0.926805
0.124209 -0.869917 0.056795 -0.00043 -0.999856 -0.016214
-0.099256 -0.081907 0.107317 -0.589446 0.048126 0.805834
0.1079 -0.61073 -0.094376 -0.416383 -0.103493 -0.902921
-0.036352 0.755687 -0.051601 -0.964284 -0.162329 -0.20111
-0.115132 -0.375628 -0.0509 -0.753343 -0.002853 -0.656846
0.123054 -0.471185 0.052891 -0.576481 -0.101452 0.810695
0.391003 0.233714 -0.082411 -0.700415 -0.708843 0.017782
0.005113 -0.402982 0.055368 0.79311 -0.210142 0.571236
0.129588 0.377053 -0.137431 0.41795 -0.123877 -0.89924
0.175563 -0.346664 -0.056641 0.709264 0.094444 -0.697709
-0.127991 -0.585625 -0.015987 -0.977568 -0.044606 0.205516
0.052322 0.36896 0.106442 0.13339 0.22593 0.963591
-0.123101 0.363026 -0.030036 -0.959146 -0.275256 -0.005251
-0.091518 -0.362279 0.10079 -0.116586 -0.200582 0.969132
0.170522 0.456092 0.047198 0.638963 0.149397 0.754508
-0.075111 -0.863793 0.093678 -0.043934 -0.998946 0.008777
0.200381 0.495828 0.020369 0.305748 0.2412 0.920735
-0.05824 -0.203115 0.119453 -0.133348 -0.139784 0.976466
0.553469 0.16757 0.022471 0.696643 0.711083 0.073981
0.136859 -0.861764 0.173757 0.062356 -0.966272 0.247895
-0.03377 0.771078 -0.072941 -0.947476 -0.065737 -0.294433
0.0964 0.804901 -0.06742 0.935505 0.197813 -0.282088
-0.015375 -0.773583 -0.127017 0.589384 0.493787 -0.639184
0.078662 0.107609 -0.138087 0.11797 0.443926 -0.887206
-0.018072 -0.305372 -0.077695 0.670862 -0.115714 -0.732436
0.053849 0.681484 0.087321 0.41971 0.214818 0.876063
-0.016111 -0.62836 0.022292 -0.016246 0.056282 0.996079
0.180648 0.274488 0.020623 0.970053 0.032507 0.235693
0.046638 0.852464 0.04682 0.317498 0.692857 0.646394
0.248968 0.481396 -0.000943 0.493925 0.091364 0.860484
0.137649 0.395096 -0.136584 0.412494 -0.166587 -0.894784
0.132994 0.095954 -0.118376 0.610336 0.259366 -0.747251
0.005882 -0.172101 -0.06182 0.774275 0.04224 -0.631095
0.087276 0.838082 0.002866 0.838635 0.521006 0.090335
0.1134 0.34348 0.094898 0.428671 0.10265 0.893925
0.109992 -0.01435 -0.151016 0.289484 -0.078168 -0.951788
0.02608 -0.38612 -0.002332 0.994486 -0.065089 -0.0397
0.089895 0.696738 -0.004319 0.983011 -0.147567 0.012462
0.105259 -0.130852 0.107205 -0.601371 -0.051816 0.796392
-0.352481 0.222283 0.005281 0.364819 -0.460401 0.792665
-0.183701 0.388166 0.019337 0.29266 -0.476637 0.827514
0.064207 0.314127 0.11446 0.285555 0.14814 0.946446
-0.147372 0.478831 0.059062 -0.262509 0.108881 0.957673
0.084089 0.660631 -0.021025 0.986181 0.064095 -0.104407
0.085322 0.630832 -0.034673 0.882429 0.362761 -0.283785
0.164895 -0.094209 0.100684 0.615971 0.036228 0.786853
-0.056174 -0.662486 0.026782 0.240637 -0.226926 0.943232
0.01627 -0.222228 -0.050572 0.866274 -0.016774 -0.497505
-0.377344 0.268653 0.004625 -0.260477 0.383506 0.883222
-0.360521 0.208625 -0.047556 0.449905 -0.861264 -0.225679
-0.118927 -0.652589 0.012289 -0.955662 -0.104291 0.268912
0.120745 -0.103502 -0.122927 0.138495 -0.266393 -0.952423
0.288704 0.422766 -0.016046 0.447279 0.204741 0.869553
-0.068352 0.26199 -0.11198 -0.524245 -0.15577 -0.836958
0.040583 -0.349025 0.001788 -0.939226 -0.126025 0.306938
0.121698 -0.013377 -0.146718 0.414071 0.009482 -0.907548
0.077169 0.608833 -0.070366 0.325364 0.675894 -0.660619
-0.041382 -0.170062 0.122812 0.043774 -0.056147 0.996583
0.191804 -0.182613 0.072219 0.907679 -0.057188 0.406071
0.160829 -0.3186 0.076318 0.251805 -0.041003 0.966828
0.045089 -0.534387 -0.020007 -0.954975 0.006862 0.256739
-0.088934 0.435675 0.074492 -0.621665 0.11372 0.774831
0.089109 0.214692 -0.128687 0.071431 -0.362403 -0.927848
-0.106551 -0.851081 0.103574 -0.966179 0.053399 0.215766
0.118565 -0.823385 0.104463 -0.077653 0.985407 0.136573
0.20466 -0.339725 0.017052 0.980352 -0.073285 0.175628
0.022209 -0.728711 -0.057409 0.975388 -0.009101 -0.210124
0.17053 -0.237565 -0.074209 0.525877 -0.117816 -0.842074
0.139304 -0.830717 0.152572 0.394095 0.899246 0.183519
0.115885 0.100298 -0.128924 0.508951 0.286701 -0.811001
-0.123692 0.146655 -0.024144 -0.904528 0.19177 -0.379246
-0.119026 0.016807 0.085244 -0.815115 0.231475 0.53057
0.027822 0.756666 -0.119866 -0.045186 -0.201208 -0.974792
0.030929 0.327276 0.118937 0.042713 0.197275 0.978943
0.082409 -0.250777 0.081803 -0.366357 -0.116183 0.921057
0.192491 -0.338849 0.049787 0.915884 -0.073236 0.394108
0.084719 0.601958 -0.005483 0.76595 0.207484 0.603349
-0.086116 -0.633768 0.046358 0.237433 -0.358364 0.901285
-0.497645 0.095001 0.056408 0.436411 -0.865069 0.133567
-0.002117 -0.263674 -0.069058 0.744396 -0.106466 -0.659015
0.083224 -0.505416 -0.088924 -0.664082 -0.022386 -0.746721
0.186163 -0.246849 -0.060193 0.718236 -0.124762 -0.684218
0.201196 -0.186592 -0.047951 0.867297 0.026694 -0.495701
-0.054816 -0.537109 0.055596 0.373734 -0.17273 0.911215
-0.125731 0.403776 0.040063 -0.811618 -0.49575 0.297298
0.254664 0.522569 -0.048171 0.706584 0.707123 0.02483
-0.008128 0.664463 -0.037675 -0.857202 -0.172505 -0.472681
-0.058594 -0.179958 -0.095278 -0.14852 -0.104632 -0.978159
0.04346 -0.283821 0.030485 -0.986469 -0.01767 0.161774
-0.136051 -0.0088 -0.030866 -0.987313 0.035018 -0.154214
-0.064458 -0.793162 0.045631 -0.347186 0.514298 0.76929
0.336554 0.341705 -0.041635 0.298774 0.077873 0.946509
-0.461015 0.197278 -0.00193 -0.78315 0.609649 0.106843
-0.077009 -0.169332 0.117279 -0.263497 -0.145574 0.953463
-0.0454 -0.713179 -0.116854 0.445127 0.250056 -0.859298
0.136287 0.447382 0.0738 0.393789 0.242607 0.879507
0.186765 0.16159 -0.02707 0.86979 0.099599 -0.481256
-0.353311 0.26802 -0.08713 -0.033141 -0.224391 -0.97149
-0.533298 0.068855 0.043087 0.454833 -0.858888 -0.185983
0.186957 0.415518 -0.12645 0.244692 -0.393911 -0.885392
-0.091985 0.349272 0.066039 -0.770911 -0.162471 0.613346
-0.04503 0.238265 -0.122198 -0.541378 -0.15333 -0.826074
-0.056114 -0.298603 0.104981 0.167055 -0.10999 0.97957
-0.135695 -0.040053 0.056618 -0.95779 0.082287 0.261709
-0.029374 0.737713 0.020011 -0.986061 -0.074593 0.146249
-0.108652 -0.420957 -0.056841 -0.720973 0.22576 -0.6534
0.234836 0.403606 -0.128249 -0.520077 -0.371716 -0.768106
0.12813 -0.219145 0.091257 0.0824 -0.170482 0.981849
0.021638 0.735782 0.096639 -0.873846 0.110532 0.442815
0.04025 -0.182871 -0.052776 -0.905148 -0.205258 -0.371431
0.200004 -0.393119 -0.037124 0.930971 -0.04389 -0.360812
0.157353 0.042322 -0.112529 0.705653 0.210064 -0.675186
0.587857 0.123381 0.056836 0.528156 0.651909 0.439815
0.053784 -0.369178 -0.056785 -0.8081 -0.026975 -0.588133
-0.072562 -0.368775 0.098125 0.134223 -0.184785 0.973497
-0.085755 0.005156 -0.118358 -0.62226 -0.027743 -0.7822
0.081512 -0.271177 0.078512 -0.448076 -0.170899 0.874887
-0.374308 0.195071 -0.029589 0.623393 -0.77625 -0.040727
-0.064317 -0.235329 0.113535 -0.03518 -0.113601 0.992623
-0.028277 0.238324 -0.127766 -0.129082 -0.129772 -0.982122
0.206617 0.484376 -0.132163 0.17156 0.208465 -0.962741
0.103349 -0.746172 0.027851 -0.049415 -0.406603 0.878405
0.01326 -0.433683 -0.038634 0.835441 -0.003004 -0.54916
-0.105568 -0.390713 -0.060111 -0.716836 -0.098454 -0.690058
-0.127866 -0.331994 -0.010844 -0.995518 -0.004798 -0.083943
-0.090748 -0.533439 -0.094721 -0.458579 0.095984 -0.880171
0.018068 -0.551235 0.003236 0.886935 -0.054467 0.437158
-0.045964 -0.661563 0.024865 0.187369 -0.173004 0.965993
-0.091978 0.531094 -0.098763 -0.314981 0.466233 -0.812971
0.094872 -0.482294 0.029658 -0.615177 0.014114 0.788028
0.140059 0.405255 -0.137271 0.380212 -0.180047 -0.907134
0.099735 0.74345 -0.049045 0.969436 -0.155396 -0.189001
0.174037 0.275396 -0.047538 0.923794 -0.113057 -0.364218
0.01902 0.814483 0.07285 -0.33062 0.452973 0.823287
-0.110481 0.240381 -0.055052 -0.928958 -0.164699 -0.30412
0.111137 -0.864835 -0.005563 -0.299892 -0.944546 -0.07268
0.069292 0.273747 -0.137534 -0.21645 -0.062717 -0.973418
-0.022316 0.025444 -0.145995 -0.163002 -0.13883 -0.968373
0.070536 -0.333799 -0.081427 -0.699714 -0.051061 -0.712378
0.243878 0.509996 -0.102367 0.519772 0.602307 -0.605719
0.017816 -0.770197 -0.069785 0.987582 -0.000895 -0.153175
-0.078496 -0.862389 -0.017169 -0.045676 -0.997044 -0.049624
-0.272346 0.33467 -0.096384 0.059222 -0.070227 -0.992724
0.098739 -0.127577 -0.117615 -0.244727 -0.214314 -0.943192
-0.5523 0.078732 0.073191 -0.8235 0.536222 0.17569
0.05887 -0.363535 0.036615 -0.688973 -0.355939 0.625159
0.059371 -0.706732 -0.02836 -0.869897 -0.234353 -0.431505
-0.089301 0.050814 0.101328 -0.463654 0.179164 0.866388
0.102699 0.421233 -0.146077 -0.033516 -0.016431 -0.99901
-0.08267 -0.494723 0.077329 0.460056 -0.151037 0.869896
-0.075172 0.25725 -0.106 -0.613933 -0.180834 -0.768074
-0.007916 0.631287 0.001336 -0.819469 -0.017043 0.570671
0.163524 0.303411 0.054551 0.652692 -0.005672 0.757314
0.151618 0.377824 0.070264 0.671055 -0.041423 0.740178
-0.057013 0.544699 0.034714 -0.188116 0.64892 0.734577
-0.381982 0.196433 0.009002 0.581659 -0.538483 0.598017
-0.123874 -0.205358 -0.027832 -0.855755 -0.09832 -0.507717
-0.107748 0.330433 0.032893 -0.904859 -0.151345 0.39689
0.02166 0.331723 0.117434 -0.173501 0.314149 0.930827
-0.08775 -0.562044 -0.098775 -0.37579 0.057876 -0.923608
-0.108818 -0.848252 0.088977 -0.88559 0.179182 0.223268
0.301779 0.371434 -0.022697 0.421452 -0.425709 0.779812
0.508441 0.212568 -0.016529 0.546597 0.695539 0.464145
0.019214 0.865098 -0.0252 -0.256421 0.95897 -0.075623
0.071104 0.071888 0.13053 0.181484 0.042153 0.977751
-0.437215 0.156902 0.019999 0.531427 -0.822511 0.185877
0.236379 0.478559 0.006083 0.585348 -0.029823 0.807498
0.099616 -0.138325 0.10276 -0.561146 -0.053838 0.825844
-0.102634 -0.171495 -0.066226 -0.761172 -0.082926 -0.642656
0.096841 0.605385 -0.03652 0.888124 0.430645 0.137532
0.03014 0.663198 0.090484 -0.103763 -0.735562 0.629908
0.095108 0.160294 0.116197 0.492934 0.069378 0.864288
-0.001121 -0.515604 0.031754 0.59742 -0.207978 0.774435
0.021317 -0.420758 -0.000958 0.997589 0.021631 0.013407
0.122838 -0.440854 -0.103954 0.057477 0.060987 -0.993415
-0.126667 -0.532589 0.008771 -0.892089 -0.126361 0.430179
0.303708 0.356602 -0.034617 0.107678 -0.494348 0.853993
-0.189507 0.370771 -0.083019 0.477063 -0.646642 -0.582582
0.319629 0.406701 -0.037131 0.600248 0.359732 0.712997
-0.450808 0.165035 0.040495 0.17267 0.535901 0.814289
0.399411 0.306303 -0.123681 0.319221 0.282171 -0.885984
0.152179 0.168652 -0.08251 0.747517 0.056357 -0.661107
0.090224 0.37338 0.098251 0.186956 0.104856 0.975217
0.382627 0.337769 -0.117073 0.654913 0.519507 -0.548602
-0.087049 0.379285 -0.112031 -0.414421 -0.180833 -0.89163
-0.068267 -0.861729 -0.05787 0.001458 -0.999248 0.036279
0.181688 -0.373024 -0.058245 0.638077 0.240657 -0.731038
0.161589 -0.622119 0.024655 0.380438 -0.097556 0.90552
-0.007905 -0.288831 -0.071238 0.707333 -0.126967 -0.695345
-0.006098 -0.039309 0.134113 0.017115 -0.155956 0.984738
0.295543 0.459976 -0.034557 0.740453 0.328911 0.582393
0.039514 0.167328 0.130651 0.063479 0.059143 0.996205
0.066529 -0.809737 -0.014467 -0.9626 -0.248474 0.056507
-0.112983 0.193807 -0.037051 -0.893895 0.086814 -0.439583
-0.139883 -0.159491 0.04168 -0.95093 -0.14427 0.268033
-0.015823 -0.455021 -0.076518 0.715357 0.088233 -0.692899
0.023866 -0.104628 -0.071968 -0.492291 -0.606715 -0.561117
0.124228 0.324614 -0.130949 0.558121 -0.102629 -0.82311
-0.043018 -0.554486 0.046735 0.460582 -0.201994 0.86419
-0.12786 0.187136 -0.003071 -0.987677 0.077363 -0.112341
0.132244 -0.165912 -0.105944 0.318823 -0.111481 -0.940422
0.128163 -0.81945 0.085782 0.140185 0.946972 0.275658
0.045408 -0.335871 0.030415 -0.927914 -0.105163 0.351384
0.213332 -0.068848 0.025612 0.987422 0.037473 0.142591
0.112298 0.364435 -0.14286 0.309201 -0.098383 -0.943633
0.21388 -0.103241 0.021817 0.990903 -0.018895 0.127453
-0.328892 0.296135 0.002635 -0.222356 0.11795 0.967095
0.187065 -0.448173 0.048947 0.886768 -0.083318 0.454222
0.143602 -0.311617 -0.083173 0.578058 0.032215 -0.814937
0.022121 0.214704 0.128791 -0.009324 0.055848 0.99832
-0.069424 -0.832697 -0.138387 -0.579757 -0.098733 -0.799934
-0.095543 -0.512036 0.064829 -0.834116 -0.101704 0.535647
-0.093492 -0.489136 -0.087216 -0.563617 0.13148 -0.814191
0.177936 -0.540727 -0.081694 0.697843 -0.036048 -0.71534
-0.128301 -0.027539 0.070026 -0.870327 0.097521 0.482434
-0.003888 0.261235 -0.129924 0.098103 -0.050549 -0.993285
0.103707 -0.257381 -0.098686 -0.201826 0.027842 -0.975939
0.126701 0.574167 -0.018821 0.299542 0.797555 0.499
-0.02203 -0.848132 -0.094879 0.984622 -0.127215 0.032227
0.007195 0.474544 -0.126151 0.126887 0.08503 -0.988088
0.341629 0.282174 -0.079218 -0.621142 -0.757841 0.187339
-0.121491 0.06555 0.060636 -0.955475 0.177195 0.234862
-0.136916 -0.022618 0.039815 -0.992136 0.050803 0.114121
-0.113125 -0.533414 0.032137 -0.872795 -0.058444 0.48448
-0.0048 0.819636 0.052885 -0.592607 0.519082 0.615276
0.171189 -0.812944 -0.080219 0.810848 -0.501578 -0.25519
0.161993 0.142358 -0.072666 0.75355 0.10308 -0.649036
0.078659 -0.413431 0.034301 -0.69582 -0.326546 0.639641
0.033557 -0.227112 0.021813 0.866866 -0.151864 0.472105
0.165529 0.003098 0.101046 0.631248 -0.25078 0.717709
0.181093 0.189876 -0.029793 0.941387 0.06738 -0.326458
0.065226 0.174532 -0.119202 -0.024573 0.110309 -0.991475
0.021878 0.714893 -0.096826 -0.172445 -0.600387 -0.779565
-0.064797 -0.253272 0.111882 0.025455 -0.095977 0.994751
0.075761 -0.494751 0.015565 -0.644061 0.048689 0.763393
-0.096367 -0.847361 -0.08459 -0.983208 -0.054004 -0.162972
0.172245 -0.809819 -0.01124 0.937239 -0.263228 0.176056
0.163061 -0.308818 0.076186 0.25952 -0.06562 0.963378
-0.002687 0.852489 0.030075 -0.540416 0.725648 0.424834
-0.05282 -0.862041 -0.016502 0.112866 -0.989457 -0.072519
-0.335595 0.233041 0.0029 0.376383 -0.419907 0.819743
-0.074979 -0.763268 -0.125366 -0.518779 0.188751 -0.829208
0.275013 0.501263 -0.047924 0.722314 0.665154 0.179582
0.070972 -0.441215 -0.075526 -0.710521 0.023563 -0.703208
0.054195 0.387312 -0.136174 -0.304242 0.007856 -0.952255
-0.096392 0.520451 -0.10411 -0.30713 0.468819 -0.827655
-0.111448 -0.436889 0.071117 -0.774161 -0.159764 0.611422
0.065975 0.616799 0.015919 0.621401 -0.09259 0.777748
0.015284 -0.022211 0.131756 0.241108 -0.349582 0.89805
-0.10475 -0.233901 -0.057855 -0.844563 -0.040807 -0.533747
0.064907 -0.536898 -0.067332 -0.765906 -0.060723 -0.639989
0.113936 -0.832822 -0.117696 -0.270419 0.006127 -0.947457
0.362081 0.271299 -0.110425 -0.610618 -0.689694 -0.380675
-0.108224 -0.050733 -0.084785 -0.779644 -0.148013 -0.60832
0.071944 0.816894 -0.09744 0.518221 0.507077 -0.681933
0.201249 -0.583256 -0.03162 0.991052 -0.067038 -0.110088
0.33134 0.397847 -0.044199 0.806283 -0.048229 0.578294
-0.063895 -0.654239 0.03118 0.363374 -0.272989 0.890716
-0.023243 0.834799 -0.062667 -0.526624 0.743243 -0.41248
-0.050039 -0.86416 0.087553 0.023385 -0.999541 0.011823
0.12945 -0.864855 0.157638 -0.026087 -0.984875 0.168905
-0.09333 0.195916 0.076013 -0.672915 -0.003888 0.739479
-0.026382 0.842341 -0.03969 -0.60562 0.75986 -0.231945
-0.08202 0.094855 -0.100487 -0.649874 0.208444 -0.730765
0.349053 0.376219 -0.077132 0.676021 0.679886 0.282712
-0.078516 -0.863679 0.067498 -0.05127 -0.998662 -0.00177
-0.018132 0.249813 -0.129721 -0.039309 -0.066252 -0.996585
0.041203 -0.194841 -0.048153 -0.940281 -0.149998 -0.304627
0.190015 0.349842 -0.066073 0.866651 -0.384136 -0.314849
0.192022 0.448481 0.035736 0.556501 0.126565 0.82052
-0.110292 -0.624756 0.03234 -0.868623 -0.016739 0.494877
0.027193 -0.656801 -0.02922 0.9966 -0.03226 0.041397
0.193796 0.161783 0.007356 0.856848 0.501204 0.045297
0.054594 -0.270457 -0.061902 -0.827194 0.007904 -0.561233
0.529165 0.17725 0.019331 -0.32419 0.314561 0.859975
-0.118004 0.182029 -0.029218 -0.880787 0.120687 -0.457702
0.094604 -0.200784 0.093059 -0.289846 -0.143106 0.945418
-0.093985 -0.595129 -0.097359 -0.463115 0.043574 -0.885209
0.00777 -0.436017 -0.048134 0.787312 0.018137 -0.616069
-0.082654 0.035521 -0.118181 -0.67276 0.254038 -0.694727
-0.137319 -0.452231 -0.023449 -0.974454 0.066601 -0.2134
0.019387 -0.351437 0.046431 0.921931 -0.121864 0.367416
0.165061 0.539296 0.01023 0.19597 0.659343 0.722419
0.008883 -0.705882 -0.008497 0.76838 -0.1838 0.612479
-0.006869 -0.696632 -0.086203 0.519432 0.266467 -0.811625
0.443995 0.292959 -0.078913 0.663234 0.746589 0.027196
0.063777 -0.15487 -0.094573 -0.597061 -0.205439 -0.769461
0.0961 0.586098 -0.013587 0.671425 0.485762 0.558013
0.204611 -0.510947 -0.027475 0.977346 0.101321 -0.159216
-0.136585 -0.150201 -0.017792 -0.931196 -0.098884 -0.349368
0.140786 -0.06905 -0.124887 0.586829 -0.250073 -0.770079
0.172608 -0.762664 0.020491 0.541892 0.097677 0.83073
-0.042336 -0.507274 -0.097999 0.218348 0.076207 -0.971556
0.069905 0.595605 0.012389 0.625856 0.007995 0.779631
0.073188 0.020935 -0.160046 0.021273 -0.151857 -0.986515
-0.126997 -0.604355 -0.06947 -0.927952 0.022958 -0.364109
0.455052 0.230459 -0.015482 -0.225581 0.360067 0.902379
-0.010473 0.823353 0.042949 -0.818245 0.363688 0.44098
-0.007839 0.702006 0.064725 -0.710156 -0.16081 0.682842
-0.127952 0.151012 0.004834 -0.996619 0.021156 0.059255
-0.040496 -0.862732 -0.090123 0.105726 -0.99239 0.045885
0.186833 0.380634 0.026591 0.878781 -0.1934 0.435021
0.08153 -0.639535 0.01523 -0.593305 0.330533 0.725285
-0.115386 -0.346059 0.08619 -0.797878 -0.097704 0.59409
0.517967 0.179338 -0.047062 0.412032 -0.418005 -0.808195
-0.016951 -0.827407 0.020066 0.721832 -0.647511 0.233965
0.001703 -0.655972 -0.070967 0.556578 0.141532 -0.818631
0.128631 0.534995 0.024259 0.256941 0.629734 0.732618
-0.13567 -0.472659 -0.03409 -0.943787 0.045858 -0.319608
0.165331 -0.185614 -0.08312 0.62593 -0.05213 -0.778043
-0.124409 -0.554747 -0.068766 -0.817618 0.12418 -0.56082
-0.070946 0.247228 -0.106576 -0.621406 -0.242121 -0.744844
-0.126159 0.141153 0.019164 -0.982754 0.051906 0.174826
0.155362 0.062055 -0.107164 0.709642 0.193083 -0.677292
-0.014383 0.343221 -0.128915 0.004651 0.016632 -0.999587
-0.021458 -0.747862 -0.117955 0.611204 0.309636 -0.726013
0.112397 0.190529 0.106416 0.492389 0.028284 0.86981
0.239572 0.459791 0.003353 0.537515 -0.033971 0.827201
0.210144 -0.012268 -0.003316 0.957079 0.197483 -0.199199
-0.012342 0.768482 0.061094 -0.842162 -0.083466 0.526843
0.159614 -0.383001 -0.07854 0.534716 0.197766 -0.821543
0.06281 0.429864 0.090845 0.13051 0.232936 0.963564
0.190601 0.337811 -0.049318 0.959263 -0.223554 -0.161975
-0.125567 0.371491 -0.012883 -0.953533 -0.288785 0.066445
-0.028084 0.593921 -0.020066 -0.647224 0.651682 0.393415
0.198205 -0.006712 0.057048 0.877291 -0.067104 0.464782
0.281813 0.393861 -0.016351 -0.136354 -0.311467 0.937147
-0.014443 -0.108746 -0.097306 0.499572 -0.350324 -0.791186
-0.031909 -0.86175 0.024691 0.361879 -0.924931 -0.084459
-0.117813 0.022446 -0.073533 -0.865436 0.082757 -0.493146
0.022553 -0.435797 0.007933 0.963984 0.149216 0.215205
0.147261 0.403266 0.074118 0.579051 0.032673 0.814418
0.08838 -0.093258 -0.125572 -0.186614 -0.392685 -0.899648
-0.125176 -0.681222 -0.033125 -0.941532 -0.115023 0.308799
-0.166481 0.509296 0.043477 -0.468319 0.454351 0.755232
-0.382353 0.277326 -0.003118 -0.515067 0.566616 0.635121
-0.005511 -0.311186 0.084849 0.326629 -0.117384 0.929942
-0.074327 0.161075 -0.086749 -0.542205 0.190071 -0.815165
-0.109048 0.180114 0.056789 -0.814067 -0.037669 0.579537
-0.02612 -0.85117 0.083951 0.9843 -0.04298 0.166114
0.035016 -0.143664 0.060096 0.793192 -0.395864 0.453241
0.024613 -0.323473 -0.018928 0.900165 0.016166 -0.430466
-0.045031 -0.458488 0.072945 0.209484 -0.239716 0.947942
0.177701 0.126488 -0.04958 0.852457 0.232215 -0.465637
0.336316 0.400831 -0.134388 0.544196 0.290767 -0.774996
0.136108 -0.087558 -0.122572 0.459046 -0.218526 -0.857476
0.121021 -0.807718 0.062952 0.115069 0.764349 0.625619
0.0892 0.688605 0.003715 0.982088 -0.16859 0.066516
-0.011868 0.157841 0.12654 -0.394213 0.00243 0.910314
0.11718 -0.439601 0.05537 -0.562795 -0.35952 0.743334
0.053546 -0.57526 -0.04913 -0.821647 -0.048422 -0.567439
0.476895 0.182913 -0.013312 -0.594813 -0.799451 0.078211
-0.118609 0.224378 0.01674 -0.950911 0.269479 0.147991
-0.059054 -0.198172 -0.093065 -0.287274 -0.107509 -0.951679
0.575677 0.068956 0.019574 -0.860026 -0.506353 0.05851
0.20194 0.026968 0.050087 0.924962 0.107655 0.363254
0.369101 0.355778 -0.07729 0.668046 0.651146 0.358767
0.185092 -0.072249 0.08074 0.706289 0.068975 0.704335
0.458004 0.262542 -0.0962 0.733682 0.239402 -0.633552
-0.113461 0.345253 -0.082272 -0.77779 -0.213426 -0.589579
0.027957 -0.095479 -0.089014 -0.732805 -0.460457 -0.49841
0.618735 0.052094 0.049174 -0.774084 -0.628872 -0.024342
-0.126409 -0.721891 -0.034157 -0.968008 0.03685 0.236546
0.037767 -0.126902 0.070251 0.759774 -0.499333 0.405849
-0.115073 -0.66559 0.017452 -0.892103 -0.209513 0.391109
0.177046 0.405612 0.047217 0.635084 -0.059811 0.769937
0.167294 -0.517403 0.05567 0.437979 -0.247909 0.857777
0.099129 0.451126 -0.146245 -0.108852 0.026312 -0.993322
0.077242 0.194977 -0.120437 -0.029942 -0.249486 -0.966806
0.210956 -0.016664 0.025883 0.93124 0.173958 0.315915
0.093428 -0.584073 -0.088169 -0.605225 -0.12686 -0.785862
0.054538 -0.20584 -0.071638 -0.739992 -0.16409 -0.651858
0.075113 -0.646812 0.014233 -0.488135 0.396817 0.766072
-0.031945 0.261399 -0.129 -0.153333 -0.049461 -0.985589
0.101203 0.726982 -0.02373 0.922372 -0.345675 -0.10146
-0.453546 0.203278 0.004606 -0.708541 0.578565 0.393964
-0.079236 0.064315 0.104528 -0.541655 0.197225 0.815679
-0.447848 0.216469 -0.027291 -0.742681 0.653167 -0.095283
0.046781 -0.304136 0.03889 -0.946757 -0.055629 0.315666
0.069588 -0.520439 0.011247 -0.620258 -0.014992 0.784115
0.158906 0.116982 0.07666 0.575583 0.176429 0.797391
-0.119984 0.346959 -0.005485 -0.991973 -0.099176 0.069603
0.052843 -0.452247 -0.00299 -0.735877 -0.032684 0.671235
0.020198 0.826216 0.065914 -0.330212 0.525616 0.778671
0.072224 0.602221 -0.078921 0.199525 0.677099 -0.707926
0.14625 -0.864066 -0.01809 0.312705 -0.941494 0.055614
0.151914 0.229886 0.071904 0.777578 0.054451 0.626284
0.175489 0.554913 -0.090872 0.322389 0.750306 -0.576304
-0.053337 -0.13805 -0.10277 -0.039868 -0.173047 -0.982223
0.031346 0.835225 -0.093868 -0.036224 0.683732 -0.728606
0.124704 -0.842821 0.179914 -0.177981 0.42785 0.882407
-0.028762 -0.528373 0.046984 0.373337 -0.257818 0.890484
-0.018153 -0.190495 -0.083806 0.580066 -0.007441 -0.814447
0.073895 0.137735 0.126599 0.366082 0.062201 0.920356
-0.138545 -0.172777 0.039647 -0.975566 -0.133241 0.170489
-0.042472 0.214744 -0.117139 -0.558026 -0.304411 -0.771859
-0.021782 0.074791 0.127118 -0.331757 0.195066 0.920465
-0.103338 -0.337638 0.100689 -0.672876 -0.081123 0.735111
0.19627 0.088592 -0.02943 0.946925 0.25345 -0.18764
-0.068674 -0.863937 0.040523 -0.022792 -0.99964 -0.012926
-0.057823 -0.093212 0.123919 -0.285212 -0.020644 0.957764
-0.12413 -0.39371 0.056191 -0.957015 0.09309 0.269051
0.054695 -0.730627 0.004196 -0.964427 -0.240215 -0.080694
-0.039324 -0.195968 -0.09306 0.242662 -0.081416 -0.966344
-0.06956 0.581496 -0.026676 -0.183521 0.953616 0.194616
0.135124 -0.706113 -0.093094 0.429323 0.029471 -0.902009
-0.140401 -0.145109 -0.009459 -0.907048 -0.122802 -0.402088
-0.411777 0.172681 -0.014827 0.611915 -0.788194 -0.034506
-0.002149 0.296276 0.118313 -0.344001 0.125101 0.929485
-0.105127 0.380209 0.062011 -0.731775 -0.206671 0.648235
0.101456 0.004549 0.131291 0.278052 -0.009969 0.948065
0.117891 -0.040767 -0.143546 0.211072 -0.284276 -0.933453
-0.459709 0.14404 -0.021442 0.316445 -0.851463 -0.414254
0.05102 -0.654196 -0.014051 -0.997339 -0.062788 -0.003642
0.168956 -0.280285 -0.066264 0.605121 -0.1638 -0.778704
-0.025798 -0.313681 -0.082685 0.543943 -0.108242 -0.829903
0.262986 0.379059 -0.028154 -0.393149 -0.458437 0.790044
-0.062228 -0.742129 0.02697 -0.032474 0.246611 0.964189
0.143851 -0.549874 0.048056 -0.10387 -0.208523 0.968441
0.160529 -0.834594 0.077272 0.81219 0.580604 0.033684
0.027107 -0.13343 -0.051998 -0.938326 -0.25484 -0.232969
-0.135171 -0.243363 0.04088 -0.99666 -0.045704 0.058641
0.402217 0.230775 -0.05444 -0.602925 -0.718224 0.345021
0.052365 0.384027 0.104026 0.111228 0.187202 0.975077
0.064943 -0.300406 0.061305 -0.71163 -0.11168 0.693448
0.206894 0.007023 -0.004235 0.996531 0.031937 -0.05945
-0.049068 -0.319823 0.100512 0.299691 -0.105883 0.947878
0.041472 0.870463 -0.014373 0.027355 0.995957 -0.013724
-0.106216 -0.596794 0.040942 -0.925605 0.014809 0.37574
-0.041335 -0.030408 -0.132299 -0.169743 -0.214441 -0.961055
-0.052986 -0.449153 -0.093015 0.063047 0.201093 -0.975356
0.149968 0.44119 0.067764 0.601079 0.14409 0.784016
0.020329 0.751964 0.083784 -0.870981 0.211095 0.433218
0.17422 -0.336684 -0.057227 0.733507 0.031213 -0.678791
-0.052159 0.231392 -0.115721 -0.581184 -0.23321 -0.779604
-0.122325 -0.279948 0.079658 -0.944644 -0.034906 0.321521
0.44277 0.209084 -0.030881 -0.877398 -0.320823 0.346679
0.090529 0.204335 -0.123542 0.133086 -0.444886 -0.883439
0.029798 0.483377 -0.125104 -0.212537 0.132555 -0.967964
-0.072643 0.524313 0.048323 -0.112519 0.564919 0.816741
0.162749 -0.826029 -0.081091 0.829512 -0.53495 -0.095426
0.149822 0.094988 -0.102884 0.701144 0.209941 -0.681003
0.061996 -0.059179 0.121856 0.031328 -0.426008 0.903216
0.158316 -0.370593 -0.076328 0.597353 0.196345 -0.776982
0.146971 -0.869147 0.091164 0.251299 -0.963362 0.008355
0.405601 0.235474 -0.043562 -0.457061 -0.652214 0.600815
0.128683 -0.603031 0.035123 -0.196176 -0.028122 0.975648
0.08593 0.049699 0.125919 0.435049 0.175384 0.882231
-0.56346 0.060016 0.025379 -0.926243 0.36326 -0.026764
-0.485011 0.167893 0.025764 -0.649874 0.745208 0.130071
-0.48756 0.165737 0.016656 -0.742133 0.666306 0.032467
-0.112283 0.255652 -0.007752 -0.998966 0.037016 -0.002027
-0.045702 0.202803 0.106162 -0.483429 0.01937 0.874736
0.379212 0.316406 -0.048149 0.276823 0.420572 0.863725
0.017206 -0.373186 0.043519 0.88045 -0.115043 0.443856
0.053218 -0.71753 0.009077 -0.997608 -0.046503 0.042978
-0.118936 0.378084 -0.086815 -0.85297 -0.209041 -0.474155
0.152662 -0.199005 -0.091484 0.731375 -0.111626 -0.635146
0.061375 0.755468 -0.110562 0.455984 -0.22327 -0.859943
0.184032 0.514257 -0.124365 0.129121 0.51553 -0.84649
-0.031347 0.791479 -0.079991 -0.88199 0.01861 -0.469289
-0.138018 -0.152885 0.051595 -0.972624 -0.028193 0.226293
0.075199 0.270467 0.117202 0.499928 0.10511 0.85963
0.204076 -0.154286 -0.041837 0.930166 -0.008162 -0.360352
0.202499 0.06121 0.014328 0.948473 0.298751 0.100266
0.207391 -0.012184 0.034932 0.959318 0.125565 0.24729
-0.116114 0.138241 0.047152 -0.882496 0.054877 0.466778
0.088627 0.616763 -0.048328 0.729393 0.598187 -0.319888
0.520726 0.161102 -0.038074 0.049835 -0.455104 -0.781132
-0.082082 0.295499 0.077533 -0.603859 -0.01233 0.796584
0.041996 0.513768 -0.124779 -0.231802 0.226338 -0.944829
0.121765 0.118777 -0.117059 0.511131 0.335857 -0.790775
-0.137173 -0.443252 -0.019563 -0.973371 0.106078 -0.196295
-0.125132 -0.373087 -0.035256 -0.915237 0.010302 -0.398708
-0.090494 0.013072 -0.113823 -0.718647 -0.01792 -0.694815
0.08863 -0.82594 0.04085 -0.961076 -0.197973 0.125894
-0.11911 -0.12664 0.091979 -0.827187 0.033734 0.560005
-0.106825 -0.774431 -0.002367 -0.738272 0.115368 0.662746
0.190765 -0.578046 -0.065307 0.792931 -0.025867 -0.608446
-0.02505 -0.838534 -0.12385 0.855441 -0.390406 -0.257753
0.075061 -0.631023 0.006833 -0.526485 0.322295 0.771457
-0.036155 -0.857546 0.120285 0.812474 -0.414061 0.341565
-0.121754 0.539541 -0.076446 -0.360412 0.680278 -0.637725
0.084038 0.660327 -0.009254 0.988122 -0.026277 0.120298
-0.081148 0.568367 -0.001386 -0.16336 0.854743 0.489534
-0.131818 -0.267913 0.041877 -0.976441 -0.182431 0.099226
-0.101972 -0.65194 0.038951 -0.49109 -0.312947 0.801105
0.137834 -0.869715 0.095388 0.033559 -0.999046 0.01461
-0.485935 0.109418 0.049127 0.877693 -0.432768 0.184335
0.184505 -0.612707 0.018302 0.330869 -0.115088 0.932327
0.02506 0.712687 0.096508 -0.327439 -0.317759 0.877449
-2.3e-05 -0.456294 0.04553 0.743413 -0.147191 0.652117
0.171065 0.348577 -0.09501 0.710629 -0.347768 -0.610739
0.143891 0.552768 0.001242 0.235849 0.718408 0.652865
-0.336811 0.223774 -0.046184 0.500871 -0.842456 -0.182266
0.032141 -0.138628 -0.06286 -0.858515 -0.345056 -0.378786
-0.014807 -0.417318 -0.070674 0.667724 0.145968 -0.729731
0.072357 0.296105 -0.139318 -0.219096 -0.07736 -0.972175
-0.004132 0.467577 0.087665 -0.02521 0.41186 0.909859
0.209583 -0.14002 0.024788 0.962852 -0.217564 0.156974
-0.047152 0.041807 -0.137936 -0.322575 0.223308 -0.919755
0.022942 -0.391349 0.018368 0.921929 -0.2303 0.307771
0.206284 -0.131567 -0.037436 0.935745 -0.009033 -0.351564
0.212367 -0.107308 -0.018767 0.953279 0.062221 -0.277926
-0.124406 -0.553694 0.005992 -0.876619 -0.165471 0.44794
-0.131889 -0.226185 0.065601 -0.936314 -0.089622 0.33926
0.093973 -0.858274 -0.028552 -0.630074 -0.695255 0.336373
-0.095516 -0.34516 -0.068366 -0.64088 0.076512 -0.762531
-0.071078 -0.604295 0.046776 0.481544 -0.240266 0.842681
-0.127761 0.547946 0.023594 -0.156738 0.81965 0.545561
0.205549 -0.32805 0.013278 0.993125 -0.014639 0.104464
-0.125875 -0.308228 0.051491 -0.982733 -0.116061 0.140375
0.020039 -0.285587 0.061983 0.934309 -0.050103 0.352162
-0.06484 -0.818354 0.075233 -0.229253 0.897236 0.367636
-0.003618 0.649213 0.012431 -0.837001 -0.220926 0.496581
-0.135368 -0.513206 -0.04 -0.957993 0.023071 -0.270136
-0.002333 -0.056645 0.1287 0.132212 -0.158414 0.978019
-0.070572 0.125973 -0.099705 -0.541613 0.198087 -0.816484
0.190717 -0.541569 -0.066829 0.814771 -0.028456 -0.578745
0.010797 0.516639 0.062097 0.140315 0.533923 0.833173
0.073172 0.722188 -0.086836 0.574853 -0.494224 -0.646859
0.062399 0.063478 -0.15303 -0.06801 0.191597 -0.979092
0.046126 -0.208614 0.055142 -0.872734 -0.083095 0.473836
-0.039662 -0.14542 0.123517 -0.057336 -0.060461 0.996374
0.20001 -0.482247 -0.035931 0.993973 0.059635 -0.088171
0.041111 0.598831 -0.086326 -0.001174 0.617316 -0.786369
-0.117916 0.233851 -0.015882 -0.930971 0.357567 -0.028127
-0.013366 -0.564725 0.030295 0.494533 -0.163736 0.851796
-0.092154 -0.851014 0.142303 -0.867932 -0.100214 0.467434
0.208823 0.5166 0.011113 0.276699 0.409928 0.867477
0.086241 -0.845931 0.048113 -0.980224 0.173219 -0.053259
-0.118937 0.154478 -0.033414 -0.886418 0.128006 -0.441
0.182432 0.227216 0.01123 0.998733 0.013592 0.045834
0.114753 0.566581 -0.106493 0.250777 0.642079 -0.723024
0.115529 0.28042 -0.133877 0.476909 -0.04345 -0.874472
0.196758 -0.456494 0.011444 0.972964 -0.059435 0.220424
-0.095796 -0.249424 0.10828 -0.296952 -0.020003 0.951613
-0.126166 -0.574481 -0.005665 -0.945682 -0.091032 0.307488
-0.138263 -0.157447 -0.010582 -0.937409 -0.12044 -0.325783
-0.201973 0.403005 -0.096861 -0.085328 0.065853 -0.992388
-0.064313 0.157654 -0.092899 -0.345849 0.246879 -0.901996
0.061111 0.021037 -0.159548 -0.082054 -0.19757 -0.974101
-0.110859 -0.726644 -0.012583 -0.675576 0.066237 0.724226
0.620933 0.057858 0.016926 -0.674308 -0.571618 -0.434745
-0.119492 0.565332 -0.027184 -0.320147 0.929268 -0.073634
-0.10031 -0.022145 -0.10089 -0.730872 -0.108046 -0.672968
-0.072092 -0.069918 0.121348 -0.351272 -0.045804 0.933096
0.029366 0.471039 0.084051 0.117157 0.399393 0.908679
0.046843 -0.187037 -0.065259 -0.846549 -0.168635 -0.504686
0.008979 -0.398171 -0.047024 0.805386 0.050486 -0.589223
0.234655 0.542472 -0.048976 0.66547 0.744537 0.042053
-0.427799 0.196371 -0.053394 -0.35543 0.052301 -0.930053
0.20048 -0.024322 -0.043605 0.950645 0.02868 -0.307796
0.07409 -0.785064 -0.059495 -0.874488 0.159725 -0.457028
0.412403 0.258822 -0.127 0.094893 -0.17696 -0.974511
-0.012416 0.027244 -0.148147 -0.240081 -0.082947 -0.952604
0.207731 -0.182129 -0.004616 0.9999 -0.002647 0.004083
0.042019 -0.268811 0.019785 -0.985247 -0.027214 0.160273
-0.040763 0.068999 -0.134199 -0.369413 0.252601 -0.891631
0.197789 -0.424353 0.019871 0.969675 -0.077264 0.231173
0.163623 -0.652387 -0.078928 0.573345 -0.203591 -0.792939
0.486077 0.195888 0.007986 0.558435 0.671347 0.43537
0.004551 0.493121 -0.124145 0.159785 0.122792 -0.978194
0.097502 0.284319 0.106393 0.291837 0.082951 0.952099
0.577123 0.072 -0.016509 -0.730624 0.255659 -0.419443
0.142191 -0.38346 -0.090343 0.558079 0.163116 -0.813554
-0.053639 -0.630118 -0.104522 0.235069 0.052993 -0.969412
-0.117616 -0.4321 0.063966 -0.82028 -0.193776 0.537362
-0.125051 -0.35538 0.054041 -0.982469 0.065302 0.174038
0.043906 -0.483666 -0.03111 -0.999716 -0.00021 0.014588
0.069637 0.472558 -0.136988 -0.270845 0.123989 -0.954253
0.018002 0.216998 -0.125625 0.116743 -0.124139 -0.981788
0.197137 -0.731012 -0.016565 0.994081 -0.070043 0.040854
0.198857 -0.563738 0.001824 0.959111 0.004118 0.282585
0.043793 -0.200041 0.048998 -0.962952 -0.04894 0.248466
0.057038 0.006475 0.141855 0.138682 0.041505 0.977808
-0.066227 0.448615 -0.129287 -0.170981 -0.066221 -0.98235
0.076262 -0.070765 0.11673 -0.016655 -0.413847 0.901239
0.126609 -0.278682 0.083311 0.019365 -0.061824 0.997747
-0.204672 0.490591 0.019083 -0.721603 0.507539 0.46551
-0.106018 -0.1859 -0.0602 -0.800925 -0.05954 -0.595139
0.118331 -0.348707 -0.09937 0.27837 0.063951 -0.956539
-0.305734 0.354784 -0.06465 -0.630228 0.712037 -0.308214
-0.077081 -0.711476 0.015459 0.270998 -0.380991 0.882509
-0.036641 0.085117 -0.130291 -0.267148 0.264479 -0.925816
-0.453562 0.207278 -0.029617 -0.867036 0.381457 -0.295141
-0.058433 -0.863119 -0.087396 0.001288 -0.999588 0.025578
-0.326596 0.227455 -0.014669 0.6648 -0.716723 0.194331
-0.134751 -0.550076 -0.024717 -0.967173 -0.155699 0.176631
0.0973 -0.210367 -0.098318 -0.332542 -0.16711 -0.927391
-0.10264 0.283184 -0.082388 -0.798765 -0.045923 -0.597699
0.019102 -0.759073 -0.049424 0.990312 -0.111461 0.059362
-0.027582 -0.180188 -0.089202 0.414255 -0.019617 -0.908463
0.13324 -0.869923 0.065144 0.01703 -0.999753 -0.008954
-0.154551 0.429224 -0.093968 0.077441 -0.104592 -0.990425
0.110081 -0.826257 0.119689 -0.263387 0.962929 0.033449
0.605658 0.100892 0.039835 0.835292 0.547533 0.003513
-0.101282 -0.572504 0.049338 -0.827831 0.066628 0.555703
-0.084201 -0.176965 -0.083437 -0.607579 -0.095846 -0.787966
0.028756 -0.251055 0.034344 0.98139 -0.031635 0.188206
-0.041219 -0.419929 0.081463 0.237244 -0.188196 0.95275
0.189828 -0.473294 0.03458 0.957738 -0.051352 0.278325
0.179156 -0.583233 0.030325 0.596242 -0.2977 0.745345
-0.131218 0.065694 -0.011801 -0.944814 0.299108 -0.100332
0.172653 0.026087 0.093162 0.626244 0.15184 0.763334
-0.1047 -0.631307 0.041121 -0.815145 -0.113736 0.55514
0.182091 -0.193129 -0.069032 0.613893 -0.016414 -0.788685
0.01211 -0.132 -0.0575 0.783223 -0.203672 -0.586198
0.205374 0.416065 -0.010192 0.558744 -0.773946 0.197563
0.080163 0.330428 0.106969 0.360871 0.118401 0.921824
-0.374193 0.218744 -0.070926 0.16981 -0.479036 -0.858646
0.144456 0.468405 0.063327 0.407076 0.362881 0.835946
0.178554 -0.092417 -0.082746 0.788692 -0.078394 -0.609698
0.165039 -0.597111 -0.088806 0.565942 -0.120126 -0.814622
-0.12243 -0.568656 0.004987 -0.902112 -0.123781 0.412527
0.134979 0.300193 0.085746 0.734479 0.047427 0.676959
-0.018948 0.414857 0.102412 -0.10244 0.303436 0.945972
0.006775 0.650138 -0.056326 -0.585231 0.036651 -0.801987
0.108579 0.049395 -0.146723 0.476459 0.235332 -0.846874
0.187431 0.121583 -0.033651 0.848692 0.261618 -0.459208
-0.083931 0.118237 -0.091101 -0.647236 0.180791 -0.739712
0.196484 0.108712 -0.018092 0.959179 -0.102853 -0.238914
-0.053708 -0.86119 0.140567 0.271829 -0.90821 0.256396
0.247569 0.401347 -0.134545 -0.381205 -0.239933 -0.892238
0.139323 -0.844321 -0.110484 0.511518 0.029267 -0.856983
-0.041998 0.28452 -0.12749 -0.323757 -0.025456 -0.942035
0.06287 0.247454 -0.133096 -0.367853 -0.148128 -0.917715
-0.093454 0.225968 0.073341 -0.608672 0.128748 0.782802
-0.014534 -0.130347 -0.089799 0.605021 -0.231683 -0.761525
-0.004363 0.856724 0.016116 -0.51889 0.829921 0.202589
-0.123093 -0.272133 -0.026194 -0.851225 0.009699 -0.522685
0.01964 -0.338027 0.05008 0.892568 -0.140653 0.427451
0.395272 0.330377 -0.1101 0.598725 0.62032 -0.500628
0.177076 0.28327 -0.041427 0.933453 -0.140752 -0.32939
-0.29938 0.277952 -0.088704 0.272182 -0.385226 -0.878734
-0.069855 0.380375 0.092757 -0.565483 -0.030375 0.82229
-0.072752 -0.164963 -0.093528 -0.570411 -0.149257 -0.807065
-0.07325 0.576063 -0.063301 -0.447766 0.822303 -0.349167
0.094554 0.481915 0.071119 0.198592 0.475482 0.854662
-0.135589 -0.058153 -0.035909 -0.945329 -0.008269 -0.319907
-0.079727 0.116352 0.088809 -0.613927 0.196406 0.7615
0.095408 0.603509 -0.062356 0.653119 0.718732 -0.220412
