0.346543 0.319597 -0.133341 -0.108137 -0.241163 -0.962793
-0.014325 0.534576 -0.11768 -0.083441 0.366239 -0.925589
0.17655 0.048747 -0.085157 0.819307 0.196127 -0.537873
0.561299 0.093315 0.038292 -0.829007 -0.514272 0.213675
-0.00792 0.579608 0.011466 -0.537529 0.309699 0.782818
-0.119129 -0.674038 -0.006697 -0.977996 -0.036756 0.20069
-0.054378 -0.435933 0.080919 0.178625 -0.198756 0.963617
-0.039217 -0.064371 -0.119963 -0.056712 -0.321851 -0.944699
-0.426548 0.171791 0.031054 0.418008 0.179749 0.878226
-0.103889 0.240466 0.058697 -0.852976 0.172167 0.477046
-0.038708 -0.057243 0.129694 -0.096313 -0.072687 0.992556
-0.126364 -0.496443 0.020112 -0.845973 -0.200057 0.492734
0.042237 -0.208161 -0.047617 -0.95063 -0.053401 -0.30366
0.582641 0.116702 -0.000717 0.634442 0.165947 -0.753523
-0.136011 0.557766 -0.028627 -0.367304 0.917158 -0.115508
-0.129025 -0.163553 -0.029873 -0.853295 -0.143151 -0.50096
-0.043073 -0.263741 -0.093179 0.117321 -0.016072 -0.989812
-0.006473 -0.217495 0.105314 0.507326 -0.131716 0.850475
0.142331 -0.174088 -0.100066 0.503329 -0.073206 -0.860363
0.055285 0.636682 0.030482 0.490444 -0.422489 0.756207
0.042169 0.348383 -0.13001 -0.339128 -0.067957 -0.932919
0.10844 0.278488 0.103522 0.352791 0.042845 0.934474
-0.087137 -0.748309 0.018006 -0.56843 0.430708 0.697584
-0.016763 0.028219 0.135988 -0.209906 0.187955 0.959007
0.12813 -0.219145 0.091257 0.0824 -0.170482 0.981849
-0.103766 0.390187 0.065506 -0.642273 -0.125525 0.754693
0.087688 0.200908 0.117939 0.443115 0.058446 0.893207
0.027383 0.291023 -0.127455 -0.021286 0.000268 -0.998384
0.387157 0.239448 -0.062962 -0.607626 -0.759467 0.225554
0.014003 0.77088 -0.119734 -0.184326 -0.013448 -0.974668
-0.062457 0.525135 0.049234 -0.145776 0.584931 0.797473
0.196665 -0.520541 0.012377 0.950109 -0.020114 0.310789
0.134414 -0.642945 -0.095542 0.148218 -0.089887 -0.984522
0.076764 0.655234 -0.043043 0.788633 0.088305 -0.607637
0.150213 0.477277 0.057077 0.439742 0.376546 0.810887
0.198002 -0.508317 0.008974 0.954743 -0.008462 0.296756
-0.010533 0.330499 -0.129343 0.045808 0.043037 -0.997568
0.022671 -0.146295 -0.032847 0.740523 -0.234989 -0.489601
0.201686 0.130044 0.01207 0.92747 -0.1936 0.28442
0.105333 -0.311718 0.079208 -0.238194 -0.119987 0.959782
-0.016064 -0.236618 -0.082748 0.523456 -0.009237 -0.851861
-0.052068 -0.573677 -0.102562 0.195918 -0.006592 -0.978127
-0.142876 -0.048295 0.023306 -0.994468 0.044308 0.094928
0.002752 0.533639 -0.118624 0.001325 0.331312 -0.941581
0.484604 0.186123 -0.053572 -0.113516 -0.457688 -0.866236
-0.044118 0.139997 0.112156 -0.484085 0.014402 0.873757
0.132994 0.095954 -0.118376 0.610336 0.259366 -0.747251
-0.074571 -0.638228 -0.10647 -0.083825 0.079209 -0.991648
-0.063512 -0.036132 0.126332 -0.340958 0.032755 0.936628
-0.043143 -0.571075 0.042916 0.42851 -0.230367 0.873355
0.027381 -0.638527 -0.021158 0.99435 -0.029829 0.077074
0.175163 -0.400439 -0.07099 0.652088 0.099799 -0.751043
-0.027294 0.459769 0.08837 -0.141141 0.321333 0.93541
-0.06857 0.062906 0.11107 -0.355429 0.165388 0.916989
0.154239 -0.551559 -0.099587 0.520317 -0.03835 -0.853035
0.027984 -0.246325 -0.030077 0.141931 -0.090839 -0.902832
-0.125684 -0.180529 0.08326 -0.822088 0.007468 0.567654
0.152887 0.494874 -0.136139 0.154501 0.268319 -0.950276
0.0857 -0.416443 0.040204 -0.650841 -0.357818 0.668848
0.017536 0.319208 0.119477 -0.158142 0.170631 0.970088
0.460508 0.275279 -0.073247 0.741908 0.667596 -0.022682
0.15486 -0.748417 0.026097 0.310118 0.541508 0.668946
0.058269 -0.417052 0.010159 -0.674897 -0.356197 0.644713
-0.469578 0.126464 0.01724 0.738216 -0.673043 0.018006
-0.074327 0.161075 -0.086749 -0.542205 0.190071 -0.815165
0.191369 0.095697 0.032232 0.990063 0.016052 0.122809
0.152179 0.168652 -0.08251 0.747517 0.056357 -0.661107
0.158728 -0.677244 0.024623 0.299107 -0.265465 0.915533
0.042358 0.301292 0.121115 0.090011 0.105045 0.990215
-0.112573 -0.764129 -0.082925 -0.866234 -0.02473 -0.498866
0.121788 -0.165486 -0.108244 0.203623 -0.151805 -0.965383
0.066907 0.736092 -0.100676 0.494268 -0.399211 -0.770921
0.152535 -0.609453 0.034113 0.339335 -0.384539 0.853574
-0.136916 -0.022618 0.039815 -0.992136 0.050803 0.114121
-0.043863 -0.640681 0.026956 0.28911 -0.112894 0.949274
0.239572 0.459791 0.003353 0.537515 -0.033971 0.827201
-0.079098 -0.194427 -0.085319 -0.535454 -0.037804 -0.842997
0.165158 0.415192 -0.131179 0.287153 -0.374089 -0.881727
0.022707 -0.4774 -0.023094 0.903361 0.048149 -0.426011
-0.131071 -0.095713 0.070075 -0.841258 0.003425 0.540521
0.178417 0.474276 -0.13663 0.115416 0.085472 -0.989249
0.111137 -0.864835 -0.005563 -0.299892 -0.944546 -0.07268
0.164842 -0.842414 0.116827 0.773466 0.627381 0.073846
0.176263 -0.035351 0.08778 0.69863 0.021041 0.715118
-0.129367 0.542747 -0.068341 -0.377782 0.722394 -0.578383
0.206688 -0.21362 0.001122 0.999089 -0.033141 0.026172
-0.03304 -0.551742 0.04282 0.372097 -0.211831 0.903282
-0.021063 -0.073344 -0.115369 0.168925 -0.44014 -0.881151
-0.200104 0.382787 0.021093 0.161637 -0.496691 0.851802
-0.124712 -0.757433 -0.043625 -0.939215 -0.339128 0.004073
-0.201096 0.506662 -0.007466 -0.762688 0.641995 0.076476
0.067597 -0.519789 -0.072422 -0.736738 -0.071994 -0.671583
-0.118232 -0.402145 0.074218 -0.850633 -0.158537 0.48357
0.156522 0.216019 0.067617 0.77764 0.081035 0.62345
0.195679 0.364779 -0.016922 0.973972 -0.1235 0.188994
0.054227 -0.606986 -0.010051 -0.823499 -0.004084 0.564288
-0.439415 0.158821 0.030219 0.495188 -0.763791 0.387427
-0.06585 -0.716183 -0.120704 -0.152322 0.278059 -0.943151
-0.059041 -0.863991 0.103679 0.001829 -0.999738 0.020647
-0.127716 -0.636368 -0.026514 -0.986464 -0.112795 0.107492
-0.13307 -0.53643 -0.009525 -0.885862 -0.214316 0.409457
-0.55321 0.052441 0.046769 0.825041 -0.56237 -0.014871
-0.039181 -0.748916 -0.126734 0.211511 0.429502 -0.877096
0.020039 -0.285587 0.061983 0.934309 -0.050103 0.352162
0.012755 -0.118458 -0.063374 0.665622 -0.384617 -0.633942
0.005113 -0.402982 0.055368 0.79311 -0.210142 0.571236
0.353005 0.398192 -0.099727 0.941317 -0.318244 0.016208
0.092996 0.541234 -0.125757 -0.022468 0.46595 -0.881001
0.181815 -0.136795 -0.072075 0.715662 -0.071453 -0.694733
-0.437313 0.154793 0.00631 0.604681 -0.793128 0.069337
0.076417 0.637533 0.008882 0.813462 -0.186769 0.550075
0.053849 0.681484 0.087321 0.41971 0.214818 0.876063
-0.00906 0.269849 -0.130956 0.055031 -0.05005 -0.996765
0.034946 0.86248 -0.053671 0.000535 0.959688 -0.277254
-0.289532 0.288082 0.001226 0.37178 -0.417683 0.824669
0.05856 -0.287608 -0.067571 -0.81529 0.002413 -0.578961
0.212662 -0.077103 -0.009687 0.973706 0.081996 -0.202778
0.110156 0.584357 -0.088814 0.312408 0.743002 -0.585428
0.164236 -0.798702 0.015752 0.823457 0.386877 0.409984
0.093308 -0.855562 0.146383 -0.888905 0.228136 0.391043
0.151691 0.566149 -0.01767 0.210904 0.813268 0.539008
-0.092057 -0.373729 -0.07193 -0.543647 -0.032099 -0.838171
-0.028692 -0.014084 -0.137039 -0.116108 -0.129066 -0.984743
-0.116997 0.347531 0.015907 -0.961665 -0.141267 0.234089
-0.028404 0.770053 0.030364 -0.914485 0.046567 0.397003
-0.03395 0.817119 0.005531 -0.900594 0.009852 0.421045
0.141642 0.492558 -0.138366 0.169669 0.281052 -0.944442
-0.314014 0.237891 -0.015035 0.623225 -0.763237 0.163349
0.286086 0.489788 -0.05382 0.737266 0.651498 0.168003
0.068252 -0.459128 -0.073132 -0.725766 0.027313 -0.687312
0.16625 -0.115222 -0.094455 0.729902 -0.153307 -0.664729
0.575677 0.068956 0.019574 -0.860026 -0.506353 0.05851
-0.012928 -0.257063 0.100492 0.444643 -0.210731 0.870501
-0.539604 0.088334 0.088307 -0.172538 0.309314 0.715181
-0.12413 -0.39371 0.056191 -0.957015 0.09309 0.269051
0.142135 0.520841 0.031081 0.277947 0.625185 0.728504
0.203261 0.028014 -0.02795 0.948725 0.091298 -0.298141
-0.198607 0.439686 -0.088895 -0.250591 0.339923 -0.90513
-0.105778 -0.586729 0.041585 -0.93562 0.031209 0.350495
-0.027582 -0.180188 -0.089202 0.414255 -0.019617 -0.908463
0.30808 0.315941 -0.106588 -0.6413 -0.691102 -0.307677
-0.074599 -0.526082 -0.099397 -0.228157 0.113627 -0.966164
0.07385 0.585182 0.00936 0.637004 0.105959 0.759491
0.206927 -0.103332 0.045828 0.93456 -0.026734 0.354706
0.149636 0.493293 0.047808 0.323206 0.550362 0.768546
0.005091 0.273743 0.122936 -0.277218 0.116776 0.952381
-0.054831 0.217748 0.099571 -0.520758 0.097752 0.848035
0.079009 0.536486 0.043688 0.111542 0.543786 0.828057
0.089285 0.694863 0.011057 0.984329 -0.157861 0.050172
-0.061708 -0.376713 -0.084412 -0.15682 -0.125398 -0.977515
0.220682 0.41993 -0.00983 -0.158689 -0.821869 0.524927
-0.496267 0.153238 -0.014937 -0.773013 0.610855 -0.152421
-0.306315 0.285042 -0.093107 0.141426 -0.300782 -0.941995
0.08603 -0.017109 -0.154456 0.036277 -0.23446 -0.971165
0.074587 -0.822788 -0.044996 -0.436799 -0.890412 -0.063564
-0.039262 0.775006 -0.036081 -0.989121 0.110513 -0.076349
0.12078 0.563709 -0.002271 0.346228 0.719422 0.600636
0.166315 0.331782 0.05083 0.766071 -0.013395 0.639446
0.115856 0.25338 -0.131031 0.505418 -0.1414 -0.849512
0.12989 0.103092 0.101116 0.521359 0.108737 0.845898
-0.063492 0.537712 0.039454 -0.172156 0.613798 0.769928
0.461382 0.259699 -0.034659 0.202903 0.709603 0.654547
0.05761 0.31627 -0.135641 -0.38005 -0.031488 -0.924377
-0.0992 -0.475544 0.073511 -0.608951 -0.270951 0.734263
0.107877 -0.434376 -0.101992 -0.267547 0.041547 -0.961909
0.197322 -0.089685 -0.053048 0.89008 0.023642 -0.45451
-0.215115 0.420037 -0.090971 -0.253814 0.311939 -0.914585
0.20132 0.400916 -0.049823 0.928526 -0.341303 0.020552
-0.127991 -0.585625 -0.015987 -0.977568 -0.044606 0.205516
-0.127727 0.555762 0.009475 -0.224438 0.866101 0.432896
0.299735 0.472238 -0.059628 0.831019 0.529887 0.161633
-0.005724 -0.797396 -0.009104 0.867851 0.011109 0.492957
-0.107392 -0.375969 0.09198 -0.673519 -0.074979 0.734424
-0.044743 -0.864123 0.077669 0.037941 -0.998966 0.01084
0.19465 0.431001 -0.130659 0.216317 -0.329145 -0.917853
-0.111598 -0.766358 -0.010065 -0.699641 0.017778 0.628952
0.234286 0.381392 -0.105776 -0.715573 -0.660682 -0.211677
0.011159 0.756175 0.072282 -0.454047 0.006723 0.876151
0.57221 0.080801 0.049238 -0.746123 -0.624215 0.227241
0.371311 0.273306 -0.121313 -0.455973 -0.501482 -0.724332
0.140733 -0.13714 -0.107543 0.483682 -0.250527 -0.838248
0.094064 0.554702 0.023467 0.256946 0.697824 0.665883
-0.094283 -0.681514 0.028646 -0.164714 -0.397129 0.900184
0.028007 0.79374 -0.119002 -0.09 0.247091 -0.961936
-0.083608 -0.010316 0.119146 -0.517511 -0.277169 0.804657
0.143675 0.529045 -0.124438 0.212246 0.518888 -0.827406
0.188044 0.323273 0.003505 0.961599 -0.115944 0.242332
-0.136428 -0.521528 -0.032018 -0.996077 -0.003946 -0.068175
-0.256647 0.306575 -0.078077 0.655274 -0.437996 -0.615395
0.041879 -0.387526 -0.012558 -0.984853 -0.116339 0.125732
-0.090666 0.445257 0.07208 -0.615293 0.118817 0.778917
0.188579 -0.199632 0.076115 0.830807 -0.10942 0.531388
-0.176824 0.526445 -0.045009 -0.599552 0.705224 -0.373569
-0.114687 -0.799722 -0.068782 -0.932681 -0.289425 -0.199011
0.098739 -0.168531 0.09874 -0.35311 -0.176186 0.917407
-0.125394 -0.118546 -0.04774 -0.817821 -0.100582 -0.563457
-0.072511 -0.509589 -0.098222 -0.189326 0.083753 -0.977786
-0.096246 -0.353732 0.101656 -0.174329 -0.141959 0.974149
-0.037795 0.584233 -0.082008 -0.360687 0.723518 -0.584268
0.120948 0.172946 -0.105538 0.427271 0.078458 -0.900112
-0.065392 -0.346528 -0.085703 -0.31039 -0.043285 -0.949216
0.203217 -0.321807 0.026059 0.959086 -0.047339 0.277774
0.097296 0.380971 -0.145821 0.011821 -0.012958 -0.99887
0.082951 -0.763415 0.011294 -0.04061 0.037829 0.918535
0.08144 0.730642 -0.083862 0.686398 -0.418906 -0.593565
-0.51575 0.128259 0.037611 -0.761796 0.647285 -0.01134
-0.216585 0.484433 0.001486 -0.784903 0.545804 0.291823
0.101806 0.175205 -0.113072 0.268635 0.038366 -0.959407
0.101703 -0.105078 0.106619 -0.530111 -0.104541 0.841251
0.048334 0.536955 0.043617 4.6e-05 0.744075 0.66695
-0.19213 0.43755 0.041907 0.088498 -0.299231 0.946293
0.006917 -0.429617 0.042669 0.798196 -0.156814 0.581569
0.084029 -0.146932 0.092521 -0.600893 -0.016914 0.798293
-0.018631 -0.216125 -0.084108 0.533609 0.013637 -0.845415
0.010109 0.036521 -0.151614 -0.162716 0.161255 -0.972454
-0.19197 0.480807 -0.071518 -0.549508 0.454428 -0.700183
0.154028 0.516631 -0.128507 0.141262 0.361217 -0.920757
0.071921 0.693581 0.072903 0.672191 -0.041769 0.73457
-0.077238 0.163002 0.08937 -0.638427 -0.009557 0.769603
0.055498 0.852063 0.042035 0.425449 0.65904 0.61867
0.072131 0.124426 0.127688 0.274958 0.039644 0.956847
0.119642 0.582637 -0.084868 0.337414 0.824599 -0.453015
0.131547 0.346371 0.086197 0.467994 0.026965 0.882794
0.081355 -0.660435 0.025602 -0.5744 0.287278 0.763303
-0.041219 -0.419929 0.081463 0.237244 -0.188196 0.95275
0.083102 -0.434047 0.027485 -0.672909 -0.354409 0.648768
0.100162 -0.03117 0.127605 0.233872 -0.072807 0.968521
-0.105146 0.315658 -0.084402 -0.781672 -0.143769 -0.606605
-0.352078 0.228676 -0.070549 0.339816 -0.593724 -0.72849
-0.062003 -0.86277 0.134395 0.039031 -0.990549 0.116539
0.257845 0.355773 -0.076727 -0.70627 -0.707794 0.000665
-0.119788 0.122879 -0.040354 -0.890694 0.032468 -0.451162
0.106475 -0.704125 -0.092093 -0.447023 0.090316 -0.885329
0.458004 0.262542 -0.0962 0.733682 0.239402 -0.633552
0.0508 0.633907 -0.06603 0.180691 0.254006 -0.944379
0.586083 0.086839 0.058209 -0.277549 -0.50875 0.775068
-0.032327 -0.713579 -0.109827 0.520048 0.205082 -0.828754
0.134601 -0.499755 0.056177 -0.44935 -0.139432 0.880833
-0.080688 -0.056411 0.117434 -0.565469 -0.014379 0.823684
0.615776 0.055912 0.09012 -0.864769 -0.480088 0.114247
-0.078048 -0.854454 -0.125169 -0.63205 -0.488394 -0.599072
0.513232 0.155658 -0.021437 -0.632031 -0.772906 -0.050478
0.126986 -0.869992 -0.073626 0.023489 -0.999615 0.014349
-0.121694 -0.456745 -0.054841 -0.771402 0.13561 -0.621447
0.055115 0.557172 -0.113281 -0.137871 0.455327 -0.878974
0.045126 0.145352 0.130906 0.126117 0.016502 0.991692
-0.013562 0.768854 -0.103155 -0.781527 -0.145689 -0.588562
0.145294 0.013109 0.113114 0.437362 0.141884 0.886262
0.064904 -0.141395 0.079024 -0.64204 0.049847 0.764727
-0.041229 -0.863779 0.038999 0.059397 -0.997482 -0.029528
-0.361107 0.303323 -0.075411 -0.600076 0.570378 -0.552365
0.174386 -0.142521 -0.079019 0.702444 -0.097888 -0.704823
0.090103 0.595163 -0.011171 0.799125 0.288069 0.518648
0.054712 0.859168 0.034864 0.349907 0.753244 0.556371
0.003565 0.076998 0.135884 -0.278559 0.069189 0.94491
-0.023914 0.160831 -0.105907 -0.332831 -0.104645 -0.926744
0.020482 -0.309435 -0.028071 0.937328 -0.001135 -0.347319
0.002706 0.662848 0.054562 -0.500593 -0.834199 0.180598
0.105507 -0.869832 0.057198 -0.130965 -0.982711 -0.022548
0.46087 0.234229 -0.087931 0.579845 -0.364072 -0.728715
0.111242 0.332596 -0.139216 0.415223 -0.108148 -0.902887
-0.072092 -0.069918 0.121348 -0.351272 -0.045804 0.933096
0.019449 0.663728 0.08691 -0.46598 -0.664775 0.553471
-0.123409 -0.5772 -0.073258 -0.777581 0.043492 -0.626562
-0.31824 0.320155 0.002173 -0.286476 0.263388 0.918403
-0.002772 -0.52018 -0.070606 0.792799 0.061386 -0.606235
0.185748 -0.645686 0.015972 0.514627 -0.085578 0.851861
0.009211 -0.773476 -0.026943 0.833714 -0.055193 0.546721
0.017874 0.622469 0.025672 -0.444378 -0.2039 0.861512
0.066264 0.648539 -0.055353 0.545777 0.163732 -0.821058
0.391946 0.324871 -0.060778 0.481473 0.636674 0.598978
-0.06259 0.37195 0.096397 -0.442598 -0.03321 0.895147
0.396617 0.284284 -0.128823 0.082919 0.004006 -0.991053
0.126463 -0.041608 0.117408 0.391079 -0.069777 0.91759
0.071336 0.059217 0.131191 0.190772 0.106219 0.970753
-0.526307 0.088939 0.026352 0.214491 -0.132127 -0.879401
-0.237519 0.456416 -0.031525 -0.836687 0.544867 -0.044314
-0.089552 -0.712047 -0.108329 -0.623849 0.181906 -0.759318
0.108146 -0.142349 0.108037 -0.521463 -0.145734 0.839894
0.023908 0.689517 0.089246 -0.277616 0.003746 0.956612
-0.007371 0.053271 0.135461 -0.289095 0.109563 0.949724
-0.042476 -0.304536 -0.090445 0.141093 -0.088228 -0.98107
0.501108 0.164726 -0.025417 -0.592547 -0.803578 -0.051217
0.03824 -0.211399 -0.031386 0.431143 0.258904 -0.71787
0.04423 -0.533546 -0.030732 -0.995262 -0.011927 -0.082385
0.153681 0.155074 -0.081672 0.737831 0.049539 -0.672886
-0.07036 -0.588253 0.050026 0.425424 -0.220428 0.877617
0.088072 0.310628 -0.142812 0.015538 -0.089302 -0.993963
0.018648 -0.206047 0.07701 0.95275 -0.031032 0.301368
-0.249681 0.324835 -0.083664 0.59125 -0.49427 -0.636635
0.19889 0.008691 -0.041823 0.955152 0.029937 -0.292598
-0.090627 -0.858225 -0.033471 -0.596337 -0.794897 -0.064427
0.553862 0.129343 0.046135 -0.569592 -0.024543 0.809701
0.104934 -0.516933 0.036052 -0.547772 0.014641 0.833925
0.074785 -0.496002 -0.080985 -0.698033 -0.012331 -0.715877
0.313241 0.339631 -0.133073 -0.320111 -0.340776 -0.882977
0.171697 -0.304598 -0.060214 0.702295 -0.059115 -0.709392
0.185516 -0.304436 -0.045192 0.759642 -0.072094 -0.64626
-0.128613 -0.633816 -0.061277 -0.99443 -0.024864 -0.09618
0.086949 0.402551 -0.145073 -0.119058 0.024579 -0.992321
0.18807 -0.168761 0.080367 0.759925 -0.045102 0.641614
-0.071799 -0.379028 -0.081849 -0.303749 -0.090556 -0.947135
-0.158886 0.428241 0.037766 -0.362566 -0.477147 0.795688
0.187092 -0.103027 -0.069042 0.812597 -0.053892 -0.580096
-0.083819 -0.369047 0.099777 0.050485 -0.209933 0.974562
-0.080646 -0.403568 0.091665 0.10843 -0.210888 0.969879
-0.109198 -0.11109 -0.069207 -0.754405 -0.099019 -0.64884
0.156995 -0.8229 0.044632 0.868021 0.426177 0.191883
-0.128147 -0.3393 -0.00417 -0.999251 0.007196 -0.029696
0.209257 0.46232 0.021863 0.509826 0.027054 0.856774
0.447838 0.201347 -0.086877 0.679757 -0.560856 -0.289536
-0.084484 -0.672532 0.033075 0.167328 -0.352658 0.915656
-0.142134 0.016221 0.015445 -0.990548 -0.115877 -0.015321
0.564662 0.125064 -0.012057 0.553997 0.187518 -0.809468
-0.019196 0.683747 0.002898 -0.958511 -0.252449 0.008585
0.086869 0.714224 -0.061253 0.738157 -0.521793 -0.418503
-0.010232 0.167368 0.127344 -0.3227 -0.012293 0.940195
0.618117 0.08283 0.078726 0.873816 0.469491 0.113525
0.037994 0.761074 0.091093 0.32784 0.364044 0.822622
-0.137309 -0.449725 0.008427 -0.983628 -0.029502 0.175942
0.114591 -0.374102 -0.10158 0.029009 0.04745 -0.993513
-0.12842 -0.29338 -0.003518 -0.996922 -0.016818 -0.069349
0.072342 0.321562 -0.141631 -0.302326 -0.061302 -0.94739
0.000464 -0.682483 -0.077858 0.488372 0.216791 -0.845074
-0.128254 0.170986 0.011905 -0.994913 -0.024579 0.081321
0.103433 -0.860441 -0.009411 -0.565202 -0.81245 -0.066739
-0.129226 -0.161846 0.077134 -0.873242 0.018912 0.48674
0.128683 -0.603031 0.035123 -0.196176 -0.028122 0.975648
0.160912 0.234883 0.060623 0.747673 0.055419 0.661269
-0.020633 -0.360118 0.087088 0.415707 -0.15045 0.894223
0.156239 0.395817 0.066027 0.70853 0.013285 0.705525
0.180726 0.285719 0.020917 0.962122 -0.021484 0.267897
-0.056606 0.167017 -0.093917 -0.398297 0.032919 -0.908537
-0.324734 0.233565 -0.004051 0.567657 -0.693499 0.420469
0.020618 -0.580889 -0.000462 0.799813 0.062589 0.594591
0.202722 0.048651 -0.020619 0.964241 0.119815 -0.224739
-0.025796 0.300991 -0.130882 -0.108573 0.036856 -0.99229
0.187511 -0.048649 -0.073238 0.827981 -0.068343 -0.55649
0.031562 -0.089787 0.107612 0.25131 -0.411289 0.8733
-0.187635 0.352415 -0.037457 0.608478 -0.788817 -0.06087
0.242958 0.375901 -0.05115 -0.584458 -0.71626 0.380907
0.012323 -0.311546 0.070999 0.784017 -0.163851 0.598629
-0.138779 0.407619 -0.070277 0.236083 -0.680043 -0.634146
0.17725 -0.094218 0.090061 0.682703 0.030161 0.729935
0.163532 0.291925 0.054113 0.692728 -0.026216 0.720556
-0.087602 0.121069 0.081595 -0.643786 0.109913 0.751629
0.118331 -0.348707 -0.09937 0.27837 0.063951 -0.956539
0.004229 -0.666754 -0.071596 0.535166 0.192861 -0.822
-0.120487 -0.508428 -0.064641 -0.782401 0.100473 -0.613893
0.612721 0.091072 0.074706 0.734993 0.672519 0.079104
-0.001351 0.457797 -0.128275 0.12586 0.034697 -0.991382
-0.092067 -0.859822 0.135281 -0.441614 -0.848325 0.246191
-0.004403 0.110868 0.130471 -0.222827 0.204225 0.951256
0.102643 0.527304 -0.129772 0.007374 0.302641 -0.950747
0.120261 0.030797 -0.144651 0.480903 0.101201 -0.870274
-0.135589 -0.058153 -0.035909 -0.945329 -0.008269 -0.319907
0.192465 -0.094195 -0.061441 0.848222 -0.017539 -0.529035
0.093936 0.073021 0.119741 0.342703 0.110993 0.932017
0.105129 0.75426 -0.030003 0.989261 0.076703 -0.086271
0.124683 0.316573 0.091723 0.5519 0.080743 0.829865
-0.092746 -0.075666 -0.09406 -0.65748 -0.236352 -0.715143
0.065677 -0.642641 0.008796 -0.239173 0.379812 0.890493
-0.014148 0.600066 -0.003355 -0.76299 0.293799 0.570825
0.183179 -0.596793 -0.072895 0.700797 -0.058307 -0.710457
0.185567 0.565798 -0.040913 0.319193 0.931489 0.153784
0.197137 -0.731012 -0.016565 0.994081 -0.070043 0.040854
-0.114997 -0.802943 -0.052982 -0.894426 -0.441408 -0.012479
0.104135 -0.048848 -0.143111 0.106938 -0.3346 -0.935274
-0.1388 -0.451414 -0.012895 -0.993229 0.041173 -0.083041
0.054947 0.862901 -0.045792 0.174389 0.96292 -0.20038
0.098963 0.301433 -0.140487 0.14614 -0.104604 -0.983241
0.14043 -0.406358 -0.094815 0.510147 0.069662 -0.856997
0.027035 -0.358629 0.009994 0.997991 -0.045059 0.032381
-0.128082 -0.228033 0.07548 -0.916418 -0.066631 0.392477
-0.270781 0.410946 -0.015426 -0.729358 0.647648 0.217741
0.083133 0.07263 -0.15089 0.159571 0.248317 -0.95035
0.135119 -0.866318 0.148742 0.02311 -0.985387 0.167015
-0.014895 -0.236672 0.105619 0.372736 -0.18877 0.907919
-0.124082 -0.586834 -0.072984 -0.779756 0.038861 -0.62414
0.161391 -0.265809 -0.074743 0.521297 -0.177099 -0.834306
0.020193 -0.707726 -0.026809 0.909149 -0.128524 0.393489
0.098069 -0.546926 -0.097516 -0.565237 -0.102064 -0.817946
0.17652 -0.625542 -0.075638 0.605902 -0.139967 -0.782736
0.077607 0.700366 0.068142 0.746817 -0.067468 0.659918
0.112282 -0.169473 -0.108572 0.006935 -0.177465 -0.980596
0.162034 -0.854778 0.15776 0.866242 0.179744 0.342381
0.002145 0.029446 0.138855 -0.136224 0.151811 0.978373
-0.00593 0.532614 0.054608 0.03154 0.546018 0.834295
0.049172 -0.272716 0.047008 -0.85201 -0.088551 0.515617
0.081722 0.580841 0.003876 0.600378 0.288661 0.737209
-0.270171 0.368225 0.013942 -0.578837 0.057118 0.810511
-0.029315 -0.84939 -0.034105 0.582333 -0.810295 -0.031994
0.20033 -0.593452 -0.036599 0.993966 -0.053182 -0.092775
-0.376738 0.240537 0.010675 0.053109 0.054783 0.997023
0.173638 -0.316618 -0.057773 0.728537 -0.016063 -0.684575
-0.078709 0.084511 0.095868 -0.535752 0.210604 0.810391
-0.01312 -0.555777 -0.083123 0.678056 -0.045039 -0.731699
0.12399 -0.642435 0.034962 0.215339 -0.088299 0.968491
-0.162682 0.543356 -0.030695 -0.619773 0.765098 -0.16921
-0.07893 -0.260108 -0.083386 -0.581174 -0.034899 -0.812964
-0.29804 0.368145 -0.042055 -0.739927 0.668758 -0.010611
0.079113 -0.749013 0.024069 0.074226 -0.378018 0.917819
-0.037521 0.772707 -0.007739 -0.986049 0.07837 0.143107
0.01031 0.538144 0.046409 0.19249 0.747685 0.631801
-0.056746 0.444588 -0.130477 -0.122259 -0.09356 -0.987858
0.313589 0.349639 -0.037344 -0.022661 -0.265519 0.962348
0.097232 -0.559185 -0.095191 -0.599929 -0.125544 -0.788551
-0.434746 0.231416 -0.02475 -0.738302 0.674065 -4e-05
-0.067938 -0.669256 -0.109271 -0.068168 0.100333 -0.989636
0.21207 0.43659 0.019015 0.574328 -0.288938 0.75737
0.060719 -0.548486 -0.061248 -0.779632 -0.049143 -0.624184
0.264649 0.350828 -0.05797 -0.686924 -0.692144 0.20696
0.349536 0.381051 -0.106467 0.847094 0.504752 0.004792
0.106388 0.752021 -0.008401 0.95697 0.226185 0.168483
-0.111077 0.535775 0.038086 -0.035742 0.647013 0.760796
-0.173364 0.534346 -0.030011 -0.627063 0.766827 -0.13255
-0.327447 0.233311 -0.058761 0.361449 -0.825883 -0.422456
0.131801 0.121274 -0.110858 0.517145 0.27188 -0.808761
0.543984 0.179128 0.012417 0.778975 0.586639 0.20778
0.160879 -0.831665 0.04013 0.92885 0.358277 0.042494
-0.068629 0.457936 -0.129198 -0.170512 -0.00246 -0.984964
0.090718 -0.169137 -0.105093 -0.266881 -0.228759 -0.935126
-0.013657 -0.614421 0.022549 0.185352 -0.142332 0.966081
0.184093 -0.77126 -0.042963 0.943456 0.147696 -0.272496
-0.103718 -0.747676 -0.097568 -0.908292 0.045332 -0.386026
0.098108 0.775795 0.018767 0.960394 0.058401 0.269368
0.072447 -0.407255 0.030178 -0.698628 -0.328385 0.635547
0.104704 0.729325 -0.012662 0.690799 -0.581231 0.309631
-0.112314 0.0469 0.088889 -0.769355 0.090647 0.606957
-0.047077 -0.006579 0.137984 -0.334975 -0.054144 0.915299
0.001869 -0.233792 0.096974 0.566056 -0.134042 0.812844
0.197567 -0.46834 -0.051964 0.949592 0.036824 -0.292634
-0.063203 -0.799862 0.05312 -0.175243 0.821198 0.530506
-0.03403 0.159494 0.116659 -0.510136 0.05005 0.858395
0.162019 -0.17536 -0.086479 0.616313 -0.045448 -0.786171
-0.059875 0.045344 0.115827 -0.39262 0.214763 0.890352
0.007916 -0.412376 -0.048564 0.773494 -0.005897 -0.632936
-0.006296 -0.346847 0.08085 0.623977 -0.05558 0.774906
-0.111911 0.10953 -0.057662 -0.892043 0.094287 -0.441352
-0.233192 0.317159 -0.039095 0.733919 -0.679136 -0.000893
0.168575 -0.10943 0.098463 0.650749 0.035907 0.758325
0.089189 0.192241 -0.118931 0.197133 -0.329391 -0.921072
-0.288332 0.365676 -0.003007 -0.726027 0.416125 0.545884
0.043647 -0.444181 -0.027516 -0.998456 -0.010906 0.010767
-0.064997 0.403336 -0.123524 -0.319454 -0.129491 -0.938084
-0.005224 -0.28622 0.090083 0.402572 -0.157027 0.901215
-0.062235 0.273208 0.090686 -0.52263 0.035405 0.851771
0.401888 0.286171 -0.041421 0.13267 0.317259 0.938162
-0.071425 -0.284911 0.108053 0.068592 -0.11438 0.990891
0.01774 -0.139291 0.09487 0.773628 -0.215983 0.594822
-0.001424 0.580288 -0.095491 -0.070821 0.56929 -0.817976
0.629084 0.035874 0.078653 -0.862138 -0.479766 0.004097
-0.038534 -0.813782 0.061662 0.376975 0.71198 0.547847
0.159114 0.470954 0.053271 0.600589 0.246275 0.758046
0.202103 0.558668 -0.057044 0.192905 0.976074 -0.059584
-0.135365 -0.138591 -0.024509 -0.916247 -0.103682 -0.38401
-0.099665 -0.826996 0.02381 -0.867244 0.475848 0.12884
-0.174153 0.391234 0.017656 0.298535 -0.581563 0.749859
0.009851 0.479185 0.08186 0.028928 0.446136 0.893547
0.191011 0.381828 0.017313 0.940745 -0.14922 0.299253
0.028168 -0.101082 0.104238 0.416537 -0.411069 0.806788
0.191378 0.012062 0.074838 0.84699 -0.016305 0.512176
0.199681 -0.411619 -0.034143 0.96466 -0.060693 -0.251709
0.169498 0.22646 0.05182 0.754325 0.066152 0.650801
0.180013 0.195682 0.039814 0.925597 0.051149 0.36922
0.04953 -0.424847 -0.050202 -0.795044 -0.035089 -0.604335
0.09163 -0.724429 -0.080101 -0.805752 -0.073484 -0.584539
0.197608 0.113091 0.013974 0.955465 -0.236471 0.159872
0.015705 0.658316 0.055077 -0.279103 -0.953611 0.112156
0.079002 0.272677 -0.138869 -0.116481 -0.068759 -0.990174
0.141198 0.049284 -0.125534 0.636644 0.291456 -0.713516
0.200132 -0.411034 0.014851 0.961743 -0.106916 0.250178
0.052958 -0.695958 -0.017025 -0.977883 -0.103269 -0.165197
-0.030156 0.804373 0.015635 -0.858301 0.204832 0.470374
0.182432 0.227216 0.01123 0.998733 0.013592 0.045834
-0.010142 0.621322 -0.002154 -0.905993 0.060372 0.400531
0.19073 -0.391749 0.047706 0.93289 -0.027111 0.358396
-0.087866 0.321456 0.07232 -0.839396 0.00144 0.525904
-0.118521 -0.012264 -0.074476 -0.838872 0.005136 -0.542822
0.081023 -0.468601 0.017292 -0.643657 0.062402 0.762623
-0.266994 0.38641 0.011531 -0.534844 0.287741 0.791107
0.07048 -0.76502 0.012068 0.352356 0.137792 0.906027
-0.099685 -0.812652 0.001237 -0.969544 0.062939 0.232917
0.18772 0.185609 0.000524 0.93932 0.339544 -0.026842
0.043656 -0.228171 0.040547 -0.979468 -0.039926 0.178873
0.044054 0.869667 -0.023893 0.1217 0.969578 -0.176618
0.061409 0.863144 0.014542 0.345132 0.927768 0.133293
0.18822 0.36221 -0.083956 0.746044 -0.473963 -0.466934
-0.108481 0.516157 0.051376 0.010604 0.473071 0.880828
0.194239 -0.148864 -0.058153 0.753272 -0.031674 -0.656596
-0.007839 0.702006 0.064725 -0.710156 -0.16081 0.682842
-0.04058 -0.095457 -0.110005 0.077884 -0.235504 -0.967694
0.043793 -0.200041 0.048998 -0.962952 -0.04894 0.248466
-0.011477 0.643059 -0.027852 -0.985059 0.068034 -0.124811
-0.052325 -0.717989 0.015771 -0.528171 0.343832 0.774792
0.169822 -0.818603 -0.044462 0.780021 -0.625429 0.00735
-0.127783 0.191018 0.008701 -0.993719 0.093484 0.047841
-0.315405 0.341933 -0.009739 -0.5511 0.574146 0.595041
-0.096666 -0.632639 0.04642 -0.318899 -0.31659 0.876445
-0.100955 0.018108 -0.102046 -0.741328 0.054477 -0.667145
0.045321 -0.032669 0.131881 0.185881 -0.161242 0.967564
0.054787 0.192297 0.128527 0.098585 0.013564 0.994979
0.045041 -0.508219 -0.039971 -0.962606 -0.044539 -0.257344
-0.120749 -0.533795 -0.069553 -0.789591 0.109417 -0.603743
-0.156442 0.404056 0.022784 0.260558 -0.702825 0.659156
-0.125731 0.403776 0.040063 -0.811618 -0.49575 0.297298
0.004235 -0.493181 -0.058658 0.797361 0.06079 -0.600366
0.139323 -0.844321 -0.110484 0.511518 0.029267 -0.856983
0.060619 0.377284 0.104112 0.129112 0.172178 0.975933
0.206132 0.007018 -0.01441 0.991368 0.027412 -0.122058
-0.077772 -0.264544 0.110702 -0.037958 -0.091028 0.995033
-0.128046 -0.37382 -0.020399 -0.994374 0.015008 -0.097577
0.37042 0.320591 -0.047455 0.296251 0.403919 0.865382
0.020198 0.826216 0.065914 -0.330212 0.525616 0.778671
0.294163 0.469875 -0.040587 0.791505 0.435081 0.422577
0.133419 -0.716889 -0.094761 0.374745 0.113592 -0.916501
0.204286 -0.409171 -0.015951 0.981297 -0.143417 -0.124376
-0.542451 0.094823 0.068063 -0.737022 0.670807 0.077114
0.12096 0.438388 0.080876 0.240709 0.197174 0.948099
0.168885 -0.678222 0.020312 0.393562 -0.265684 0.878239
-0.027339 0.352999 -0.128666 -0.0361 -0.01085 -0.99919
0.186787 -0.20576 -0.064337 0.626472 -0.087033 -0.774428
-0.063299 0.240299 0.09252 -0.542739 0.081522 0.835254
0.116865 -0.22008 -0.101789 0.015764 -0.081201 -0.995108
0.262919 0.51237 -0.076629 0.676506 0.696313 -0.231804
-0.098989 0.548335 0.025879 -0.016443 0.753836 0.65634
-0.039995 -0.371988 -0.082963 0.335795 -0.177811 -0.923992
0.043916 0.752664 -0.117418 0.355801 -0.336708 -0.865786
-0.094007 -0.385011 0.096067 -0.07248 -0.183869 0.979104
0.10026 0.555253 -0.118643 0.112314 0.546364 -0.82873
0.033872 0.864128 0.023692 -0.048134 0.98573 0.15292
0.027239 -0.201525 0.047477 0.974028 0.001996 0.225755
0.528795 0.158537 0.025445 -0.523287 0.063701 0.845131
0.110136 0.382506 0.092217 0.351619 0.098896 0.930592
0.055707 -0.1924 -0.076897 -0.746109 -0.22091 -0.62749
-0.118676 -0.694428 -0.004879 -0.90304 -0.313322 0.25299
0.086585 0.142055 0.120873 0.338429 0.06105 0.938421
0.192132 -0.356635 -0.044642 0.690038 0.267726 -0.667351
0.002906 -0.000441 0.144376 -0.012057 0.232324 0.95894
0.093634 0.708484 0.008902 0.704842 -0.698439 0.065613
0.021465 -0.435909 -0.017086 0.964786 0.127958 -0.223666
-0.109097 -0.654386 0.030527 -0.770796 -0.144705 0.617755
-0.018153 -0.190495 -0.083806 0.580066 -0.007441 -0.814447
-0.00646 -0.012642 -0.140067 -0.135336 -0.220111 -0.965553
-0.026316 0.706289 0.019004 -0.911471 -0.388954 0.118714
0.010559 -0.36103 -0.042132 0.730043 -0.018527 -0.682757
-0.027184 0.490243 0.07484 -0.098416 0.446805 0.888421
0.00066 -0.602654 0.017561 0.549708 0.052458 0.833285
-0.126923 -0.001831 0.074436 -0.84743 -0.242706 0.466623
-0.082565 0.152842 0.084535 -0.663312 -0.00012 0.747928
-0.464627 0.153344 -0.037958 0.239612 -0.583824 -0.74895
-0.064073 -0.143636 0.121786 -0.132713 -0.060398 0.98849
0.004293 -0.45722 -0.054436 0.771568 0.082407 -0.630585
0.296396 0.377488 -0.142388 -0.062395 -0.293492 -0.950879
0.00569 0.449961 0.093924 0.05857 0.353886 0.932705
0.142885 0.078557 -0.115076 0.640798 0.290335 -0.710123
-0.072624 0.0781 -0.113853 -0.573609 0.269501 -0.77256
-0.072767 0.566912 0.003374 -0.119898 0.827052 0.547535
0.0206 -0.61025 -0.045848 0.762964 0.128209 -0.63232
0.153734 -0.280578 0.081159 0.173387 -0.082847 0.980579
-0.126197 -0.127905 -0.044184 -0.659191 -0.058622 -0.716439
0.642438 0.035519 0.053169 0.9823 0.185962 0.018141
0.026064 -0.651682 -0.046074 0.965939 0.054223 -0.2438
-0.002833 0.636652 0.010301 -0.815082 -0.118275 0.561693
-0.028812 -0.853678 -0.074009 0.69995 -0.672489 0.227391
0.09554 0.511142 0.055199 0.230907 0.549311 0.800526
-0.035398 0.729647 -0.011519 -0.924826 -0.210799 0.300518
-0.328491 0.253047 0.00631 0.164998 -0.07383 0.981323
0.00928 -0.449802 -0.046839 0.857385 0.061662 -0.510749
0.121673 0.199262 0.101017 0.557659 0.036561 0.828846
-0.000367 -0.319432 -0.0575 0.73418 -0.06847 -0.675422
0.433961 0.231062 -0.032065 -0.632137 -0.485465 0.589626
0.177574 0.565629 -0.071812 0.286087 0.912501 -0.288684
0.130076 0.336423 0.087199 0.496064 0.033933 0.866818
-0.07392 0.435022 0.085108 -0.535469 0.186763 0.822812
0.053255 -0.545837 -0.051213 -0.865464 -0.043912 -0.488153
0.205003 -0.142307 0.04588 0.931258 -0.133907 0.335147
0.107667 0.10521 -0.131139 0.437576 0.380285 -0.812313
-0.145699 0.393302 -0.01537 0.750259 -0.651602 0.109254
-0.105963 0.567993 -0.02256 -0.303636 0.940551 0.079032
0.115381 -0.870374 -0.091646 0.017745 -0.999551 -0.0173
0.38867 0.241503 -0.053285 -0.64343 -0.675663 0.345842
0.053186 -0.09191 0.095215 0.316251 -0.760326 0.561309
-0.216664 0.463976 -0.061758 -0.6494 0.517431 -0.512204
-0.315127 0.253691 0.00347 0.321289 -0.272567 0.896773
-0.023368 0.196537 0.119808 -0.486962 0.119748 0.864936
-0.015528 -0.740414 -0.109951 0.605802 0.313859 -0.730709
-0.060628 0.131145 -0.10328 -0.381557 0.277379 -0.880658
-0.02475 -0.03054 0.132763 -0.047268 0.149122 0.986112
0.111473 -0.834131 0.16498 -0.52267 0.717378 0.433567
0.139249 -0.031437 0.113221 0.353574 -0.024185 0.935045
0.081195 -0.69362 -0.067933 -0.831609 -0.042412 -0.553386
-0.254625 0.290559 -0.040192 0.74134 -0.668191 0.047569
-0.022767 -0.84324 0.062084 0.97819 0.162716 0.08991
-0.096206 -0.565993 0.056353 -0.735217 -0.054654 0.65916
-0.072752 -0.164963 -0.093528 -0.570411 -0.149257 -0.807065
-0.461615 0.186685 0.017833 -0.321054 0.716587 0.599285
0.17227 -0.245579 0.078937 0.465066 -0.125298 0.875549
-0.126485 -0.560262 -0.000736 -0.925483 -0.129969 0.352435
0.19003 -0.318448 -0.039252 0.771821 -0.00825 -0.635551
-0.501942 0.09458 0.066107 0.691287 -0.65464 0.277621
0.372116 0.348826 -0.119833 0.648487 0.487528 -0.582994
0.176624 -0.694781 0.008412 0.425194 -0.493843 0.757905
-0.000466 0.502727 -0.124155 0.108487 0.096827 -0.988271
-0.361635 0.309861 -0.06258 -0.652359 0.721414 -0.231951
-0.298707 0.278298 0.002268 0.46095 -0.19598 0.859759
0.006102 -0.812207 -0.096119 0.917085 -0.277161 -0.281242
0.093611 0.819421 0.005075 0.806416 0.554003 0.202615
-0.178982 0.485371 0.044695 -0.402535 0.161961 0.899879
0.052655 -0.35209 0.034482 -0.748573 -0.259162 0.60931
-0.084307 -0.682407 0.029032 0.137219 -0.367962 0.914809
0.118314 -0.298915 0.081999 -0.045278 -0.073396 0.99612
-0.144193 -0.081493 0.011774 -0.999838 0.009944 0.005869
-0.122894 -0.224269 0.085893 -0.861304 -0.044678 0.506119
-0.002337 -0.384522 -0.054881 0.605975 0.080985 -0.791022
-0.134029 -0.522376 -0.044414 -0.908158 0.030624 -0.395364
0.152425 -0.362833 0.076076 0.178062 -0.08094 0.979825
-0.095299 -0.167605 -0.074522 -0.702261 -0.113303 -0.70235
-0.114415 -0.239812 -0.04054 -0.889688 -0.021627 -0.455781
0.165165 -0.859074 0.013384 0.790479 -0.557873 -0.219041
0.018569 0.761411 0.077193 -0.745513 -0.059942 0.624469
0.04169 -0.370968 -0.03506 -0.924055 -0.061636 -0.36893
0.107448 0.205605 0.108414 0.515913 0.043844 0.854658
0.055062 0.464291 -0.133179 -0.434761 0.148945 -0.887498
-0.112901 0.296058 0.007062 -0.988953 -0.098099 0.109225
0.099602 -0.061181 -0.138858 0.034881 -0.33345 -0.940923
-0.016086 -0.004532 -0.139799 -0.178963 -0.14126 -0.973061
0.055495 -0.271341 0.056489 -0.730403 -0.125126 0.671322
0.195223 -0.297391 0.051066 0.891812 -0.096141 0.441926
0.199819 -0.440201 -0.005026 0.995464 -0.065304 0.05859
0.057764 0.556742 0.024071 0.203677 0.499828 0.840517
0.082655 -0.779738 -0.072769 -0.838871 0.235048 -0.490487
0.632407 0.027239 0.033808 -0.913039 -0.348647 -0.113104
0.021231 -0.731976 -0.0358 0.970619 -0.059892 0.231251
0.201909 -0.066822 -0.039507 0.929276 0.034359 -0.367062
0.274392 0.469484 -0.115592 0.481527 0.627713 -0.611211
0.100181 0.495743 -0.138746 -0.130618 0.293249 -0.94302
0.152196 0.417958 -0.136213 0.248832 -0.224054 -0.941651
-0.126896 0.529208 -0.083508 -0.357518 0.599036 -0.715216
0.020081 -0.183541 0.073372 0.965238 -0.076808 0.246592
-0.112272 0.268393 -0.023686 -0.999559 -0.027085 -0.004064
-0.128205 -0.329662 0.017538 -0.99915 -0.010291 0.033254
0.008768 -0.729835 -0.083461 0.732333 0.108027 -0.671821
0.509453 0.170975 0.018208 -0.010307 0.180556 0.932682
0.003201 0.660854 0.041908 -0.42187 -0.897063 0.069215
0.043299 -0.382215 0.001328 -0.981717 -0.079667 0.168321
-0.312091 0.354824 -0.031119 -0.662822 0.736607 0.13301
0.152081 0.365537 0.068909 0.669388 -0.072325 0.739213
-0.050523 -0.862408 -0.005563 0.104704 -0.991955 -0.056369
-0.013416 0.569268 0.014302 -0.304845 0.600087 0.735726
-0.140849 -0.121022 -0.014316 -0.935595 -0.083222 -0.339784
-0.112418 -0.270858 -0.043795 -0.870748 -0.004392 -0.491098
0.078174 -0.777832 -0.064386 -0.839569 0.202065 -0.504116
-0.055404 0.002484 0.130259 -0.232793 0.367299 0.895494
0.001592 0.160138 0.129475 -0.119108 0.009172 0.992753
-0.102827 -0.813535 -0.010337 -0.952781 -0.117993 0.25005
0.160248 -0.827548 0.023517 0.991846 0.046716 0.072304
-0.114415 -0.452325 0.062087 -0.844603 -0.183396 0.502647
0.001651 -0.657766 0.018178 0.623314 -0.110554 0.773331
0.175967 -0.126597 -0.080001 0.751578 -0.131762 -0.645603
0.000853 0.6871 0.07162 -0.747654 -0.056095 0.6606
0.183141 0.265544 -0.004509 0.999745 -0.008427 -0.010096
0.172245 -0.809819 -0.01124 0.937239 -0.263228 0.176056
0.101254 -0.712611 -0.090492 -0.570536 0.086348 -0.81472
0.027392 -0.598662 -0.024697 0.994474 0.036142 -0.059696
0.304521 0.381613 -0.020949 0.387528 -0.09295 0.913021
-0.023339 0.57436 0.005514 -0.351888 0.646796 0.672869
0.182051 -0.784144 -0.013349 0.92361 -0.360204 0.118293
0.008769 -0.465865 -0.049737 0.821349 0.066438 -0.564749
0.130283 -0.86883 -0.045301 0.012348 -0.997769 0.065132
0.468688 0.261713 -0.049181 0.669134 0.731248 0.125348
-0.570829 0.028771 -0.003031 -0.409352 -0.688613 -0.146925
0.077982 0.589108 -0.090765 0.087737 0.71172 -0.648085
-0.055718 -0.863839 0.027446 0.002268 -0.999835 -0.016413
-0.050621 -0.863964 0.036234 0.008918 -0.999752 -0.017176
0.051503 -0.245375 -0.057963 -0.818017 -0.080255 -0.568551
0.201196 -0.186592 -0.047951 0.867297 0.026694 -0.495701
0.213855 -0.119888 0.017284 0.99288 -0.062204 0.089878
-0.021454 0.372789 -0.129172 -0.012021 -0.023014 -0.999581
-0.506251 0.143109 0.037551 -0.783188 0.621724 0.00578
0.166612 -0.858588 0.147456 0.910436 -0.265788 0.243458
0.11745 -0.510611 -0.107713 -0.191109 0.00329 -0.981132
0.058566 0.753658 0.072053 0.434446 0.140991 0.865627
-0.282466 0.383387 -0.004059 -0.882531 0.148245 0.434754
0.160804 -0.827887 0.009616 0.993261 -0.08465 0.045355
0.109302 -0.734079 0.028479 0.319506 0.14636 0.935138
0.095792 -0.30437 -0.097809 -0.279765 0.012875 -0.955937
-0.548325 0.086569 0.068217 -0.876133 0.474538 0.071696
0.363311 0.363865 -0.114339 0.700094 0.611707 -0.329353
0.162302 0.096536 -0.088195 0.756962 0.257862 -0.598851
0.164879 -0.862549 0.1283 0.314922 -0.942808 0.060554
-0.062489 -0.017844 -0.129315 -0.259031 -0.117997 -0.957764
0.110025 -0.379826 0.066569 -0.418907 -0.203996 0.884315
0.197918 -0.630558 -0.049286 0.958774 -0.031115 -0.255609
-0.10296 -0.826479 -0.069468 -0.963569 -0.185525 -0.14011
-0.040945 0.100367 0.11712 -0.520574 0.162275 0.837565
-0.06075 -0.825518 0.11481 -0.019852 0.990294 0.105657
0.06028 -0.658037 -0.044998 -0.83459 -0.159638 -0.526662
-0.033834 -0.467174 0.06692 0.262333 -0.276344 0.924188
-0.109745 -0.060707 0.096886 -0.705673 0.029429 0.707858
0.101062 0.043113 0.121669 0.348752 0.208601 0.912509
0.183182 0.209777 -0.002505 0.999662 0.01982 -0.00916
-0.518739 0.111537 0.091455 0.020514 0.173048 0.856934
0.083644 0.538082 -0.126846 -0.095745 0.380347 -0.916325
0.075403 -0.5841 0.01561 -0.702677 -0.089873 0.705559
-0.035786 -0.437403 0.075755 0.261016 -0.21579 0.940308
0.247973 0.392491 -0.02435 -0.275865 -0.605557 0.74413
-0.063491 -0.681987 0.022232 0.239718 -0.359928 0.90134
-0.328843 0.280342 -0.092012 -0.081095 -0.231956 -0.968912
0.085656 0.836945 0.015936 0.76144 0.580805 0.280647
0.068387 0.155773 0.127756 0.263787 0.031388 0.960765
0.440289 0.251429 -0.027118 -0.06752 0.460965 0.879519
0.574421 0.071009 -0.004181 -0.869863 -0.4609 -0.127332
0.083837 -0.615194 0.018865 -0.729391 -0.235497 0.639933
0.271321 0.398243 -0.016027 -0.163994 -0.426253 0.889475
-0.137656 -0.479342 0.000252 -0.963658 -0.047791 0.259105
0.075529 0.833037 -0.077747 0.585412 0.636626 -0.501685
0.078774 0.047511 -0.157274 0.133572 0.292193 -0.945472
-0.022626 -0.82183 -0.141376 0.607579 -0.353326 -0.701192
0.071743 -0.697723 -0.051599 -0.841636 -0.148669 -0.51789
0.007468 -0.573246 -0.05857 0.790641 -0.005505 -0.612064
-0.113073 0.345708 0.027913 -0.923031 -0.197828 0.326876
-0.010879 -0.366529 -0.0623 0.714342 -0.093618 -0.693301
-0.102651 0.382725 -0.104864 -0.542286 -0.221899 -0.807837
-0.071076 0.507284 -0.119326 -0.231716 0.352148 -0.906281
0.144318 0.536723 0.017482 0.287355 0.640541 0.710962
-0.05105 0.097282 0.112098 -0.487816 0.15216 0.859107
0.199625 -0.443756 -0.031941 0.997356 0.010965 -0.066294
-0.3178 0.234974 -0.049485 0.607403 -0.773328 -0.165438
0.113877 -0.643823 0.036016 -0.03262 -0.12974 0.986369
0.081959 -0.130068 -0.111613 -0.392841 -0.164603 -0.902887
0.059522 0.522866 0.0529 0.040466 0.530197 0.846083
-0.100455 0.079528 -0.085124 -0.732516 0.205565 -0.648394
-0.038179 -0.858009 -0.056485 0.52589 -0.839464 0.112487
-0.095577 -0.064208 -0.095216 -0.669562 -0.225574 -0.707585
0.015094 -0.775188 -0.080912 0.906545 0.049572 -0.410958
-0.098149 -0.236015 -0.066685 -0.755789 -0.056217 -0.651259
0.068015 -0.794063 -0.048904 -0.925106 0.035605 -0.370492
-0.02377 -0.500522 0.052314 0.441388 -0.258617 0.858932
-0.036352 0.755687 -0.051601 -0.964284 -0.162329 -0.20111
-0.11031 -0.426988 0.075548 -0.725799 -0.236821 0.644944
0.082521 0.298713 -0.141377 -0.094369 -0.108839 -0.985951
-0.054298 -0.116106 -0.105772 -0.073447 -0.157809 -0.984072
0.143455 -0.356881 -0.085245 0.611544 0.079887 -0.786882
0.053307 -0.680965 -0.025201 -0.951135 -0.076868 -0.279925
-0.117825 -0.138415 0.095073 -0.771682 0.079454 0.626378
0.045546 -0.569035 -0.034437 -0.948334 -0.041841 -0.252215
0.122044 -0.294529 -0.096195 0.368161 -0.018702 -0.92637
-0.053369 0.172128 0.103228 -0.507447 0.065257 0.858796
0.417398 0.313378 -0.084657 0.679912 0.731559 0.041512
0.156694 -0.500653 -0.099821 0.473612 -0.002825 -0.880303
-0.06066 0.42194 0.091737 -0.208869 0.222153 0.950951
0.067145 0.37694 -0.141039 -0.400018 -0.005517 -0.914863
0.142861 -0.456452 -0.101676 0.334015 0.138053 -0.932288
-0.1258 -0.034029 -0.060683 -0.91093 -0.034924 -0.410125
-0.068045 -0.534963 -0.101785 -0.129226 0.070622 -0.986632
0.136527 0.022298 -0.135164 0.615726 0.053271 -0.784175
0.214383 -0.109195 0.01345 0.998441 -0.010499 0.049132
-0.050851 -0.084159 0.1263 -0.251048 -0.062104 0.962313
-0.073945 -0.800159 -0.137148 -0.64495 -0.133085 -0.744266
0.203471 -0.03266 -0.035711 0.941813 0.022221 -0.333513
0.111043 -0.827026 0.142839 -0.330301 0.927126 0.089965
0.167 0.04662 -0.100175 0.776523 0.22769 -0.587251
0.082782 0.65 -0.005331 0.978974 -0.056829 0.195392
0.158019 -0.802551 -0.103421 0.670951 0.137519 -0.727222
0.158615 -0.864472 0.07315 0.262601 -0.96078 -0.005358
-0.128615 -0.362483 -0.008979 -0.999282 0.007854 -0.030555
-0.105336 -0.789755 -0.097464 -0.868997 0.040795 -0.491889
-0.515116 0.123292 0.083722 -0.380425 0.64089 0.534228
0.199896 -0.426683 0.008112 0.981428 -0.105393 0.159193
-0.401081 0.253368 -0.070549 -0.680352 0.120934 -0.714309
-0.001697 0.019745 -0.148719 -0.183692 -0.431189 -0.876213
0.082312 0.128247 0.123405 0.409234 0.050325 0.908474
-0.134285 0.047214 -0.019193 -0.975064 0.119451 -0.182023
0.011497 0.056591 -0.146321 -0.179671 0.246214 -0.951819
0.058136 -0.107457 0.076238 -0.013799 -0.566437 0.699581
0.099926 -0.780711 -0.09755 -0.646838 0.411107 -0.636941
0.109837 -0.529372 -0.104886 -0.344292 -0.020763 -0.937935
-0.065943 -0.82818 0.13278 -0.071389 0.983855 0.146606
-0.125115 0.459917 -0.108136 -0.491062 0.093795 -0.865783
0.409425 0.319206 -0.07487 0.649137 0.724805 0.207001
0.109248 -0.816479 0.074672 -0.18919 0.896222 0.394937
0.082746 0.764849 0.056356 0.664841 -0.054267 0.741421
0.196581 -0.213422 0.051805 0.939993 -0.009471 0.339933
0.065142 -0.415798 0.017761 -0.68343 -0.336971 0.647042
-0.285959 0.271073 -0.01304 0.693934 -0.521868 0.477227
0.37635 0.327605 -0.053023 0.388415 0.483607 0.781858
0.041111 0.598831 -0.086326 -0.001174 0.617316 -0.786369
0.119171 -0.556656 0.041755 -0.31015 -0.089307 0.94573
0.190017 0.329149 -0.041687 0.971983 -0.176432 -0.136479
0.423138 0.211839 -0.102999 -0.630933 -0.635819 -0.413028
-0.239937 0.404509 0.02301 -0.480798 0.09626 0.86978
0.236379 0.478559 0.006083 0.585348 -0.029823 0.807498
-0.34323 0.266839 0.006253 0.015736 0.179261 0.983563
0.185571 0.302377 0.003123 0.976883 -0.119651 0.173896
0.197639 -0.273177 -0.035757 0.880086 -0.155662 -0.446375
0.008014 0.206002 0.129019 -0.074472 0.066142 0.994979
0.023669 -0.161087 0.072005 0.868247 -0.238652 0.434394
0.325411 0.438176 -0.102214 0.614285 0.699179 -0.363673
0.045967 -0.334758 -0.048128 -0.861 -0.055679 -0.505455
0.141306 -0.089048 0.112314 0.259136 -0.028205 0.9633
0.186499 0.357973 0.017263 0.90498 -0.149379 0.397522
-0.241329 0.374255 0.019774 -0.023914 -0.16646 0.984794
0.035837 0.458048 -0.127757 -0.135373 0.042473 -0.989425
0.164895 -0.094209 0.100684 0.615971 0.036228 0.786853
0.075577 -0.099586 0.089606 -0.581888 -0.360897 0.676273
-0.036255 0.18554 -0.108309 -0.394793 -0.278147 -0.874597
0.109587 0.003325 -0.150781 0.379039 0.070328 -0.92155
-0.022496 -0.547513 0.039545 0.479725 -0.228616 0.846086
0.206082 -0.183979 -0.033559 0.982646 -0.004847 -0.174172
0.166201 -0.440759 -0.085276 0.656125 0.182819 -0.732065
0.398957 0.327554 -0.072424 0.578885 0.731345 0.354349
0.634662 0.053334 0.076044 0.920041 0.379845 0.091634
0.007217 -0.171681 0.101455 0.645796 -0.130727 0.748345
0.431262 0.211892 -0.04918 -0.534363 -0.741962 0.39389
-0.062755 0.226931 -0.106117 -0.617139 -0.266598 -0.740296
0.119666 -0.869486 0.041222 -0.009846 -0.999436 -0.031202
-0.100648 -0.21593 -0.065169 -0.7626 -0.039639 -0.645332
-0.422561 0.200095 0.01815 -0.117309 0.278184 0.952449
0.098725 -0.137404 -0.115173 -0.151293 -0.247013 -0.953195
-0.057507 0.062966 -0.127452 -0.366863 0.23724 -0.896777
0.108022 0.086477 -0.137483 0.457388 0.261092 -0.848716
-0.046545 -0.298179 0.102749 0.258437 -0.155609 0.952571
-0.040064 -0.189343 0.120925 0.107262 -0.122268 0.986522
-0.07436 -0.306343 0.106151 0.064656 -0.073447 0.995049
0.197032 -0.403483 -0.043866 0.924181 -0.038703 -0.376184
0.086498 -0.318724 0.071963 -0.375727 -0.1253 0.918124
0.170427 0.566395 -0.028863 0.230104 0.91597 0.294683
0.172653 0.026087 0.093162 0.626244 0.15184 0.763334
0.117801 -0.692367 -0.094897 -0.112137 0.061247 -0.990813
0.145616 -0.747177 0.028766 0.24627 0.78287 0.569065
-0.048675 0.523934 -0.115894 -0.198389 0.439112 -0.875264
0.640311 0.023019 0.07699 0.091638 -0.986991 0.0821
0.167489 0.507835 0.031965 0.489165 0.439478 0.74854
0.072973 -0.626723 -0.066473 -0.660213 -0.098563 -0.744535
-0.049736 -0.678743 0.020955 0.080472 -0.285075 0.953188
-0.144047 -0.068234 0.013736 -0.999664 0.01908 0.011915
-0.335595 0.233041 0.0029 0.376383 -0.419907 0.819743
0.084119 0.637848 -0.016529 0.980827 0.005288 0.170091
0.113134 -0.868336 -0.039942 -0.048494 -0.992296 0.110421
0.486168 0.177183 -0.041006 -0.465524 -0.841063 -0.198807
0.187959 -0.625408 -0.065826 0.71691 -0.093781 -0.689921
-0.127941 -0.613609 -0.065991 -0.963014 0.007045 -0.242443
-0.100683 -0.529822 0.053226 -0.85004 -0.024612 0.525362
0.349053 0.376219 -0.077132 0.676021 0.679886 0.282712
-0.093144 0.433511 -0.120155 -0.24939 -0.152624 -0.95621
-0.117191 0.477856 0.061236 -0.033288 0.042061 0.998233
-0.128602 0.135412 -0.002441 -0.998263 0.045994 -0.017051
-0.095367 0.542102 0.032653 -0.020845 0.712329 0.7009
-0.012356 0.79026 -0.105555 -0.641139 0.103254 -0.754861
-0.109884 0.565098 -0.003127 -0.133751 0.935043 0.293647
0.178962 0.566806 -0.050554 0.273864 0.952231 0.028622
0.047354 -0.105241 -0.10195 -0.462778 -0.490122 -0.73852
