0.02184 -0.23598 0.061401 0.942953 -0.005392 0.330627
-0.031368 0.745997 0.013282 -0.942777 -0.173365 0.281877
-0.028143 0.843772 -0.026097 -0.633015 0.767413 -0.096682
-0.014889 -0.708564 0.022129 0.631171 -0.212265 0.744302
-0.036199 -0.237529 0.111411 0.122732 -0.191924 0.973621
-0.095681 -0.440251 -0.076577 -0.569023 0.249438 -0.782495
0.171474 -0.294767 -0.061635 0.675936 -0.108298 -0.72875
-0.314366 0.347761 -0.064163 -0.631203 0.704214 -0.323925
0.205541 -0.362583 -0.013292 0.995831 0.019399 -0.070853
0.104643 -0.868131 0.129265 -0.137054 -0.976731 0.138806
0.09421 -0.70888 0.035894 0.160747 -0.029435 0.985446
-0.143505 -0.158016 0.017844 -0.997103 -0.064535 0.017234
0.078559 -0.005079 0.136167 0.214188 -0.266171 0.932814
-0.01181 0.354151 0.110022 -0.374593 0.168602 0.905184
0.05954 0.643307 -0.060542 0.52677 0.173451 -0.825487
0.075511 0.672374 0.036488 0.803452 -0.573671 0.13735
0.179758 -0.770954 -0.053721 0.769976 0.538651 -0.337642
0.146487 -0.419788 0.071825 -0.218235 -0.098563 0.969964
-0.080097 -0.668356 -0.106999 -0.236044 0.029478 -0.969241
0.195458 -0.718416 -0.008378 0.965608 0.007835 0.25759
0.212163 0.447217 0.019951 0.485437 -0.025242 0.86749
-0.108501 -0.482505 -0.074349 -0.688946 0.114719 -0.715615
0.19465 0.431001 -0.130659 0.216317 -0.329145 -0.917853
0.05211 0.250443 -0.129476 -0.289056 -0.070131 -0.954136
-0.303876 0.249508 -0.067887 0.387064 -0.842036 -0.36816
-0.028196 -0.85488 -0.122862 0.699959 -0.442849 -0.472361
-0.110234 -0.670782 0.024007 -0.770591 -0.243084 0.582489
-0.047977 0.306512 0.098284 -0.404582 0.023934 0.913336
0.015519 -0.38263 -0.036988 0.823506 0.020009 -0.566571
-0.359303 0.275581 -0.087573 -0.175571 0.019798 -0.977083
-0.103716 0.41019 -0.111722 -0.438929 -0.213688 -0.866658
-0.45596 0.204423 -0.007487 -0.796325 0.593185 0.107943
0.089952 -0.850155 -0.092483 -0.970639 0.049159 -0.233071
-0.091223 0.566961 -0.002604 -0.171433 0.906777 0.377524
0.626014 0.041555 0.055647 -0.828182 -0.559497 -0.031779
-0.016763 0.028219 0.135988 -0.209906 0.187955 0.959007
0.079142 -0.281895 -0.088995 -0.552852 0.039512 -0.832084
0.093894 -0.779964 0.039058 -0.152368 0.859918 0.487078
0.186412 -0.767125 -0.032284 0.943847 -0.078205 -0.281234
0.094831 -0.74088 0.030148 -0.000131 -0.449316 0.889504
-0.075315 -0.732277 0.013159 -0.42842 0.390836 0.812598
0.197154 -0.49068 -0.055479 0.924778 0.01147 -0.372552
-0.451059 0.17275 0.033353 0.051047 0.722665 0.6892
0.012884 -0.78306 -0.037783 0.878759 -0.280555 0.384017
0.30808 0.315941 -0.106588 -0.6413 -0.691102 -0.307677
0.12099 0.29467 0.096273 0.507053 0.068975 0.856449
0.00842 -0.660421 0.011711 0.726637 -0.16007 0.666125
-0.126512 -0.330979 -0.02055 -0.977381 0.003709 -0.203939
-0.047167 -0.859713 -0.040334 0.203954 -0.978026 0.029588
-0.097803 -0.801458 0.010279 -0.854465 -0.132458 0.464736
-0.121189 -0.363661 0.071696 -0.957037 -0.018797 0.283593
0.314339 0.307735 -0.076782 -0.675413 -0.71849 0.14529
0.118635 -0.271656 0.083909 -0.000337 -0.107499 0.993714
0.012368 -0.228436 0.086707 0.831478 -0.064816 0.550928
0.038208 -0.256167 -0.035961 -0.802995 0.014819 -0.592307
-0.01127 0.456969 0.090878 -0.07299 0.342946 0.9356
-0.552477 0.080768 0.024191 -0.747583 0.644614 -0.108192
-0.000204 0.639201 -0.051524 -0.719661 0.231813 -0.651302
-0.139952 -0.164656 -0.002729 -0.936816 -0.156532 -0.311614
0.282984 0.38451 -0.019062 -0.231371 -0.212723 0.938066
-0.007645 -0.615066 -0.075117 0.681481 0.015601 -0.73161
-0.023267 0.211673 0.116546 -0.512554 0.177883 0.839551
-0.007258 0.597004 0.0063 -0.695653 0.209803 0.684062
-0.0251 -0.391574 0.082539 0.341917 -0.223116 0.912455
0.193329 0.068252 -0.047598 0.915286 0.124026 -0.38283
0.373468 0.325023 -0.130176 0.390263 0.190709 -0.894261
-0.078555 -0.361347 -0.079929 -0.444812 -0.019547 -0.895322
0.150502 -0.307087 -0.077865 0.606292 0.01618 -0.795006
-0.201973 0.403005 -0.096861 -0.085328 0.065853 -0.992388
0.027957 -0.095479 -0.089014 -0.732805 -0.460457 -0.49841
0.205549 -0.32805 0.013278 0.993125 -0.014639 0.104464
0.103099 0.35897 -0.144738 0.154649 -0.05768 -0.98389
0.046134 -0.351032 0.025414 -0.891148 -0.175335 0.406481
-0.127041 0.515067 -0.093441 -0.372212 0.452391 -0.810245
0.185512 -0.769438 -0.002064 0.920112 -0.308431 0.228843
0.194222 -0.423052 0.033192 0.959124 -0.064018 0.275578
0.386111 0.255688 -0.118468 -0.517158 -0.520907 -0.672584
0.30685 0.314796 -0.07723 -0.691508 -0.712386 0.101642
0.080668 -0.608782 -0.074562 -0.677346 -0.053734 -0.733625
0.017806 0.724514 0.08884 -0.800357 0.080997 0.58572
0.192334 -0.16115 -0.059755 0.720539 -0.021482 -0.69227
0.540365 0.17836 0.022908 0.178859 0.594253 0.723664
0.170724 0.083746 0.07785 0.714835 0.213081 0.665971
-0.102196 -0.501056 0.05617 -0.798362 -0.249586 0.547797
0.060917 -0.749682 -0.016001 -0.976767 0.019187 -0.205095
-0.132342 -0.01619 0.058525 -0.898961 0.118413 0.42159
0.016791 -0.252569 0.076682 0.879402 -0.078083 0.457885
-0.127483 0.012881 0.073414 -0.840524 0.233555 0.481305
0.204992 -0.059674 -0.031537 0.948481 0.021831 -0.315321
0.051434 0.231567 -0.127901 -0.181588 -0.13249 -0.973185
-0.485552 0.124429 -0.001077 0.194122 -0.781451 -0.591205
-0.036117 0.81605 -0.062052 -0.953593 0.059428 -0.263929
-0.105701 0.549739 -0.075071 -0.442977 0.680288 -0.582868
0.12477 0.096436 -0.123837 0.596259 0.287603 -0.748751
-0.189697 0.383574 -0.092994 0.319967 -0.409301 -0.852171
0.199159 -0.589569 -0.046856 0.985032 -0.017283 -0.171398
0.103721 0.483363 0.068063 0.225755 0.471476 0.851158
0.319092 0.360275 -0.139226 -0.039367 -0.219616 -0.973417
0.189983 0.150161 0.033537 0.871335 0.157256 0.463732
-0.006748 0.018968 0.139387 -0.175597 0.164553 0.970437
0.038456 0.549751 0.030704 0.062568 0.548297 0.830666
0.198179 0.07008 0.03493 0.952187 0.232672 0.187377
0.383562 0.279621 -0.128114 -0.123433 -0.218757 -0.964271
0.022182 0.649429 -0.062984 -0.360809 -0.026197 -0.928202
-0.021122 -0.489311 -0.086459 0.657415 0.09255 -0.745766
-0.121148 0.353853 -0.025749 -0.990098 -0.128385 0.014721
-0.137806 -0.428192 -0.002269 -0.995559 0.063031 -0.017559
-0.1256 -0.665208 -0.073805 -0.909857 -0.013929 -0.403139
-0.487866 0.132463 -0.015023 0.259961 -0.845954 -0.463634
0.007155 -0.555985 0.014002 0.685176 -0.144327 0.712752
-0.039217 -0.064371 -0.119963 -0.056712 -0.321851 -0.944699
-0.079365 -0.863637 0.077979 -0.051301 -0.998623 0.002045
-0.107529 -0.21855 -0.054363 -0.850922 -0.03938 -0.523795
0.205265 -0.294826 0.020148 0.991138 -0.01287 0.116307
-0.043083 -0.860496 -0.013146 0.281458 -0.949352 -0.114401
0.151925 -0.08171 0.107591 0.68642 0.03938 0.677733
-0.131973 0.065927 -0.001944 -0.887657 0.444513 -0.019037
-0.068174 -0.782273 -0.136766 -0.430313 0.355903 -0.826729
-0.10038 -0.574056 -0.092629 -0.523389 0.041246 -0.851077
-0.132495 -0.528182 -0.00424 -0.880023 -0.19914 0.430971
-0.089301 0.050814 0.101328 -0.463654 0.179164 0.866388
-0.144396 -0.112125 0.015767 -0.999906 -0.00056 0.012094
-0.109925 0.280246 0.020307 -0.978569 -0.010173 0.201764
-0.003732 -0.471318 -0.06603 0.754521 0.103117 -0.647247
0.159954 0.220728 -0.070865 0.791276 -0.044356 -0.609406
-0.128095 -0.208258 -0.018472 -0.907679 -0.100161 -0.406732
0.178711 0.239056 0.035192 0.926609 0.005067 0.373441
-0.112064 0.264767 -0.033194 -0.999638 -0.019293 -0.014969
-0.08815 -0.787609 0.019399 -0.634174 0.551463 0.505639
0.195378 -0.011818 -0.056688 0.879557 0.071191 -0.469982
-0.089472 0.209579 -0.069869 -0.783559 -0.067003 -0.615631
0.108346 -0.799223 -0.114428 -0.44096 0.300727 -0.837615
-0.022503 0.847784 -0.00752 -0.614367 0.786219 0.050549
0.274509 0.344961 -0.102197 -0.628959 -0.685758 -0.363287
-0.11847 -0.628241 0.017195 -0.915602 0.021181 0.398199
0.062878 0.839271 0.046761 0.581629 0.487165 0.650955
0.137507 0.175632 0.09172 0.680657 0.020111 0.732237
-0.12434 -0.262753 -0.023763 -0.853654 0.035652 -0.51935
0.104533 0.291327 0.10395 0.303712 0.080586 0.946794
-0.109112 -0.529347 0.040292 -0.832047 -0.049272 0.552402
-0.136925 -0.419414 -0.006856 -0.987896 0.081354 -0.125016
0.182916 0.247543 0.004126 0.999759 -0.012131 0.015891
0.161661 0.283654 -0.076917 0.868282 -0.162366 -0.467412
-0.038107 0.589498 -0.071578 -0.339909 0.881934 -0.290908
0.17725 -0.094218 0.090061 0.682703 0.030161 0.729935
0.034532 -0.31567 -0.009577 -0.998679 -0.032973 0.002815
0.006105 0.528141 0.055826 0.097724 0.572599 0.812135
0.17509 0.150423 0.054986 0.749596 0.088845 0.655784
0.437698 0.201197 -0.089517 -0.449096 -0.880301 -0.015118
-0.315306 0.240024 -0.060148 0.425723 -0.834058 -0.335051
0.121424 -0.567145 -0.105241 -0.18623 -0.134569 -0.970546
0.032141 -0.138628 -0.06286 -0.858515 -0.345056 -0.378786
0.321333 0.42601 -0.049859 0.736212 0.308947 0.596732
0.022209 -0.728711 -0.057409 0.975388 -0.009101 -0.210124
-0.134024 0.032348 -0.031144 -0.955964 0.144218 -0.255204
0.157114 -0.590251 0.039668 0.164105 -0.167709 0.969538
0.060996 -0.290557 0.058807 -0.737112 -0.125636 0.663922
-0.404821 0.206767 -0.061721 -0.207797 -0.297868 -0.929164
0.496223 0.232784 -0.058346 0.669935 0.737607 -0.069728
0.205624 -0.113399 0.04841 0.921916 -0.024591 0.385675
0.145498 -0.844627 0.17881 0.430396 0.48315 0.730824
0.142891 0.330071 -0.116778 0.694551 -0.174295 -0.697879
-0.101864 0.16221 0.066152 -0.748089 -0.032424 0.662221
0.177168 0.385605 -0.111597 0.43238 -0.501361 -0.748586
0.145172 0.265841 -0.102164 0.826093 -0.112889 -0.552031
-0.150402 0.540633 -0.053779 -0.459718 0.765653 -0.448693
-0.049784 -0.863459 0.114323 0.093405 -0.990594 0.070482
-0.076842 0.240402 0.083898 -0.617625 0.055242 0.784425
-0.127646 -0.348265 0.026338 -0.996166 0.0352 0.076631
-0.321111 0.30715 -0.094567 -0.217134 0.167046 -0.957765
-0.083953 -0.222786 -0.081722 -0.592901 -0.011792 -0.804176
-0.090748 -0.533439 -0.094721 -0.458579 0.095984 -0.880171
-0.102984 0.131679 -0.069142 -0.837558 0.115826 -0.533667
-0.011698 0.566443 -0.103066 -0.085434 0.549972 -0.828364
0.194935 0.349846 -0.046852 0.890831 -0.42296 -0.158043
-0.064101 -0.628532 -0.10577 0.066471 0.069069 -0.994339
0.199492 -0.541279 0.000974 0.938568 -0.037279 0.342962
0.547257 0.158537 0.036707 -0.517564 0.213574 0.809001
0.151748 -0.686607 0.023592 0.312359 -0.394352 0.86288
0.159614 -0.383001 -0.07854 0.534716 0.197766 -0.821543
-0.212267 0.344953 -0.072438 0.50224 -0.702697 -0.501462
-0.319367 0.326852 -0.086292 -0.37971 0.490142 -0.784556
0.083767 -0.49617 0.022206 -0.647772 0.049083 0.759921
0.127822 -0.824217 -0.11605 0.239816 -0.071512 -0.955394
-0.125675 -0.693793 -0.03685 -0.938824 0.031647 0.336224
-0.045315 -0.862361 0.004747 0.136035 -0.986971 -0.068217
0.167608 -0.083156 -0.098613 0.771027 -0.107019 -0.627647
-0.021453 -0.839395 -0.083692 0.915231 -0.360667 -0.022731
-0.103604 0.189531 0.065468 -0.769571 -0.045226 0.634338
-0.098337 0.151974 -0.068762 -0.729531 0.177556 -0.65945
0.103337 -0.315817 -0.099883 -0.095239 0.028977 -0.989855
-0.412682 0.1903 -0.055974 0.072527 -0.337871 -0.932566
0.329324 0.313956 -0.125554 -0.393409 -0.540689 -0.741292
-0.569588 0.043089 0.012309 -0.846239 0.529147 -0.046753
0.478453 0.210151 -0.069503 0.230129 -0.524965 -0.813063
-0.394703 0.184223 0.004926 0.632647 -0.747186 0.179656
0.22172 0.545117 -0.025249 0.523876 0.759395 0.378663
0.046377 -0.536567 -0.039889 -0.902495 -0.027424 -0.423306
0.164449 0.212844 0.058262 0.73954 0.065503 0.669724
-0.108675 -0.698182 -0.090487 -0.70201 -0.060138 -0.708925
0.451935 0.246305 -0.100563 0.644945 -0.257342 -0.717663
0.002066 -0.585726 -0.064782 0.743746 -0.000475 -0.668394
0.020425 -0.030537 0.128633 0.094951 -0.17431 0.956621
0.053074 -0.71433 -0.000982 -0.991051 -0.089486 -0.085404
0.067141 0.840601 -0.076236 0.493035 0.671107 -0.552315
0.15639 -0.025457 -0.121756 0.726764 -0.031762 -0.685578
0.026602 -0.341834 0.027281 0.987668 -0.065104 0.135315
-0.289517 0.318833 0.007771 -0.123821 -0.073604 0.98804
-0.048399 0.127786 -0.110299 -0.415722 0.363004 -0.833385
0.022632 0.475802 -0.124761 -0.031816 0.12187 -0.990459
0.13627 -0.581621 0.040665 -0.132807 -0.168654 0.973739
-0.002044 0.375049 0.107556 -0.111162 0.184452 0.975241
0.15869 -0.014693 -0.118866 0.730521 0.052201 -0.680823
0.037616 -0.113559 -0.089512 -0.738744 -0.365959 -0.5581
0.163467 0.559881 -0.09136 0.331123 0.725568 -0.603018
0.315877 0.438604 -0.04867 0.818736 0.32556 0.469479
0.0857 -0.416443 0.040204 -0.650841 -0.357818 0.668848
0.105259 -0.130852 0.107205 -0.601371 -0.051816 0.796392
0.174869 -0.810518 -0.031785 0.931437 -0.353348 0.04644
0.092948 0.289338 -0.140113 0.114194 -0.06987 -0.990974
-0.044155 -0.431485 0.079613 0.236532 -0.226544 0.944018
0.250045 0.526814 -0.065828 0.699791 0.705676 -0.092909
0.044077 0.03113 0.13737 0.066763 0.282073 0.957014
-0.067215 0.178341 -0.090047 -0.501508 -0.072932 -0.859798
-0.119769 -0.341945 0.078116 -0.953035 -0.013212 0.30164
0.273278 0.42423 -0.140814 0.01382 0.106871 -0.994081
0.034194 -0.286474 -0.025478 -0.950807 -0.115555 -0.270654
-0.268919 0.278686 -0.064238 0.730385 -0.587224 -0.339544
-0.397206 0.185957 -0.041537 0.389319 -0.870047 -0.300765
-0.099191 -0.259801 -0.063374 -0.760494 -0.039402 -0.647959
0.00693 0.383505 -0.128265 0.046362 -0.017339 -0.998745
0.398957 0.327554 -0.072424 0.578885 0.731345 0.354349
0.490609 0.172382 -0.019237 -0.650948 -0.757731 0.007871
0.191826 0.347222 -0.056361 0.911981 -0.337265 -0.219727
0.074294 0.665206 0.026948 0.830033 -0.411285 0.366096
0.343679 0.417861 -0.099217 0.743305 0.667701 -0.024757
-0.142382 0.417653 0.038565 -0.411379 -0.799844 0.413292
-0.120445 -0.700152 -0.027146 -0.88387 -0.118587 0.430056
-0.101152 0.175807 -0.060967 -0.751765 0.114864 -0.647056
0.186103 -0.087827 0.081244 0.714637 0.030081 0.698744
0.022934 -0.568144 -0.031972 0.873031 0.155744 -0.459091
-0.014669 0.840657 -0.062526 -0.530548 0.726825 -0.436132
-0.142438 -0.037932 0.020746 -0.980824 0.155637 0.103964
-0.02424 -0.848125 0.073444 0.981106 0.016773 0.148499
0.109248 -0.816479 0.074672 -0.18919 0.896222 0.394937
0.440057 0.289518 -0.058028 0.406079 0.803944 0.415553
0.149636 0.493293 0.047808 0.323206 0.550362 0.768546
-0.223497 0.476273 -0.027036 -0.850436 0.518803 -0.060108
0.041195 0.65407 0.050654 0.134221 -0.871988 0.420998
-0.022125 0.787485 0.038623 -0.888312 0.112189 0.443159
0.046702 -0.546925 -0.014848 -0.825166 -0.010324 0.558601
0.20158 -0.253791 -0.034058 0.929378 -0.120219 -0.347374
0.065291 0.423987 -0.138079 -0.297763 0.0454 -0.953017
0.057341 0.293813 -0.134656 -0.347207 -0.047838 -0.936226
0.197925 -0.325187 -0.027147 0.876557 0.042419 -0.478152
-0.180441 0.45266 -0.089038 -0.228176 0.268298 -0.935653
0.18202 -0.449645 -0.073002 0.729289 0.150999 -0.666491
0.475786 0.183336 -0.034329 -0.569289 -0.819706 -0.041337
0.014626 0.103145 -0.135642 -0.16487 0.280157 -0.944801
-0.112983 0.193807 -0.037051 -0.893895 0.086814 -0.439583
-0.008028 -0.15368 0.115058 0.530754 -0.13429 0.836433
0.000106 0.447705 -0.128353 0.136024 0.006696 -0.990589
-0.099665 -0.826996 0.02381 -0.867244 0.475848 0.12884
0.061808 0.670879 0.082679 0.6772 -0.30662 0.637717
-0.397531 0.250002 0.007528 -0.238922 0.343846 0.905527
0.159983 -0.859514 -0.076464 0.848474 -0.489701 -0.17974
0.19046 -0.445208 0.039911 0.955277 -0.090511 0.279172
0.041116 0.658688 0.072245 0.132877 -0.97552 0.174793
0.180139 0.461344 -0.136932 0.150319 0.000928 -0.988601
-0.141844 -0.07022 0.036397 -0.970127 0.027729 0.234366
-0.060246 -0.567149 0.051266 0.346393 -0.185119 0.9195
0.174448 -0.4463 -0.079497 0.651158 0.181981 -0.736791
0.399033 0.227329 -0.079092 -0.608529 -0.782813 0.120044
0.04396 -0.462744 -0.033901 -0.995281 -0.004254 -0.063816
-0.100312 -0.3932 0.094192 -0.33645 -0.203793 0.909362
0.143029 -0.542183 -0.105242 0.33939 -0.020712 -0.938877
-0.017764 -0.043162 0.132859 -0.026933 -0.213499 0.975637
0.368229 0.350862 -0.067789 0.617669 0.629427 0.467487
-0.063726 0.078798 -0.119663 -0.483084 0.267981 -0.832933
-0.395557 0.200628 0.015895 0.2806 0.078207 0.938296
0.176081 -0.803972 -0.038772 0.961438 -0.266699 0.028729
0.024037 0.839191 0.060829 -0.212563 0.599995 0.769168
-0.1054 -0.83552 0.013217 -0.853755 0.515393 0.030616
0.161448 -0.855453 -0.002757 0.763339 -0.571579 -0.164904
-0.24024 0.309025 -0.038029 0.757635 -0.651647 0.017289
-0.075924 0.220054 -0.090276 -0.754871 -0.236495 -0.610973
0.000421 -0.273377 -0.06432 0.75666 -0.12724 -0.641231
0.207538 0.001923 0.014603 0.983916 0.156856 0.028988
-0.128466 0.393187 -0.052555 -0.970422 -0.163581 -0.010384
0.063593 -0.03808 0.13042 0.033917 -0.176254 0.983305
-0.071347 0.541393 0.034527 -0.098293 0.681143 0.72501
-0.113136 -0.726973 -0.080135 -0.8209 -0.092936 -0.561683
0.350128 0.406666 -0.07951 0.853028 0.376451 0.320947
0.620952 0.04936 0.081417 -0.827718 -0.554565 0.016418
0.188633 -0.641698 -0.062145 0.741131 -0.158453 -0.651924
-0.140166 -0.178825 0.016608 -0.957697 -0.282857 -0.031559
-0.129296 -0.043182 0.071024 -0.847529 0.055313 0.525335
-0.1363 -0.223053 0.034796 -0.999063 -0.034326 0.019861
0.032674 0.462471 0.087449 0.142434 0.348276 0.924511
-0.134342 0.538963 0.032443 -0.174077 0.706118 0.685825
0.209257 0.46232 0.021863 0.509826 0.027054 0.856774
-0.074979 -0.763268 -0.125366 -0.518779 0.188751 -0.829208
0.010206 -0.005998 -0.143732 -0.125268 -0.215953 -0.96807
0.162765 -0.848287 -0.028617 0.927511 -0.364669 0.052884
0.268384 0.507298 -0.043089 0.732341 0.645284 0.201845
0.016706 -0.420067 -0.034061 0.888504 -0.024468 -0.444102
0.261648 0.51564 -0.054184 0.718767 0.695141 0.009401
0.000695 0.794406 -0.112624 -0.367486 0.202627 -0.906088
-0.197847 0.394515 0.025993 0.228862 -0.368011 0.899856
0.11561 -0.757261 0.02175 -0.170835 -0.265878 0.932807
0.027272 -0.346359 -0.002535 0.995894 -0.050246 -0.061063
0.15164 -0.126882 0.106795 0.340023 -0.102924 0.933244
0.416151 0.283536 -0.124918 0.341263 0.21087 -0.915679
0.025412 -0.379704 0.015826 0.980915 -0.08308 0.171706
-0.237797 0.330404 -0.078641 0.51767 -0.604261 -0.604178
-0.09333 0.195916 0.076013 -0.672915 -0.003888 0.739479
0.213244 -0.050861 0.020002 0.991246 0.033149 0.112901
-0.015416 0.450614 -0.130013 0.111944 0.010803 -0.993473
0.029731 0.798013 0.08142 -0.051153 0.230118 0.970248
-0.127789 0.382931 -0.012504 -0.99265 -0.114323 0.034823
-0.013464 -0.31465 -0.071861 0.696532 -0.106276 -0.709589
0.207548 -0.193821 -0.015208 0.998735 -0.033624 -0.034281
-0.320782 0.34707 -0.043843 -0.689305 0.722987 -0.028736
-0.505371 0.141172 0.064322 -0.654138 0.702878 0.25289
0.135102 0.57789 -0.029392 0.341997 0.763059 0.546484
-0.118384 0.050661 -0.06368 -0.848364 0.150604 -0.506223
0.07853 0.201073 0.12124 0.372104 0.045142 0.927039
-0.128931 0.075525 0.012976 -0.985155 0.134136 0.039965
-0.116381 0.108687 0.054056 -0.850721 0.19833 0.48655
0.200688 -0.211201 -0.048559 0.823592 -0.02722 -0.564557
-0.107678 0.517996 -0.100816 -0.368935 0.38867 -0.837659
-0.063424 -0.543386 -0.102396 -0.036076 0.054434 -0.99745
-0.021293 -0.841462 -0.01421 0.940475 -0.327524 -0.010167
0.080914 0.675803 0.024078 0.876816 -0.409509 0.223726
0.205728 0.411316 -0.105129 0.613151 -0.698014 -0.323688
0.172245 -0.809819 -0.01124 0.937239 -0.263228 0.176056
0.161829 -0.330695 -0.069337 0.650824 0.004421 -0.758829
0.205427 -0.320298 -0.004152 0.994208 -0.005354 -0.098772
0.021481 0.770554 0.083913 -0.532336 -0.222966 0.789137
-0.071665 -0.614041 -0.105022 -0.047412 0.065465 -0.995923
0.004522 -0.813839 -0.043138 0.944843 -0.225255 0.224218
-0.099164 -0.500922 -0.085341 -0.539507 0.133696 -0.830296
0.029781 0.506152 0.065761 0.105035 0.499473 0.859768
0.15158 -0.818514 0.053126 0.692857 0.642189 0.297787
-0.083385 0.571138 -0.061983 -0.483843 0.757788 -0.426183
-0.067075 -0.563872 -0.103194 -0.054272 0.031265 -0.997209
-0.137173 -0.443252 -0.019563 -0.973371 0.106078 -0.196295
-0.031031 0.081968 0.121785 -0.242572 0.084395 0.960054
-0.213121 0.406335 -0.095037 -0.143317 0.165345 -0.975466
-0.120487 -0.508428 -0.064641 -0.782401 0.100473 -0.613893
-0.282638 0.355221 0.006003 -0.53813 0.167627 0.82221
0.166711 -0.717501 -0.002701 0.491282 -0.31425 0.802162
0.092877 -0.052923 -0.142126 -0.01448 -0.363915 -0.930668
-0.12803 -0.667559 -0.047616 -0.997768 -0.016026 0.061821
-0.054378 -0.435933 0.080919 0.178625 -0.198756 0.963617
0.128499 0.428917 -0.144781 0.144202 -0.088599 -0.98542
0.202354 0.06086 -0.012799 0.981852 0.147364 -0.109309
-0.205705 0.374557 0.016932 0.116493 -0.531839 0.838687
-0.266994 0.38641 0.011531 -0.534844 0.287741 0.791107
0.322448 0.321158 -0.126759 -0.417165 -0.508842 -0.740898
0.175454 -0.363181 -0.060562 0.680588 0.191479 -0.702249
-0.221219 0.383469 0.023874 -0.01014 -0.538619 0.835418
0.084719 0.601958 -0.005483 0.76595 0.207484 0.603349
0.205068 -0.356551 0.0056 0.987458 -0.050171 0.134833
0.013636 -0.444884 -0.038516 0.83446 0.044707 -0.549186
-0.125746 -0.375357 0.044562 -0.985608 -0.034907 0.162619
-0.115627 0.321257 0.004277 -0.976267 -0.05645 0.208057
0.058725 0.533035 0.047464 0.026476 0.645951 0.759116
0.196036 0.521497 0.012503 0.26395 0.510141 0.816867
0.024836 -0.281809 0.049986 0.948034 -0.022329 0.308092
0.343719 0.371656 -0.132564 0.56826 0.289167 -0.769402
-0.225166 0.461513 0.010287 -0.811654 0.408514 0.416154
0.185188 -0.49388 0.044538 0.861303 -0.114563 0.494355
-0.023267 0.221483 0.114905 -0.422548 0.106862 0.89918
0.121115 -0.860374 0.178851 -0.098175 -0.94996 0.289352
0.039784 0.124647 0.132322 0.081694 0.062899 0.994376
-0.047906 0.337833 -0.125397 -0.317664 -0.016376 -0.947871
-0.101282 -0.572504 0.049338 -0.827831 0.066628 0.555703
0.074431 0.857646 -0.023857 0.667365 0.740057 -0.077086
-0.418508 0.178846 0.027209 0.138001 0.173777 0.919931
0.156239 0.395817 0.066027 0.70853 0.013285 0.705525
-0.035136 -0.861192 -0.0818 0.305117 -0.933631 0.14402
-0.291399 0.379803 -0.045708 -0.957278 0.207067 -0.010096
0.177085 0.315156 -0.063461 0.862457 -0.305471 -0.399687
0.440289 0.251429 -0.027118 -0.06752 0.460965 0.879519
0.104808 -0.284546 -0.09935 -0.084911 0.008954 -0.992125
-0.104245 0.203844 -0.050118 -0.81787 0.072408 -0.567085
-0.137235 -0.000458 0.031912 -0.982248 -0.174194 0.050511
-0.019974 0.608783 -0.049179 -0.728034 0.65515 -0.170969
0.023908 0.689517 0.089246 -0.277616 0.003746 0.956612
-0.012406 0.848785 0.021007 -0.711794 0.557647 0.366719
0.057539 -0.180614 -0.082847 -0.710007 -0.190897 -0.676452
-0.252054 0.417731 -0.074301 -0.530459 0.609347 -0.58619
0.054728 -0.712602 0.021777 -0.95163 0.10305 0.287054
-0.135868 -0.214762 0.009618 -0.991132 -0.060051 -0.112602
-0.012784 0.165251 -0.111708 -0.333631 -0.232734 -0.909783
0.196329 -0.139283 0.065734 0.882821 -0.065273 0.46436
0.106899 0.183601 -0.111548 0.364498 -0.100298 -0.921084
0.635555 0.053351 0.023843 0.894093 0.444159 -0.0496
0.113822 -0.594479 0.033299 -0.229011 -0.157266 0.959236
0.154052 -0.826133 0.075745 0.505983 0.847483 0.148557
0.043944 -0.499602 -0.031981 -0.998167 -0.003307 -0.022715
-0.492336 0.159935 0.027669 -0.753756 0.65479 0.048128
0.63001 0.034697 0.089487 -0.872032 -0.445976 0.048461
-0.09659 0.371755 0.067618 -0.664915 -0.18691 0.723054
-0.06806 0.448509 0.083911 -0.26488 0.280174 0.920085
-0.1355 -0.399402 0.008969 -0.982921 0.169719 0.051501
-0.07759 0.2163 0.086468 -0.572822 0.138552 0.807765
-0.340711 0.296606 2.6e-05 -0.199296 0.272531 0.940798
0.164779 0.349399 -0.102681 0.672061 -0.31149 -0.671069
-0.071896 -0.208452 -0.088915 -0.39117 -0.021733 -0.916608
-0.191159 0.421063 -0.095167 -0.052694 0.179697 -0.981475
0.003565 0.076998 0.135884 -0.278559 0.069189 0.94491
0.09554 0.511142 0.055199 0.230907 0.549311 0.800526
0.090792 -0.862661 -0.053283 -0.720233 -0.628073 0.174477
0.196607 0.420383 -0.125112 0.385566 -0.496743 -0.776132
0.18404 -0.061451 0.080999 0.728117 0.045337 0.683489
0.013458 0.0294 0.139927 -0.020633 0.174666 0.983313
0.21864 0.534678 -0.006895 0.363605 0.674192 0.642305
-0.03564 -0.417598 -0.082516 0.29679 0.251579 -0.919442
-0.07854 0.225676 0.083967 -0.595825 0.118869 0.794187
-0.43343 0.232351 -0.035552 -0.753486 0.638936 -0.13207
0.199594 -0.112056 0.061415 0.894428 -0.023744 0.446523
-0.202631 0.447864 -0.083728 -0.364511 0.42214 -0.828529
0.180047 0.310361 0.02158 0.900995 0.013732 0.427352
0.091134 0.741311 0.044487 0.964979 -0.032197 0.255171
-0.548325 0.086569 0.068217 -0.876133 0.474538 0.071696
0.415935 0.314555 -0.095124 0.692589 0.713004 -0.093355
0.098772 0.792083 -0.066259 0.935744 0.105765 -0.334892
-0.011242 0.122005 0.127171 -0.343827 0.043905 0.931015
-0.112555 -0.849428 0.054479 -0.947085 -0.084707 0.015221
0.017956 -0.196741 -0.047215 0.881653 0.048905 -0.468626
-0.176599 0.399648 0.023129 0.152294 -0.411687 0.895185
-0.129654 -0.523628 0.0042 -0.896421 -0.143948 0.416572
0.241954 0.535198 -0.058418 0.705197 0.708529 -0.018165
0.458923 0.19318 -0.030251 -0.415298 -0.907906 0.037604
0.562896 0.088652 0.022518 -0.775343 -0.629461 0.038199
-0.027553 0.813877 0.015947 -0.805861 0.216198 0.548662
0.036655 0.105015 -0.138634 -0.108076 0.313172 -0.940496
-0.114116 -0.656924 0.022712 -0.856824 -0.130283 0.495921
0.011593 -0.801633 -0.068747 0.975996 -0.19744 0.003175
0.560769 0.100953 0.047261 -0.840453 -0.354669 0.401316
-0.080595 0.369703 0.082925 -0.720695 -0.048105 0.688987
0.544025 0.12692 -0.019371 -0.487447 -0.4107 -0.652083
0.18807 -0.168761 0.080367 0.759925 -0.045102 0.641614
0.157915 -0.030299 0.103213 0.578152 0.017553 0.815149
0.019214 0.865098 -0.0252 -0.256421 0.95897 -0.075623
0.206617 0.484376 -0.132163 0.17156 0.208465 -0.962741
0.160567 0.313348 -0.090959 0.673974 -0.260334 -0.663575
0.101062 0.043113 0.121669 0.348752 0.208601 0.912509
0.167904 -0.7502 0.021691 0.569041 0.374265 0.7238
0.105818 -0.722291 -0.093821 -0.399084 0.060947 -0.914343
0.079891 -0.309257 -0.089751 -0.603046 -0.01241 -0.79736
-0.134379 -0.229413 0.003384 -0.977148 -0.036906 -0.201315
0.423531 0.30709 -0.098093 0.621907 0.750603 -0.211759
0.347075 0.382926 -0.09573 0.900768 0.408874 0.105868
-0.059665 -0.147604 -0.099824 -0.125843 -0.178264 -0.971229
-0.062821 -0.441224 0.081137 0.156171 -0.190891 0.969011
0.139874 0.575292 -0.083271 0.351837 0.801453 -0.480865
-0.201399 0.392861 -0.096903 0.000813 -0.082321 -0.995409
-0.118805 0.381225 0.040763 -0.915344 -0.229769 0.305561
0.195277 -0.079241 -0.056472 0.861047 0.013588 -0.508317
-0.036006 -0.047295 0.130889 -0.108321 -0.140236 0.983809
-0.05252 -0.062795 0.127592 -0.192865 -0.048181 0.979369
0.110354 -0.829571 0.154878 -0.593584 0.74069 0.264793
0.2759 0.364306 -0.029093 -0.339824 -0.541645 0.755048
0.018665 -0.146783 -0.042315 0.907007 -0.119575 -0.401528
-0.030877 0.383463 -0.129129 -0.047559 -0.023607 -0.998563
-0.439803 0.219833 0.001444 -0.647026 0.634498 0.403689
-0.05997 -0.500626 -0.099043 -0.044043 0.084981 -0.993788
0.57221 0.080801 0.049238 -0.746123 -0.624215 0.227241
0.109992 -0.01435 -0.151016 0.289484 -0.078168 -0.951788
0.060061 -0.45707 -0.064189 -0.731309 0.036983 -0.681006
-0.021341 0.694962 0.018574 -0.9555 -0.290559 0.033619
0.080206 -0.506531 0.019952 -0.63287 0.041185 0.773135
-0.098841 0.009111 -0.10486 -0.85095 0.00017 -0.492384
-0.140524 0.546538 -0.054065 -0.504788 0.726094 -0.466403
0.146462 0.109092 -0.101233 0.692514 0.251056 -0.676058
-0.091781 -0.74391 0.010075 -0.604697 0.494231 0.623093
-0.10549 0.260854 0.047228 -0.972921 0.053887 0.221013
-0.135634 0.519669 -0.086289 -0.397764 0.495569 -0.771728
0.018532 0.658842 0.064811 -0.219017 -0.965863 0.12905
0.130302 -0.612085 -0.09946 0.036392 -0.1337 -0.987435
0.11122 -0.742981 -0.096253 -0.404313 -0.062517 -0.907761
0.159467 -0.823805 0.034449 0.967884 0.109377 0.145366
-0.042507 0.135737 -0.109189 -0.323693 0.452389 -0.829904
-0.128526 -0.026529 -0.055144 -0.922801 -0.013641 -0.384009
0.330496 0.295452 -0.069153 -0.649427 -0.650121 0.392056
0.091601 -0.850247 0.0014 -0.805842 -0.562645 -0.066964
-0.02736 0.446686 0.092137 -0.190837 0.30972 0.930756
-0.056491 0.413614 0.095025 -0.25704 0.215836 0.941451
0.143052 -0.400455 0.072982 -0.178314 -0.137991 0.972672
0.178962 0.566806 -0.050554 0.273864 0.952231 0.028622
-0.166251 0.483501 -0.085472 -0.464736 0.282758 -0.838742
-0.537432 0.067444 0.067838 0.396749 -0.905238 0.12006
-0.120633 -0.318329 0.077504 -0.973206 -0.065672 0.219607
0.159662 0.155322 0.070589 0.709172 0.059772 0.702482
0.076637 0.171548 -0.119019 0.136885 0.119042 -0.982369
-0.037733 -0.830675 0.106557 0.66442 0.666919 0.272819
-0.129221 -0.615621 -0.034399 -0.998837 -0.029145 0.03522
0.196955 -0.148852 0.063164 0.892701 -0.094559 0.44045
0.087098 0.815191 0.030914 0.812999 0.330088 0.478933
0.012099 -0.670333 -0.066839 0.581942 0.209547 -0.785297
-0.012411 0.688922 0.05272 -0.801479 -0.302884 0.510329
-0.104077 -0.817951 -0.084397 -0.875719 -0.433253 -0.204132
-0.339121 0.329835 -0.051074 -0.65677 0.752094 -0.047122
-0.11926 -0.60003 0.010474 -0.914961 0.033455 0.400744
0.022587 -0.097334 -0.079216 -0.331714 -0.685686 -0.626227
-0.04065 -0.282788 -0.092079 0.154036 -0.056474 -0.984329
0.126817 -0.000389 -0.143595 0.408332 0.133951 -0.90115
0.047025 0.657662 -0.064655 0.189294 -0.102551 -0.975481
0.104928 0.765732 -0.020407 0.997708 -0.064139 0.018456
-0.001495 0.541044 0.04727 0.163865 0.806024 0.560129
0.1822 -0.3191 -0.048114 0.753644 -0.017893 -0.656956
0.124883 -0.521484 -0.108119 -0.040507 -0.00446 -0.998957
-0.147139 0.508198 0.050712 -0.20928 0.37747 0.901863
-0.061011 0.575396 -0.008698 -0.186439 0.863299 0.464543
-0.029374 0.737713 0.020011 -0.986061 -0.074593 0.146249
0.002681 -0.769233 -0.02062 0.665551 0.025459 0.736437
0.142185 0.431641 -0.142583 0.253718 -0.166488 -0.952602
0.192132 -0.356635 -0.044642 0.690038 0.267726 -0.667351
-0.196386 0.513134 -0.025263 -0.757963 0.64106 -0.116397
-0.159934 0.505253 -0.080772 -0.477225 0.396102 -0.783551
-0.10835 0.543394 0.030847 -0.033867 0.720233 0.69277
0.069905 0.595605 0.012389 0.625856 0.007995 0.779631
0.10373 -0.660549 -0.088127 -0.486184 -0.021258 -0.871934
-0.388049 0.284763 -0.024905 -0.681361 0.697973 0.21221
-0.083858 -0.863251 0.117282 -0.041848 -0.998868 0.020058
0.162545 -0.83436 -0.042017 0.978052 0.035506 -0.023564
0.080382 0.446115 0.086224 0.124275 0.299574 0.945646
-0.191922 0.481554 0.038274 -0.661489 0.212947 0.718635
-0.106933 0.077307 -0.076539 -0.825548 0.162012 -0.539836
-0.021458 -0.747862 -0.117955 0.611204 0.309636 -0.726013
-0.113966 -0.561954 0.024343 -0.886584 -0.117521 0.447229
0.080199 0.427494 -0.142996 -0.254652 0.023792 -0.965261
-0.035748 0.519346 -0.120318 -0.109117 0.302853 -0.945981
0.168371 0.279436 -0.061192 0.905736 -0.14859 -0.396334
0.058819 0.620097 0.021849 0.599814 -0.197668 0.774785
-0.104196 -0.519321 0.048237 -0.825981 -0.051186 0.56039
-0.105058 -0.838419 0.067923 -0.709533 0.698556 0.091266
0.025369 0.02699 0.140218 0.050136 0.258412 0.964135
0.181628 0.295685 -0.036633 0.936546 -0.21894 -0.270213
0.104503 -0.163882 -0.109251 -0.094927 -0.248633 -0.962064
-0.039403 0.540476 0.042999 -0.207686 0.622547 0.754301
-0.02216 -0.647162 -0.088709 0.611593 0.028842 -0.789934
-0.000319 0.78194 -0.114247 -0.407453 0.082902 -0.908585
-0.025416 0.703626 0.006533 -0.882099 -0.469549 0.013358
0.166849 -0.801663 -0.0932 0.842421 0.00534 -0.531312
-0.070734 0.547623 -0.097266 -0.355605 0.548275 -0.756098
0.417466 0.294382 -0.119765 0.471558 0.458838 -0.751402
0.501465 0.216314 -0.009313 0.313104 0.560303 0.742111
0.477893 0.210524 -0.002453 0.211626 0.461918 0.818436
-0.295205 0.260347 -0.07498 0.487272 -0.648257 -0.580515
-0.109303 -0.380705 -0.057126 -0.710106 -0.026587 -0.703342
-0.415988 0.192963 0.02148 -0.042705 0.321593 0.944435
0.105044 -0.861117 0.164565 -0.343805 -0.891392 0.259008
0.008736 0.284962 -0.12908 0.128079 0.000346 -0.991667
0.47764 0.184168 -0.002076 -0.590328 -0.782757 0.191363
0.507179 0.1717 -0.046202 0.101159 -0.538774 -0.831411
0.157344 -0.295331 0.07896 0.241427 -0.09539 0.965649
0.066399 -0.80526 -0.004015 -0.91961 -0.355877 0.153181
0.129538 0.176095 -0.100915 0.510548 0.045572 -0.857822
-0.051989 -0.604003 0.037067 0.538755 -0.244894 0.771039
0.065889 -0.62215 -0.060449 -0.70114 -0.081343 -0.707524
0.067597 -0.519789 -0.072422 -0.736738 -0.071994 -0.671583
0.038808 -0.345154 -0.033036 -0.934537 -0.086976 -0.338678
-0.144279 -0.128891 0.007396 -0.999102 -0.008644 -0.037537
0.145715 0.255637 -0.099428 0.803044 -0.113416 -0.584272
0.580273 0.132576 0.009119 0.778341 0.612145 -0.136843
-0.033647 -0.825345 0.080664 0.613049 0.72328 0.272103
0.158734 -0.083849 -0.107466 0.84016 -0.09607 -0.506063
0.083438 0.614718 -0.058969 0.537507 0.670411 -0.502589
0.017579 -0.391263 0.037135 0.92786 -0.15098 0.338744
0.079419 0.74815 0.062875 0.648852 0.133578 0.748751
0.016111 -0.044394 -0.128428 0.050758 -0.549419 -0.832668
0.598202 0.104088 0.008588 0.686497 0.349873 -0.614906
-0.328892 0.296135 0.002635 -0.222356 0.11795 0.967095
-0.137483 -0.437912 0.007236 -0.9917 0.013523 0.125888
0.087959 -0.843026 -0.016757 -0.973435 -0.224234 -0.002972
0.150658 0.538379 -0.117666 0.279693 0.57194 -0.769116
0.165574 0.3526 0.053829 0.791895 -0.088304 0.604115
0.019011 -0.44947 0.0197 0.906702 -0.009624 0.418097
-0.13642 -0.213619 0.040595 -0.997213 -0.051088 0.051166
0.020343 -0.323113 0.053803 0.909793 -0.12481 0.395338
-0.045104 -0.234521 -0.092168 0.104738 0.040836 -0.993056
-0.562534 0.052542 -0.004689 -0.413731 0.454019 -0.595604
0.052655 -0.35209 0.034482 -0.748573 -0.259162 0.60931
0.169621 -0.368199 -0.067071 0.621195 0.223401 -0.750528
-0.121533 -0.314523 -0.032044 -0.841312 0.068052 -0.535752
0.068225 -0.285348 0.067597 -0.687926 -0.154026 0.707397
0.165461 -0.025991 0.097244 0.638342 0.023467 0.768973
-0.108481 0.516157 0.051376 0.010604 0.473071 0.880828
0.024848 0.43768 0.094584 0.170617 0.179464 0.96804
-0.112509 0.275123 -0.031327 -0.997904 -0.060979 -0.010099
-0.164064 0.514665 -0.072509 -0.516754 0.50956 -0.6871
-0.123682 -0.505931 0.020489 -0.814374 -0.180533 0.550554
0.105551 -0.759804 -0.091689 -0.774522 0.008365 -0.561358
-0.120292 -0.187436 0.091835 -0.8072 0.004237 0.590096
0.407173 0.222213 -0.075395 -0.613582 -0.784832 0.081526
0.164203 -0.12622 -0.093649 0.674631 -0.242592 -0.696365
0.107077 0.595711 -0.066716 0.504934 0.818461 -0.245492
-0.003653 -0.720929 0.006126 0.779756 -0.12337 0.612867
-0.059488 -0.127789 -0.10326 -0.179937 -0.125024 -0.972381
0.141395 -0.274048 0.082918 0.057953 -0.058227 0.996462
0.003422 0.183995 0.129585 -0.088769 0.019033 0.995585
0.475896 0.24992 -0.026345 0.323726 0.819847 0.456384
-0.130235 0.117465 0.011095 -0.987465 0.087098 0.12327
0.113305 -0.425285 -0.102881 -0.130229 0.042419 -0.985484
-0.007112 0.063145 0.133621 -0.37041 0.215087 0.903068
-0.139104 -0.027732 -0.010929 -0.968271 0.192224 -0.144016
0.063141 0.250253 0.122464 0.251008 0.060843 0.966014
0.022427 0.815124 -0.110921 -0.09545 0.544249 -0.827529
0.210268 -0.032546 -0.008682 0.963709 0.002859 -0.266589
0.076858 -0.815089 -0.073377 -0.88289 -0.145193 -0.375318
0.164885 -0.011961 -0.111937 0.770045 0.061499 -0.632977
-0.098893 -0.850722 -0.029736 -0.731901 -0.660651 -0.162816
0.194153 -0.34718 0.04423 0.910461 -0.066847 0.407291
0.098515 0.367475 0.097353 0.21875 0.084195 0.97171
-0.094084 0.338276 -0.099503 -0.618645 -0.136826 -0.773461
0.044299 -0.383226 -0.040963 -0.942942 -0.002223 -0.326417
-0.017098 -0.636704 -0.084073 0.666561 0.01737 -0.745167
0.127961 -0.119695 0.112126 0.148286 -0.063295 0.985909
-0.156382 0.380834 -0.015325 0.672959 -0.717589 0.176497
0.355721 0.355471 -0.131219 0.505294 0.306876 -0.803098
0.154772 -0.374288 0.075292 0.131818 0.004211 0.990322
0.021965 0.173863 -0.11673 -0.004115 0.212992 -0.973957
-0.044802 -0.4905 0.063595 0.331366 -0.286772 0.898404
0.17422 -0.336684 -0.057227 0.733507 0.031213 -0.678791
-0.004419 -0.579476 -0.072167 0.735431 -0.037189 -0.676261
0.178725 -0.003682 0.083672 0.694936 -0.248867 0.655148
0.097399 -0.401682 0.055422 -0.532855 -0.212568 0.817997
0.158546 0.071198 -0.101573 0.704124 0.210834 -0.675997
-0.014315 0.731509 -0.086149 -0.695766 -0.477377 -0.535962
0.076359 0.006277 0.137849 0.250692 0.051496 0.961261
0.157374 -0.39719 -0.083223 0.524244 0.159019 -0.836198
0.17929 -0.647083 -0.068992 0.60763 -0.210703 -0.765516
0.030298 0.81563 0.074794 -0.095925 0.454718 0.883286
0.086163 0.388929 -0.145338 -0.114093 0.016937 -0.993216
-0.012928 -0.257063 0.100492 0.444643 -0.210731 0.870501
0.100287 0.025882 -0.154713 0.357487 -0.010945 -0.931863
-0.109788 0.550132 0.023014 -0.069546 0.783153 0.611108
-0.003754 0.276237 0.119515 -0.324511 0.073731 0.942828
0.163387 0.340713 0.054931 0.674222 -0.077959 0.733923
0.103201 0.238827 -0.134378 0.325733 -0.233016 -0.910436
-0.027375 0.720461 0.030748 -0.980068 -0.064096 0.184731
0.077179 -0.113306 0.088421 -0.664087 -0.060482 0.743616
-0.139601 0.493776 -0.095805 -0.418414 0.236853 -0.876124
0.043251 0.237206 -0.126889 -0.158179 -0.037223 -0.985076
0.439914 0.204566 -0.048729 -0.698676 -0.685658 0.185465
0.26519 0.367994 -0.032878 -0.551106 -0.490982 0.673033
0.003415 -0.310264 -0.054119 0.758894 -0.071504 -0.647007
0.018994 0.637602 0.031757 -0.454038 -0.390883 0.794349
0.160246 0.314583 0.056983 0.661457 0.020357 0.749228
0.133212 -0.323086 -0.091276 0.509322 0.03157 -0.859034
0.18857 -0.140661 -0.064994 0.718866 -0.047816 -0.693255
-0.005007 0.662187 0.021082 -0.704553 -0.591428 0.389318
-0.032327 -0.713579 -0.109827 0.520048 0.205082 -0.828754
0.163532 0.291925 0.054113 0.692728 -0.026216 0.720556
0.109194 -0.026839 0.124873 0.428666 -0.118566 0.895078
0.179156 -0.583233 0.030325 0.596242 -0.2977 0.745345
0.05709 -0.4435 -0.060101 -0.757891 0.037785 -0.651096
-0.123196 -0.365004 0.062351 -0.980876 -0.05313 0.185735
-0.023871 0.156008 0.121039 -0.3706 -0.003163 0.928649
-0.376671 0.297539 -0.055571 -0.702364 0.70059 -0.118213
-0.024531 -0.717439 -0.105601 0.520079 0.289354 -0.802685
-0.270776 0.408597 -0.065535 -0.617936 0.687793 -0.374293
0.555011 0.103424 0.03623 -0.844597 -0.438493 0.301747
-0.164071 0.496265 0.051003 -0.381174 0.277482 0.88088
-0.089562 -0.01443 -0.113398 -0.642202 -0.115646 -0.757432
0.122253 0.261408 0.097429 0.523871 0.056772 0.84956
-0.084405 -0.836042 0.141662 -0.461568 0.804851 0.369895
-0.201096 0.506662 -0.007466 -0.762688 0.641995 0.076476
0.065494 0.209162 -0.124637 -0.212759 -0.417142 -0.881771
-0.194825 0.347694 -0.031607 0.593841 -0.803581 0.031954
0.167 0.04662 -0.100175 0.776523 0.22769 -0.587251
0.085304 -0.351101 -0.092997 -0.599166 -0.043335 -0.798869
-0.060448 -0.528821 0.059064 0.368828 -0.196976 0.907967
0.038194 -0.35341 -0.027737 -0.974716 -0.062994 -0.19982
-0.14282 -0.080815 0.03226 -0.984572 0.017665 0.169745
-0.053411 0.374818 0.100807 -0.444517 0.087075 0.891315
0.065165 -0.632484 0.003567 -0.211689 0.471715 0.851673
0.171179 -0.460121 0.064704 0.400066 -0.109466 0.908078
0.235397 0.37854 -0.096587 -0.718915 -0.690378 -0.068006
0.406445 0.290697 -0.126274 0.269093 0.231225 -0.932693
-0.051637 0.219603 -0.112288 -0.577729 -0.283345 -0.765174
0.421754 0.264216 -0.034228 -0.020985 0.348677 0.93581
-0.062534 -0.320643 -0.087776 -0.267069 -0.045306 -0.962606
-0.125588 -0.191904 0.083592 -0.834433 -0.003864 0.549219
-0.559398 0.044953 0.014635 0.900987 -0.417468 -0.075074
-0.114364 -0.50978 -0.072473 -0.737857 0.112202 -0.665277
0.085656 0.836945 0.015936 0.76144 0.580805 0.280647
0.164797 -0.33038 0.074822 0.229771 -0.044429 0.971958
0.172299 -0.815365 -0.065319 0.795816 -0.592749 -0.062712
-0.048427 0.098499 -0.12141 -0.43131 0.289814 -0.854195
0.039405 -0.194732 0.028347 -0.660748 -0.208742 0.598734
0.177738 -0.204949 -0.0713 0.592493 -0.10484 -0.798377
0.196358 0.358917 -0.060005 0.917123 -0.34179 -0.1902
0.084899 -0.600008 0.023332 -0.744318 -0.094429 0.660661
0.019608 -0.168392 0.078905 0.943568 -0.107895 0.308333
0.184093 -0.77126 -0.042963 0.943456 0.147696 -0.272496
0.035979 -0.294999 -0.029547 -0.954718 -0.055574 -0.286784
0.082953 -0.675133 -0.070929 -0.778793 -0.016594 -0.626165
-0.005111 -0.39337 0.070708 0.684109 -0.19265 0.701503
0.10169 -0.84853 -0.110742 -0.560433 0.08882 -0.818527
-0.021192 -0.045754 -0.128543 -0.039205 -0.443552 -0.894783
-0.209313 0.481082 0.021013 -0.725413 0.432663 0.525945
0.156838 0.145689 0.073989 0.701217 0.065366 0.70978
0.196864 -0.672192 -0.035335 0.944593 -0.097775 -0.291515
-0.237519 0.456416 -0.031525 -0.836687 0.544867 -0.044314
0.089392 0.828186 0.011092 0.967713 0.207509 0.128062
-0.206946 0.451561 0.036085 -0.554694 0.270568 0.786184
0.103782 -0.634875 -0.090218 -0.477617 -0.059705 -0.875414
0.04223 -0.359766 0.003963 -0.971001 -0.095932 0.214779
0.205003 -0.142307 0.04588 0.931258 -0.133907 0.335147
-0.473191 0.159148 -0.040461 -0.373784 0.222625 -0.876734
0.179765 -0.53052 -0.080557 0.703852 -0.034432 -0.709442
0.063777 -0.15487 -0.094573 -0.597061 -0.205439 -0.769461
0.295778 0.427649 -0.135317 0.271055 0.432752 -0.856766
-0.122205 -0.436049 0.054763 -0.860605 -0.14767 0.487193
0.150401 0.1568 0.079774 0.706535 0.040966 0.706444
0.126986 -0.869992 -0.073626 0.023489 -0.999615 0.014349
0.008729 0.863424 -0.005717 -0.091646 0.995629 0.008434
-0.357864 0.210317 -0.002151 0.55983 -0.790879 0.247093
-0.029178 -0.055041 0.130511 -0.068572 -0.092864 0.992974
0.140057 0.308839 0.079166 0.732184 0.051739 0.679116
-0.01236 0.313376 0.113646 -0.11639 0.078011 0.989747
-0.138035 -0.189893 0.027702 -0.99601 -0.064893 0.041565
0.01168 -0.721474 -0.078752 0.738626 0.10697 -0.665254
0.07605 -0.568191 0.017206 -0.69774 -0.008397 0.716202
0.368441 0.337174 -0.129673 0.497711 0.251903 -0.82495
-0.109048 0.180114 0.056789 -0.814067 -0.037669 0.579537
0.032002 0.658853 0.077038 -0.008532 -0.981867 0.186135
0.199556 -0.089044 0.062744 0.876891 -0.019222 0.479503
0.157448 -0.684582 -0.078833 0.667694 -0.039237 -0.743113
-0.23486 0.346446 0.010076 0.377595 -0.401647 0.832377
0.601834 0.105646 0.062455 0.752405 0.603703 0.25554
0.388358 0.338558 -0.109357 0.712372 0.649094 -0.265471
-0.093508 -0.26276 0.108432 -0.233054 -0.042987 0.97136
-0.129519 -0.530498 -0.054053 -0.889004 0.04082 -0.454826
0.083291 0.176719 0.120517 0.38487 0.034554 0.922206
0.546604 0.194526 -0.02836 0.967461 -0.232494 0.069082
-0.033888 -0.493694 -0.094284 0.3981 0.107191 -0.905863
-0.062381 -0.728338 -0.123795 0.009981 0.203442 -0.978482
0.007468 -0.573246 -0.05857 0.790641 -0.005505 -0.612064
0.058566 0.753658 0.072053 0.434446 0.140991 0.865627
0.071921 0.693581 0.072903 0.672191 -0.041769 0.73457
-0.118086 -0.474427 0.044312 -0.822331 -0.267219 0.502239
-0.111077 0.535775 0.038086 -0.035742 0.647013 0.760796
-0.270347 0.31473 0.00614 0.222207 -0.261105 0.938317
0.089205 -0.253537 -0.092925 -0.450763 0.043185 -0.891391
-0.222084 0.388787 -0.09619 -0.021536 0.054848 -0.997649
-0.09593 0.204505 -0.061887 -0.787244 0.046291 -0.611727
-0.102693 0.42214 0.065351 -0.429403 0.079717 0.895046
-0.020312 -0.835608 -0.061702 0.831015 -0.525283 -0.012061
0.052365 0.384027 0.104026 0.111228 0.187202 0.975077
-0.053366 0.329358 -0.123173 -0.380535 -0.021811 -0.924444
-0.097083 -0.298508 -0.064777 -0.722719 -0.011422 -0.690931
-0.307007 0.350542 -0.011635 -0.610564 0.619412 0.48771
0.146602 -0.867431 0.031062 0.181917 -0.977362 -0.104541
0.25451 0.515863 -0.084309 0.585758 0.68027 -0.439761
-0.058766 0.214889 -0.105332 -0.594377 -0.283079 -0.752101
0.196899 0.09033 -0.018015 0.975531 0.199059 -0.071073
-0.060841 0.269242 -0.117465 -0.429928 -0.102982 -0.89479
0.120315 -0.480048 0.049991 -0.579509 -0.110978 0.80719
0.153983 0.137086 0.077673 0.692585 0.064636 0.718356
-0.223745 0.356362 -0.090785 0.323319 -0.452533 -0.82853
0.131418 0.43345 0.078744 0.386283 0.190157 0.900409
0.058382 -0.178066 0.074531 -0.648409 -0.058301 0.758359
0.350557 0.364188 -0.130888 0.547386 0.326737 -0.759688
0.20111 -0.331886 0.030899 0.935691 -0.055112 0.348041
-0.113461 0.345253 -0.082272 -0.77779 -0.213426 -0.589579
-0.105925 -0.571009 0.03937 -0.911943 -0.00551 0.409529
-0.021361 0.846348 0.005756 -0.779771 0.547406 0.257182
-0.077881 -0.387081 0.094926 0.143039 -0.211708 0.966694
0.068305 0.517429 0.056591 0.068558 0.534933 0.840208
0.03026 -0.05221 0.12287 -0.347823 -0.384531 0.849462
-0.183757 0.522573 0.006975 -0.702615 0.681471 0.203335
0.015329 0.631876 -0.063718 -0.317037 0.322812 -0.890595
0.261721 0.499359 -0.01865 0.72838 0.417774 0.539565
0.163662 -0.599007 0.033985 0.416832 -0.401699 0.81414
-0.129095 -0.283958 0.002675 -0.995954 -0.065141 -0.054528
0.111566 -0.548351 -0.104612 -0.344198 -0.079583 -0.932943
0.135353 -0.001265 -0.138896 0.581902 0.120732 -0.803024
-0.035651 -0.863616 0.071175 0.186808 -0.972333 0.010379
0.166183 -0.475668 0.065245 0.309698 -0.124832 0.935252
0.534841 0.187313 0.020597 0.590085 -0.066665 0.725184
0.021317 -0.420758 -0.000958 0.997589 0.021631 0.013407
-0.122095 -0.136612 -0.047934 -0.822066 -0.14761 -0.549691
-0.10434 -0.040935 -0.093464 -0.798903 -0.135357 -0.585134
-0.060307 0.297455 -0.119614 -0.436139 -0.028641 -0.899379
0.185869 -0.328173 -0.044074 0.745006 0.025794 -0.666513
0.162052 0.055006 -0.102392 0.693559 0.257687 -0.672505
-0.435236 0.161894 -0.03954 0.310663 -0.889241 -0.327081
-0.032572 -0.862095 -0.095718 0.263815 -0.957222 0.067027
-0.021454 -0.127023 -0.09577 0.499273 -0.214745 -0.837075
0.10334 -0.618099 0.033679 -0.363794 0.144665 0.908359
0.135014 -0.389691 -0.096103 0.464495 0.127619 -0.874584
-0.499449 0.105443 0.019865 -0.037509 -0.781551 -0.615663
-0.009093 -0.259962 -0.076789 0.641205 -0.081401 -0.761611
-0.109424 0.25139 -0.063031 -0.930845 -0.107527 -0.345907
0.20549 -0.257889 0.007053 0.999947 0.006145 0.004068
-0.121857 -0.041394 -0.066889 -0.853454 -0.087288 -0.513394
0.001651 -0.657766 0.018178 0.623314 -0.110554 0.773331
-0.448229 0.1594 -0.040715 0.152004 -0.878034 -0.434758
-0.056446 -0.672157 0.024114 0.209106 -0.323142 0.922513
0.17771 -0.178467 -0.072485 0.647589 -0.005829 -0.760492
-0.051491 0.138096 -0.104347 -0.334489 0.362151 -0.868793
0.083834 0.101108 0.124548 0.458304 0.00751 0.887809
-0.089487 0.194561 -0.070885 -0.763066 0.067247 -0.642442
0.2117 -0.128828 0.025902 0.965191 -0.155903 0.202832
-0.101698 -0.101845 -0.079761 -0.709023 -0.106408 -0.696755
-0.096615 -0.37489 0.097596 -0.212768 -0.164799 0.952717
-0.024761 -0.849182 -0.007991 0.749797 -0.641799 -0.127324
-0.139903 0.010642 0.001086 -0.971954 -0.202091 -0.114839
0.301522 0.453875 -0.039724 0.761634 0.359476 0.537076
-0.038522 -0.067056 0.129196 -0.082039 -0.053933 0.995148
0.152581 0.51433 0.033197 0.220167 0.743879 0.593787
-0.064997 0.403336 -0.123524 -0.319454 -0.129491 -0.938084
-0.29085 0.278868 -0.003681 0.630767 -0.364216 0.62035
0.092938 -0.040174 0.127915 0.125841 -0.177649 0.973176
-0.160695 0.387204 -0.069027 0.669118 -0.624323 -0.401937
0.142285 0.478571 -0.142736 0.157133 0.187188 -0.966732
0.356134 0.306346 -0.041735 -0.108835 -0.065726 0.970075
-0.333829 0.331595 -0.06543 -0.581526 0.764563 -0.256675
-0.124039 -0.161009 -0.038506 -0.818974 -0.171558 -0.547122
0.184706 -0.426064 0.056559 0.823682 -0.038736 0.564487
0.019811 -0.346062 -0.029012 0.910164 -0.02554 -0.412566
0.008335 0.23324 -0.12746 0.098895 0.002291 -0.994999
0.280265 0.496602 -0.059338 0.718775 0.694009 0.022466
0.17421 -0.772099 0.019144 0.702165 -0.060052 0.693315
0.012584 -0.588586 0.007192 0.560011 0.038177 0.825927
-0.044595 -0.477146 0.06721 0.288495 -0.259622 0.921308
0.25449 0.407374 -0.13806 -0.26823 -0.158066 -0.948862
-0.228147 0.435404 -0.076954 -0.470628 0.502585 -0.725185
-0.007964 -0.319934 -0.065711 0.711553 -0.087552 -0.69713
0.150545 0.248909 0.072096 0.775372 0.061399 0.628248
0.037395 0.394384 0.102987 0.09616 0.403896 0.853609
-0.529379 0.107999 0.07881 -0.819826 0.468805 0.288142
0.119122 0.570549 -0.010165 0.363796 0.715305 0.595798
-0.128873 0.09282 0.000158 -0.999592 -0.026463 -0.000916
-0.529016 0.110582 0.069204 -0.834731 0.545984 0.067389
-0.04508 -0.693008 0.017069 -0.18516 -0.176146 0.965677
0.014391 -0.143765 -0.051377 0.834931 -0.120209 -0.535002
-0.023645 0.808504 -0.092837 -0.734044 0.254246 -0.612172
0.172029 -0.198015 0.088915 0.381977 -0.11627 0.916143
0.171462 -0.43409 -0.079167 0.649837 0.17413 -0.739226
-0.03463 -0.155611 0.122998 0.017438 -0.053324 0.99692
-0.04277 -0.723329 0.02493 -0.377 0.325538 0.855576
-0.044849 -0.731451 -0.120161 0.330763 0.223984 -0.913087
-0.197342 0.362578 0.005048 0.376041 -0.700718 0.596754
0.249714 0.392097 -0.132624 -0.439791 -0.279041 -0.852977
