0.314339 0.307735 -0.076782 -0.675413 -0.71849 0.14529
-0.056721 -0.459949 -0.094738 0.025057 0.118729 -0.991924
-0.45596 0.204423 -0.007487 -0.796325 0.593185 0.107943
-0.052073 -0.073184 0.127008 -0.212888 -0.079681 0.971853
-0.182703 0.519934 0.016159 -0.807636 0.442893 0.312458
0.287485 0.422575 -0.139474 0.16689 0.295419 -0.93488
0.569283 0.15004 0.005325 0.80425 0.574044 -0.094688
0.210268 -0.032546 -0.008682 0.963709 0.002859 -0.266589
-0.1355 -0.399402 0.008969 -0.982921 0.169719 0.051501
-0.024292 -0.834288 0.040916 0.975483 0.089622 0.082832
-0.005027 0.148238 -0.112422 -0.191581 0.278571 -0.939487
-0.027587 0.525879 0.056143 -0.147609 0.539879 0.828215
0.119122 0.570549 -0.010165 0.363796 0.715305 0.595798
-0.112022 0.252306 0.018212 -0.991578 0.093109 0.080162
-0.12391 0.060521 -0.049247 -0.917792 0.121647 -0.376833
0.024529 0.697165 -0.083343 -0.144792 -0.6167 -0.771982
-0.287192 0.256806 -0.056093 0.66319 -0.739829 -0.096824
-0.142968 -0.125482 -0.005554 -0.97845 -0.032977 -0.195946
-0.002252 -0.084144 -0.10229 0.485503 -0.50319 -0.710314
-0.353466 0.312734 -0.020215 -0.651867 0.711653 0.259653
0.249282 0.452229 -0.133631 0.045678 0.290205 -0.954128
0.101424 0.2181 -0.128035 0.326929 -0.364562 -0.870626
-0.104639 0.233116 -0.061363 -0.789389 -0.374397 -0.485979
0.100132 -0.644314 -0.087442 -0.538198 -0.081887 -0.836817
0.012323 -0.311546 0.070999 0.784017 -0.163851 0.598629
-0.046878 -0.2105 0.118265 0.093314 -0.196601 0.975959
0.068242 0.534577 0.045791 0.069437 0.617979 0.776887
0.097795 0.737694 0.016617 0.979449 -0.104175 0.171907
0.033039 0.647607 0.042299 -0.110293 -0.604134 0.783754
0.171406 -0.791056 0.010529 0.672908 -0.572835 0.431001
0.094632 -0.50584 -0.097446 -0.557181 -0.020469 -0.83006
0.378258 0.249784 -0.100103 -0.67521 -0.664446 -0.318492
-0.234022 0.437579 0.01481 -0.726245 0.388992 0.565778
0.116249 -0.820986 -0.117526 -0.214011 -0.10329 -0.963052
-0.159743 0.535155 -0.053039 -0.490752 0.74039 -0.457717
-0.046998 0.197528 -0.106501 -0.51555 -0.303356 -0.800404
0.053229 -0.684633 0.006997 -0.976395 -0.000411 0.210536
-0.087268 -0.378004 0.09802 0.007762 -0.206243 0.977748
0.081009 0.73903 -0.089561 0.662254 -0.388179 -0.640725
0.093973 -0.858274 -0.028552 -0.630074 -0.695255 0.336373
0.035016 -0.143664 0.060096 0.793192 -0.395864 0.453241
0.063858 0.324825 0.113234 0.240408 0.127643 0.961699
-0.049057 -0.75055 -0.128133 0.011563 0.368371 -0.927212
0.199492 -0.541279 0.000974 0.938568 -0.037279 0.342962
0.086664 -0.843815 0.026485 -0.99873 -0.026666 -0.024126
-0.224449 0.442294 0.024198 -0.712084 0.287011 0.639302
-0.112701 -0.458155 -0.065658 -0.720963 0.151745 -0.676034
-0.191159 0.421063 -0.095167 -0.052694 0.179697 -0.981475
0.045546 -0.569035 -0.034437 -0.948334 -0.041841 -0.252215
-0.028674 0.747087 0.028645 -0.985718 -0.047108 0.160504
0.012122 -0.472222 0.028714 0.797611 -0.111896 0.592073
-0.128546 -0.017362 0.067295 -0.891791 0.097129 0.440617
0.023859 -0.593012 -0.003718 0.877897 0.045975 0.467561
-0.126765 0.175664 0.02328 -0.952607 -0.015992 0.300152
-0.026414 -0.725786 -0.110179 0.418495 0.358997 -0.832473
-0.131448 -0.481807 0.016903 -0.844555 -0.223785 0.485506
0.041879 -0.387526 -0.012558 -0.984853 -0.116339 0.125732
-0.127716 -0.636368 -0.026514 -0.986464 -0.112795 0.107492
-0.021341 -0.848367 0.036762 0.983133 -0.069215 0.026631
0.079113 -0.749013 0.024069 0.074226 -0.378018 0.917819
0.389909 0.305567 -0.127946 0.306913 0.192018 -0.929427
0.070972 -0.441215 -0.075526 -0.710521 0.023563 -0.703208
-0.554873 0.071356 0.081939 -0.840831 0.35038 0.342611
0.404197 0.226241 -0.1095 -0.617302 -0.654726 -0.424572
-0.37323 0.2905 -0.075196 -0.536442 0.585702 -0.599765
-0.055404 0.002484 0.130259 -0.232793 0.367299 0.895494
0.191826 0.347222 -0.056361 0.911981 -0.337265 -0.219727
0.122945 -0.813321 -0.119832 0.037454 -0.134961 -0.984548
-0.074847 0.172564 -0.084934 -0.594968 0.018984 -0.803406
-0.171248 0.517276 -0.063796 -0.591689 0.543142 -0.594299
0.147208 -0.866409 -0.034902 0.286447 -0.939923 0.141442
0.164842 -0.842414 0.116827 0.773466 0.627381 0.073846
0.212163 0.447217 0.019951 0.485437 -0.025242 0.86749
0.039486 -0.244707 0.010229 -0.353262 -0.083387 0.820741
-0.109725 -0.853761 0.080305 -0.827069 -0.516556 0.094829
0.067296 -0.31607 -0.078533 -0.763755 -0.021381 -0.644142
-0.003942 -0.203285 0.10604 0.587365 -0.152502 0.793918
-0.135921 0.458313 -0.102601 -0.463895 0.047903 -0.88396
0.200877 0.057851 -0.023927 0.977776 0.091795 -0.187096
0.095008 -0.464064 -0.097474 -0.53248 0.057993 -0.84418
-0.021454 -0.127023 -0.09577 0.499273 -0.214745 -0.837075
-0.080972 -0.512492 0.072703 0.208735 -0.212156 0.916634
-0.048237 0.286912 0.099234 -0.579894 0.08192 0.810097
-0.047226 -0.741083 0.022218 0.45072 -0.593665 0.662386
0.019331 -0.238004 -0.043394 0.91306 -0.049646 -0.400428
0.205717 -0.316069 0.011375 0.996141 -0.004046 0.070134
0.192655 0.117355 0.031719 0.918676 -0.002435 0.392059
0.014788 -0.468871 -0.040314 0.871661 0.069059 -0.484735
-0.469578 0.126464 0.01724 0.738216 -0.673043 0.018006
-0.120284 0.324483 -0.030312 -0.999277 -0.024692 0.022066
-0.570829 0.028771 -0.003031 -0.409352 -0.688613 -0.146925
0.053357 -0.673061 0.009291 -0.916856 0.000191 0.36065
-0.081465 0.555744 0.017686 -0.050221 0.767295 0.639241
0.029558 0.749189 0.097217 -0.31895 0.453026 0.810062
0.052283 -0.311484 -0.0585 -0.814982 0.005868 -0.579392
-0.241329 0.374255 0.019774 -0.023914 -0.16646 0.984794
-0.008794 0.855569 -0.024497 -0.48818 0.868942 -0.068557
0.141198 0.049284 -0.125534 0.636644 0.291456 -0.713516
-0.059709 0.455172 0.083229 -0.171922 0.317302 0.932331
-0.037521 0.772707 -0.007739 -0.986049 0.07837 0.143107
0.130511 -0.2288 0.089367 0.082191 -0.167994 0.982335
-0.125282 -0.712187 -0.032343 -0.859804 0.102785 0.483725
-0.379273 0.205745 0.010498 0.416591 -0.167255 0.8774
0.116783 -0.281298 0.083079 -0.026686 -0.064148 0.997568
0.202356 -0.560024 -0.009184 0.942902 -0.048527 0.328527
0.190961 -0.489834 0.030524 0.959686 0.017557 0.280316
0.189849 0.468409 0.032744 0.462513 0.214865 0.859345
-0.126123 -0.654282 -0.073011 -0.918637 -0.012563 -0.376569
-0.067767 0.58218 -0.048967 -0.303802 0.942608 -0.0712
-0.2201 0.350084 0.004679 0.351155 -0.538332 0.763854
0.164524 0.190775 0.061479 0.765923 0.100915 0.634677
0.620834 0.049358 0.070828 -0.815481 -0.574335 0.000689
-0.199503 0.496461 -0.050342 -0.6544 0.562492 -0.503593
0.140886 -0.471401 0.063168 -0.439769 -0.125089 0.887924
0.01875 -0.059282 0.121382 0.280982 -0.185689 0.928641
-0.160208 0.394668 -0.079222 0.607071 -0.627393 -0.484291
0.029269 -0.218456 0.037081 0.975547 -0.033587 0.216615
0.123469 -0.566572 0.041561 -0.229365 -0.162877 0.958995
0.048866 -0.208688 -0.06258 -0.849615 -0.119589 -0.513439
0.120315 -0.480048 0.049991 -0.579509 -0.110978 0.80719
-0.049792 0.032334 -0.1393 -0.313315 0.170733 -0.933913
0.039444 -0.25519 0.009968 -0.383115 -0.037466 0.836024
0.093342 0.253472 -0.137673 0.042837 -0.100049 -0.993842
0.186476 0.433489 0.040616 0.554622 0.019343 0.829522
0.089018 -0.748245 0.02506 -0.060012 -0.62242 0.778922
0.18926 -0.66715 0.008878 0.852903 -0.066762 0.5027
0.051522 -0.655565 -0.003194 -0.990359 -0.000939 0.120252
-0.10434 -0.040935 -0.093464 -0.798903 -0.135357 -0.585134
-0.355184 0.235932 -0.076332 0.213457 -0.461771 -0.858178
0.153734 -0.280578 0.081159 0.173387 -0.082847 0.980579
0.187065 -0.448173 0.048947 0.886768 -0.083318 0.454222
-0.091841 -0.862054 0.124725 -0.26415 -0.949922 0.123774
0.153681 0.155074 -0.081672 0.737831 0.049539 -0.672886
0.061436 -0.538524 0.004008 -0.689467 -0.018566 0.723662
0.11874 0.081698 0.105277 0.34909 0.085302 0.926953
-0.12348 0.120529 0.034456 -0.902715 0.116272 0.412132
-0.015448 0.583329 0.004221 -0.588761 0.410359 0.693965
-0.207153 0.391191 0.026989 0.147925 -0.433098 0.886873
-0.5199 0.123407 0.054962 -0.744453 0.667047 0.01162
-0.122114 -0.060618 0.082839 -0.78791 0.029879 0.614902
-0.081391 0.364497 -0.111901 -0.474505 -0.140968 -0.868134
0.018309 0.132957 -0.122909 -0.133427 0.45187 -0.881835
0.183069 0.255368 -0.001587 0.999881 -0.009962 0.002747
0.295543 0.459976 -0.034557 0.740453 0.328911 0.582393
0.20785 -0.126989 0.04174 0.943555 -0.068458 0.322037
-0.126722 -0.36547 -0.028719 -0.97453 0.042314 -0.212576
0.04729 -0.547858 -0.040889 -0.842219 -0.022527 -0.538542
0.03431 0.731277 -0.109301 -0.001783 -0.551729 -0.831811
-0.080787 0.466552 0.072932 -0.407125 0.277249 0.868547
0.053795 0.771104 -0.116049 0.4075 -0.046669 -0.911087
0.182993 0.193847 -0.019914 0.975685 0.122903 -0.164777
-0.103063 -0.761458 0.005795 -0.580579 -0.50435 0.59026
-0.028852 -0.014499 0.135367 -0.07127 -0.617632 0.773354
-0.10235 -0.011805 0.104616 -0.672233 -0.220149 0.700946
0.001007 -0.80524 -0.025015 0.921553 -0.170728 0.347229
-0.081403 -0.611928 0.050573 0.345688 -0.220167 0.898191
0.148798 0.149442 -0.087888 0.720119 0.09758 -0.686538
0.099384 -0.189954 0.095926 -0.173159 -0.080186 0.981104
-0.044595 -0.477146 0.06721 0.288495 -0.259622 0.921308
0.511478 0.217694 -0.064646 0.452981 0.304981 -0.749528
0.093811 0.362089 -0.145369 0.005302 -0.030914 -0.99946
-0.059532 0.348293 -0.121048 -0.391141 -0.032677 -0.919367
0.063774 -0.601667 -0.059145 -0.6962 -0.025363 -0.717385
0.197789 -0.424353 0.019871 0.969675 -0.077264 0.231173
-0.040284 0.74663 -0.020028 -0.993273 0.02061 0.057494
-0.31824 0.320155 0.002173 -0.286476 0.263388 0.918403
0.026079 -0.497646 -0.000613 0.952343 -0.009799 0.294562
0.096599 0.202171 0.113722 0.389466 0.046129 0.919732
-0.077009 -0.647639 -0.106967 -0.123538 0.063732 -0.989347
-0.102984 0.131679 -0.069142 -0.837558 0.115826 -0.533667
-0.119976 -0.67686 -0.082125 -0.796782 -0.062659 -0.598075
0.079213 -0.238079 -0.087788 -0.5067 -0.045699 -0.860394
-0.059656 0.5158 0.056407 -0.160626 0.51117 0.844028
-0.005374 -0.709017 0.012348 0.771478 -0.259598 0.577329
-0.143449 -0.090042 0.02933 -0.991572 0.023676 0.123161
0.159887 -0.462651 0.067723 0.101469 -0.121705 0.979778
0.118217 0.386099 -0.143015 0.28869 -0.085043 -0.952378
-0.039585 0.040455 0.127583 -0.338944 0.163776 0.923265
0.096831 -0.116502 0.102079 -0.550245 -0.119865 0.825871
0.051368 -0.501207 -0.007676 -0.87636 -0.007482 0.481167
-0.102013 0.014334 0.104456 -0.516158 0.23097 0.8238
0.315732 0.442179 -0.108751 0.551953 0.679862 -0.481489
0.049764 0.594334 -0.089469 0.041899 0.608478 -0.792146
-0.121627 -0.236033 -0.028017 -0.879772 -0.024415 -0.47433
0.129674 0.02977 -0.139399 0.546957 0.105911 -0.829535
-0.010309 0.058831 -0.142826 -0.162217 0.209969 -0.964042
-0.098913 -0.688813 -0.098517 -0.582108 0.016303 -0.811921
0.112518 0.139814 -0.115192 0.423418 0.247082 -0.870781
0.197645 -0.534265 0.007674 0.952498 -0.044616 0.301067
0.043679 0.384649 -0.132231 -0.402903 -0.007254 -0.912845
-0.098298 0.274845 -0.087177 -0.756555 -0.068343 -0.649971
0.099265 -0.804803 0.055527 -0.601306 0.462433 0.634963
0.082964 -0.349897 0.062978 -0.500439 -0.324935 0.800987
0.172124 -0.15274 -0.07994 0.684469 -0.091754 -0.723223
-0.012167 -0.062734 0.129221 0.113991 -0.112975 0.987017
0.200786 -0.428834 -0.001988 0.987581 -0.134594 0.07538
-0.050555 0.117331 0.107609 -0.553841 0.076886 0.828194
0.093361 0.054919 0.121669 0.336383 0.13046 0.930734
-0.095232 -0.5017 0.067513 -0.866771 -0.158005 0.471512
-0.1286 -0.371219 -0.00453 -0.999762 0.008286 -0.00936
0.191011 0.381828 0.017313 0.940745 -0.14922 0.299253
0.195095 -0.739669 -0.007727 0.898949 -0.134811 0.3951
-0.57023 0.032539 0.067467 0.037286 -0.153798 0.859404
0.183798 0.032104 -0.077417 0.88035 0.046469 -0.471476
-0.310006 0.239182 -0.042079 0.522283 -0.849775 -0.056536
0.073249 -0.1265 0.085025 -0.628811 0.022646 0.777138
0.013477 0.371576 -0.127723 0.03087 -0.034654 -0.998767
-0.012918 -0.008556 0.145894 -0.094472 -0.391933 0.864785
-0.298707 0.278298 0.002268 0.46095 -0.19598 0.859759
-0.076984 -0.328727 0.104666 0.088918 -0.084037 0.992312
0.131234 0.585648 -0.050901 0.552474 0.810211 0.163113
0.044322 -0.150985 0.058282 -0.863729 -0.111217 0.478339
0.197795 0.368061 -0.066195 0.970369 -0.186343 -0.125718
0.194305 0.371018 -0.005015 0.974609 -0.135619 0.177733
-0.352078 0.228676 -0.070549 0.339816 -0.593724 -0.72849
-0.035972 0.751736 0.001123 -0.965178 -0.106512 0.232266
-0.119808 -0.781983 -0.031436 -0.99229 -0.040749 0.108652
-0.152028 0.453279 -0.095756 -0.284696 0.029444 -0.956853
0.056476 -0.333705 -0.063716 -0.798627 -0.048776 -0.599662
-0.132533 0.005317 0.06617 -0.877247 -0.059742 0.444904
0.018634 0.683407 -0.071469 -0.40171 -0.512825 -0.756683
-0.456328 0.138723 0.014681 0.612213 -0.783258 0.100367
-0.128371 -0.322526 0.00987 -0.999888 -0.01027 0.00438
-0.326596 0.227455 -0.014669 0.6648 -0.716723 0.194331
0.182156 0.050418 0.075644 0.775173 0.253534 0.578383
-0.048803 -0.826154 0.108485 0.216336 0.959632 0.157561
0.137764 0.249513 -0.109075 0.793796 -0.14034 -0.591715
-0.08446 -0.107151 -0.093841 -0.563816 -0.159159 -0.808511
0.135254 0.515337 0.038754 0.375498 0.613993 0.693534
0.111512 0.562147 0.00516 0.422697 0.683743 0.593736
0.088963 0.710727 -0.05235 0.820202 -0.474392 -0.31235
0.258455 0.466003 -0.003589 0.43468 -0.024578 0.894436
0.135684 -0.842239 0.180538 0.11889 0.632644 0.733311
-0.072278 0.113535 0.095612 -0.561481 0.237384 0.78331
0.039906 -0.367067 -0.008571 -0.956959 -0.161783 0.240432
-0.018102 0.679539 -0.013322 -0.868651 -0.455097 -0.1667
-0.092234 -0.75837 0.018449 -0.572371 -0.156695 0.794963
0.08693 -0.122197 -0.114848 -0.338816 -0.209533 -0.915667
0.154341 0.31354 -0.099246 0.778458 -0.164061 -0.605328
-0.176141 0.389285 -0.089085 0.485298 -0.460205 -0.733622
0.165903 -0.68166 -0.071062 0.725001 -0.110283 -0.678531
0.026509 -0.368497 0.010496 0.995206 -0.048662 0.06921
0.059522 0.522866 0.0529 0.040466 0.530197 0.846083
0.020239 -0.670602 -0.060451 0.6849 0.151549 -0.701043
0.008438 -0.235446 -0.060549 0.768614 -0.07742 -0.634594
0.20466 -0.339725 0.017052 0.980352 -0.073285 0.175628
0.343064 0.293008 -0.115361 -0.529849 -0.636547 -0.556942
-0.120826 -0.497777 0.02816 -0.81019 -0.241753 0.533923
0.013117 0.334858 0.114224 -0.173867 0.188671 0.965045
0.121115 -0.860374 0.178851 -0.098175 -0.94996 0.289352
0.071288 -0.756219 -0.040836 -0.855932 0.238294 -0.456483
0.046007 -0.440362 -0.011408 -0.897518 -0.073597 0.406621
-0.062817 -0.639574 -0.10645 0.100577 0.074016 -0.991869
-0.037894 -0.350402 0.094389 0.320494 -0.137094 0.936701
0.126322 -0.219997 -0.099838 0.228769 -0.110843 -0.966139
0.055194 0.419611 -0.135608 -0.300284 0.041219 -0.952901
0.208129 -0.060035 0.041048 0.938091 0.083817 0.335076
-0.012958 -0.542614 -0.083331 0.652499 0.003079 -0.756091
-0.085347 0.157078 -0.080135 -0.617764 0.211525 -0.75688
0.382248 0.286059 -0.038541 0.04414 0.278441 0.93125
-0.177394 0.378248 0.007048 0.507487 -0.625306 0.592146
-0.130216 0.061642 0.033247 -0.921913 0.33128 0.198374
0.026896 -0.494669 -0.010448 0.9921 0.018894 -0.03684
-0.000927 0.551066 0.031047 0.074277 0.777192 0.62269
-0.018916 -0.834397 -0.075245 0.656878 -0.670528 -0.008367
0.15085 0.299685 -0.100789 0.817979 -0.133997 -0.558961
0.010109 0.036521 -0.151614 -0.162716 0.161255 -0.972454
0.110477 0.513867 0.04899 0.295286 0.537839 0.787949
0.090383 0.805076 0.03008 0.920985 0.157898 0.352987
0.04176 -0.18957 0.040098 -0.977671 -0.061328 0.200689
0.02491 -0.386036 -0.011959 0.972165 -0.047525 -0.214071
-0.112901 0.296058 0.007062 -0.988953 -0.098099 0.109225
0.0083 -0.633086 0.015993 0.668562 0.007509 0.739345
-0.052287 0.461787 0.082386 -0.176486 0.312288 0.933174
-0.00209 0.676085 0.065981 -0.85298 -0.221573 0.455324
-0.035597 0.091023 0.120783 -0.368505 0.009971 0.925281
0.204133 -0.302672 0.025794 0.968837 -0.036066 0.235275
-0.077081 -0.711476 0.015459 0.270998 -0.380991 0.882509
0.00037 -0.731951 -0.092209 0.700222 0.178162 -0.689896
0.146416 0.087416 -0.108492 0.68594 0.224197 -0.691966
0.017536 0.319208 0.119477 -0.158142 0.170631 0.970088
-0.025145 0.395446 -0.129595 -0.015808 -0.01557 -0.999634
-0.062489 -0.017844 -0.129315 -0.259031 -0.117997 -0.957764
-0.115243 -0.208261 0.09756 -0.706174 -0.018346 0.707554
-0.033275 -0.216946 0.114643 0.16265 -0.191919 0.967105
0.28699 0.478254 -0.093939 0.596459 0.677848 -0.428135
-0.024936 0.604267 -0.04038 -0.722996 0.690315 0.019413
0.102395 0.771479 -0.057785 0.942188 -0.062992 -0.320523
0.083837 -0.615194 0.018865 -0.729391 -0.235497 0.639933
0.028756 -0.251055 0.034344 0.98139 -0.031635 0.188206
0.089199 0.429125 0.088862 0.094604 0.182612 0.978552
0.144464 0.335382 0.073065 0.758824 -0.033065 0.649891
0.178387 0.121067 0.057297 0.773189 0.15686 0.613704
-0.221219 0.383469 0.023874 -0.01014 -0.538619 0.835418
0.108869 -0.203655 -0.103005 -0.143436 -0.176801 -0.973073
0.198723 -0.290793 -0.028513 0.878404 -0.089055 -0.469362
0.151368 0.578958 -0.053284 0.585379 0.795535 0.031991
0.017399 -0.74416 -0.071761 0.914784 -0.022552 -0.397659
0.064302 -0.346782 -0.072695 -0.77453 -0.075684 -0.627796
0.152217 -0.332295 0.077894 0.240139 -0.052761 0.969287
0.132984 0.199666 0.094802 0.552231 0.057682 0.829939
-0.397295 0.275663 -0.025979 -0.698731 0.689221 0.183682
-0.545085 0.062401 0.038336 0.550552 -0.831292 -0.059447
-0.328347 0.239899 0.003495 0.291038 -0.36932 0.869766
-0.125827 -0.453943 0.041879 -0.868951 -0.201499 0.448233
0.150573 -0.427727 -0.092233 0.468523 0.192391 -0.860808
0.1808 -0.792988 -0.04276 0.923438 -0.36634 0.025516
-0.020312 -0.835608 -0.061702 0.831015 -0.525283 -0.012061
0.568253 0.080099 -0.004825 -0.868229 -0.477779 -0.053046
0.131801 0.121274 -0.110858 0.517145 0.27188 -0.808761
0.104156 -0.597945 0.030245 -0.197951 -0.040949 0.974891
0.313589 0.349639 -0.037344 -0.022661 -0.265519 0.962348
0.198763 0.38142 -0.061008 0.999137 -0.040265 0.001293
0.012668 0.30849 0.120262 -0.153877 0.127571 0.979251
-0.104096 -0.207567 -0.061246 -0.82763 -0.050123 -0.558783
0.183239 0.115766 0.050927 0.851017 0.192334 0.486897
-0.227653 0.471404 -0.019734 -0.784717 0.616745 0.042594
0.331693 0.352783 -0.041299 0.38892 0.182906 0.897234
-0.001219 -0.529272 0.028609 0.651904 -0.15459 0.742051
-0.471826 0.145477 -0.03152 0.251221 -0.859522 -0.441959
-0.125866 -0.3169 0.046277 -0.988734 -0.065644 0.133092
0.123979 -0.167624 0.103391 0.045885 -0.321403 0.944489
0.366219 0.284874 -0.125365 -0.323721 -0.383562 -0.864013
-0.119044 -0.222778 -0.033561 -0.863679 -0.047842 -0.501073
0.056234 -0.344461 -0.062208 -0.7991 -0.070458 -0.597042
-0.112314 0.0469 0.088889 -0.769355 0.090647 0.606957
0.012158 -0.068174 0.122618 0.361498 -0.188605 0.912302
0.418967 0.21915 -0.048464 -0.58187 -0.726876 0.363653
0.04644 -0.395459 -0.04709 -0.880836 0.025729 -0.462738
0.064094 0.60702 -0.07655 0.205508 0.644317 -0.7357
-0.136068 -0.230406 0.028298 -0.999014 -0.041648 -0.000731
0.019282 -0.215065 0.073027 0.958379 -0.02862 0.280518
0.008012 -0.117757 0.111972 0.596958 -0.219265 0.770679
0.200067 -0.078153 0.062039 0.864446 0.029513 0.50179
-0.119813 0.312754 -0.031483 -0.996402 -0.083221 0.013422
0.068611 -0.083112 -0.125324 -0.272965 -0.437402 -0.856302
0.032943 -0.247385 0.018524 0.904197 -0.092715 0.413098
0.110806 -0.869134 0.035459 -0.040333 -0.997391 -0.056287
0.179918 -0.274782 0.073738 0.453424 -0.012685 0.890257
0.076609 -0.82281 -0.055071 -0.477161 -0.84694 -0.123953
0.175563 -0.346664 -0.056641 0.709264 0.094444 -0.697709
0.015085 0.432239 0.096688 0.107962 0.148707 0.982937
0.096831 -0.49293 -0.099356 -0.549511 -0.012977 -0.835271
0.348574 0.296172 -0.122643 -0.464255 -0.580878 -0.665646
-0.038526 0.587387 -0.019676 -0.387492 0.813629 0.418415
0.191369 0.095697 0.032232 0.990063 0.016052 0.122809
-0.011829 0.658501 -0.014317 -0.999595 -0.013975 -0.000955
-0.040013 0.495408 -0.12716 -0.047594 0.238662 -0.968224
0.041209 0.660454 0.08242 0.11787 -0.955777 0.253366
-0.305487 0.265312 0.003646 0.381283 -0.217279 0.895594
-0.087367 -0.168613 0.114584 -0.273633 -0.055922 0.95986
0.111921 0.20981 -0.117746 0.533467 -0.373544 -0.758303
-0.130015 -0.577775 -0.058066 -0.965615 -0.009463 -0.255042
0.05291 0.274958 -0.131912 -0.375469 -0.075008 -0.922721
0.15804 -0.762183 -0.08427 0.766784 0.338086 -0.537681
-0.363 0.253318 -0.083828 0.00495 -0.268159 -0.961695
0.055848 0.512188 -0.127912 -0.15403 0.119909 -0.979511
-0.062614 0.28782 -0.118253 -0.452918 -0.048144 -0.889987
0.186833 -0.101279 0.080526 0.721907 0.011671 0.691879
-0.144349 -0.126949 0.017596 -0.999676 -0.002378 0.017087
0.019348 -0.471128 -0.031228 0.926207 0.035691 -0.375064
0.008249 0.63766 0.024426 -0.634986 -0.284907 0.716469
0.097825 0.312297 -0.141863 0.210923 -0.097604 -0.968013
0.204004 -0.130749 0.05071 0.909638 -0.055882 0.409513
0.086045 -0.816556 0.042996 -0.870464 -0.131919 0.420372
-0.129187 0.405053 -0.070868 -0.881419 -0.376027 -0.24551
-0.118487 -0.051758 0.087005 -0.765117 0.048163 0.641553
-0.136925 0.557877 -0.007265 -0.3135 0.935677 0.110421
-0.018323 0.356608 -0.128865 -0.009988 -0.007394 -0.999857
0.643493 0.030033 0.04525 0.961315 0.096458 0.012676
-0.037647 0.341876 -0.128049 -0.142898 -0.005233 -0.988752
0.003636 0.717457 0.074174 -0.541745 0.11606 0.829474
-0.028653 -0.066663 -0.119106 0.02345 -0.369878 -0.928549
0.175939 -0.360112 0.070673 0.232304 -0.099997 0.966959
-0.131602 0.06636 0.00876 -0.894719 0.428214 0.030377
0.108493 -0.652486 0.034097 -0.073653 -0.061031 0.991624
-0.014192 -0.309697 0.0897 0.439525 -0.13061 0.888189
0.048584 -0.615717 -0.021373 -0.959381 -0.008475 0.260181
0.173804 -0.592861 -0.082172 0.654904 -0.088104 -0.750443
0.19065 -0.512698 0.02928 0.916097 -0.046198 0.3964
0.033831 0.615266 0.027435 0.01878 -0.147675 0.987006
0.009275 0.086227 0.136806 -0.050853 0.046778 0.991662
0.045018 0.105492 0.134867 0.106123 0.092836 0.980614
0.187295 -0.069515 -0.071601 0.824718 -0.029339 -0.564694
-0.066227 0.448615 -0.129287 -0.170981 -0.066221 -0.98235
-0.376738 0.240537 0.010675 0.053109 0.054783 0.997023
-0.288931 0.269509 -0.078692 0.517957 -0.525627 -0.674052
-0.031534 -0.704441 0.02363 -0.719039 0.089849 0.667766
-0.092964 0.317363 0.061463 -0.876994 0.091251 0.467481
-0.082949 -0.825312 0.085001 -0.239557 0.954312 0.148841
-0.030706 0.176133 0.117055 -0.602163 0.129267 0.787298
0.620649 0.050275 0.037397 -0.835001 -0.543941 -0.05787
-0.199541 0.381461 -0.094476 0.163752 -0.334376 -0.919283
0.187769 -0.358617 0.057211 0.865923 -0.048466 0.49695
0.548273 0.149201 -0.020776 0.620137 0.042581 -0.780993
-0.125594 -0.35576 -0.030679 -0.963644 0.079637 -0.25332
0.093634 0.708484 0.008902 0.704842 -0.698439 0.065613
-0.014315 0.731509 -0.086149 -0.695766 -0.477377 -0.535962
-0.02884 -0.397776 -0.076135 0.431518 0.079701 -0.894265
0.173341 0.31161 0.042472 0.906019 0.049491 0.407677
-0.169892 0.370735 -0.052413 0.675674 -0.691787 -0.25337
0.170443 -0.50796 -0.090171 0.676787 -0.019955 -0.735694
0.170607 -0.20921 -0.076212 0.616166 -0.091818 -0.781927
0.417858 0.216627 -0.058025 -0.546444 -0.800906 0.230881
0.159042 0.08839 0.083292 0.327915 0.28075 0.899731
0.074968 0.627418 0.007807 0.814577 -0.120724 0.565847
0.143405 -0.005498 -0.133191 0.652896 0.100877 -0.750197
0.254434 0.362021 -0.056902 -0.701803 -0.655543 0.266951
0.02328 -0.208383 -0.032941 0.499422 -0.036435 -0.838832
0.105153 0.769574 -0.029237 0.998958 -0.040419 -0.00072
0.117492 -0.126343 -0.118689 0.098015 -0.202587 -0.973022
-0.062405 0.470238 -0.129581 -0.116906 0.078677 -0.989796
-0.293986 0.37088 -0.024631 -0.827858 0.518448 0.193998
0.155139 -0.145115 -0.095544 0.479127 -0.153704 -0.847266
0.102843 0.746245 0.001974 0.821498 -0.116414 0.535512
-0.107811 -0.3218 -0.053385 -0.785118 0.052111 -0.616889
0.032898 0.052659 -0.151677 -0.15235 0.234287 -0.960045
0.103721 0.483363 0.068063 0.225755 0.471476 0.851158
0.144985 -0.780454 -0.104201 0.394181 0.417584 -0.816876
-0.002149 0.296276 0.118313 -0.344001 0.125101 0.929485
0.156165 -0.571434 -0.09723 0.490271 -0.072411 -0.868464
-0.535266 0.102251 0.070283 -0.736792 0.66833 0.096375
0.163937 -0.545104 0.048971 0.24762 -0.310323 0.917377
0.155314 -0.398788 0.074531 -0.003572 -0.068594 0.996516
0.596407 0.116295 0.027287 0.7637 0.64364 -0.039619
0.24329 0.384535 -0.124552 -0.616837 -0.444339 -0.647495
0.042206 -0.096467 0.099661 0.466051 -0.550318 0.690171
0.199429 -0.175201 -0.050669 0.845484 0.015017 -0.530564
0.522263 0.147529 0.001646 -0.727121 -0.684897 0.043467
0.108568 -0.475489 -0.104284 -0.282335 0.043862 -0.957412
0.107077 0.595711 -0.066716 0.504934 0.818461 -0.245492
0.105375 -0.556567 -0.100972 -0.464098 -0.121448 -0.875933
-0.031409 0.459346 -0.131481 0.087207 0.047176 -0.994723
-0.012858 0.187788 -0.116769 -0.283748 -0.237298 -0.928602
0.204394 -0.273923 0.028263 0.986489 -0.022233 0.154431
0.156604 -0.863355 0.028418 0.272184 -0.959445 -0.071859
0.184253 -0.471782 -0.074739 0.75907 0.082631 -0.644468
0.150545 0.248909 0.072096 0.775372 0.061399 0.628248
-0.125064 -0.12795 0.081882 -0.827533 0.030109 0.560224
-0.137095 -0.502172 -0.023888 -0.995306 -0.077656 -0.042638
0.62539 0.04596 0.106096 -0.466371 -0.39689 0.695742
0.128902 0.076418 -0.127465 0.553641 0.260141 -0.789804
-0.335595 0.233041 0.0029 0.376383 -0.419907 0.819743
-0.096305 -0.285492 0.106765 -0.258062 -0.055118 0.957617
0.104805 0.788397 -0.045207 0.993156 0.055023 -0.095722
0.20033 -0.593452 -0.036599 0.993966 -0.053182 -0.092775
0.027765 0.676546 -0.069981 -0.132355 -0.458286 -0.870514
-0.030391 -0.54185 0.044021 0.367304 -0.214221 0.904807
0.072357 0.296105 -0.139318 -0.219096 -0.07736 -0.972175
-0.002596 -0.429792 -0.059964 0.739832 0.019551 -0.672458
-0.225386 0.466759 -0.046949 -0.68601 0.596241 -0.416571
0.008883 -0.705882 -0.008497 0.76838 -0.1838 0.612479
0.000853 0.6871 0.07162 -0.747654 -0.056095 0.6606
0.20542 -0.270083 0.014008 0.999766 0.00225 0.019563
0.096326 -0.757355 -0.082919 -0.764578 0.04465 -0.642204
0.070029 0.850404 -0.059065 0.48205 0.764465 -0.426691
-0.460851 0.157093 0.048135 0.457408 0.419776 0.776065
0.198717 -0.604794 -0.003714 0.989262 -0.062316 0.127619
0.01522 0.272625 0.125065 -0.112672 0.11244 0.98648
0.026306 -0.568706 -0.022114 0.981058 0.071407 -0.13385
-0.022316 0.025444 -0.145995 -0.163002 -0.13883 -0.968373
-0.010465 -0.769387 -0.009373 0.643836 0.301973 0.686013
0.018236 0.063473 0.13644 0.161927 0.060991 0.984291
-0.125663 0.370983 -0.036348 -0.947904 -0.310962 -8.1e-05
0.043282 -0.306856 0.025051 -0.986322 -0.019761 0.153172
-0.131895 -0.237957 -0.003902 -0.936132 -0.037094 -0.349405
0.169586 -0.81851 -0.030035 0.785233 -0.617429 0.039205
-0.036117 0.81605 -0.062052 -0.953593 0.059428 -0.263929
0.19813 -0.648837 -0.044613 0.962455 -0.090814 -0.23177
-0.016111 -0.62836 0.022292 -0.016246 0.056282 0.996079
0.253631 0.438249 -0.007162 0.327565 -0.189268 0.924822
0.11459 0.137554 0.107419 0.561647 0.026649 0.825591
0.168916 0.246434 0.050628 0.714065 0.063662 0.696901
-0.079276 -0.341298 0.103736 0.104319 -0.104024 0.987721
-0.116872 -0.085286 0.090343 -0.765203 0.063003 0.6405
-0.095635 -0.857688 -0.064879 -0.775268 -0.559714 0.110612
-0.1045 0.007969 -0.096983 -0.844032 0.009891 -0.536199
0.132015 0.526991 -0.128107 0.141175 0.414776 -0.89692
0.174573 0.095222 -0.071595 0.807193 0.209387 -0.551037
0.465312 0.236595 -0.016706 -0.198618 0.489662 0.841101
0.174686 0.20075 0.048096 0.787401 0.059261 0.612616
-0.033674 0.578135 -0.090367 -0.243583 0.662335 -0.707589
-0.242341 0.337046 -0.086938 0.408243 -0.487431 -0.770429
0.109563 -0.092245 -0.127685 0.037506 -0.285581 -0.957415
-0.054867 0.087972 0.11145 -0.518601 0.099064 0.84902
0.057308 -0.605983 -0.052356 -0.756923 -0.036329 -0.652018
-0.124309 -0.697098 -0.07176 -0.87722 -0.121408 -0.461165
0.215102 0.405243 -0.090222 -0.928297 -0.367291 -0.037838
0.006875 -0.604297 -0.060356 0.735037 0.054385 -0.67556
-0.051851 -0.142172 0.122945 -0.065909 -0.118265 0.990331
0.136636 -0.869902 0.07494 0.035581 -0.999088 -0.000505
-0.11781 -0.198056 0.095052 -0.745545 -0.008676 0.663884
0.261024 0.354544 -0.096019 -0.644804 -0.735024 -0.190305
0.169859 -0.848551 0.111012 0.781221 0.61306 0.095102
0.177228 -0.162003 0.089562 0.533031 -0.044812 0.843901
0.027839 -0.322548 -0.009074 0.9823 -0.006604 -0.164636
-0.008281 -0.738024 -0.103115 0.64154 0.238139 -0.727706
-0.138018 -0.152885 0.051595 -0.972624 -0.028193 0.226293
-0.042049 -0.361201 -0.085555 0.258792 -0.148795 -0.950027
0.118403 0.429907 -0.146162 0.073074 -0.060705 -0.995191
-0.216843 0.479338 -0.044797 -0.661169 0.588467 -0.460625
-0.109097 -0.654386 0.030527 -0.770796 -0.144705 0.617755
0.152369 -0.220624 0.089344 0.1083 -0.198534 0.973819
0.009059 0.660783 0.061547 -0.368392 -0.919016 0.12716
0.075784 -0.399309 0.038067 -0.676644 -0.325134 0.660352
-0.382521 0.192103 -0.011438 0.472119 -0.880106 0.040914
0.153804 -0.849327 -0.094378 0.868018 -0.067118 -0.487117
-0.336825 0.22232 -0.027086 0.489255 -0.865704 0.000172
0.639031 0.023566 0.025692 -0.384012 -0.892877 -0.199351
-0.342791 0.254728 0.00789 0.053183 0.031448 0.997347
0.167294 -0.517403 0.05567 0.437979 -0.247909 0.857777
0.079601 -0.792459 -0.07322 -0.841597 0.22424 -0.489729
-0.118617 -0.455861 0.053251 -0.832462 -0.236736 0.500653
-0.007964 -0.319934 -0.065711 0.711553 -0.087552 -0.69713
0.146332 0.311263 0.071235 0.774297 0.047137 0.630873
0.019676 -0.094715 0.111265 0.587242 -0.257112 0.766296
0.188667 -0.765014 -0.010446 0.948896 -0.297697 0.077874
0.054094 0.304197 -0.133909 -0.378483 -0.033747 -0.924752
-0.119575 0.356518 0.009965 -0.973779 -0.170194 0.145002
0.069583 -0.784124 -0.049953 -0.897064 0.123756 -0.421731
0.33785 0.414298 -0.063093 0.765936 0.484135 0.422031
-0.064532 -0.863643 0.018972 -0.006111 -0.999856 -0.014786
0.085886 -0.575851 -0.083674 -0.650133 -0.114216 -0.751123
-0.007859 -0.624683 -0.075545 0.667048 0.016909 -0.744819
0.164054 0.372024 -0.113325 0.535909 -0.320146 -0.780975
0.073849 0.573858 -0.104691 -0.056975 0.634022 -0.770517
0.209805 -0.007661 0.020912 0.914527 0.345656 0.169092
0.596751 0.066822 0.036813 0.286549 -0.899303 0.124408
0.203431 -0.409439 0.004035 0.939869 -0.213972 0.250896
0.10844 0.278488 0.103522 0.352791 0.042845 0.934474
0.05626 -0.528784 -0.001125 -0.754401 -0.024182 0.654167
-0.24024 0.309025 -0.038029 0.757635 -0.651647 0.017289
0.017206 -0.373186 0.043519 0.88045 -0.115043 0.443856
0.075754 -0.514493 0.016565 -0.653179 0.015932 0.756944
0.004693 0.695535 0.077035 -0.71942 0.020559 0.690305
-0.114303 0.089482 0.06506 -0.883307 0.16586 0.434305
0.026342 -0.50879 -0.004585 0.965073 -0.059319 0.206949
-0.135796 0.047216 0.02309 -0.993637 0.093489 0.061174
-0.363836 0.210274 -0.056993 0.457828 -0.735623 -0.495186
-0.016064 -0.236618 -0.082748 0.523456 -0.009237 -0.851861
-0.019907 -0.615009 -0.086423 0.666959 0.00679 -0.744006
0.196358 0.358917 -0.060005 0.917123 -0.34179 -0.1902
-0.170608 0.397609 -0.090185 0.439583 -0.392789 -0.800354
-0.570223 0.02744 0.030441 -0.10945 -0.977029 0.08753
0.086269 -0.827947 -0.029545 -0.766569 -0.609726 -0.001973
-0.007371 0.053271 0.135461 -0.289095 0.109563 0.949724
-0.127755 -0.30218 0.035062 -0.995928 -0.058842 0.065556
-0.353311 0.26802 -0.08713 -0.033141 -0.224391 -0.97149
-0.083579 0.204933 -0.077539 -0.779972 -0.025703 -0.624265
-0.128382 0.440219 -0.106211 -0.496937 -0.15764 -0.850585
0.191479 -0.753194 -0.008611 0.957026 -0.271453 0.088914
0.113305 -0.425285 -0.102881 -0.130229 0.042419 -0.985484
-0.004356 0.608822 -0.069747 -0.433075 0.64842 -0.624928
0.155362 0.062055 -0.107164 0.709642 0.193083 -0.677292
0.081519 -0.812649 -0.084086 -0.89869 0.063784 -0.426012
0.024097 -0.15541 -0.028521 -0.117851 -0.238249 -0.843319
-0.331334 0.336026 -0.027994 -0.682491 0.720491 0.112711
0.035477 -0.278308 -0.031757 -0.888293 -0.079008 -0.449346
-0.039324 -0.195968 -0.09306 0.242662 -0.081416 -0.966344
0.061996 -0.059179 0.121856 0.031328 -0.426008 0.903216
0.339244 0.362017 -0.049289 0.583005 0.409014 0.699727
-0.085743 -0.257057 0.110726 -0.158019 -0.040989 0.986504
0.552548 0.1034 0.024015 -0.922212 -0.36336 0.122016
0.138513 -0.108682 0.111767 0.17117 -0.057162 0.982356
-0.035803 0.796187 -0.006416 -0.995978 -0.002222 0.087987
0.043363 -0.239479 0.03612 -0.986488 -0.033225 0.155
-0.095607 -0.155348 0.112764 -0.319119 -0.048524 0.940897
0.174441 0.550008 -0.004243 0.221665 0.727351 0.649244
0.006074 -0.024461 0.1333 0.100188 -0.131063 0.981562
-0.136591 -0.494544 -0.002714 -0.960678 -0.146145 0.229951
0.624143 0.048852 0.026374 -0.803425 -0.530671 -0.245944
-0.204781 0.465489 0.032376 -0.577269 0.265456 0.771157
0.049723 0.292 0.121313 0.123456 0.10502 0.98645
0.090639 -0.840812 -0.094614 -0.976837 0.021648 -0.20895
-0.180441 0.45266 -0.089038 -0.228176 0.268298 -0.935653
0.192277 -0.249227 -0.052806 0.766577 -0.145258 -0.624526
0.173755 -0.532439 0.047818 0.537982 -0.215445 0.813519
0.013936 -0.609446 -0.053225 0.728811 0.097803 -0.67748
-0.422561 0.200095 0.01815 -0.117309 0.278184 0.952449
0.11191 0.370984 0.092677 0.396441 0.089743 0.912557
0.05017 0.565997 -0.107876 -0.106495 0.485006 -0.866575
0.102258 -0.448833 0.038423 -0.791409 -0.11378 0.573515
-0.091223 0.566961 -0.002604 -0.171433 0.906777 0.377524
0.18714 0.371003 -0.093851 0.654395 -0.488015 -0.577355
-0.388261 0.280162 -0.069907 -0.652313 0.608585 -0.450396
0.205111 -0.181878 0.027755 0.970619 -0.014786 0.232109
0.064235 -0.345166 0.049997 -0.694278 -0.241991 0.675452
0.358464 0.337014 -0.134087 0.30539 0.067993 -0.949048
0.173868 -0.423856 -0.07471 0.654413 0.14652 -0.741357
-0.020731 0.750836 0.050592 -0.799813 0.145976 0.580819
-0.335018 0.327148 -0.074544 -0.494295 0.738286 -0.45159
-0.126875 -0.610168 -0.00829 -0.981208 0.023794 0.189093
0.102507 0.596909 -0.040806 0.587362 0.770804 0.229612
0.159954 0.220728 -0.070865 0.791276 -0.044356 -0.609406
0.201534 0.402473 -0.03243 0.959728 -0.273818 0.022744
-0.124504 -0.328561 0.050311 -0.981982 -0.022903 0.186634
0.138616 0.115931 -0.106564 0.663304 0.212441 -0.717318
-0.179968 0.448419 0.043354 0.010096 -0.216792 0.973647
-0.555362 0.077428 0.05475 -0.894833 0.445598 0.018155
-0.014835 0.681438 -0.024184 -0.814798 -0.48208 -0.315938
-0.105963 0.567993 -0.02256 -0.303636 0.940551 0.079032
0.04453 0.189078 -0.113794 -0.140965 0.085849 -0.975464
0.105926 -0.256215 0.086499 -0.057772 -0.177979 0.979082
-0.035629 -0.316306 0.09727 0.249602 -0.071969 0.965447
-0.308936 0.31293 0.004815 -0.159199 0.089039 0.982931
0.079931 0.648295 0.006658 0.894245 -0.146104 0.412313
-0.079692 -0.093259 0.117573 -0.435138 -0.014681 0.89942
-0.121491 0.06555 0.060636 -0.955475 0.177195 0.234862
-0.043018 -0.554486 0.046735 0.460582 -0.201994 0.86419
-0.314014 0.237891 -0.015035 0.623225 -0.763237 0.163349
0.152964 -0.86565 0.041593 0.376352 -0.920325 -0.047843
-0.133927 -0.243586 0.004065 -0.976316 -0.061313 -0.198555
0.578262 0.060957 0.00293 -0.927738 -0.371742 0.02727
-0.066654 -0.861407 -0.046922 0.013565 -0.999776 0.007666
0.170248 0.114725 0.068593 0.714924 0.182818 0.67445
-0.280772 0.355724 -0.092062 -0.510336 0.247403 -0.818989
0.196512 -0.564373 -0.057266 0.88295 -0.011641 -0.459138
-0.268897 0.415002 -0.048027 -0.731524 0.676406 -0.078337
0.15158 -0.818514 0.053126 0.692857 0.642189 0.297787
-0.103784 -0.195649 -0.062761 -0.815109 -0.038144 -0.57732
0.189753 -0.563291 -0.067232 0.78379 -0.019953 -0.619199
0.009474 0.502566 -0.123223 0.064909 0.017149 -0.997258
0.098223 0.747749 0.020448 0.981575 -0.046609 0.178652
0.097876 0.746295 -0.061743 0.972013 -0.148153 -0.181965
0.081266 0.627707 -0.002563 0.932966 -0.032446 0.339112
0.17771 -0.178467 -0.072485 0.647589 -0.005829 -0.760492
-0.05105 0.097282 0.112098 -0.487816 0.15216 0.859107
0.065506 0.66479 0.062032 0.630132 -0.762854 0.141481
-0.119984 0.346959 -0.005485 -0.991973 -0.099176 0.069603
-0.415654 0.230715 0.011021 -0.268438 0.381596 0.880094
0.464899 0.251175 -0.089597 0.782667 -0.062195 -0.584043
0.009219 0.32557 0.115764 -0.240303 0.24534 0.937456
0.063639 0.587707 -0.093612 0.070825 0.655485 -0.751718
0.161831 -0.850957 -0.015838 0.88036 -0.461749 -0.095603
-0.441073 0.17274 0.032395 0.080043 0.668839 0.738668
-0.193131 0.455272 0.043416 -0.355758 0.162544 0.915435
-0.069536 0.300974 -0.114627 -0.546721 -0.030833 -0.836533
-0.184608 0.437946 -0.091917 -0.129595 0.234977 -0.96297
-0.138947 -0.461989 -0.016166 -0.993166 0.04256 -0.104151
0.205535 -0.290387 -0.007118 0.996453 -0.002294 -0.081659
0.54339 0.176319 -0.026706 0.824431 -0.016387 -0.46159
-0.097813 -0.849888 -0.056756 -0.920705 -0.38045 0.035026
0.065627 -0.014035 -0.153583 -0.173879 -0.251899 -0.950409
0.019276 -0.408324 0.022684 0.969751 -0.091333 0.224682
0.174869 -0.810518 -0.031785 0.931437 -0.353348 0.04644
-0.515116 0.123292 0.083722 -0.380425 0.64089 0.534228
0.058566 0.753658 0.072053 0.434446 0.140991 0.865627
-0.513367 0.130464 0.056679 -0.789299 0.607183 0.035484
-0.047394 0.014682 -0.136631 -0.259844 -0.281124 -0.921681
-0.114415 -0.452325 0.062087 -0.844603 -0.183396 0.502647
-0.068674 -0.863937 0.040523 -0.022792 -0.99964 -0.012926
-0.028692 -0.014084 -0.137039 -0.116108 -0.129066 -0.984743
-0.011759 0.649873 -0.018807 -0.999301 -0.000299 -0.021478
-0.09084 -0.297019 0.106764 -0.108611 -0.086581 0.98901
0.4248 0.20896 -0.075333 -0.502415 -0.859425 0.061698
-0.009283 -0.524827 -0.079265 0.684697 0.075249 -0.724432
0.139259 -0.058415 0.112509 0.315148 -0.006282 0.948544
-0.021204 0.694486 0.004417 -0.945309 -0.319656 -0.027407
-0.117461 -0.762632 -0.074211 -0.901536 -0.031759 -0.424597
-0.047871 -0.80773 0.061759 0.304105 0.575355 0.748876
0.115594 0.228913 -0.123582 0.549542 -0.341184 -0.761715
0.142309 -0.815215 0.060646 0.45347 0.799887 0.382962
0.103073 -0.07091 -0.13573 0.044858 -0.315058 -0.946985
-0.103965 -0.122082 0.107308 -0.613053 0.068839 0.782904
-0.419403 0.22662 -0.057393 -0.586644 0.00617 -0.807353
-0.026356 -0.853379 0.003931 0.70111 -0.689945 -0.162499
0.050889 0.351132 0.111846 0.174261 0.189902 0.96516
0.160516 -0.154213 -0.089566 0.633464 -0.122715 -0.763712
0.123552 -0.307036 -0.09531 0.3952 0.008049 -0.916927
-0.042959 -0.139951 -0.101013 0.238768 -0.303842 -0.920977
0.192475 -0.050235 -0.062788 0.902803 -0.050733 -0.426798
0.094369 -0.611353 0.027804 -0.429321 -0.000959 0.896566
-0.12955 -0.282679 0.022 -0.991439 -0.126797 0.002941
-0.025184 0.703951 -0.008951 -0.847727 -0.511057 -0.093411
0.209694 -0.031629 0.031896 0.947559 0.015555 0.319076
-0.475225 0.173317 0.028486 -0.439535 0.843713 0.244501
-0.005154 -0.817071 -0.006799 0.968154 -0.019303 0.239059
-0.017243 -0.206934 0.112507 0.346942 -0.142663 0.925372
-0.018062 0.52538 0.057659 -0.103307 0.52316 0.844015
-0.033394 -0.862311 -0.105921 0.221876 -0.968737 -0.028869
-0.125875 -0.308228 0.051491 -0.982733 -0.116061 0.140375
0.09819 -0.63571 0.027217 -0.617608 0.149064 0.756729
-0.272098 0.411389 -0.02804 -0.732786 0.676002 0.068669
-0.098556 -0.814889 -0.102662 -0.800752 -0.338301 -0.490693
0.203944 -0.078624 -0.036462 0.93367 0.067392 -0.351058
0.010206 -0.005998 -0.143732 -0.125268 -0.215953 -0.96807
0.121827 0.00923 -0.14457 0.427662 0.063819 -0.901135
0.152336 0.111272 -0.093927 0.738938 0.241888 -0.628691
-0.523764 0.114165 0.025428 -0.858306 0.380449 -0.256648
0.083438 -0.453531 0.020005 -0.664253 -0.147156 0.731957
0.453273 0.228974 -0.091337 0.612519 -0.242484 -0.747381
0.234343 0.47694 -0.128698 0.204966 0.29333 -0.93345
0.127041 -0.406842 -0.100926 0.267788 0.070662 -0.958144
0.087519 -0.758797 -0.071434 -0.80943 0.133608 -0.570913
0.056614 -0.324692 0.04776 -0.702481 -0.206315 0.679325
-0.031907 -0.116349 0.125943 0.048991 -0.100369 0.99349
-0.106925 -0.0625 -0.083523 -0.768491 -0.184244 -0.612755
0.178174 0.489199 0.031408 0.537204 0.350043 0.763944
0.088679 -0.835874 -0.040335 -0.998483 -0.045076 0.000311
-0.121729 -0.649486 -0.080288 -0.808751 0.006882 -0.587541
0.187435 -0.257567 -0.056813 0.723986 -0.183114 -0.664963
0.198805 -0.640984 -0.037795 0.999703 -0.006361 -0.020688
0.184073 -0.617837 -0.070425 0.672093 -0.082053 -0.735717
0.114279 0.497823 -0.139188 -0.030886 0.325499 -0.942994
-0.51771 0.09205 0.091886 0.322191 -0.084908 0.826334
-0.51199 0.081883 0.056478 0.591879 -0.803388 -0.008443
-0.02475 -0.03054 0.132763 -0.047268 0.149122 0.986112
0.461498 0.265816 -0.042178 0.520737 0.69374 0.462526
0.140759 0.419192 -0.140101 0.386021 -0.232387 -0.89243
0.09163 -0.724429 -0.080101 -0.805752 -0.073484 -0.584539
0.166247 -0.256205 0.080345 0.334563 -0.094287 0.934131
-0.122946 -0.380001 0.058501 -0.983651 -0.025738 0.176039
0.044483 -0.045945 -0.133702 -0.33013 -0.437063 -0.835694
-0.200284 0.505855 0.003131 -0.747125 0.642094 0.163016
0.513139 0.189487 0.01729 -0.476308 0.022938 0.800425
-0.298803 0.316067 0.006377 -0.150021 0.038224 0.986643
0.034169 0.417917 0.096874 0.086723 0.197162 0.976388
0.067291 0.777615 -0.109493 0.513295 0.008022 -0.857933
0.039315 -0.203617 0.023654 -0.975866 -0.098285 0.194846
-0.320041 0.258788 -0.082841 0.063163 -0.542186 -0.837451
-0.119529 0.098501 0.051504 -0.924557 0.08213 0.367485
-0.016711 0.281073 0.114756 -0.2685 0.021758 0.962963
0.38608 0.325454 -0.122526 0.540334 0.406208 -0.736052
0.003164 -0.417371 0.052669 0.783725 -0.227623 0.576883
-0.13916 0.552828 -0.041231 -0.466571 0.811118 -0.34937
0.167994 0.248632 -0.058236 0.891416 0.02001 -0.45262
0.049015 -0.145859 -0.083387 -0.724692 -0.222321 -0.650432
0.207641 -0.177547 -0.014582 0.999722 -0.000441 -0.02268
0.202233 -0.53311 -0.005008 0.934507 -0.042229 0.33914
-0.007148 -0.632244 0.023018 0.149437 0.150328 0.975111
0.133419 -0.716889 -0.094761 0.374745 0.113592 -0.916501
-0.035398 0.729647 -0.011519 -0.924826 -0.210799 0.300518
-0.122274 -0.479097 -0.05827 -0.765663 0.106169 -0.633777
0.088 -0.185917 0.092059 -0.406 -0.047193 0.912072
-0.10686 -0.561582 -0.087992 -0.591234 0.0693 -0.801674
0.165122 -0.812324 -0.095729 0.864378 -0.101228 -0.481703
-0.104681 0.352124 -0.094134 -0.653585 -0.197977 -0.730154
-0.005581 0.396261 -0.129158 0.05308 6.2e-05 -0.998552
0.159861 -0.078554 0.102934 0.527844 0.064736 0.845855
0.174416 0.489272 -0.134585 0.103865 0.257175 -0.959241
0.193 -0.084702 0.073212 0.699362 0.021163 0.710315
-0.002117 -0.263674 -0.069058 0.744396 -0.106466 -0.659015
0.141943 0.340321 -0.119885 0.662977 -0.173535 -0.727925
0.087558 -0.841762 -0.070207 -0.98385 0.15142 -0.079325
-0.091813 -0.324368 -0.069896 -0.654526 0.026394 -0.755413
0.16793 0.572627 -0.050707 0.382118 0.894588 0.080621
-0.221607 0.444537 -0.07484 -0.496811 0.508037 -0.702736
-0.047152 0.041807 -0.137936 -0.322575 0.223308 -0.919755
-0.035136 -0.861192 -0.0818 0.305117 -0.933631 0.14402
-0.037071 0.593705 -0.048833 -0.636095 0.76909 -0.004035
-0.050385 -0.791534 -0.14683 -0.22636 0.327294 -0.904064
-0.242579 0.446877 -0.013206 -0.759961 0.618385 0.189191
-0.02267 -0.679889 -0.094292 0.571302 0.223758 -0.789098
-0.066409 0.354197 0.092551 -0.398061 -0.099412 0.901938
-0.123021 -0.007523 -0.066577 -0.864635 0.02665 -0.501511
-0.177216 0.435421 0.038951 0.020397 -0.474528 0.878404
0.205537 -0.285424 0.015853 0.99903 0.010619 0.037404
0.205794 -0.355094 -0.005415 0.998652 -0.006752 -0.003499
-0.026847 0.313902 -0.13 -0.101516 0.064138 -0.992068
0.45936 0.212855 -0.011573 -0.474992 0.17458 0.850895
0.001831 -0.195469 0.102776 0.615997 -0.10081 0.781229
0.182572 -0.354178 0.066311 0.828498 -0.064243 0.554675
-0.347123 0.276762 -0.08939 -0.112094 -0.145767 -0.980892
0.582293 0.12972 0.050868 0.708805 0.699691 0.082819
0.058917 0.122554 0.129945 0.142292 0.058077 0.986703
0.017153 -0.264617 -0.04348 0.870896 -0.085559 -0.47815
0.059417 0.861839 0.024649 0.335867 0.900256 0.240314
-0.098938 -0.838948 -0.07748 -0.961837 -0.179518 -0.198184
-0.395313 0.183997 -0.030356 0.505167 -0.847653 -0.150713
0.102108 -0.863842 0.15098 -0.293424 -0.930518 0.208267
-0.088686 -0.522703 0.070532 -0.570166 -0.174678 0.783142
-0.021867 0.145894 0.121992 -0.389085 0.019101 0.92055
0.17206 -0.656542 -0.071767 0.58643 -0.222459 -0.77873
0.150849 0.57707 -0.041747 0.537276 0.797358 0.204207
-0.151811 0.421512 0.037929 -0.407594 -0.50244 0.759281
-0.12199 -0.498038 -0.061312 -0.79812 0.076591 -0.597589
0.271321 0.398243 -0.016027 -0.163994 -0.426253 0.889475
-0.03413 -0.154795 -0.094551 0.365547 -0.192004 -0.907133
-0.087817 -0.818887 0.053415 -0.625074 0.73059 0.242482
0.009979 -0.405416 0.047009 0.859457 -0.1989 0.470835
-0.009818 0.844553 0.032856 -0.739243 0.424494 0.491999
-0.044882 0.493456 0.070299 -0.22979 0.503368 0.831913
-0.296731 0.249035 -0.05601 0.56085 -0.792464 -0.226453
0.181656 -0.429586 -0.068262 0.736852 0.154311 -0.657843
0.028354 -0.147845 -0.040526 -0.913691 -0.23623 -0.328961
0.207491 -0.154236 -0.022406 0.990977 -0.095058 -0.073243
0.387157 0.239448 -0.062962 -0.607626 -0.759467 0.225554
0.044296 0.863111 0.029944 0.098912 0.963057 0.239833
0.004637 -0.53758 0.021261 0.699786 -0.169095 0.693932
0.028656 -0.005804 -0.146423 -0.170153 -0.21343 -0.958532
0.248968 0.481396 -0.000943 0.493925 0.091364 0.860484
-0.013087 -0.716963 0.017816 0.684768 -0.223444 0.693094
0.183311 -0.784281 -0.038997 0.973212 -0.219445 -0.022563
0.108269 -0.232465 0.089793 -0.037053 -0.147785 0.987943
0.066028 0.434819 -0.137975 -0.291357 0.009013 -0.95588
0.096368 0.322578 -0.143004 0.15825 -0.092179 -0.980273
-0.128217 0.09255 0.017915 -0.994539 -0.024546 0.093484
-0.023871 0.156008 0.121039 -0.3706 -0.003163 0.928649
-0.087567 -0.655168 -0.105143 -0.31963 0.015282 -0.944322
-0.067264 0.066059 -0.121457 -0.521178 0.214142 -0.824649
0.001871 0.05715 -0.144707 -0.130737 0.193412 -0.972329
0.081062 -0.199872 -0.094236 -0.404139 -0.233716 -0.883861
-0.072147 -0.193896 0.116374 -0.319647 -0.06236 0.944033
0.078385 -0.44131 -0.082705 -0.689053 0.038449 -0.723623
0.264887 0.506283 -0.032288 0.740859 0.564409 0.362585
0.062222 -0.796757 -0.002091 -0.850279 -0.485471 0.182471
0.205541 -0.362583 -0.013292 0.995831 0.019399 -0.070853
-0.357128 0.315222 -0.055675 -0.664797 0.739527 -0.077267
0.029245 -0.301729 -0.005129 0.989993 -0.091778 -0.088609
0.032873 0.143825 0.132076 0.040466 0.035211 0.998163
-0.115908 -0.205859 -0.041595 -0.851762 -0.098907 -0.513364
0.172136 0.138861 0.059807 0.740978 0.128643 0.658578
0.113539 -0.319153 0.079878 -0.14129 -0.088509 0.985095
0.191017 -0.377988 0.047922 0.930187 -0.032587 0.364282
0.049382 -0.616388 -0.03775 -0.926118 -0.123409 -0.341237
0.13927 -0.098791 0.112266 0.203403 -0.054933 0.976165
-0.016329 0.676326 -0.003767 -0.796199 -0.587405 -0.023641
0.029366 0.471039 0.084051 0.117157 0.399393 0.908679
0.043907 -0.107745 0.087699 0.568846 -0.623319 0.53394
0.082635 -0.548157 -0.08462 -0.699424 -0.087576 -0.709287
0.202976 -0.573431 -0.027383 0.961362 -0.23338 -0.11062
0.082655 -0.779738 -0.072769 -0.838871 0.235048 -0.490487
-0.062697 -0.084474 0.122408 -0.26555 -0.063382 0.961541
-0.070526 0.571637 -0.074364 -0.467521 0.7315 -0.492241
0.10075 -0.382513 0.061127 -0.475271 -0.247603 0.844176
-0.081132 0.298569 -0.105723 -0.527518 -0.05775 -0.827416
0.189859 0.05207 0.064356 0.767861 0.253008 0.587899
-0.034328 -0.126 0.125234 0.011221 -0.090735 0.995149
0.07217 -0.796836 0.017273 -0.868396 -0.248586 0.426854
-0.29338 0.32724 -0.095499 -0.162585 0.221578 -0.958706
0.016558 -0.760277 -0.035692 0.909813 -0.231864 0.316667
0.1876 0.171153 -0.021862 0.899221 0.210067 -0.381098
-0.418938 0.166194 0.003819 0.674087 -0.73834 0.005229
0.090688 -0.780573 -0.08552 -0.781362 0.311149 -0.537562
0.141916 0.159384 -0.093545 0.66463 0.085676 -0.741755
0.124603 -0.633043 -0.096845 -0.051038 -0.098269 -0.992954
0.612721 0.091072 0.074706 0.734993 0.672519 0.079104
-0.124783 0.370043 -0.058149 -0.931481 -0.343042 -0.113898
0.614973 0.059239 0.029986 -0.742695 -0.639248 -0.186444
0.052518 -0.671211 -0.024676 -0.969184 -0.075299 -0.218904
0.085322 0.630832 -0.034673 0.882429 0.362761 -0.283785
0.160622 -0.844451 -0.075919 0.977399 -0.032001 -0.205425
-0.016598 -0.795262 0.019147 0.884404 0.268595 0.37928
-0.138088 0.400214 -0.035184 0.314 -0.880168 -0.035231
0.183847 -0.292259 0.070806 0.55248 -0.04729 0.827883
0.213332 -0.068848 0.025612 0.987422 0.037473 0.142591
-0.003732 -0.471318 -0.06603 0.754521 0.103117 -0.647247
-0.378147 0.296857 -0.038055 -0.716562 0.695641 0.044615
0.201722 -0.296746 0.03478 0.9408 -0.066797 0.331982
-0.428351 0.227558 -0.050039 -0.662865 0.2252 -0.708142
-0.113736 -0.671999 -0.088871 -0.653384 -0.042864 -0.751735
-0.123166 -0.446902 0.049556 -0.859418 -0.187529 0.474047
