0.587857 0.123381 0.056836 0.528156 0.651909 0.439815
-0.047149 0.088731 -0.125627 -0.451429 0.308791 -0.835617
-0.136674 -0.505412 -0.01286 -0.99231 -0.09029 0.06061
0.074546 -0.13443 -0.107327 -0.473883 -0.215644 -0.852547
0.206934 -0.203116 0.006442 0.997943 -0.047471 0.041901
0.015652 -0.435824 0.027406 0.846112 -0.055691 0.529084
0.027104 -0.662307 -0.039734 0.996832 0.004299 -0.057393
0.097643 -0.007237 0.129397 0.282573 -0.250304 0.925065
0.379186 0.295452 -0.040307 0.109146 0.301114 0.940224
0.033432 0.361847 0.111156 0.035015 0.219679 0.97322
-0.091293 0.276709 -0.094918 -0.692296 -0.071913 -0.717847
0.062639 0.78917 -0.111906 0.48019 0.0533 -0.875442
-0.076054 -0.217427 -0.086531 -0.493526 0.004083 -0.866717
0.076609 -0.82281 -0.055071 -0.477161 -0.84694 -0.123953
-0.282467 0.263881 -0.028458 0.686356 -0.663708 0.289724
0.024836 -0.281809 0.049986 0.948034 -0.022329 0.308092
-0.134449 -0.560913 -0.03156 -0.986013 -0.107759 0.115355
0.083765 0.028673 -0.159729 0.165039 0.008027 -0.98093
0.135812 0.305419 -0.119958 0.715371 -0.067254 -0.693844
0.172832 0.139186 -0.055208 0.881135 0.080633 -0.464573
0.16428 -0.81878 0.014624 0.867789 -0.453647 0.194664
0.189151 0.001869 0.074581 0.753877 -0.358419 0.54392
0.202686 0.493969 -0.130375 0.14727 0.269389 -0.951235
-0.104633 -0.359238 -0.061214 -0.736335 0.07611 -0.672084
0.135014 -0.389691 -0.096103 0.464495 0.127619 -0.874584
-0.068974 -0.258139 -0.089831 -0.386127 -0.016136 -0.920467
0.3833 0.239578 -0.083289 -0.649323 -0.756205 -0.047912
-0.114249 0.125042 -0.050559 -0.886769 0.056656 -0.458677
-0.066968 0.222769 0.092247 -0.541171 0.124374 0.831585
0.1177 -0.399523 -0.102358 0.017272 0.038648 -0.997525
0.163621 -0.351647 -0.068138 0.65411 0.079029 -0.75218
0.004931 -0.714482 -0.083923 0.637463 0.190479 -0.742683
0.153767 -0.60025 0.037322 0.244955 -0.362444 0.885363
0.02614 0.493989 -0.123253 -0.090184 0.051403 -0.992702
-0.118944 -0.337606 -0.039461 -0.857966 0.100645 -0.502987
0.000173 0.475595 0.083522 -0.006109 0.434793 0.899874
-0.128652 -0.408943 -0.027704 -0.882899 0.053731 -0.462882
0.337521 0.391049 -0.134666 0.569476 0.010265 -0.816245
-0.031597 -0.699401 -0.105687 0.524719 0.223047 -0.820988
0.147261 0.403266 0.074118 0.579051 0.032673 0.814418
-0.175381 0.523236 0.021511 -0.648927 0.600471 0.403511
0.178609 -0.386459 0.06744 0.606967 -0.051667 0.790316
0.119786 -0.416552 0.06355 -0.372063 -0.198646 0.904752
0.344736 0.282668 -0.100291 -0.60862 -0.720811 -0.33029
0.205416 -0.170978 -0.037946 0.965456 -0.009295 -0.255567
-0.058254 -0.689737 0.018183 0.145547 -0.325824 0.930881
-0.152898 0.383354 -0.025271 0.745672 -0.664597 0.028976
0.051879 0.802176 -0.114311 0.276503 0.285333 -0.915255
-0.012918 -0.008556 0.145894 -0.094472 -0.391933 0.864785
-0.076239 0.303604 0.081802 -0.58392 0.005615 0.811393
0.109658 -0.823423 0.095176 -0.218484 0.94611 0.235764
-0.134029 -0.522376 -0.044414 -0.908158 0.030624 -0.395364
-0.129187 0.405053 -0.070868 -0.881419 -0.376027 -0.24551
-0.051637 0.219603 -0.112288 -0.577729 -0.283345 -0.765174
-0.07247 -0.223245 0.114239 -0.145441 -0.079406 0.985697
0.11532 -0.034304 0.12176 0.325047 -0.073047 0.942241
0.128499 0.428917 -0.144781 0.144202 -0.088599 -0.98542
0.199101 0.393003 -0.028231 0.985849 -0.150742 0.022502
-0.042316 -0.641358 -0.100792 0.436457 0.054065 -0.897371
0.027408 -0.646479 -0.030536 0.999572 -0.013806 -0.007664
0.193281 -0.039652 -0.06247 0.905665 -0.027027 -0.423004
0.478243 0.242795 -0.018466 0.160777 0.734045 0.588608
-0.040136 -0.252596 -0.092733 0.173265 0.03979 -0.982909
-0.10781 -0.248213 0.102329 -0.607432 -0.023257 0.78903
0.00777 -0.436017 -0.048134 0.787312 0.018137 -0.616069
-0.102276 -0.454508 0.078973 -0.597176 -0.142122 0.766933
0.182465 -0.33626 0.06859 0.793375 -0.058433 0.604828
0.153471 0.205369 -0.078217 0.766788 -0.005218 -0.641441
0.242958 0.375901 -0.05115 -0.584458 -0.71626 0.380907
0.124883 -0.521484 -0.108119 -0.040507 -0.00446 -0.998957
0.155575 0.273301 0.062546 0.797984 0.053391 0.599662
-0.073218 0.360314 0.088941 -0.579084 -0.050936 0.811801
-0.292804 0.362641 -0.075331 -0.737358 0.498063 -0.44042
-0.091765 0.111815 0.081338 -0.579499 0.400832 0.709188
-0.069343 0.335754 -0.115596 -0.499094 -0.050107 -0.865037
0.097852 0.069725 -0.147073 0.431525 0.228175 -0.871309
-0.098288 0.261666 0.062906 -0.758915 0.031767 0.648846
-0.011806 -0.171743 0.114564 0.477661 -0.137255 0.866976
0.38608 0.325454 -0.122526 0.540334 0.406208 -0.736052
-0.123101 0.363026 -0.030036 -0.959146 -0.275256 -0.005251
-0.387833 0.259483 0.005711 -0.242518 0.385009 0.884471
0.002297 0.844122 -0.073593 -0.411643 0.750331 -0.516576
-0.096206 -0.565993 0.056353 -0.735217 -0.054654 0.65916
-0.162351 0.437181 0.042114 -0.303492 -0.533505 0.784705
0.011562 -0.457066 0.031445 0.801295 -0.060591 0.595057
0.00161 -0.340893 0.073689 0.689187 -0.107857 0.715599
-0.031464 0.725186 -0.033388 -0.759553 -0.614166 -0.192522
-0.004283 -0.07523 -0.110079 0.333153 -0.526404 -0.778057
0.287135 0.482788 -0.085308 0.651248 0.656746 -0.379425
0.066974 0.186199 -0.118694 -0.109434 -0.03739 -0.989221
0.196088 -0.183612 -0.056194 0.770471 0.016422 -0.634317
0.178025 -0.607415 -0.076933 0.643014 -0.079736 -0.761351
0.028436 -0.241418 0.036908 0.982226 -0.014096 0.186431
-0.119026 0.016807 0.085244 -0.815115 0.231475 0.53057
0.132757 -0.571323 -0.105951 0.063473 -0.135944 -0.988558
-0.07116 -0.428044 0.085474 0.141697 -0.253005 0.955789
0.528795 0.158537 0.025445 -0.523287 0.063701 0.845131
-0.002376 -0.510076 -0.069057 0.792357 0.059147 -0.607168
0.272822 0.395562 -0.141612 -0.229278 -0.024755 -0.971393
0.101606 0.251446 0.107205 0.368339 0.074168 0.926665
0.095008 -0.464064 -0.097474 -0.53248 0.057993 -0.84418
0.013229 -0.373047 -0.03934 0.750848 0.023752 -0.659749
0.415543 0.220251 -0.110383 -0.046387 -0.593238 -0.777951
0.206109 0.425619 0.016694 0.692454 -0.582116 0.406779
-0.045628 0.375728 -0.12718 -0.229507 -0.03646 -0.971458
0.211207 -0.04215 -0.005453 0.974811 0.010029 -0.22145
-0.30545 0.254434 -0.076072 0.29698 -0.753167 -0.568147
0.077814 0.552291 0.022974 -0.066292 0.831968 0.532631
-0.067825 -0.793109 -0.141039 -0.455297 0.277299 -0.842508
-0.230194 0.331837 -0.072726 0.542895 -0.671413 -0.500049
0.02628 -0.270827 0.045618 0.977668 -0.021364 0.206834
-0.312321 0.312374 -0.09535 -0.194589 0.184571 -0.962951
-0.115933 -0.646369 -0.087318 -0.669558 0.04498 -0.739892
-0.054999 -0.509273 -0.100109 0.034321 0.086063 -0.995391
-0.072511 -0.509589 -0.098222 -0.189326 0.083753 -0.977786
0.148986 0.249062 -0.09306 0.792002 -0.140055 -0.593463
-0.127539 0.179081 -0.009313 -0.976691 0.046145 -0.192627
0.042662 -0.165281 0.049933 -0.937 -0.120844 0.322389
0.612868 0.059574 0.05429 -0.756854 -0.647525 -0.066421
-0.07137 -0.672773 0.028221 0.289587 -0.329043 0.898701
-0.467172 0.134532 0.041834 0.73277 -0.612558 0.275595
0.194087 -0.542143 0.016455 0.929927 -0.063246 0.361637
-0.071799 -0.379028 -0.081849 -0.303749 -0.090556 -0.947135
-0.06082 -0.613265 0.039668 0.441866 -0.161844 0.882112
-0.343697 0.309764 -0.08466 -0.450916 0.467264 -0.759086
-0.091869 -0.856921 -0.046506 -0.629303 -0.759892 0.08064
-0.127752 -0.368806 0.029225 -0.996423 -0.012209 0.082087
0.011533 0.337765 -0.126836 0.088329 0.003916 -0.995823
-0.093553 0.032624 0.103708 -0.419492 0.258944 0.869983
0.018494 -0.467878 0.018797 0.893987 -0.07109 0.440289
-0.054089 -0.030901 0.12856 -0.205078 0.080627 0.975012
0.110937 -0.627818 -0.093939 -0.444754 -0.086763 -0.889952
-0.367397 0.248458 0.009789 0.035519 0.058031 0.997577
0.40794 0.279322 -0.127592 0.154074 0.084345 -0.980435
0.418967 0.21915 -0.048464 -0.58187 -0.726876 0.363653
-0.082846 -0.496717 -0.094364 -0.416594 0.116907 -0.895255
-0.06206 0.197389 0.097898 -0.442968 0.047473 0.894875
0.014353 -0.281268 -0.045133 0.819299 -0.102983 -0.561574
0.013776 0.696221 0.084089 -0.557795 0.046866 0.825908
-0.276741 0.334797 0.008585 -0.139547 -0.047305 0.986045
0.032943 -0.247385 0.018524 0.904197 -0.092715 0.413098
0.196955 -0.148852 0.063164 0.892701 -0.094559 0.44045
0.104805 0.788397 -0.045207 0.993156 0.055023 -0.095722
-0.070197 0.294671 0.086155 -0.448263 -0.022938 0.88102
0.150401 0.1568 0.079774 0.706535 0.040966 0.706444
-0.497096 0.106859 0.074212 0.636585 -0.179674 0.729083
0.2341 0.516922 -0.104017 0.5109 0.60377 -0.611655
-0.050124 -0.391381 -0.082436 0.157647 -0.094097 -0.97821
0.60529 0.092343 0.080692 -0.09345 0.532357 0.711221
-0.128874 0.111948 -0.014258 -0.980258 -0.030804 -0.189711
-0.002465 -0.77839 -0.113921 0.836734 0.286045 -0.465986
0.103349 -0.746172 0.027851 -0.049415 -0.406603 0.878405
-0.451059 0.17275 0.033353 0.051047 0.722665 0.6892
0.064323 0.261286 0.121605 0.24686 0.068607 0.96578
-0.061331 -0.618443 -0.104875 0.097038 0.068465 -0.991857
-0.078555 -0.361347 -0.079929 -0.444812 -0.019547 -0.895322
-0.094 -0.355442 -0.070298 -0.789316 0.042217 -0.576611
0.165507 -0.527842 0.053574 0.327549 -0.274718 0.89798
-0.032867 -0.856307 -0.006745 0.566151 -0.806195 -0.16599
0.203259 -0.24284 -0.033671 0.963889 -0.130984 -0.226714
-0.005073 -0.37277 -0.056495 0.64683 -0.020606 -0.761624
0.005091 0.273743 0.122936 -0.277218 0.116776 0.952381
0.056124 0.865588 0.004307 0.317123 0.934952 0.143012
0.175373 0.229051 -0.043143 0.932559 0.009867 -0.360282
-0.06455 -0.785712 0.03952 -0.320158 0.714907 0.611714
0.181033 -0.335321 -0.049611 0.734975 0.052472 -0.6759
-0.090621 0.090713 -0.093211 -0.717015 0.186699 -0.671332
-0.070808 0.031117 -0.130742 -0.551517 0.212955 -0.804576
0.088106 -0.834549 -0.010082 -0.975373 -0.124753 0.005223
-0.518739 0.111537 0.091455 0.020514 0.173048 0.856934
0.182674 0.224519 -0.014366 0.998032 0.010099 -0.059194
0.07704 -0.68454 0.030811 -0.424005 0.282744 0.859809
-0.074321 -0.540453 0.062651 0.406954 -0.215232 0.887516
-0.036227 -0.750885 0.004736 0.554644 -0.210042 0.785045
0.190958 -0.06167 -0.065306 0.885315 -0.033684 -0.461906
0.127966 -0.622255 -0.098063 0.00773 -0.118157 -0.989921
0.011416 -0.204713 0.091636 0.828722 -0.082666 0.552906
0.087771 -0.843941 -0.030974 -0.991391 -0.11441 0.042744
0.05144 -0.668126 -0.004943 -0.998368 -0.023936 0.038716
-0.119026 -0.635042 -0.083143 -0.724093 0.050687 -0.683075
-0.108218 0.063161 -0.077701 -0.826217 0.123671 -0.54933
0.035343 -0.319041 -0.021568 -0.992146 -0.016567 -0.119747
-0.294626 0.365387 -0.015017 -0.769088 0.558887 0.292124
0.182878 0.082213 0.063777 0.82528 0.160401 0.539093
0.104047 0.42796 0.087184 0.217675 0.242524 0.944385
-0.008281 -0.738024 -0.103115 0.64154 0.238139 -0.727706
-0.177394 0.378248 0.007048 0.507487 -0.625306 0.592146
-0.083579 0.204933 -0.077539 -0.779972 -0.025703 -0.624265
0.1791 0.378825 0.039986 0.789471 -0.151311 0.594206
-0.075067 -0.862736 0.135236 -0.024662 -0.992777 0.108895
0.195277 -0.079241 -0.056472 0.861047 0.013588 -0.508317
0.364828 0.268539 -0.056537 -0.627356 -0.606389 0.483031
-0.036664 -0.526545 -0.097496 0.319446 0.036504 -0.945527
0.035905 0.814606 -0.111504 0.06193 0.541937 -0.832514
0.041401 0.869072 0.00542 0.07026 0.970751 0.183088
0.18306 0.212341 0.008042 0.999487 0.027265 0.015505
-0.276545 0.396402 -0.004575 -0.676863 0.554548 0.483369
-0.113251 -0.317299 -0.045335 -0.861317 0.05252 -0.490157
-0.09187 -0.788519 -0.116689 -0.791027 0.130072 -0.597757
-0.126882 -0.689014 -0.066816 -0.966406 -0.062661 -0.234744
0.184264 0.482697 -0.135167 0.087879 0.165515 -0.981563
0.187625 -0.151716 -0.065124 0.686984 -0.054505 -0.724439
0.019553 -0.751787 -0.062153 0.982228 -0.100723 -0.152065
0.187072 -0.525366 0.034534 0.838988 -0.08389 0.537263
0.040568 -0.329231 0.007691 -0.939182 -0.087336 0.33056
-0.128351 -0.380652 0.022534 -0.986992 0.124529 0.070221
0.098739 -0.127577 -0.117615 -0.244727 -0.214314 -0.943192
0.215517 0.426637 0.003868 0.289329 -0.852687 0.407562
0.591385 0.083574 -0.002317 0.595698 0.259958 -0.758509
-0.187927 0.35299 -0.025702 0.57399 -0.803118 0.146518
-0.304833 0.244018 -0.053244 0.527399 -0.813123 -0.244717
0.108269 -0.232465 0.089793 -0.037053 -0.147785 0.987943
-0.111338 -0.182638 -0.05281 -0.817491 -0.091359 -0.56811
-0.025077 -0.794083 0.038862 0.688137 0.503369 0.516122
-0.497968 0.097085 0.034081 0.284106 -0.867246 -0.333369
0.096693 -0.868006 0.083472 -0.404918 -0.903642 -0.017372
-0.427581 0.160943 0.008213 0.510968 -0.856055 0.058489
0.434793 0.298856 -0.071217 0.499339 0.828314 0.245278
0.177246 -0.382366 -0.065562 0.683901 0.221076 -0.689004
0.045287 0.51178 0.060742 0.064456 0.530964 0.844425
-0.027102 -0.841616 0.088997 0.964325 0.163006 0.174552
-0.069479 0.265765 0.087214 -0.515873 0.070257 0.853663
-0.064612 -0.861912 -0.027233 0.028147 -0.998173 -0.050581
0.032609 -0.125023 -0.074067 -0.839388 -0.296487 -0.455144
-0.113037 -0.296631 0.094422 -0.744501 -0.039835 0.66617
-0.106901 0.268807 0.036579 -0.982689 0.040446 0.179374
-0.048294 -0.517827 -0.099829 0.154572 0.072272 -0.984543
0.04814 -0.623014 -0.027999 -0.987141 -0.075098 -0.058993
0.075058 0.855001 0.008948 0.654664 0.730571 0.193642
0.025679 -0.661467 -0.049578 0.957061 0.063144 -0.263884
0.08221 -0.825946 -0.038542 -0.442346 -0.890456 -0.022225
0.313857 0.364004 -0.034028 0.363767 -0.244914 0.882142
0.240489 0.436404 -0.00061 0.651634 -0.210013 0.720062
0.124064 -0.238146 0.088448 0.084804 -0.155875 0.984045
0.02382 -0.34703 0.037545 0.890521 -0.21137 0.391947
0.001255 -0.792323 -0.020439 0.876257 -0.170063 0.446241
0.057308 -0.605983 -0.052356 -0.756923 -0.036329 -0.652018
0.089759 0.713164 0.048948 0.962038 -0.07143 0.246107
-0.079861 0.51272 -0.113646 -0.286526 0.399056 -0.870316
0.158981 0.106715 -0.087884 0.753844 0.271711 -0.596665
0.2064 -0.222703 -0.003239 0.99863 -0.050555 0.005364
0.062887 0.300638 0.117507 0.373065 0.21628 0.900999
-0.094591 0.350876 -0.1013 -0.57844 -0.146675 -0.802159
0.095314 -0.467108 0.029639 -0.674622 0.001243 0.737634
0.574529 0.117958 0.058827 -0.345254 0.299066 0.88137
0.177168 0.385605 -0.111597 0.43238 -0.501361 -0.748586
0.061963 -0.296712 -0.072277 -0.799297 -0.009026 -0.600726
-0.02216 -0.647162 -0.088709 0.611593 0.028842 -0.789934
-0.238719 0.440486 -0.063569 -0.624033 0.569911 -0.53153
-0.127483 0.012881 0.073414 -0.840524 0.233555 0.481305
-0.026777 -0.440385 0.072822 0.342301 -0.171743 0.918452
0.132004 0.473502 0.065916 0.258777 0.429557 0.863439
0.101456 0.004549 0.131291 0.278052 -0.009969 0.948065
0.450942 0.268232 -0.102668 0.714115 0.20159 -0.667186
-0.092141 -0.736178 0.00318 -0.620372 0.239035 0.729845
-0.131804 0.019434 -0.041774 -0.897866 0.047354 -0.431859
-0.018987 0.164218 0.123282 -0.442801 -0.014764 0.894722
0.140945 0.081459 0.097636 0.651758 0.19304 0.732268
0.137807 -0.604553 -0.099488 0.191907 -0.153963 -0.965926
-0.086447 0.028838 0.109035 -0.515127 0.378033 0.768211
-0.012228 0.672091 -0.015576 -0.953744 -0.27862 -0.083309
-0.038756 0.816598 -0.011558 -0.920328 -0.333669 0.183774
0.199631 -0.359937 -0.034719 0.894672 0.166967 -0.412743
0.051567 0.738574 0.081841 0.877361 0.184913 0.438261
0.096194 0.213101 0.113185 0.364461 0.082066 0.927191
0.007918 -0.079032 0.121945 0.336106 -0.161728 0.927468
0.157374 -0.39719 -0.083223 0.524244 0.159019 -0.836198
-0.529016 0.110582 0.069204 -0.834731 0.545984 0.067389
-0.132334 -0.398145 -0.017643 -0.903535 0.209998 -0.367056
-0.109689 0.260099 0.027529 -0.963076 0.113866 0.240739
0.114975 -0.173334 0.101454 -0.135782 -0.329499 0.931383
0.120684 -0.770342 0.030585 -0.102685 0.754856 0.642206
0.073976 0.625784 -0.057483 0.589237 0.462365 -0.650006
-0.136351 -0.182096 -0.0049 -0.965891 -0.13517 -0.214798
0.568056 0.080695 0.018987 -0.871522 -0.483834 0.026385
0.157733 -0.219379 -0.08421 0.567078 -0.105826 -0.816601
-0.57023 0.032539 0.067467 0.037286 -0.153798 0.859404
0.182752 0.23573 0.005035 0.999664 -0.012964 0.02014
-0.230591 0.442314 -0.070056 -0.577419 0.556337 -0.597411
0.140394 -0.835984 0.170708 0.436383 0.792295 0.423426
0.210884 0.41801 -0.113966 -0.184246 -0.871128 -0.439019
-0.297708 0.252438 -0.015671 0.697483 -0.661546 0.275237
-0.00684 -0.764802 -0.111177 0.734325 0.358326 -0.572932
-0.491133 0.09862 0.049717 0.76132 -0.619262 0.040781
0.14091 0.569206 -0.018024 0.185505 0.784369 0.591747
0.042514 -0.065686 -0.12268 -0.401879 -0.432021 -0.807305
-0.077238 0.163002 0.08937 -0.638427 -0.009557 0.769603
-0.415655 0.221333 0.014097 -0.148543 0.247613 0.953629
0.120374 -0.199716 0.096301 0.051126 -0.186516 0.980401
-0.33588 0.287612 0.002368 -0.112992 0.163083 0.979977
0.048825 -0.605632 -0.040124 -0.895927 -0.09788 -0.427244
0.618833 0.085408 0.052264 0.864144 0.502879 0.018439
0.005338 0.242694 -0.127873 0.128099 -0.034277 -0.991132
-0.068117 -0.270553 0.10987 0.061306 -0.144277 0.987467
-0.003653 -0.720929 0.006126 0.779756 -0.12337 0.612867
-0.042507 0.135737 -0.109189 -0.323693 0.452389 -0.829904
-0.038698 0.81047 -0.027433 -0.958049 -0.261381 0.070932
-0.010309 0.058831 -0.142826 -0.162217 0.209969 -0.964042
0.193329 0.068252 -0.047598 0.915286 0.124026 -0.38283
0.053144 -0.549964 -0.005499 -0.814058 -0.002293 0.579869
-0.118937 0.154478 -0.033414 -0.886418 0.128006 -0.441
0.067688 0.830475 -0.088297 0.446419 0.646202 -0.616466
-0.097813 -0.849888 -0.056756 -0.920705 -0.38045 0.035026
0.090223 -0.848593 0.128788 -0.917486 0.341662 0.180926
0.209334 0.479356 0.020635 0.357155 0.104662 0.925708
0.101006 0.402463 -0.145917 0.006957 0.001789 -0.999736
0.250698 0.362834 -0.080833 -0.698836 -0.715229 -0.001262
-0.118119 0.343126 0.006969 -0.976638 -0.142031 0.16103
0.182285 -0.160503 -0.069073 0.667403 -0.06591 -0.741391
0.091144 0.506631 -0.1359 -0.101233 0.164799 -0.980363
0.192888 0.560068 -0.032801 0.346133 0.871353 0.268768
0.388885 0.240381 -0.10288 -0.664346 -0.670938 -0.32479
-0.092042 -0.802842 0.021075 -0.844754 0.266218 0.457397
-0.209969 0.381896 0.02213 0.105916 -0.517476 0.84905
-0.00929 0.674827 0.04851 -0.817875 -0.454286 0.329073
-0.1363 -0.223053 0.034796 -0.999063 -0.034326 0.019861
-0.087329 0.173528 0.080867 -0.663213 -0.010113 0.748247
-0.066533 0.534261 -0.10662 -0.275116 0.450819 -0.848502
-0.156442 0.404056 0.022784 0.260558 -0.702825 0.659156
0.040246 0.362892 -0.130021 -0.313382 -0.044645 -0.946829
-0.018131 0.693231 -0.032095 -0.898507 -0.336425 -0.231563
-0.028025 -0.856748 0.012913 0.643752 -0.732891 -0.18517
-0.070691 -0.301654 -0.086429 -0.504181 -0.087668 -0.85557
-0.142314 -0.153224 4.8e-05 -0.970549 -0.101215 -0.217199
-0.415365 0.252438 -0.043708 -0.782898 0.610068 -0.104147
0.207038 0.022099 0.016066 0.999392 0.030886 0.01411
0.19675 -0.337882 0.04039 0.905318 -0.078632 0.417332
-0.10296 -0.826479 -0.069468 -0.963569 -0.185525 -0.14011
-0.260849 0.297964 -0.008438 0.565273 -0.595622 0.568742
0.015329 0.631876 -0.063718 -0.317037 0.322812 -0.890595
-0.121654 0.073915 0.054222 -0.948978 0.177555 0.260463
-0.093454 0.225968 0.073341 -0.608672 0.128748 0.782802
0.02142 0.114821 -0.132364 -0.157921 0.421946 -0.89261
0.041997 -0.393147 -0.027182 -0.985317 -0.128979 -0.081015
0.073854 -0.395047 -0.078357 -0.674152 -0.042273 -0.73734
-0.516892 0.108515 0.0169 -0.42315 -0.453694 -0.761824
0.016951 -0.078042 -0.0989 -0.069636 -0.706638 -0.692572
0.017284 -0.77936 -0.048554 0.965601 -0.181285 0.163515
0.182092 0.337422 0.023353 0.89907 -0.108445 0.423973
0.379461 0.33621 -0.062509 0.550762 0.603429 0.576628
0.155313 0.0335 -0.116659 0.717426 0.121028 -0.685004
0.029269 -0.218456 0.037081 0.975547 -0.033587 0.216615
0.020239 -0.670602 -0.060451 0.6849 0.151549 -0.701043
0.03391 -0.07749 -0.109779 -0.578958 -0.471235 -0.664408
0.082782 0.65 -0.005331 0.978974 -0.056829 0.195392
0.192945 0.348961 -0.00962 0.984332 -0.084698 0.152142
-0.136947 -0.103231 -0.028383 -0.937735 -0.054575 -0.342829
0.082248 0.003374 -0.157293 0.089245 -0.068315 -0.990647
0.097502 0.093406 -0.140007 0.361579 0.365842 -0.856085
0.087276 0.838082 0.002866 0.838635 0.521006 0.090335
0.207872 -0.136789 0.037866 0.964572 -0.125119 0.231007
0.000421 -0.273377 -0.06432 0.75666 -0.12724 -0.641231
0.373634 0.249463 -0.078363 -0.72866 -0.678831 0.084382
0.11134 0.447123 -0.147002 -0.011208 -0.002434 -0.999439
0.179631 -0.150886 -0.072749 0.700489 -0.088596 -0.708102
0.058073 -0.260083 0.06132 -0.740645 -0.104134 0.663774
-0.00646 -0.012642 -0.140067 -0.135336 -0.220111 -0.965553
-0.140495 -0.027203 0.00688 -0.956325 0.289544 0.012777
-0.457225 0.150662 -0.031822 0.347429 -0.828386 -0.435885
0.25199 0.50433 -0.101281 0.517835 0.611732 -0.597067
0.0818 0.849488 -0.019676 0.845713 0.532678 -0.010022
0.068163 0.766941 0.06947 0.3693 -0.376372 0.825559
-0.116123 -0.481026 -0.066258 -0.745999 0.102617 -0.657539
-0.002833 0.636652 0.010301 -0.815082 -0.118275 0.561693
0.458004 0.262542 -0.0962 0.733682 0.239402 -0.633552
0.410253 0.226346 -0.050205 -0.627463 -0.67152 0.391812
-0.069855 0.380375 0.092757 -0.565483 -0.030375 0.82229
-0.032987 0.833224 -0.049539 -0.719919 0.622978 -0.291588
-0.102323 -0.539463 0.050107 -0.842052 -0.06152 0.535799
-0.192258 0.359796 -0.002841 0.457074 -0.721679 0.517917
0.039077 0.22982 0.128276 0.028926 0.042897 0.998627
-0.142382 0.417653 0.038565 -0.411379 -0.799844 0.413292
0.080615 -0.635101 -0.071805 -0.657036 -0.083976 -0.748582
-0.038391 -0.131202 -0.10243 0.241686 -0.197593 -0.948951
-0.121224 -0.233771 0.087777 -0.848977 -0.053502 0.52199
-0.024331 0.78237 -0.093172 -0.801959 -0.084847 -0.588942
-0.011418 0.218537 0.122114 -0.429576 0.145395 0.890019
0.064302 -0.346782 -0.072695 -0.77453 -0.075684 -0.627796
0.131555 -0.000334 0.120349 0.380716 -0.226666 0.89613
0.313589 0.349639 -0.037344 -0.022661 -0.265519 0.962348
0.1852 -0.123229 0.083086 0.719672 0.029277 0.693375
-0.059768 -0.178259 0.121252 -0.249923 -0.021645 0.962786
0.080199 0.427494 -0.142996 -0.254652 0.023792 -0.965261
-0.030835 -0.847814 0.106518 0.935684 0.10103 0.322678
0.207303 0.012308 0.017124 0.999594 0.019757 0.014576
-0.142438 -0.037932 0.020746 -0.980824 0.155637 0.103964
-0.043227 -0.825262 -0.146125 0.087852 -0.276538 -0.956226
0.131884 0.152933 0.097042 0.548847 0.026188 0.835422
0.55719 0.094582 0.002145 -0.75206 -0.658853 0.00031
0.02643 0.070934 -0.145581 -0.146345 0.223231 -0.963367
0.104981 0.792363 -0.035313 0.987225 0.11682 -0.028909
-0.124737 -0.368083 0.052833 -0.976441 -0.082256 0.199173
-0.113131 -0.793826 -0.012905 -0.893096 -0.27925 0.335671
0.074785 -0.496002 -0.080985 -0.698033 -0.012331 -0.715877
-0.003888 0.261235 -0.129924 0.098103 -0.050549 -0.993285
0.02449 -0.356047 0.031654 0.938072 -0.158133 0.303676
-0.089627 -0.860629 -0.094867 -0.222731 -0.971686 -0.062657
-0.118499 -0.302007 0.087171 -0.867812 -0.039336 0.486965
0.522514 0.19563 0.01955 -0.120793 0.69342 0.675725
-0.116068 -0.152231 -0.052462 -0.793521 -0.153967 -0.588384
-0.295228 0.353154 -0.002515 -0.586323 0.433305 0.677763
-0.107166 -0.371078 -0.059361 -0.721229 0.019198 -0.691526
-0.214212 0.425231 0.03648 -0.356254 -0.042378 0.924911
0.182717 -0.700121 0.00155 0.39629 -0.529069 0.745661
0.198857 -0.563738 0.001824 0.959111 0.004118 0.282585
0.077595 -0.767281 -0.05819 -0.847133 0.224677 -0.480699
-0.052119 -0.505924 0.062012 0.385406 -0.25327 0.887217
0.10142 0.08018 0.115105 0.436484 0.152425 0.882151
0.34651 0.39495 -0.08043 0.725122 -0.637667 0.201573
-0.250935 0.328257 0.004844 0.260728 -0.472077 0.8405
-0.060841 0.269242 -0.117465 -0.429928 -0.102982 -0.89479
-0.109788 0.550132 0.023014 -0.069546 0.783153 0.611108
-0.128722 -0.270784 0.059989 -0.970471 -0.127969 0.20257
-0.047922 -0.685991 -0.10983 0.320598 0.228684 -0.917923
0.189105 -0.514308 -0.069759 0.832883 0.011772 -0.553253
-0.021112 -0.84384 0.000158 0.982644 -0.182877 -0.021057
-0.100487 -0.090885 -0.082804 -0.706827 -0.133397 -0.694449
0.032493 -0.140125 0.069304 0.810922 -0.390334 0.434915
0.401888 0.286171 -0.041421 0.13267 0.317259 0.938162
0.041022 0.398225 -0.130859 -0.323336 0.026475 -0.942331
-0.092964 0.317363 0.061463 -0.876994 0.091251 0.467481
-0.05544 0.580064 -0.075484 -0.40722 0.794461 -0.442521
0.04241 0.678859 0.090481 0.161714 0.261659 0.946394
0.047354 -0.105241 -0.10195 -0.462778 -0.490122 -0.73852
0.000695 0.794406 -0.112624 -0.367486 0.202627 -0.906088
-0.036503 0.776456 -0.05661 -0.991728 0.041336 -0.12039
0.139259 -0.058415 0.112509 0.315148 -0.006282 0.948544
0.100312 0.334886 -0.143734 0.205813 -0.08568 -0.973062
0.118516 -0.283368 -0.098087 0.291658 -0.026489 -0.954472
-0.02505 -0.838534 -0.12385 0.855441 -0.390406 -0.257753
0.197564 0.073538 -0.034445 0.953585 0.105205 -0.268283
0.047836 -0.526143 -0.043281 -0.879725 -0.062398 -0.471242
-0.022094 -0.844635 -0.025498 0.862765 -0.456543 -0.020855
0.136293 -0.568252 0.042991 -0.052339 -0.197313 0.977716
0.158543 -0.560191 -0.09651 0.536 -0.048146 -0.841261
-0.016553 -0.161183 0.11872 0.426071 -0.143317 0.890748
-0.075035 -0.359308 0.100407 0.165671 -0.19731 0.966105
0.022773 -0.313992 0.051287 0.885334 -0.094418 0.453898
-0.083183 -0.083164 -0.099891 -0.589286 -0.210539 -0.779305
-0.021068 0.091908 0.126188 -0.384502 -0.141966 0.908371
0.187562 0.339892 -0.062085 0.827071 -0.384529 -0.409231
0.158873 0.18393 -0.072968 0.761552 0.06238 -0.644996
0.027822 0.756666 -0.119866 -0.045186 -0.201208 -0.974792
-0.370868 0.297409 -0.01529 -0.568553 0.723495 0.389995
-0.002141 -0.594269 -0.069322 0.722023 0.00323 -0.691809
-0.076284 -0.184911 -0.08788 -0.52054 -0.097952 -0.845042
-0.012735 0.553101 0.029556 0.148845 0.807607 0.560457
0.102699 0.421233 -0.146077 -0.033516 -0.016431 -0.99901
-0.091628 -0.612784 -0.099847 -0.450541 0.097069 -0.887407
0.20802 -0.04192 -0.017451 0.972778 0.0094 -0.230953
0.029788 0.507444 -0.123741 -0.108066 0.052787 -0.992102
0.122838 -0.440854 -0.103954 0.057477 0.060987 -0.993415
-0.366077 0.204783 0.001353 0.502393 -0.682134 0.508231
-0.135746 0.023677 0.049655 -0.939739 0.153886 0.296179
0.182585 0.245143 0.015213 0.998002 -0.013531 0.060852
-0.131831 0.056512 -0.023729 -0.955075 0.185387 -0.229095
-0.109447 -0.550696 -0.084686 -0.635394 0.128345 -0.760891
-0.034984 0.116194 -0.120812 -0.287296 0.336399 -0.895513
0.147919 0.038465 -0.123158 0.680528 0.169214 -0.71252
0.021638 0.735782 0.096639 -0.873846 0.110532 0.442815
-0.082146 0.269292 -0.102466 -0.655597 -0.108224 -0.746946
0.071433 -0.047664 0.126795 0.046685 -0.404309 0.912633
0.130076 0.336423 0.087199 0.496064 0.033933 0.866818
-0.046605 -0.124595 0.124956 -0.101717 -0.068418 0.991391
-0.139162 0.025703 -0.008552 -0.971979 0.112526 -0.195502
0.008729 0.863424 -0.005717 -0.091646 0.995629 0.008434
-0.03658 -0.005288 -0.137016 -0.161896 -0.080986 -0.983024
-0.131308 -0.267282 0.005309 -0.976831 -0.160544 -0.133263
-0.182703 0.519934 0.016159 -0.807636 0.442893 0.312458
-0.047747 0.209418 -0.111042 -0.557123 -0.318886 -0.766407
0.025441 -0.083938 -0.096265 -0.436814 -0.659923 -0.602702
0.066277 0.303911 -0.138177 -0.297875 -0.06834 -0.95118
-0.556037 0.04842 0.059157 0.727398 -0.678786 0.095919
-0.085997 -0.14791 0.115175 -0.295324 0.013711 0.95523
0.040715 0.468444 0.083441 0.135682 0.346437 0.928043
0.548282 0.112258 0.003972 -0.948945 -0.3143 0.022893
0.093299 -0.419815 0.045093 -0.628483 -0.361557 0.688538
-0.092562 -0.272327 0.108175 -0.212429 -0.056746 0.975449
-0.445391 0.14753 0.004083 0.687065 -0.724432 0.028167
0.020754 0.40767 0.10045 0.140421 0.276612 0.950008
-0.223497 0.476273 -0.027036 -0.850436 0.518803 -0.060108
-0.162829 0.522231 -0.066722 -0.517775 0.594865 -0.614388
-0.023639 0.604422 -0.030102 -0.709748 0.654473 0.243868
-0.066069 0.480497 0.072594 -0.185172 0.400959 0.895165
-0.038708 -0.057243 0.129694 -0.096313 -0.072687 0.992556
0.175177 -0.859614 0.077893 0.912912 -0.360451 -0.006477
0.137911 0.320399 0.080759 0.755617 0.036636 0.65295
-0.024531 -0.717439 -0.105601 0.520079 0.289354 -0.802685
0.069369 0.594625 -0.086901 0.130811 0.689369 -0.712238
-0.307007 0.350542 -0.011635 -0.610564 0.619412 0.48771
-0.048708 0.14926 -0.100678 -0.396731 0.517367 -0.721735
0.184854 0.070252 -0.063718 0.85351 0.158083 -0.496078
-0.009283 -0.524827 -0.079265 0.684697 0.075249 -0.724432
0.048437 0.23221 0.127483 0.106146 0.067644 0.990877
-0.038717 0.59141 -0.039584 -0.475459 0.871834 0.080526
-0.012432 -0.389816 0.07671 0.569101 -0.218962 0.792533
0.189981 0.075561 -0.053345 0.886119 0.12737 -0.444221
-0.119044 -0.222778 -0.033561 -0.863679 -0.047842 -0.501073
0.313052 0.422154 -0.131725 0.392226 0.536973 -0.745943
0.084119 0.637848 -0.016529 0.980827 0.005288 0.170091
0.089182 -0.835681 0.051979 -0.981134 0.185421 0.022579
-0.352459 0.311876 -0.077161 -0.576786 0.611018 -0.534458
0.450213 0.256467 -0.105113 0.68952 -0.105606 -0.710642
0.018256 -0.565357 0.002491 0.82312 -0.022167 0.553291
0.562896 0.088652 0.022518 -0.775343 -0.629461 0.038199
-0.053752 0.194779 0.102424 -0.485444 0.012861 0.873993
-0.016598 -0.795262 0.019147 0.884404 0.268595 0.37928
-0.068045 -0.534963 -0.101785 -0.129226 0.070622 -0.986632
0.04169 -0.370968 -0.03506 -0.924055 -0.061636 -0.36893
0.194866 0.354884 -0.018189 0.970479 -0.12033 0.204588
0.136548 -0.869288 -0.094419 0.185246 -0.967915 -0.124098
0.065153 -0.798754 -0.039932 -0.950169 -0.136734 -0.269183
-0.12911 -0.54161 -0.00156 -0.935899 -0.135147 0.32243
-0.096615 -0.37489 0.097596 -0.212768 -0.164799 0.952717
0.405464 0.324221 -0.082508 0.675468 0.728602 0.096601
-0.21228 0.339373 -0.062208 0.544407 -0.775233 -0.318803
-0.023267 0.221483 0.114905 -0.422548 0.106862 0.89918
0.019201 -0.426685 -0.025966 0.970895 0.018489 -0.224488
0.256156 0.387379 -0.025444 -0.280695 -0.57717 0.764978
0.181486 -0.041686 -0.085607 0.850297 -0.090553 -0.517215
-0.090494 0.013072 -0.113823 -0.718647 -0.01792 -0.694815
-0.469578 0.126464 0.01724 0.738216 -0.673043 0.018006
0.126365 -0.822208 0.096026 0.082777 0.969314 0.223631
0.448578 0.288368 -0.086251 0.720578 0.682798 -0.105588
0.189483 -0.223365 0.069604 0.859756 -0.103481 0.495281
0.188579 -0.199632 0.076115 0.830807 -0.10942 0.531388
0.102798 0.736351 -0.003265 0.80158 -0.348796 0.484595
-0.136573 0.402693 0.001553 0.04986 -0.877122 0.325009
0.16471 -0.074741 -0.103557 0.717842 -0.099072 -0.687914
0.157264 0.165962 0.072028 0.715994 0.053325 0.696031
0.17655 0.048747 -0.085157 0.819307 0.196127 -0.537873
-0.071037 -0.003565 0.12836 -0.412661 0.061941 0.871799
0.17433 -0.541568 0.044801 0.522536 -0.246537 0.809933
-0.037071 0.593705 -0.048833 -0.636095 0.76909 -0.004035
0.015833 0.611702 -0.074296 -0.145597 0.604995 -0.780322
-0.299425 0.245739 -0.042297 0.643682 -0.760798 -0.034777
0.111043 -0.827026 0.142839 -0.330301 0.927126 0.089965
0.192977 -0.610232 0.012968 0.766574 -0.142931 0.613693
0.04536 0.362738 0.109651 0.17274 0.361853 0.914463
0.078393 -0.058291 0.121653 -0.005203 -0.373128 0.927056
0.21864 0.534678 -0.006895 0.363605 0.674192 0.642305
-0.00084 -0.025992 -0.137203 -0.040364 -0.300786 -0.952277
-0.063416 0.388811 -0.122346 -0.314721 -0.090202 -0.944875
0.088403 0.188366 0.118012 0.449381 0.024734 0.891399
0.194263 -0.332002 -0.034419 0.800863 0.085522 -0.590462
-0.129296 -0.043182 0.071024 -0.847529 0.055313 0.525335
0.020546 -0.722088 -0.031818 0.957674 -0.044305 0.283121
-0.114089 0.016541 -0.080787 -0.87467 0.039602 -0.482283
0.06674 -0.633417 -0.059172 -0.705471 -0.158749 -0.690159
-0.02387 -0.465171 0.064835 0.428695 -0.275813 0.858484
-0.131322 0.407529 0.011867 -0.559579 -0.671973 0.228504
0.103825 -0.837522 -0.112303 -0.52414 -0.042841 -0.849979
-0.064598 -0.500054 0.068473 0.4102 -0.200609 0.889043
0.156569 0.301648 -0.092551 0.788126 -0.19391 -0.582497
0.156694 -0.500653 -0.099821 0.473612 -0.002825 -0.880303
-0.122095 -0.136612 -0.047934 -0.822066 -0.14761 -0.549691
-0.019133 0.686418 0.024245 -0.961569 -0.247753 0.046347
0.163361 0.076175 -0.094057 0.73549 0.239484 -0.633699
-0.018474 0.616563 -0.039813 -0.867667 0.427805 -0.240172
-0.089377 -0.437938 0.083772 -0.09471 -0.184797 0.976217
-0.11214 0.083215 0.072402 -0.844259 0.269019 0.45906
0.016111 -0.044394 -0.128428 0.050758 -0.549419 -0.832668
-0.116636 0.356252 0.023283 -0.938185 -0.20414 0.278665
-0.132132 0.534685 -0.075922 -0.378729 0.669781 -0.637875
0.158019 -0.802551 -0.103421 0.670951 0.137519 -0.727222
-0.107666 0.307551 -0.078614 -0.810751 -0.118455 -0.572849
-0.100174 -0.783206 -0.104573 -0.793145 0.100893 -0.600501
-0.122412 -0.613405 0.005634 -0.915495 0.052415 0.396466
0.443205 0.198854 -0.063796 -0.519583 -0.847453 0.054828
-0.053591 -0.165795 -0.097369 0.045845 -0.139898 -0.986918
0.110712 -0.034788 -0.14649 0.184815 -0.280214 -0.94107
-0.163911 0.543162 -0.019722 -0.644565 0.763365 -0.028213
0.007155 -0.555985 0.014002 0.685176 -0.144327 0.712752
0.18175 -0.789071 -0.027217 0.934112 -0.347666 0.075034
0.117577 0.147599 0.105024 0.519202 0.0308 0.854082
0.103201 0.238827 -0.134378 0.325733 -0.233016 -0.910436
-0.200284 0.505855 0.003131 -0.747125 0.642094 0.163016
0.185092 -0.072249 0.08074 0.706289 0.068975 0.704335
0.081744 -0.491092 -0.087906 -0.68252 -0.013303 -0.729773
0.066264 0.648539 -0.055353 0.545777 0.163732 -0.821058
-0.100283 -0.736318 -0.100193 -0.793376 0.096792 -0.599862
0.624143 0.048852 0.026374 -0.803425 -0.530671 -0.245944
-0.108181 -0.809228 -0.085981 -0.873513 -0.372314 -0.308526
0.20543 0.407278 -0.081618 0.653127 -0.650535 -0.001758
0.151686 0.455142 -0.142868 0.186132 -0.007366 -0.981701
0.177 0.542068 0.002875 0.248899 0.653512 0.714395
-0.065847 -0.331924 -0.086265 -0.292088 -0.045089 -0.955213
-0.128339 -0.65064 -0.051265 -0.999285 -0.017696 0.024487
-0.356111 0.283544 0.002892 -0.058074 0.298119 0.951553
-0.098234 -0.325214 0.103846 -0.29927 -0.056838 0.944
0.042894 0.316805 -0.129252 -0.302872 0.00552 -0.947474
-0.095786 -0.661772 0.03637 -0.176664 -0.33185 0.916813
-0.092057 -0.373729 -0.07193 -0.543647 -0.032099 -0.838171
0.093894 -0.779964 0.039058 -0.152368 0.859918 0.487078
0.003677 -0.128327 0.112139 0.575725 -0.180918 0.79701
0.078662 0.107609 -0.138087 0.11797 0.443926 -0.887206
-0.022231 -0.732664 0.018717 0.4376 -0.546314 0.702748
0.199393 -0.525842 0.00307 0.944396 -0.026382 0.326384
-0.140006 0.471054 0.061091 -0.176571 -0.009524 0.982392
-0.136676 -0.432675 -0.01631 -0.970716 0.117456 -0.205646
-0.108794 -0.736873 -0.087077 -0.842953 0.128346 -0.522022
-0.13336 -0.189965 -0.011671 -0.922482 -0.128519 -0.36007
-0.200808 0.500466 0.014207 -0.746954 0.529282 0.400483
0.001796 0.641831 0.01848 -0.737092 -0.237148 0.632517
0.143324 -0.276946 -0.084877 0.575721 -0.096831 -0.8118
-0.006805 0.804452 0.061911 -0.606449 0.437629 0.657509
0.097073 0.71434 0.016317 0.840971 -0.369334 0.220763
-0.073187 -0.723629 -0.120932 -0.327305 0.230487 -0.910586
-0.027653 -0.718005 0.027303 0.082372 -0.104803 0.959313
-0.128873 0.09282 0.000158 -0.999592 -0.026463 -0.000916
-0.105568 -0.390713 -0.060111 -0.716836 -0.098454 -0.690058
-0.058277 0.241738 -0.114338 -0.543251 -0.190176 -0.817022
0.160879 -0.831665 0.04013 0.92885 0.358277 0.042494
-0.103402 -0.452349 -0.074073 -0.655712 0.170244 -0.733797
0.078975 -0.68272 -0.065323 -0.813823 -0.034229 -0.579861
0.024884 -0.369171 0.022282 0.963544 -0.112017 0.233979
0.01767 -0.418997 0.02593 0.945162 -0.073152 0.311852
0.081737 0.637997 -0.002887 0.963116 -0.061233 0.251355
0.172039 0.542638 -0.107076 0.271509 0.682368 -0.67854
-0.137234 -0.009098 -0.019678 -0.995352 0.035942 -0.087841
-0.045702 0.202803 0.106162 -0.483429 0.01937 0.874736
0.186207 0.177137 0.02801 0.920531 0.223675 0.312866
0.065498 -0.590346 -0.06152 -0.705235 -0.064048 -0.705832
-0.093461 0.566411 -0.060579 -0.409667 0.822197 -0.3934
0.188912 -0.016432 -0.0722 0.872677 0.052108 -0.481691
0.07033 0.334141 -0.141838 -0.341383 -0.032399 -0.939273
-0.005876 -0.2275 0.103548 0.510262 -0.143375 0.84455
0.014897 -0.706203 -0.016331 0.801627 -0.139927 0.57948
0.092678 0.517315 -0.133228 -0.104942 0.393243 -0.911609
-0.062697 -0.084474 0.122408 -0.26555 -0.063382 0.961541
0.157328 -0.860414 -0.035394 0.579814 -0.779841 0.159468
-0.223745 0.356362 -0.090785 0.323319 -0.452533 -0.82853
0.187434 0.390007 0.029843 0.88442 -0.22468 0.408772
0.137649 0.395096 -0.136584 0.412494 -0.166587 -0.894784
-0.287015 0.399963 -0.037533 -0.626246 0.770132 0.117701
0.084694 -0.012767 0.131664 0.222308 -0.276543 0.927137
-0.014534 -0.130347 -0.089799 0.605021 -0.231683 -0.761525
0.097914 -0.857404 -0.10897 -0.761842 -0.053561 -0.637556
-0.10654 -0.684041 0.021651 -0.679152 -0.322152 0.658655
-0.135892 -0.530157 -0.016343 -0.985488 -0.065603 0.149716
0.051346 -0.388125 0.017275 -0.692802 -0.35201 0.627344
0.030929 0.327276 0.118937 0.042713 0.197275 0.978943
-0.029784 0.717016 0.018558 -0.973749 -0.084131 0.175846
-0.206331 0.353756 0.00153 0.431187 -0.656154 0.617223
0.058773 0.217687 -0.126242 -0.209013 -0.302174 -0.929202
0.084504 0.682077 0.017267 0.885594 -0.420557 0.168959
-0.070481 -0.854941 -0.131071 -0.391943 -0.61816 -0.668313
0.07546 -0.673398 -0.061031 -0.788354 -0.084583 -0.609132
-0.083975 -0.60336 0.054183 0.375622 -0.22911 0.881674
0.335448 0.326666 -0.041279 -0.083811 -0.1473 0.974862
-0.075111 -0.863793 0.093678 -0.043934 -0.998946 0.008777
-0.109424 0.25139 -0.063031 -0.930845 -0.107527 -0.345907
0.109563 -0.092245 -0.127685 0.037506 -0.285581 -0.957415
0.200956 -0.053294 -0.041793 0.940889 -0.013512 -0.337227
0.095936 -0.412015 -0.095681 -0.475468 0.019272 -0.877783
-0.138296 -0.008056 0.005708 -0.996375 0.083768 -0.012905
-0.119629 -0.690412 -0.080435 -0.776294 -0.124266 -0.614309
0.123023 0.354112 0.089788 0.388312 0.054861 0.919605
0.098959 0.234179 0.11036 0.547314 0.152543 0.793365
-0.097564 -0.39981 -0.06547 -0.633115 -0.076332 -0.763558
-0.243086 0.448487 -0.02979 -0.754115 0.655874 0.005177
-0.022326 0.11924 0.122188 -0.40383 0.075935 0.910192
0.15639 -0.025457 -0.121756 0.726764 -0.031762 -0.685578
-0.127095 -0.330183 0.031238 -0.992433 -0.014556 0.121881
-0.038045 -0.205951 -0.09171 0.211101 -0.069936 -0.973706
0.174499 0.512733 -0.126999 0.142625 0.416601 -0.894983
-0.136011 0.557766 -0.028627 -0.367304 0.917158 -0.115508
0.294446 0.438398 -0.02535 0.591562 0.384675 0.692418
-0.38671 0.216526 -0.070027 -0.147719 -0.358676 -0.910926
-0.062489 -0.017844 -0.129315 -0.259031 -0.117997 -0.957764
-0.154701 0.547533 -0.035318 -0.506775 0.786297 -0.337674
0.327548 0.327785 -0.132328 -0.254996 -0.326675 -0.906222
0.210599 0.415417 -0.03593 0.08827 -0.947353 0.129646
-0.02203 -0.848132 -0.094879 0.984622 -0.127215 0.032227
-0.569588 0.043089 0.012309 -0.846239 0.529147 -0.046753
0.101906 0.800527 -0.048641 0.877043 0.430638 -0.192591
0.113225 0.532674 -0.128005 0.068971 0.328365 -0.938725
0.027915 0.761496 0.088888 -0.468893 0.252129 0.805835
0.173612 0.451073 -0.137763 0.189637 -0.061136 -0.979496
0.127322 0.555366 0.004227 0.282365 0.719559 0.633565
0.120606 -0.664149 0.032387 0.099772 -0.141846 0.984436
-0.10379 0.566716 -0.010736 -0.149569 0.972708 0.150333
-0.128253 0.387575 -0.044508 -0.998062 -0.057395 0.00121
0.022568 0.083355 0.134131 0.183416 -0.010123 0.981199
0.016472 -0.703821 -0.070117 0.816231 0.080999 -0.569977
-0.401081 0.253368 -0.070549 -0.680352 0.120934 -0.714309
0.00268 -0.794847 -0.111613 0.90966 0.054696 -0.403847
0.199969 -0.164049 -0.049658 0.840824 -0.002828 -0.538887
0.107536 -0.823841 -0.114127 -0.435583 -0.053061 -0.894314
-0.098044 -0.14079 -0.077211 -0.691257 -0.128011 -0.710844
0.158125 -0.164599 0.097715 0.245844 -0.144869 0.956929
0.038938 -0.161815 -0.061066 -0.86257 -0.261691 -0.431479
0.079698 -0.466189 -0.085292 -0.701893 0.037397 -0.711264
-0.104196 0.560735 -0.060355 -0.462209 0.745553 -0.47933
0.140886 -0.471401 0.063168 -0.439769 -0.125089 0.887924
0.026855 0.381302 0.106211 0.056747 0.181229 0.981408
0.035212 0.230806 -0.125855 -0.045067 -0.048385 -0.99548
-0.016329 0.676326 -0.003767 -0.796199 -0.587405 -0.023641
0.474308 0.186637 -0.049622 -0.512769 -0.645085 -0.499563
0.178072 -0.188165 0.086555 0.484843 -0.07388 0.86987
0.042858 -0.250639 0.02962 -0.993651 -0.008268 0.112069
0.151879 -0.193412 0.095007 0.160597 -0.135897 0.975254
0.227068 0.411287 -0.126512 -0.56444 -0.388177 -0.724567
0.04445 -0.558586 -0.027209 -0.990856 -0.029253 0.015692
0.010624 0.595055 -0.086861 -0.107448 0.624061 -0.772969
-0.360854 0.2584 0.008759 0.056543 0.13525 0.988678
-0.091253 -0.776849 -0.114362 -0.757211 0.163633 -0.632017
-0.024403 0.764067 0.040104 -0.860014 0.141246 0.489777
-0.064497 -0.537945 0.059044 0.358979 -0.176242 0.915806
0.110446 0.576134 -0.099027 0.206925 0.703306 -0.678239
-0.296418 0.303713 0.00618 0.02174 -0.086608 0.994818
0.151914 0.229886 0.071904 0.777578 0.054451 0.626284
-0.119529 0.098501 0.051504 -0.924557 0.08213 0.367485
-0.012021 -0.393385 -0.063705 0.636652 0.103695 -0.763801
0.015281 0.860007 -0.054789 -0.281055 0.873171 -0.394605
-0.092988 0.248426 -0.086367 -0.694452 -0.310671 -0.648472
0.137273 0.226115 -0.102181 0.749228 -0.225953 -0.62156
0.117981 0.055943 0.110423 0.33746 0.229441 0.911801
0.007205 -0.138717 -0.062719 0.804074 -0.123513 -0.581474
0.129039 -0.090732 0.113991 0.099624 -0.063744 0.992613
-0.123114 -0.333935 0.05849 -0.987323 0.005174 0.15749
0.167462 0.235831 0.053317 0.72475 0.063972 0.68544
-0.103821 -0.146599 0.109367 -0.674919 0.007032 0.737362
-0.007858 -0.428237 0.063008 0.647937 -0.263627 0.713353
-0.09169 -0.290847 -0.070565 -0.714029 -0.023442 -0.699574
0.072973 -0.626723 -0.066473 -0.660213 -0.098563 -0.744535
0.18001 0.159633 -0.039313 0.843797 0.054725 -0.532389
-0.103469 -0.693205 0.020054 -0.510756 -0.365549 0.764788
0.102038 -0.42858 0.04838 -0.587029 -0.377007 0.716033
-0.379273 0.205745 0.010498 0.416591 -0.167255 0.8774
0.090188 0.559997 -0.11564 0.011627 0.592998 -0.803747
0.089978 0.69909 -0.024502 0.963586 -0.233363 -0.068627
-0.097161 0.260445 -0.086292 -0.748076 -0.170087 -0.639765
-0.014822 0.607425 -0.062325 -0.528173 0.690712 -0.490925
-0.028648 0.585835 -0.084552 -0.294243 0.741813 -0.601149
-0.103184 -0.846617 0.111697 -0.889894 0.320088 0.218201
-0.092318 -0.484896 0.075955 -0.568423 -0.198923 0.795718
0.045066 -0.57167 -0.024944 -0.983395 -0.069975 0.122792
0.170427 0.566395 -0.028863 0.230104 0.91597 0.294683
-0.023267 0.211673 0.116546 -0.512554 0.177883 0.839551
0.009389 -0.499128 -0.051411 0.844473 0.032224 -0.534144
-0.056467 -0.861596 -0.058521 0.041564 -0.997551 0.052
-0.075807 0.127716 0.091852 -0.647944 -0.014014 0.7613
-0.010224 -0.216925 -0.078912 0.538334 0.041019 -0.84158
-0.299392 0.339612 -0.088807 -0.408066 0.438908 -0.798074
0.073629 0.4626 -0.139624 -0.368747 0.121459 -0.919751
-0.114793 -0.54263 0.027844 -0.866532 -0.092462 0.489177
0.029927 0.547356 -0.114116 -0.089663 0.381158 -0.919898
-0.134589 -0.005614 0.050213 -0.941464 -0.107863 0.27609
-0.023281 -0.847158 -0.069066 0.815893 -0.566274 0.063998
-0.050614 -0.862622 -0.115739 0.02755 -0.992432 -0.113744
-0.075937 0.477731 0.071137 -0.326502 0.368685 0.867168
0.072979 -0.740537 -0.039846 -0.911749 0.026088 -0.408743
-0.092746 -0.075666 -0.09406 -0.65748 -0.236352 -0.715143
-0.112126 0.273583 -0.045953 -0.998065 -0.055195 -0.02756
0.18272 0.113224 -0.048207 0.840229 0.300339 -0.450194
0.253631 0.438249 -0.007162 0.327565 -0.189268 0.924822
0.092413 0.825351 -0.03482 0.834239 0.529893 -0.050034
0.248973 0.364697 -0.092624 -0.689432 -0.723568 -0.030863
0.303708 0.356602 -0.034617 0.107678 -0.494348 0.853993
0.125062 -0.327723 -0.095259 0.419557 0.032131 -0.907159
0.340063 0.41859 -0.075382 0.777015 0.569497 0.250784
0.008476 -0.748005 -0.016227 0.601276 -0.431177 0.665431
-0.12413 -0.39371 0.056191 -0.957015 0.09309 0.269051
0.603169 0.068473 0.028985 -0.020143 -0.955024 -0.060564
0.095198 0.263731 -0.138467 0.078996 -0.071963 -0.993023
-0.123093 -0.272133 -0.026194 -0.851225 0.009699 -0.522685
0.117932 -0.694253 0.029434 0.293044 -0.17896 0.93825
0.015257 -0.069824 -0.106982 0.012963 -0.690587 -0.721606
-0.147372 0.478831 0.059062 -0.262509 0.108881 0.957673
0.15885 -0.104328 0.104327 0.487381 0.016206 0.869308
0.307242 0.443273 -0.039792 0.69516 0.380611 0.606052
0.194294 -0.286334 0.055364 0.906289 -0.064454 0.416849
-0.084405 -0.836042 0.141662 -0.461568 0.804851 0.369895
0.54339 0.176319 -0.026706 0.824431 -0.016387 -0.46159
0.046299 -0.192235 0.057436 -0.879107 -0.067368 0.464783
0.139464 -0.246793 0.08513 0.115812 -0.134982 0.983484
-0.081391 0.364497 -0.111901 -0.474505 -0.140968 -0.868134
0.264717 0.348954 -0.079303 -0.697528 -0.715991 -0.01646
-0.012858 0.187788 -0.116769 -0.283748 -0.237298 -0.928602
0.025741 0.865174 -0.033402 -0.16779 0.968484 -0.180128
0.004767 0.2111 -0.126303 0.051672 -0.23595 -0.969767
-0.115627 0.321257 0.004277 -0.976267 -0.05645 0.208057
-0.199811 0.344484 -0.023579 0.638372 -0.747234 0.180427
-0.085826 -0.395002 0.094654 0.064316 -0.201428 0.977217
-0.140401 -0.145109 -0.009459 -0.907048 -0.122802 -0.402088
0.120942 0.333719 -0.134531 0.510272 -0.125163 -0.848641
0.17613 -0.066303 0.088858 0.691685 0.040688 0.721003
0.176363 0.269658 -0.039524 0.929883 -0.049447 -0.36363
-0.256647 0.306575 -0.078077 0.655274 -0.437996 -0.615395
-0.014546 -0.649149 0.024635 -0.04343 0.078968 0.989529
-0.033834 -0.467174 0.06692 0.262333 -0.276344 0.924188
0.111311 0.321687 0.097877 0.357632 0.110174 0.926575
-0.045859 0.322808 -0.126075 -0.331464 0.016472 -0.941388
-0.053391 -0.432332 -0.089123 -0.005153 0.229124 -0.972433
0.15033 -0.389502 -0.085994 0.546366 0.174354 -0.819177
0.133848 -0.552133 0.046261 -0.21311 -0.175643 0.957612
0.156604 -0.863355 0.028418 0.272184 -0.959445 -0.071859
0.020343 -0.323113 0.053803 0.909793 -0.12481 0.395338
0.134601 -0.499755 0.056177 -0.44935 -0.139432 0.880833
0.20599 -0.541979 -0.023757 0.998545 -0.024894 -0.030111
0.051242 0.612652 -0.075472 0.126218 0.544557 -0.822141
-0.055456 -0.362511 0.096797 0.197827 -0.19149 0.960779
0.060704 0.854787 -0.059541 0.37436 0.820052 -0.427434
-0.048659 0.11089 -0.116864 -0.478023 0.355231 -0.803126
0.036054 -0.342819 -0.014491 -0.99397 -0.086644 0.009142
-0.121659 0.142933 0.032202 -0.949171 0.060562 0.306593
-0.080502 -0.318768 0.105714 0.034725 -0.065696 0.996202
-0.012356 0.79026 -0.105555 -0.641139 0.103254 -0.754861
-0.046545 -0.298179 0.102749 0.258437 -0.155609 0.952571
-0.200899 0.48556 -0.059459 -0.641553 0.505568 -0.576266
0.075853 -0.746191 -0.047286 -0.898216 0.075982 -0.431055
0.14041 -0.029644 -0.135964 0.601411 -0.111559 -0.790269
0.315732 0.442179 -0.108751 0.551953 0.679862 -0.481489
0.246607 0.428149 -0.007247 0.457714 -0.354839 0.812663
-0.053149 -0.641766 -0.105053 0.254236 0.068586 -0.963122
-0.079365 -0.863637 0.077979 -0.051301 -0.998623 0.002045
0.241303 0.373604 -0.060606 -0.674407 -0.713656 0.17995
-0.033066 0.076666 -0.13419 -0.250136 0.275646 -0.925589
0.118836 -0.315977 -0.097655 0.318121 0.027429 -0.945772
0.142386 -0.365168 0.077322 0.062938 -0.131733 0.987513
0.134841 0.549647 0.008236 0.217623 0.724066 0.654181
-0.09261 -0.798356 -0.116547 -0.798257 -0.040411 -0.599159
0.192448 0.482212 0.027528 0.36507 0.25298 0.895135
0.062282 -0.061981 -0.132582 -0.314856 -0.407041 -0.857414
0.434265 0.301089 -0.082 0.631449 0.766438 0.075506
-0.334501 0.333959 -0.039149 -0.676604 0.735575 0.031753
0.132376 -0.530285 0.049546 -0.365766 -0.174885 0.913429
0.17725 -0.094218 0.090061 0.682703 0.030161 0.729935
-0.11125 0.135451 0.056128 -0.808901 0.076129 0.581267
-0.092189 0.286661 -0.094706 -0.702602 -0.041883 -0.710264
-0.197977 0.496799 0.023345 -0.737067 0.481001 0.473485
-0.120262 0.038405 -0.064326 -0.875035 0.142124 -0.462122
-0.121533 -0.314523 -0.032044 -0.841312 0.068052 -0.535752
-0.034935 0.386125 0.105198 -0.120379 0.084256 0.98802
0.083012 0.825134 0.030963 0.821717 0.30405 0.481535
0.287485 0.422575 -0.139474 0.16689 0.295419 -0.93488
0.14357 -0.727272 0.010706 0.484423 0.051752 0.864601
0.064436 -0.46795 0.005216 -0.479782 0.057316 0.875369
0.068431 0.574254 0.014859 0.514509 0.195293 0.831477
-0.125562 -0.386882 0.047124 -0.967896 0.102183 0.221908
0.023917 -0.54835 -0.012356 0.938575 0.022258 0.32166
-0.128483 -0.114353 0.075525 -0.875045 0.006475 0.483636
-0.020885 0.697223 -0.014877 -0.867665 -0.38338 -0.052037
-0.009962 -0.515114 -0.078751 0.687179 0.07985 -0.722021
0.34777 0.385491 -0.116369 0.94692 0.135696 -0.152564
0.011401 -0.241265 0.086606 0.813057 -0.073659 0.575876
-0.08962 -0.642845 0.043188 0.084022 -0.315112 0.937183
-0.084985 -0.157513 0.115749 -0.323655 -0.014722 0.945737
0.130449 0.37303 0.085361 0.479244 0.052829 0.875832
0.176624 -0.694781 0.008412 0.425194 -0.493843 0.757905
