-0.488095 0.103885 0.038953 0.85183 -0.520537 -0.02869
0.018986 0.466109 -0.125953 0.008062 0.07552 -0.995739
0.030941 -0.257128 0.023312 0.983135 -0.063429 0.170709
-0.003932 0.083521 0.132085 -0.438515 -0.001719 0.894208
0.091188 -0.071402 0.117274 -0.077537 -0.580531 0.808897
0.140658 -0.866656 -0.026121 0.152315 -0.976582 0.150182
0.054001 -0.484759 -0.058796 -0.796947 -0.000964 -0.602757
0.084546 0.706861 0.059693 0.830318 -0.136281 0.538779
0.151925 -0.08171 0.107591 0.68642 0.03938 0.677733
0.153011 -0.861183 -0.011727 0.41487 -0.904832 -0.043681
0.21388 -0.103241 0.021817 0.990903 -0.018895 0.127453
0.175586 0.155888 -0.048405 0.896522 0.001592 -0.44232
0.119006 0.216999 -0.115936 0.583771 -0.335971 -0.738381
0.171787 -0.5901 0.033181 0.557206 -0.312326 0.766582
0.040715 0.468444 0.083441 0.135682 0.346437 0.928043
0.162967 -0.361888 -0.070612 0.621448 0.16893 -0.764439
0.190428 0.138786 -0.022376 0.81977 0.041745 -0.567722
0.033197 0.589541 0.0263 0.043028 0.008711 0.997147
0.119583 -0.207598 -0.102984 0.054837 -0.154427 -0.984263
-0.204934 0.416264 -0.094472 -0.167117 0.222917 -0.959388
-0.118411 -0.596619 -0.080103 -0.687459 0.043556 -0.723476
-0.020731 0.750836 0.050592 -0.799813 0.145976 0.580819
0.019664 -0.18762 -0.041952 0.920666 0.058581 -0.378916
0.075261 -0.357382 -0.083295 -0.660805 -0.071997 -0.745255
0.082951 -0.763415 0.011294 -0.04061 0.037829 0.918535
0.054889 -0.664559 -0.033696 -0.87259 -0.149538 -0.463281
0.037598 0.789833 -0.120221 0.07533 0.123998 -0.985752
-0.06129 0.147449 0.100665 -0.562732 0.099127 0.82056
0.069122 0.154619 -0.121558 -0.007761 0.168618 -0.983206
0.07409 -0.785064 -0.059495 -0.874488 0.159725 -0.457028
-0.136332 0.042846 -0.001242 -0.986942 0.141939 -0.034318
-0.096378 -0.425293 0.086019 -0.252152 -0.324373 0.901329
-0.120728 0.364376 -0.074512 -0.957571 -0.159835 -0.227804
-0.060341 0.23085 0.095289 -0.557539 0.093824 0.823507
0.034325 0.747975 -0.117355 0.057697 -0.465671 -0.87737
0.076417 0.637533 0.008882 0.813462 -0.186769 0.550075
-0.103592 -0.841999 -0.036518 -0.918525 -0.343069 -0.11587
0.199483 -0.489218 -0.000448 0.976757 0.078562 0.197467
0.34513 0.39306 -0.127181 0.82681 0.016582 -0.550194
0.158546 0.071198 -0.101573 0.704124 0.210834 -0.675997
-0.082654 0.035521 -0.118181 -0.67276 0.254038 -0.694727
-0.022607 -0.702542 0.027511 0.001418 0.096033 0.983369
-0.081391 0.364497 -0.111901 -0.474505 -0.140968 -0.868134
-0.133033 -0.514341 0.001382 -0.854079 -0.174862 0.484466
0.489792 0.201427 -0.004406 -0.041348 0.627632 0.577937
0.081744 -0.491092 -0.087906 -0.68252 -0.013303 -0.729773
0.086978 0.700388 0.052326 0.891911 -0.253838 0.363311
-0.08825 0.283732 0.072311 -0.660198 0.019258 0.749868
0.132689 -0.198901 -0.102471 0.274611 -0.1365 -0.951026
0.109248 -0.816479 0.074672 -0.18919 0.896222 0.394937
-0.071227 -0.453559 0.080354 0.163313 -0.164652 0.97258
0.204768 -0.534009 -0.033087 0.983921 0.011353 -0.176348
0.118597 -0.341531 0.078548 -0.227632 -0.198283 0.946136
-0.105193 0.393057 -0.105655 -0.545821 -0.235332 -0.803271
0.012485 -0.565754 -0.051222 0.829682 0.024645 -0.557025
-0.071101 0.3372 0.087095 -0.519745 -0.15402 0.840005
-0.236955 0.377311 -0.097219 0.041169 0.067592 -0.99603
-0.122804 -0.582475 0.001487 -0.927666 -0.038402 0.369475
0.174689 -0.489481 0.057672 0.570345 -0.176821 0.798482
-0.028769 -0.860101 0.093096 0.778055 -0.541776 0.125583
0.164895 -0.094209 0.100684 0.615971 0.036228 0.786853
0.067915 -0.772318 -0.042391 -0.894017 0.164011 -0.414789
0.624143 0.048852 0.026374 -0.803425 -0.530671 -0.245944
0.098948 -0.458955 0.033302 -0.68217 -0.077064 0.724842
-0.081969 -0.103904 0.116284 -0.426134 0.009471 0.902782
-0.136674 -0.505412 -0.01286 -0.99231 -0.09029 0.06061
0.184024 0.289108 -0.004782 0.99116 -0.127976 0.014482
-0.295228 0.353154 -0.002515 -0.586323 0.433305 0.677763
0.173892 -0.813854 -0.055943 0.867301 -0.476296 -0.010696
0.057719 -0.693191 0.019916 -0.871974 0.155319 0.461985
-0.127761 0.547946 0.023594 -0.156738 0.81965 0.545561
-0.127454 -0.399284 -0.029937 -0.907286 0.018427 -0.419017
0.162306 -0.205871 -0.083212 0.593266 -0.130389 -0.79424
-0.005092 -0.648917 -0.074585 0.599876 0.086828 -0.794745
0.147296 0.062614 -0.115051 0.694343 0.17434 -0.698191
0.110983 0.061909 -0.142562 0.500986 0.193601 -0.842892
0.226013 0.54954 -0.046702 0.443198 0.885426 0.134673
-0.050203 -0.063437 -0.11888 -0.166082 -0.311495 -0.934501
0.312081 0.399905 -0.028848 0.576801 0.248868 0.776158
-0.082637 0.505612 0.057194 -0.157219 0.398859 0.902063
-0.016674 -0.176746 -0.082934 0.587904 -0.023596 -0.80849
0.176438 -0.219262 -0.071176 0.605917 -0.001009 -0.795263
-0.06539 -0.862912 -0.005859 0.004032 -0.999248 -0.038431
0.02054 -0.285086 -0.031607 0.949531 -0.065777 -0.305314
-0.071425 -0.284911 0.108053 0.068592 -0.11438 0.990891
0.021344 -0.266462 0.061469 0.937918 -0.041764 0.341753
-0.145518 0.485643 -0.094875 -0.290499 0.119864 -0.94119
0.128689 -0.869383 -0.100344 0.108759 -0.981569 -0.142926
-0.035651 -0.863616 0.071175 0.186808 -0.972333 0.010379
-0.089194 -0.806986 -0.119187 -0.779829 -0.168219 -0.601898
-0.127405 -0.448753 -0.045246 -0.826934 0.18563 -0.529605
0.101149 -0.867945 -0.109105 -0.442997 -0.807512 -0.300113
0.178786 0.369129 -0.100218 0.586281 -0.469808 -0.659268
-0.072512 -0.136668 0.119796 -0.299255 0.043353 0.952632
-0.090349 0.419904 0.075725 -0.637674 0.08674 0.765217
0.032674 0.462471 0.087449 0.142434 0.348276 0.924511
0.582772 0.05782 -0.028059 -0.170928 -0.062321 -0.867202
-0.073805 -0.769957 0.020657 -0.484387 0.284834 0.805126
-0.121996 0.361361 -0.062128 -0.977801 -0.179824 -0.088075
-0.570223 0.02744 0.030441 -0.10945 -0.977029 0.08753
-0.114089 0.016541 -0.080787 -0.87467 0.039602 -0.482283
-0.348262 0.213817 -0.013616 0.622944 -0.761866 0.158567
-0.072719 0.249491 0.08658 -0.578099 0.064908 0.811726
-0.037049 0.726067 -0.020746 -0.836134 -0.525919 0.011636
-0.146244 0.511245 -0.085468 -0.434865 0.441382 -0.783985
-0.086447 0.028838 0.109035 -0.515127 0.378033 0.768211
-0.070481 -0.854941 -0.131071 -0.391943 -0.61816 -0.668313
-0.135695 -0.040053 0.056618 -0.95779 0.082287 0.261709
-0.079276 -0.341298 0.103736 0.104319 -0.104024 0.987721
0.077186 0.566225 -0.110927 -0.062698 0.590685 -0.803206
0.193199 -0.457023 0.025344 0.965324 -0.076436 0.24923
0.147032 -0.023778 -0.131378 0.667377 -0.028864 -0.74338
0.315041 0.306895 -0.098873 -0.684986 -0.706445 -0.157983
-0.281348 0.281016 -0.008169 0.479914 -0.593833 0.643823
0.096599 0.202171 0.113722 0.389466 0.046129 0.919732
-0.476904 0.168883 0.036979 -0.310432 0.85601 0.370582
0.077111 0.220587 0.12084 0.383904 0.077837 0.919854
0.198845 -0.447032 0.002858 0.990137 -0.042637 0.12694
0.182792 0.183353 0.035139 0.935622 0.128773 0.314759
0.079002 0.272677 -0.138869 -0.116481 -0.068759 -0.990174
0.09106 0.751778 0.046001 0.92668 -0.016858 0.372787
-0.115714 -0.312853 0.090244 -0.791446 -0.058789 0.605551
-0.017955 -0.75934 -0.006138 0.530609 0.027646 0.818472
-0.083933 0.307514 0.076435 -0.631094 -0.029827 0.768972
0.048825 -0.605632 -0.040124 -0.895927 -0.09788 -0.427244
0.053466 -0.039497 0.130373 0.053537 -0.20125 0.976638
-0.004419 -0.579476 -0.072167 0.735431 -0.037189 -0.676261
0.17227 -0.245579 0.078937 0.465066 -0.125298 0.875549
0.177728 0.29694 0.02984 0.945135 0.029966 0.324886
0.112942 -0.580821 0.035747 -0.285924 -0.187311 0.939345
0.013236 0.074248 -0.143057 -0.158565 0.226359 -0.960729
-0.0064 -0.755172 -0.012091 0.462148 -0.382003 0.783915
0.003775 -0.438735 0.044779 0.77841 -0.136966 0.612255
0.20742 -0.170774 -0.022871 0.997831 -0.003661 -0.064031
-0.019523 -0.52637 0.042764 0.505398 -0.225402 0.830161
-0.173776 0.531896 0.006702 -0.642013 0.726618 0.242467
0.559349 0.161747 0.016622 0.733562 0.67937 0.010078
0.191647 -0.307691 -0.037691 0.784256 -0.052855 -0.617377
0.143029 -0.542183 -0.105242 0.33939 -0.020712 -0.938877
-0.096763 0.364876 -0.103277 -0.50021 -0.22467 -0.835384
-0.120284 0.324483 -0.030312 -0.999277 -0.024692 0.022066
0.062195 0.184965 0.127796 0.145963 0.029326 0.988732
0.030835 -0.185713 0.034534 0.741699 -0.280169 0.573366
-0.064497 -0.537945 0.059044 0.358979 -0.176242 0.915806
0.170991 0.221169 -0.052762 0.880369 -0.019651 -0.473812
-0.001525 0.708575 0.071943 -0.640562 0.003277 0.763289
0.08845 0.39987 0.09519 0.165913 0.206347 0.963853
0.09377 0.308748 0.105095 0.205447 0.08691 0.97471
0.041797 0.271035 0.125276 0.14797 0.171675 0.973007
-0.076148 0.032378 0.112744 -0.384715 0.332879 0.859038
-0.094747 -0.726305 0.002609 -0.585508 -0.37994 0.714774
-0.02574 -0.55829 0.03802 0.433753 -0.235108 0.86952
0.133848 -0.552133 0.046261 -0.21311 -0.175643 0.957612
-0.144195 -0.138819 0.011632 -0.999158 -0.025296 -0.022284
0.444268 0.276526 -0.107222 0.727521 0.298834 -0.612397
0.017355 0.588478 -0.092071 -0.11734 0.685979 -0.711664
0.130997 -0.69775 0.025067 0.278873 -0.335457 0.899101
0.180047 0.310361 0.02158 0.900995 0.013732 0.427352
0.206191 0.043324 0.01378 0.995314 0.0858 0.032162
-0.093919 -0.862976 0.023252 -0.076995 -0.995408 -0.034561
-0.096074 -0.407459 0.090764 -0.179823 -0.240557 0.942593
-0.078048 -0.854454 -0.125169 -0.63205 -0.488394 -0.599072
-0.109151 0.208792 -0.041959 -0.854087 -0.016843 -0.516763
-0.071009 -0.824686 0.093252 -0.154301 0.983191 0.09649
0.086173 0.254377 0.112986 0.399254 0.065544 0.91447
0.199285 -0.07284 -0.046934 0.930421 0.022949 -0.365445
-0.090816 -0.471046 0.079325 -0.238843 -0.155097 0.946168
0.042502 -0.278304 0.022006 -0.991091 -0.018251 0.124691
-0.069796 -0.703366 0.016169 0.252777 -0.329017 0.909755
0.187389 -0.498845 -0.071918 0.785405 0.009384 -0.618874
-0.014822 0.607425 -0.062325 -0.528173 0.690712 -0.490925
0.097187 -0.866779 0.049004 -0.575494 -0.811571 -0.075431
0.256007 0.519908 -0.03746 0.701293 0.682637 0.192984
-0.288298 0.395011 -0.025696 -0.782329 0.568584 0.221507
-0.11807 -0.795977 -0.036118 -0.887824 -0.422663 0.130502
-0.473191 0.159148 -0.040461 -0.373784 0.222625 -0.876734
0.228497 0.385448 -0.064335 -0.711178 -0.699611 0.06424
0.150553 0.427823 0.069592 0.677283 0.10723 0.727531
-0.136971 -0.188305 0.003483 -0.986002 -0.090831 -0.136653
0.101456 0.004549 0.131291 0.278052 -0.009969 0.948065
0.134601 -0.499755 0.056177 -0.44935 -0.139432 0.880833
-0.026765 0.468065 -0.130458 0.086394 0.080868 -0.992839
-0.307164 0.261561 -0.082724 0.22051 -0.558816 -0.793002
-0.394703 0.184223 0.004926 0.632647 -0.747186 0.179656
0.281813 0.393861 -0.016351 -0.136354 -0.311467 0.937147
0.154787 0.552454 -0.001342 0.144127 0.736306 0.660902
0.073447 0.324531 0.110815 0.321523 0.126654 0.937387
-0.037632 -0.240991 -0.091642 0.195435 0.044775 -0.978894
0.188581 -0.730168 -0.036789 0.696818 -0.218598 -0.667972
0.096977 0.186135 -0.11501 0.244785 -0.202098 -0.944509
0.131418 0.43345 0.078744 0.386283 0.190157 0.900409
0.593625 0.11014 0.066743 0.178484 0.578356 0.789678
0.192419 -0.434915 0.036641 0.957186 -0.08866 0.275226
-0.060346 0.179007 0.099095 -0.439663 0.021418 0.896597
-0.057152 -0.036263 -0.127101 -0.265407 -0.287891 -0.918827
-0.061476 0.018277 -0.133871 -0.348244 -0.289494 -0.88563
0.155467 0.049684 0.097037 0.311058 0.31272 0.892138
0.096983 0.762277 0.028814 0.976177 0.033728 0.20544
0.172729 -0.764199 -0.058895 0.808138 0.406023 -0.419963
0.049354 0.732617 0.091158 0.855596 0.144142 0.492137
-0.121676 0.214236 0.007439 -0.955861 0.280603 0.041155
-0.045378 -0.26092 0.108506 0.204953 -0.220478 0.953472
-0.121508 0.203253 0.026931 -0.94004 0.193802 0.277511
-0.111995 0.543079 -0.07829 -0.397059 0.663316 -0.633431
0.035593 0.865631 -0.038024 -0.033771 0.956978 -0.27054
-0.102984 0.131679 -0.069142 -0.837558 0.115826 -0.533667
-0.101594 0.564277 0.0019 -0.105493 0.905201 0.39934
-0.237841 0.327192 -0.002368 0.513569 -0.611059 0.59872
0.086334 -0.708065 -0.074948 -0.799976 -0.02624 -0.59689
-0.041335 -0.030408 -0.132299 -0.169743 -0.214441 -0.961055
0.00037 -0.731951 -0.092209 0.700222 0.178162 -0.689896
-0.091642 -0.447781 -0.081757 -0.541829 0.215113 -0.810216
0.174721 -0.510555 0.052437 0.621406 -0.202578 0.752766
-0.057726 -0.339431 -0.088184 -0.163403 -0.044792 -0.980814
-0.114242 0.311769 0.008724 -0.975566 -0.066703 0.209043
0.020618 -0.580889 -0.000462 0.799813 0.062589 0.594591
-0.306315 0.285042 -0.093107 0.141426 -0.300782 -0.941995
0.05709 -0.4435 -0.060101 -0.757891 0.037785 -0.651096
-0.109214 -0.136525 -0.065661 -0.764687 -0.117015 -0.633254
-0.008262 -0.805517 0.000126 0.929604 0.137887 0.341007
0.602782 0.078308 0.005336 0.408092 -0.335459 -0.834305
-0.194558 0.417248 0.033582 0.231613 -0.366616 0.900001
0.198646 0.081583 -0.000313 0.973386 0.222651 0.049197
0.047893 -0.237023 0.051258 -0.858038 -0.096604 0.504014
-0.112901 0.296058 0.007062 -0.988953 -0.098099 0.109225
0.083356 -0.859584 0.086993 -0.905541 -0.399392 -0.043575
-0.022231 0.848155 -0.01805 -0.592029 0.804226 -0.02292
0.429886 0.20629 -0.086066 -0.467691 -0.883595 0.007897
0.20505 -0.158046 0.036803 0.955237 -0.164547 0.240281
-0.03652 0.520976 0.057421 -0.169213 0.536322 0.826282
-0.012072 0.665444 -0.007248 -0.985952 -0.107132 0.003977
0.185216 -0.514789 0.039032 0.844537 -0.083903 0.528735
0.141731 -0.806623 -0.1153 0.394461 0.076961 -0.903076
-0.118402 -0.534225 0.023484 -0.855093 -0.098735 0.508778
0.19513 -0.612459 -0.057656 0.840102 -0.033514 -0.541052
0.043906 -0.483666 -0.03111 -0.999716 -0.00021 0.014588
-0.109097 -0.654386 0.030527 -0.770796 -0.144705 0.617755
0.195461 -0.411916 0.031624 0.949777 -0.063215 0.305927
-0.513167 0.129705 0.067698 -0.760166 0.6343 0.102856
0.097784 -0.566445 0.0322 -0.411119 -0.090295 0.906272
-0.047149 0.088731 -0.125627 -0.451429 0.308791 -0.835617
0.274249 0.444331 -0.010792 0.323113 0.103152 0.936899
0.188912 -0.016432 -0.0722 0.872677 0.052108 -0.481691
0.05437 0.329432 0.114563 0.205354 0.187192 0.960264
0.006572 -0.367633 0.063494 0.794043 -0.163087 0.584898
-0.231627 0.386161 -0.096268 -0.005313 0.109956 -0.993261
0.129427 -0.869483 0.040663 0.011376 -0.999304 -0.033458
0.058038 0.540791 0.039612 -0.040367 0.810169 0.580716
-0.055456 -0.362511 0.096797 0.197827 -0.19149 0.960779
0.290028 0.458639 -0.11491 0.498472 0.637164 -0.587371
-0.039121 -0.841991 0.127714 0.866358 0.252311 0.420509
0.151748 -0.686607 0.023592 0.312359 -0.394352 0.86288
0.046768 0.658442 0.062916 0.189098 -0.971361 0.143205
-0.039793 -0.793769 -0.149968 0.004484 0.274762 -0.952592
0.171775 0.21637 0.050107 0.761823 0.058346 0.644953
0.09848 -0.3611 -0.099313 -0.317098 -0.018 -0.941582
0.134477 -0.680648 0.028618 0.145512 -0.143911 0.978075
-0.209313 0.481082 0.021013 -0.725413 0.432663 0.525945
-0.111152 0.042676 -0.079896 -0.836057 0.174431 -0.518126
-0.105708 -0.346793 -0.058436 -0.753999 0.086537 -0.650984
0.344238 0.416064 -0.084182 0.763881 0.62999 0.12746
0.398957 0.327554 -0.072424 0.578885 0.731345 0.354349
0.162308 0.113426 -0.08066 0.740682 0.260014 -0.619179
-0.046463 -0.087354 -0.111729 -0.017319 -0.230561 -0.972572
0.047836 -0.526143 -0.043281 -0.879725 -0.062398 -0.471242
0.200289 -0.114682 -0.048722 0.879477 0.043019 -0.473649
-0.016464 -0.423379 0.070963 0.554337 -0.210474 0.803559
0.180736 0.537293 -0.108599 0.256245 0.631897 -0.73056
0.135087 -0.723231 0.014886 0.427185 0.022427 0.898768
0.204076 -0.154286 -0.041837 0.930166 -0.008162 -0.360352
0.158316 -0.370593 -0.076328 0.597353 0.196345 -0.776982
0.205794 -0.355094 -0.005415 0.998652 -0.006752 -0.003499
-0.014513 -0.344134 -0.069306 0.692938 -0.074313 -0.716996
-0.163197 0.424747 -0.09472 0.075527 -0.04168 -0.994894
-0.129185 0.074394 -0.007432 -0.981981 0.157894 -0.022854
0.192373 -0.503541 -0.063563 0.852276 0.013753 -0.522716
-0.312091 0.354824 -0.031119 -0.662822 0.736607 0.13301
-0.38359 0.227891 0.011528 0.084119 0.030935 0.995837
-0.129377 -0.618519 -0.046427 -0.999819 -0.017896 0.000207
-0.030379 -0.194298 -0.089923 0.351064 -0.041358 -0.934539
0.19813 -0.648837 -0.044613 0.962455 -0.090814 -0.23177
-0.013811 0.814072 0.043479 -0.833201 0.331275 0.43867
0.618833 0.085408 0.052264 0.864144 0.502879 0.018439
0.206082 -0.183979 -0.033559 0.982646 -0.004847 -0.174172
-0.06888 -0.547344 0.058759 0.354262 -0.188446 0.915902
0.168371 0.279436 -0.061192 0.905736 -0.14859 -0.396334
0.14814 -0.495048 0.062491 -0.287469 -0.197981 0.935319
0.56719 0.08396 0.036701 -0.85675 -0.495178 0.131507
-0.087685 0.0254 -0.117127 -0.731941 0.136911 -0.661183
0.007845 0.82041 0.063834 -0.495281 0.464799 0.733628
-0.062292 0.554207 0.022294 -0.187543 0.743349 0.641962
-0.051863 0.274104 -0.122309 -0.458556 -0.052591 -0.886676
-0.002843 0.859877 -0.003247 -0.586706 0.80381 0.038575
-0.092746 -0.075666 -0.09406 -0.65748 -0.236352 -0.715143
0.08784 0.361211 0.1006 0.370824 0.165707 0.906339
0.14244 -0.39589 -0.09261 0.519104 0.133571 -0.843902
0.119083 -0.50699 0.045435 -0.559959 -0.086673 0.823834
-0.097835 -0.753075 -0.105379 -0.756828 -0.087804 -0.641558
0.199055 -0.015569 -0.047381 0.954548 0.042524 -0.29363
-0.027375 0.720461 0.030748 -0.980068 -0.064096 0.184731
0.620649 0.050275 0.037397 -0.835001 -0.543941 -0.05787
-0.067075 -0.563872 -0.103194 -0.054272 0.031265 -0.997209
0.005568 0.744238 -0.109958 -0.496821 -0.367943 -0.783149
-0.048488 0.414533 -0.128524 -0.132443 -0.0617 -0.988857
0.553951 0.14178 0.044096 -0.433103 0.204199 0.877011
0.072112 -0.413357 -0.076104 -0.702145 -0.013106 -0.711854
0.006861 -0.549162 -0.059672 0.807373 0.010097 -0.589759
0.035016 -0.327625 -0.01589 -0.997087 -0.041421 -0.062004
-0.126722 -0.36547 -0.028719 -0.97453 0.042314 -0.212576
0.142331 -0.174088 -0.100066 0.503329 -0.073206 -0.860363
0.033463 -0.091681 -0.099514 -0.6402 -0.507337 -0.569209
0.021465 -0.435909 -0.017086 0.964786 0.127958 -0.223666
0.100145 0.759655 -0.060864 0.956109 -0.127065 -0.26041
0.151476 0.483099 -0.139491 0.210198 0.252864 -0.943351
0.226457 0.524368 -0.102567 0.440142 0.65266 -0.616564
-0.523381 0.074378 0.092547 -0.022615 -0.92145 0.375428
-0.021611 0.354664 0.106063 -0.185916 0.00412 0.979124
0.151177 -0.867332 0.103078 0.458505 -0.886937 0.015999
0.019549 -0.272188 -0.036852 0.923378 -0.081699 -0.370227
0.205059 -0.384266 -0.021318 0.987266 0.00061 -0.152758
0.344736 0.282668 -0.100291 -0.60862 -0.720811 -0.33029
0.166612 -0.858588 0.147456 0.910436 -0.265788 0.243458
0.008111 -0.278493 0.08404 0.692933 -0.153862 0.702827
-0.034686 0.797594 0.004613 -0.984354 0.023879 0.167405
0.174921 -0.521975 -0.08546 0.697581 -0.02808 -0.715923
-0.113298 -0.542239 -0.079531 -0.685894 0.122395 -0.716957
0.287254 0.432173 -0.135926 0.263285 0.366416 -0.889944
-0.014989 -0.193995 0.113273 0.391303 -0.096354 0.914648
-0.127104 0.37619 -0.027438 -0.980379 -0.192389 0.007597
-0.037183 0.202645 0.110804 -0.49198 0.021688 0.869794
0.192989 -0.231253 0.061901 0.898806 -0.022084 0.435614
0.121502 0.083891 -0.130176 0.554649 0.255915 -0.791266
-0.164064 0.514665 -0.072509 -0.516754 0.50956 -0.6871
-0.000299 -0.488135 0.038551 0.66647 -0.226691 0.709915
0.458043 0.241724 -0.093828 0.60329 -0.254047 -0.752066
-0.500984 0.149688 0.009581 -0.780463 0.623441 -0.026575
-0.117841 0.16229 0.041576 -0.871925 0.020227 0.486978
-0.074047 -0.863493 0.014719 -0.020283 -0.999661 -0.014126
-0.137296 -0.050659 -0.029858 -0.969426 -0.010104 -0.244997
0.177641 0.018057 0.090611 0.655655 0.136507 0.741761
0.179156 -0.583233 0.030325 0.596242 -0.2977 0.745345
-0.068191 -0.462613 0.077734 0.307331 -0.231172 0.922807
0.000207 -0.13963 0.112197 0.576359 -0.157382 0.801865
-0.129095 -0.283958 0.002675 -0.995954 -0.065141 -0.054528
0.066277 0.303911 -0.138177 -0.297875 -0.06834 -0.95118
0.087371 0.082086 -0.146944 0.230136 0.320746 -0.916935
0.103336 0.763774 -0.050937 0.972392 -0.115994 -0.195124
0.201133 0.126344 -0.002059 0.934048 -0.243754 -0.194788
0.052057 0.602972 0.022329 0.389187 -0.08666 0.916138
-0.038479 0.758902 -0.038923 -0.991877 -0.059621 -0.105454
-0.037056 -0.007746 0.142621 -0.278431 -0.087582 0.952014
0.518964 0.212973 -0.02893 0.481884 0.822039 0.30019
0.20549 -0.257889 0.007053 0.999947 0.006145 0.004068
-0.129273 0.012411 -0.048286 -0.937241 0.04456 -0.344884
-0.194329 0.350891 -0.016571 0.567267 -0.76223 0.308182
0.024529 0.697165 -0.083343 -0.144792 -0.6167 -0.771982
-0.048361 0.586866 -0.026618 -0.391992 0.780066 0.448384
0.160246 0.314583 0.056983 0.661457 0.020357 0.749228
-0.080853 0.317994 0.079008 -0.550973 -0.031804 0.833462
-0.005511 -0.311186 0.084849 0.326629 -0.117384 0.929942
-0.023267 0.221483 0.114905 -0.422548 0.106862 0.89918
0.433961 0.231062 -0.032065 -0.632137 -0.485465 0.589626
-0.174683 0.469699 0.047601 -0.438406 -0.078902 0.892154
-0.070782 -0.862896 -0.103244 -0.067771 -0.996223 -0.036441
-0.002572 -0.760773 -0.102887 0.800427 0.242887 -0.543326
0.083232 -0.031074 -0.150238 -0.039829 -0.351599 -0.934355
0.087687 -0.84305 0.076881 -0.914907 0.399856 0.032681
0.06121 -0.559355 0.003978 -0.697012 0.013921 0.716491
0.009858 0.833502 0.057021 -0.503993 0.395454 0.765436
0.526437 0.14964 0.022338 -0.722636 -0.316111 0.586618
0.182572 -0.354178 0.066311 0.828498 -0.064243 0.554675
-0.025289 -0.857404 0.030175 0.746921 -0.646432 -0.093184
-0.289517 0.318833 0.007771 -0.123821 -0.073604 0.98804
-0.108224 -0.050733 -0.084785 -0.779644 -0.148013 -0.60832
-0.278078 0.406263 -0.04331 -0.694661 0.718329 -0.016211
0.119829 0.503637 0.0513 0.281599 0.502983 0.816313
0.198863 0.39351 -0.018075 0.984143 -0.152581 0.064346
-0.125549 -0.640255 -0.074452 -0.89051 0.008962 -0.443032
0.140707 -0.869159 -0.051234 0.085087 -0.993836 0.062134
0.187329 0.388738 -0.108595 0.471946 -0.561713 -0.67845
-0.128777 -0.294278 0.017447 -0.998999 -0.038389 0.008875
0.009634 -0.481457 -0.049874 0.829433 0.043427 -0.555837
0.604957 0.101176 0.051768 0.831239 0.551558 0.05563
0.054549 0.548731 0.029131 0.143275 0.571796 0.804413
0.005597 -0.264213 -0.059698 0.774686 -0.116953 -0.621326
0.05959 -0.759479 -0.005656 -0.997682 0.021178 -0.054606
-0.017098 -0.636704 -0.084073 0.666561 0.01737 -0.745167
0.04176 -0.18957 0.040098 -0.977671 -0.061328 0.200689
-0.114345 -0.267119 0.095283 -0.717621 -0.061028 0.69337
0.166201 -0.440759 -0.085276 0.656125 0.182819 -0.732065
0.61875 0.061926 0.1024 -0.099345 0.541777 0.696554
0.145186 -0.865458 0.15098 0.131998 -0.977601 0.151893
0.061571 -0.229975 -0.073558 -0.730775 -0.117183 -0.672031
0.041879 -0.387526 -0.012558 -0.984853 -0.116339 0.125732
0.021284 0.539397 -0.116793 -0.064004 0.394372 -0.916473
-0.23038 0.405893 0.028113 -0.424654 -0.03697 0.898595
-0.148947 0.545626 -0.045481 -0.502251 0.754578 -0.422003
-0.128125 -0.359322 -0.018237 -0.993141 0.032617 -0.102246
0.205416 -0.170978 -0.037946 0.965456 -0.009295 -0.255567
0.102258 -0.448833 0.038423 -0.791409 -0.11378 0.573515
-0.054625 0.336636 0.098417 -0.409666 -0.12448 0.903392
-0.027226 -0.745972 0.004789 0.344197 -0.577091 0.685747
0.044886 0.863777 -0.044641 0.07376 0.978955 -0.185769
0.07449 -0.234408 0.080064 -0.50183 -0.106431 0.85524
-0.058408 0.097448 -0.116448 -0.508415 0.301572 -0.806254
0.179516 -0.289307 -0.055232 0.681653 -0.16847 -0.711927
-0.1363 -0.223053 0.034796 -0.999063 -0.034326 0.019861
-0.147507 0.389985 -0.032305 0.743739 -0.665265 -0.05792
-0.381982 0.196433 0.009002 0.581659 -0.538483 0.598017
0.194755 0.030591 -0.054819 0.912807 0.026129 -0.407287
0.065142 -0.415798 0.017761 -0.68343 -0.336971 0.647042
-0.228147 0.435404 -0.076954 -0.470628 0.502585 -0.725185
-0.134241 -0.394276 -0.000554 -0.917622 0.355602 -0.042785
0.447752 0.205398 -0.023535 -0.806388 -0.458298 0.367763
0.507179 0.1717 -0.046202 0.101159 -0.538774 -0.831411
0.109144 -0.354709 0.073464 -0.317027 -0.226394 0.919828
-0.136401 -0.53115 -0.029628 -0.998933 -0.022814 -0.021332
0.261714 0.515136 -0.044062 0.73 0.672294 0.097955
0.602881 0.10508 0.023467 0.898925 0.409387 -0.102156
-0.14077 -0.089887 0.041763 -0.951586 0.036342 0.304441
-0.081513 0.270991 0.078218 -0.60271 0.051806 0.79617
0.124704 -0.842821 0.179914 -0.177981 0.42785 0.882407
0.044054 0.869667 -0.023893 0.1217 0.969578 -0.176618
-0.542451 0.094823 0.068063 -0.737022 0.670807 0.077114
0.054177 0.651504 -0.062794 0.448139 0.016218 -0.887553
0.006695 -0.571781 0.011966 0.657999 -0.089764 0.745783
0.510444 0.158809 -0.030303 -0.581339 -0.78389 -0.199263
-0.134589 -0.005614 0.050213 -0.941464 -0.107863 0.27609
0.120606 -0.664149 0.032387 0.099772 -0.141846 0.984436
-0.001794 0.762915 0.068808 -0.361183 -0.220658 0.883096
0.181814 0.239085 0.022795 0.989926 -0.013276 0.139153
-0.018062 0.52538 0.057659 -0.103307 0.52316 0.844015
-0.019101 -0.738596 0.010928 0.338804 -0.730097 0.591518
0.067536 0.547743 0.029264 -0.107701 0.679032 0.711563
0.097441 0.17183 0.114597 0.408366 0.052214 0.911208
-0.208326 0.472275 -0.062433 -0.793213 0.369454 -0.441802
-0.009567 -0.599913 -0.07684 0.683205 -0.008619 -0.729995
0.068667 0.664406 -0.052292 0.690865 -0.043815 -0.719521
0.004718 0.102577 -0.134214 -0.143262 0.29706 -0.942615
-0.124923 0.015369 -0.059661 -0.893396 0.034078 -0.447903
-0.000884 0.331623 -0.128378 0.120605 0.033068 -0.991945
0.073629 0.4626 -0.139624 -0.368747 0.121459 -0.919751
-0.071035 -0.056532 0.122094 -0.364707 -0.03724 0.929517
0.157374 -0.39719 -0.083223 0.524244 0.159019 -0.836198
-0.126039 -0.737222 -0.060028 -0.974743 -0.031782 -0.21369
0.460534 0.196712 -0.005707 -0.724683 -0.328387 0.538554
-0.036117 0.81605 -0.062052 -0.953593 0.059428 -0.263929
-0.010232 0.167368 0.127344 -0.3227 -0.012293 0.940195
0.018532 0.658842 0.064811 -0.219017 -0.965863 0.12905
0.088062 0.289378 0.108927 0.372334 0.139382 0.916127
0.206911 -0.167591 0.01798 0.994417 -0.015316 0.095038
0.027576 -0.628848 -0.031393 0.997007 0.00421 -0.070395
0.458004 0.262542 -0.0962 0.733682 0.239402 -0.633552
0.438863 0.261688 -0.032952 0.06423 0.550119 0.830258
0.036616 -0.340399 -0.024787 -0.986122 -0.061492 -0.143641
-0.098296 0.081377 0.086266 -0.400552 0.487916 0.773468
-0.090641 -0.682189 -0.103428 -0.583121 0.036335 -0.772726
-0.08193 -0.863353 0.026991 -0.037977 -0.999269 -0.003383
-0.134076 -0.231125 0.055828 -0.977175 -0.080686 0.193577
0.176364 0.520858 -0.121851 0.181818 0.519594 -0.834713
0.154561 -0.630932 -0.088752 0.469564 -0.149496 -0.869676
0.107667 0.10521 -0.131139 0.437576 0.380285 -0.812313
-0.118729 0.172822 0.039986 -0.878773 0.011188 0.476424
0.02184 -0.23598 0.061401 0.942953 -0.005392 0.330627
0.410645 0.264088 -0.03477 -0.084775 0.262484 0.955732
0.166932 0.10544 0.074637 0.696827 0.21122 0.682892
0.017239 -0.496234 0.016463 0.859384 -0.094054 0.498725
0.087524 0.692824 0.040955 0.919085 -0.335662 0.136035
-0.048427 0.098499 -0.12141 -0.43131 0.289814 -0.854195
0.119706 -0.186015 -0.105912 0.066075 -0.098573 -0.990999
0.197131 0.381412 -0.084817 0.949073 -0.233053 -0.207539
-0.130015 -0.577775 -0.058066 -0.965615 -0.009463 -0.255042
0.19266 0.339087 -0.026334 0.973538 -0.222445 -0.000303
0.186975 0.103394 0.050731 0.877915 0.144912 0.448846
-0.063347 -0.86065 -0.126109 -0.104222 -0.927442 -0.316274
0.01627 0.359909 0.111954 0.016506 0.179155 0.98328
-0.054867 0.087972 0.11145 -0.518601 0.099064 0.84902
0.027745 0.307641 0.121413 0.014773 0.096195 0.994392
0.007575 0.66906 0.078544 -0.716167 -0.440727 0.521388
-0.057343 0.31845 0.094621 -0.490943 -0.055695 0.866108
-0.114504 0.232086 0.0286 -0.966649 0.217451 0.131086
0.13534 -0.738461 -0.097951 0.339692 0.165406 -0.918621
-0.070602 -0.197831 -0.090033 -0.376963 -0.057039 -0.923347
0.40741 0.252534 -0.033281 -0.257046 -0.012413 0.956343
0.087513 -0.314071 -0.094833 -0.44527 0.003104 -0.893117
-0.552045 0.05558 0.067187 0.819448 -0.557672 0.059888
-0.000974 -0.170623 0.107511 0.610221 -0.111153 0.78424
0.163524 0.303411 0.054551 0.652692 -0.005672 0.757314
-0.103423 -0.002036 -0.098774 -0.816075 0.000134 -0.575363
-0.040763 0.068999 -0.134199 -0.369413 0.252601 -0.891631
-0.042753 -0.86046 0.127657 0.344658 -0.91115 0.214509
0.161829 -0.330695 -0.069337 0.650824 0.004421 -0.758829
0.027942 -0.274534 0.032824 0.990368 -0.035449 0.133268
-0.080972 -0.512492 0.072703 0.208735 -0.212156 0.916634
-0.229953 0.465649 -0.009818 -0.833337 0.515671 0.189905
-0.126364 -0.496443 0.020112 -0.845973 -0.200057 0.492734
-0.019392 -0.749623 -0.004161 0.300419 -0.520239 0.784038
-0.102246 -0.593839 0.050699 -0.757668 -0.051106 0.63006
-0.071748 -0.314505 -0.084787 -0.452701 -0.041766 -0.888904
0.262172 0.448305 -0.008763 0.272889 -0.069271 0.956965
-0.034066 -0.346305 -0.083811 0.509605 -0.097395 -0.854622
-0.07797 0.580544 -0.041046 -0.453337 0.880568 -0.095781
-0.030268 0.753441 0.02131 -0.963482 -0.091839 0.245168
0.051831 0.09374 0.13219 0.141882 -0.367975 0.916723
0.401888 0.286171 -0.041421 0.13267 0.317259 0.938162
0.103567 0.563152 0.010596 0.321282 0.712981 0.60627
0.582218 0.131641 0.01903 0.77672 0.627108 -0.047736
-0.147663 0.547449 0.012425 -0.396968 0.814022 0.416227
0.19036 0.086004 -0.049599 0.87749 0.169726 -0.442029
0.104403 -0.837181 0.157235 -0.765302 0.452512 0.44757
0.164033 0.397095 -0.124181 0.382341 -0.403311 -0.831098
0.126554 -0.580144 0.039424 -0.217462 -0.234326 0.947118
0.064421 0.632488 -0.061136 0.494005 0.315583 -0.808122
0.109877 0.169844 0.108769 0.543182 0.058469 0.836379
-0.009079 -0.458404 0.055227 0.672128 -0.222876 0.705765
0.048747 -0.51393 -0.047153 -0.875128 -0.094751 -0.474413
0.207329 -0.002074 -0.008364 0.984123 0.136176 -0.105639
-0.128613 -0.633816 -0.061277 -0.99443 -0.024864 -0.09618
-0.095796 -0.249424 0.10828 -0.296952 -0.020003 0.951613
0.150175 0.015042 -0.123723 0.675218 0.066288 -0.734263
0.131194 -0.78672 -0.112265 0.092898 0.423043 -0.899014
0.088273 -0.462411 0.023301 -0.664252 -0.028979 0.746051
-0.264006 0.395545 0.009572 -0.595988 0.35158 0.717527
0.194815 -0.137225 -0.058231 0.76594 -0.028523 -0.642051
-0.012477 0.738956 -0.093644 -0.727448 -0.328311 -0.600214
0.12813 -0.219145 0.091257 0.0824 -0.170482 0.981849
0.117173 -0.227905 0.090765 0.037746 -0.169037 0.984875
0.108523 0.744312 -0.013736 0.97729 0.098634 0.075504
-0.118499 -0.302007 0.087171 -0.867812 -0.039336 0.486965
0.056867 -0.127186 -0.096879 -0.576788 -0.250615 -0.776991
0.005091 0.273743 0.122936 -0.277218 0.116776 0.952381
0.117932 -0.694253 0.029434 0.293044 -0.17896 0.93825
0.105684 -0.869885 0.102011 -0.062133 -0.993006 0.018686
-0.451292 0.212503 -0.016404 -0.775755 0.626914 0.05134
0.110094 0.464985 0.075095 0.228171 0.371085 0.899429
0.012366 -0.134318 0.102709 0.72658 -0.17933 0.662133
0.306684 0.380212 -0.14325 0.02559 -0.179719 -0.980943
0.012668 0.30849 0.120262 -0.153877 0.127571 0.979251
-0.066936 -0.026967 -0.126319 -0.37485 -0.198251 -0.901483
0.131572 -0.097013 -0.122461 0.306546 -0.216037 -0.924851
-0.128328 0.118139 0.020485 -0.972992 0.073414 0.213974
-0.082358 -0.863482 0.05518 -0.036709 -0.999247 -0.001984
-0.112302 -0.756842 0.000437 -0.73684 -0.077421 0.634168
0.117844 -0.627648 0.038119 -0.063255 0.012983 0.993021
-0.003308 0.389108 0.105746 0.025413 0.090301 0.995288
-0.021453 -0.839395 -0.083692 0.915231 -0.360667 -0.022731
-0.064598 -0.500054 0.068473 0.4102 -0.200609 0.889043
-0.128681 -0.573277 -0.015208 -0.969988 -0.083693 0.227768
-0.116774 -0.169983 0.096428 -0.722285 -0.013425 0.691155
0.071433 -0.047664 0.126795 0.046685 -0.404309 0.912633
0.554571 0.164345 0.039422 0.299814 0.865459 0.293757
0.075061 0.181304 0.123712 0.467644 0.035395 0.880403
-0.108831 -0.197911 0.103818 -0.643553 -0.023754 0.762911
0.199132 0.537824 -0.101207 0.287727 0.696402 -0.655586
-0.415655 0.221333 0.014097 -0.148543 0.247613 0.953629
0.105283 -0.870053 0.079577 -0.093029 -0.989658 -0.002473
0.018239 0.585883 0.024282 -0.318529 0.10577 0.937138
0.165682 0.043368 0.095375 0.479717 0.207561 0.84614
0.159715 -0.188022 0.093565 0.260008 -0.102731 0.95982
0.119942 -0.454353 -0.104961 -0.045403 0.071541 -0.993954
0.102507 0.596909 -0.040806 0.587362 0.770804 0.229612
0.207491 -0.154236 -0.022406 0.990977 -0.095058 -0.073243
0.057818 -0.228584 0.067186 -0.702448 -0.133977 0.698447
0.050852 0.327337 -0.132952 -0.46155 -0.029859 -0.886383
0.08627 -0.486967 0.023572 -0.555596 0.055267 0.826844
-0.033647 -0.825345 0.080664 0.613049 0.72328 0.272103
0.62861 0.048276 0.015195 -0.850807 -0.383643 -0.330941
0.429222 0.254591 -0.120797 0.414289 -0.231967 -0.877054
0.185567 0.565798 -0.040913 0.319193 0.931489 0.153784
-0.237797 0.330404 -0.078641 0.51767 -0.604261 -0.604178
0.411458 0.218676 -0.098161 -0.590713 -0.80335 -0.066807
0.068645 0.452087 0.085733 0.137589 0.335451 0.931542
0.053082 0.868751 -0.015855 0.418391 0.894495 -0.059985
0.171145 -0.004585 0.09144 0.696092 -0.229787 0.665351
0.014599 -0.234274 -0.052612 0.834019 -0.059341 -0.546936
-0.129986 -0.246143 0.066437 -0.948555 -0.060495 0.309401
-0.040437 -0.42548 -0.086372 0.207764 0.248423 -0.944772
-0.024534 -0.810627 -0.145935 0.450719 -0.129784 -0.87743
0.1371 0.09071 0.098194 0.58074 0.161066 0.794508
0.077275 0.72548 0.06814 0.686439 0.10071 0.719715
0.038657 -0.318923 0.00579 -0.89331 -0.074696 0.434975
0.121553 -0.468095 -0.106037 -0.04662 0.08272 -0.993011
-0.012918 -0.008556 0.145894 -0.094472 -0.391933 0.864785
-0.125308 -0.344921 0.047458 -0.990218 0.052007 0.128615
0.17433 -0.541568 0.044801 0.522536 -0.246537 0.809933
0.122633 -0.494865 -0.107681 -0.078739 0.036244 -0.993655
-0.439803 0.219833 0.001444 -0.647026 0.634498 0.403689
0.080975 0.679854 0.042682 0.833018 -0.54616 0.078016
-0.50961 0.085449 0.042071 0.590014 -0.748159 -0.257844
0.054784 -0.496783 -0.059724 -0.801591 -0.0269 -0.59692
0.163061 -0.308818 0.076186 0.25952 -0.06562 0.963378
-0.119813 0.312754 -0.031483 -0.996402 -0.083221 0.013422
-0.099311 -0.285609 -0.062597 -0.745105 -0.004891 -0.66687
-0.141844 -0.07022 0.036397 -0.970127 0.027729 0.234366
-0.03876 0.473525 0.081245 -0.154225 0.357832 0.920115
0.190601 0.337811 -0.049318 0.959263 -0.223554 -0.161975
0.192824 0.079013 0.042622 0.908126 0.309146 0.272761
-0.017914 -0.274702 0.098021 0.366525 -0.220961 0.902918
-0.126216 -0.189821 -0.027317 -0.869494 -0.129727 -0.473758
0.083625 -0.40645 0.042654 -0.665513 -0.319839 0.673475
0.137807 -0.604553 -0.099488 0.191907 -0.153963 -0.965926
0.079627 -0.606253 0.015917 -0.748134 -0.148614 0.645917
-0.35558 0.24363 0.009463 0.063173 0.038681 0.996906
0.060381 -0.603539 -0.002986 -0.713704 -0.120825 0.687403
-0.105176 -0.819001 -0.030977 -0.927078 -0.333421 0.081198
-0.005128 0.206583 -0.124905 -0.040176 -0.376573 -0.924263
-0.084798 -0.330126 -0.075887 -0.592838 0.018484 -0.804463
-0.377344 0.268653 0.004625 -0.260477 0.383506 0.883222
0.058117 -0.691358 -0.032058 -0.868628 -0.148843 -0.472353
-0.273804 0.355419 0.0114 -0.469286 -0.051819 0.875406
0.379461 0.33621 -0.062509 0.550762 0.603429 0.576628
-0.106902 -0.346233 0.096315 -0.589089 -0.096929 0.795155
-0.007303 -0.5615 -0.077345 0.753515 -0.058442 -0.654251
0.046377 -0.536567 -0.039889 -0.902495 -0.027424 -0.423306
-0.05498 0.160357 0.103358 -0.519343 0.09738 0.848802
0.072132 -0.602053 0.007848 -0.763447 -0.189016 0.617576
0.088198 -0.693439 0.035923 -0.096499 0.088202 0.989626
-0.067302 0.189303 -0.091353 -0.577916 -0.155499 -0.800124
0.062574 0.578998 -0.100515 -0.006683 0.657604 -0.752901
0.106723 -0.597854 -0.095205 -0.436516 -0.104704 -0.893095
0.399411 0.306303 -0.123681 0.319221 0.282171 -0.885984
0.526919 0.199292 0.008619 -0.019922 0.940303 0.333323
0.02026 0.467135 0.08709 0.086405 0.446509 0.88627
0.1984 -0.378778 0.026438 0.953043 -0.025391 0.300506
-0.172631 0.497249 0.044718 -0.495519 0.336446 0.799739
-0.189437 0.512329 -0.046052 -0.69801 0.582867 -0.414431
-0.024067 0.576239 -0.094817 -0.198263 0.794595 -0.529822
-0.015331 0.056771 0.131362 -0.351223 0.158902 0.921795
0.155193 -0.78272 0.029042 0.453511 -0.254266 0.843624
0.201399 -0.571951 -0.037188 0.974641 -0.100356 -0.194925
0.166936 -0.694153 -0.068533 0.789961 -0.0561 -0.610204
0.074704 0.260865 0.118527 0.377189 0.057824 0.922099
0.008211 -0.186596 -0.060416 0.779808 0.064961 -0.622189
-0.101864 0.16221 0.066152 -0.748089 -0.032424 0.662221
0.120261 0.030797 -0.144651 0.480903 0.101201 -0.870274
0.024279 -0.714854 -0.045336 0.989537 -0.095307 0.045774
0.097089 0.599705 -0.028634 0.856686 0.405578 0.295338
-0.106901 0.268807 0.036579 -0.982689 0.040446 0.179374
-0.039963 -0.863699 0.09121 0.104737 -0.993432 0.034236
-0.084916 -0.47063 -0.089791 -0.451397 0.109457 -0.885011
0.199251 -0.590938 -0.00249 0.985599 -0.02805 0.166644
0.199184 -0.004434 -0.044882 0.950407 0.074091 -0.301584
0.098501 -0.83849 0.142 -0.864959 0.445605 0.21369
-0.013866 0.629132 -0.031649 -0.88667 0.384297 -0.214567
0.100312 0.334886 -0.143734 0.205813 -0.08568 -0.973062
-0.483181 0.128273 0.063301 0.657779 -0.598014 0.44838
0.089018 -0.748245 0.02506 -0.060012 -0.62242 0.778922
0.151799 0.075897 -0.107247 0.678567 0.240406 -0.69199
0.034745 0.048389 0.13561 0.105178 0.063926 0.992349
0.550706 0.115845 0.03141 -0.919947 -0.322303 0.219598
0.07682 -0.594233 0.015424 -0.725803 -0.132021 0.675009
-0.046669 -0.651832 -0.10347 0.368194 0.078343 -0.926271
-0.018028 0.071468 -0.137849 -0.184916 0.229166 -0.955006
0.007747 0.816843 -0.106376 -0.317246 0.579746 -0.747358
-0.121676 -0.76004 -0.061745 -0.950801 -0.198026 -0.229083
-0.092066 0.100951 0.086784 -0.571561 0.191535 0.794084
-0.21228 0.339373 -0.062208 0.544407 -0.775233 -0.318803
-0.019832 0.341037 0.107817 -0.430694 0.127924 0.888258
0.171599 0.128838 -0.059913 0.839468 0.181243 -0.510144
-0.010719 0.041249 0.134987 -0.252009 0.10562 0.959306
0.072768 0.245943 0.120359 0.34029 0.06872 0.931883
0.520783 0.208766 -0.019701 0.18128 0.9387 0.283552
0.118331 -0.348707 -0.09937 0.27837 0.063951 -0.956539
-0.096019 0.572737 -0.038978 -0.377908 0.902429 -0.122304
-0.077686 -0.531136 0.06606 0.394957 -0.203432 0.895863
0.075696 0.29848 0.113237 0.367022 0.142473 0.918512
-0.140995 -0.118053 0.042849 -0.947262 -0.007273 0.317566
-0.0252 -0.384773 -0.073894 0.548377 -0.025593 -0.830854
0.199669 0.395108 -0.04107 0.978519 -0.190676 0.023781
0.103099 0.35897 -0.144738 0.154649 -0.05768 -0.98389
-0.019075 -0.638627 0.023007 -0.042278 0.111623 0.990961
0.176085 0.310897 0.033129 0.960395 0.001234 0.277836
0.180573 -0.197632 0.084195 0.574797 -0.107579 0.807876
0.348007 0.390688 -0.1047 0.942326 -0.324692 0.047177
0.561299 0.093315 0.038292 -0.829007 -0.514272 0.213675
-0.014325 0.534576 -0.11768 -0.083441 0.366239 -0.925589
0.389909 0.305567 -0.127946 0.306913 0.192018 -0.929427
-0.494031 0.151152 -0.024612 -0.8115 0.319683 -0.449838
-0.093508 -0.26276 0.108432 -0.233054 -0.042987 0.97136
-0.016869 0.791121 0.050764 -0.854921 0.186124 0.476533
0.050914 -0.341198 0.03672 -0.729807 -0.216165 0.644106
-0.068885 -0.808408 -0.13929 -0.566189 -0.136326 -0.80997
-0.106933 0.077307 -0.076539 -0.825548 0.162012 -0.539836
-0.080413 0.056294 -0.112757 -0.690036 0.207032 -0.692908
0.104036 0.493817 0.062217 0.31674 0.529476 0.783422
-0.352459 0.311876 -0.077161 -0.576786 0.611018 -0.534458
-0.037862 0.254864 0.109013 -0.419227 0.029494 0.905252
-0.115386 -0.346059 0.08619 -0.797878 -0.097704 0.59409
0.040508 0.406567 0.098567 0.065995 0.251694 0.965331
0.115683 0.210169 0.104179 0.48246 0.04156 0.874923
-0.021165 -0.404142 -0.072526 0.56088 0.151518 -0.812295
0.156522 0.216019 0.067617 0.77764 0.081035 0.62345
-0.005752 0.74831 0.067033 -0.458019 0.044849 0.878428
0.101707 -0.284996 0.082168 -0.134037 -0.107107 0.984858
-0.088185 0.183546 -0.073557 -0.69709 0.057705 -0.714402
0.090118 0.123165 0.120589 0.374152 0.028387 0.926805
-0.047077 -0.006579 0.137984 -0.334975 -0.054144 0.915299
-0.134325 -0.488143 0.008476 -0.903515 -0.163397 0.384633
-0.148737 0.451155 0.056306 -0.333319 -0.265265 0.902286
0.162972 -0.758865 0.023775 0.126631 0.083463 0.980998
0.198367 0.419605 0.020231 0.716519 -0.599682 0.345855
0.028168 -0.101082 0.104238 0.416537 -0.411069 0.806788
-0.190058 0.471386 0.041756 -0.503957 0.124459 0.838111
-0.060353 0.3622 0.096825 -0.497336 -0.083544 0.861498
-0.002394 -0.572796 0.021617 0.715552 -0.091385 0.692499
-0.123195 -0.544759 -0.068203 -0.802109 0.110064 -0.586548
-0.006854 0.728269 0.067331 -0.561631 0.01022 0.825888
0.206894 0.007023 -0.004235 0.996531 0.031937 -0.05945
0.128896 -0.658487 0.032674 0.1 -0.142539 0.984362
0.059712 -0.380385 -0.064046 -0.771473 -0.030218 -0.635442
-0.06981 -0.862854 -0.079515 -0.019159 -0.998926 0.040568
0.066895 -0.675307 -0.049657 -0.774584 -0.133728 -0.617474
-0.570127 0.031047 -0.01805 0.300676 -0.369084 -0.572937
0.197785 0.3939 -0.097876 0.893431 -0.362028 -0.259275
0.004229 -0.666754 -0.071596 0.535166 0.192861 -0.822
-0.109925 0.280246 0.020307 -0.978569 -0.010173 0.201764
0.004584 -0.248686 -0.063352 0.758213 -0.078184 -0.647173
-0.058277 0.241738 -0.114338 -0.543251 -0.190176 -0.817022
-0.222035 0.430814 0.03085 -0.626118 0.185687 0.755211
0.566777 0.088622 0.047652 -0.855124 -0.43576 0.262627
-0.106827 0.419788 -0.112372 -0.442074 -0.229163 -0.86133
-0.087365 0.30657 -0.101234 -0.659445 -0.071481 -0.748215
-0.343816 0.322036 -0.019792 -0.688791 0.662374 0.275478
-0.112573 -0.764129 -0.082925 -0.866234 -0.02473 -0.498866
-0.113841 -0.440464 -0.059221 -0.725615 0.249435 -0.640408
-0.070367 0.105124 0.100559 -0.492551 0.383293 0.780735
-0.092662 0.077968 -0.094901 -0.750719 0.221844 -0.620881
0.065975 0.616799 0.015919 0.621401 -0.09259 0.777748
0.005678 0.438442 -0.127439 0.099146 0.000237 -0.994841
-0.043757 0.577958 -0.00574 -0.198266 0.779988 0.59323
0.135102 0.57789 -0.029392 0.341997 0.763059 0.546484
-0.216585 0.484433 0.001486 -0.784903 0.545804 0.291823
0.001195 0.305062 -0.129318 0.143236 0.053158 -0.988173
0.169663 -0.848718 0.029021 0.939636 0.251965 -0.171604
0.197047 0.153778 0.016412 0.899309 0.35084 0.239095
0.123682 -0.866498 -3e-05 -0.020606 -0.997735 -0.05316
0.136806 0.042366 -0.131708 0.641119 0.217574 -0.734005
0.071564 0.607453 0.010831 0.693763 -0.005662 0.718023
0.005799 0.802563 -0.112628 -0.310527 0.279887 -0.906737
0.010762 -0.486389 0.027206 0.775169 -0.155125 0.612143
0.203881 -0.398765 0.00858 0.955127 -0.080757 0.279414
0.55083 0.105591 0.011829 -0.927944 -0.364771 0.052071
0.464921 0.223688 -0.080091 0.484838 -0.333684 -0.803593
-0.121654 0.073915 0.054222 -0.948978 0.177555 0.260463
-0.030849 -0.693111 0.022463 -0.499065 0.039509 0.864403
0.106189 0.596522 -0.050225 0.488473 0.860292 0.114055
-0.103821 -0.146599 0.109367 -0.674919 0.007032 0.737362
-0.048399 0.127786 -0.110299 -0.415722 0.363004 -0.833385
0.106865 -0.003247 0.128218 0.317697 -0.215798 0.922936
-0.11317 0.099491 0.064418 -0.843478 0.197837 0.498103
0.460508 0.275279 -0.073247 0.741908 0.667596 -0.022682
0.063671 0.343102 -0.138745 -0.399334 -0.018424 -0.916205
-0.278225 0.299512 -0.091304 0.400242 -0.384568 -0.827977
0.202528 -0.495939 -0.01183 0.968799 0.172415 0.145848
-0.120841 0.166922 -0.02625 -0.889093 0.055945 -0.451241
0.074886 0.191789 0.123409 0.44203 0.042437 0.893024
-0.040196 0.74585 -0.02975 -0.991682 -0.018482 -0.088411
0.107567 -0.825932 0.106362 -0.280568 0.946991 0.131807
-0.087602 0.121069 0.081595 -0.643786 0.109913 0.751629
0.105604 -0.344423 -0.100424 -0.058452 0.029113 -0.990666
0.24305 0.435162 -0.136458 -0.15539 0.059637 -0.984686
0.013029 -0.391908 -0.040496 0.782179 0.038515 -0.62116
0.196553 -0.264007 0.054789 0.896909 -0.058496 0.437763
-0.102842 0.218006 0.066218 -0.738402 0.099545 0.662764
0.03391 -0.07749 -0.109779 -0.578958 -0.471235 -0.664408
-0.060586 -0.324892 0.103002 0.19315 -0.119287 0.97316
0.090528 -0.20339 -0.097294 -0.367879 -0.22626 -0.901717
-0.107004 0.340122 -0.088277 -0.714373 -0.20146 -0.667786
0.155362 0.062055 -0.107164 0.709642 0.193083 -0.677292
-0.108096 0.086843 -0.070882 -0.801536 0.20713 -0.560368
-0.103203 -0.804702 -0.003451 -0.848022 -0.394954 0.347348
0.226415 0.390182 -0.051374 -0.693459 -0.671212 0.256401
-0.059749 -0.601258 -0.10368 0.113059 0.034968 -0.991702
0.350302 0.410051 -0.096447 0.744673 0.666413 0.003755
-0.170608 0.397609 -0.090185 0.439583 -0.392789 -0.800354
0.045287 0.51178 0.060742 0.064456 0.530964 0.844425
0.016409 -0.33028 0.059817 0.843468 -0.200523 0.494524
0.126145 -0.720936 0.018664 0.389296 -0.036195 0.915069
-0.093454 0.225968 0.073341 -0.608672 0.128748 0.782802
-0.094274 -0.863159 0.101013 -0.099645 -0.991147 0.02323
0.207303 0.012308 0.017124 0.999594 0.019757 0.014576
-0.12476 -0.140589 0.08354 -0.83228 0.08102 0.548192
0.080862 -0.373253 -0.086686 -0.665457 -0.075012 -0.742333
0.458848 0.19382 -0.05156 -0.144167 -0.966755 -0.142453
0.577123 0.072 -0.016509 -0.730624 0.255659 -0.419443
-0.030643 0.76343 -0.078197 -0.815634 -0.244274 -0.51701
0.032898 0.052659 -0.151677 -0.15235 0.234287 -0.960045
-0.119352 0.228106 -0.002937 -0.971816 0.21761 0.015534
0.021897 0.646448 0.038198 -0.426709 -0.480855 0.760706
-0.123874 -0.205358 -0.027832 -0.855755 -0.09832 -0.507717
-0.136428 -0.521528 -0.032018 -0.996077 -0.003946 -0.068175
0.057292 -0.497036 0.001345 -0.667573 -0.019138 0.74359
0.451625 0.266308 -0.039195 0.102391 0.59473 0.794978
0.05291 0.274958 -0.131912 -0.375469 -0.075008 -0.922721
0.186623 -0.474852 0.043623 0.915407 -0.075051 0.395123
-0.007148 -0.632244 0.023018 0.149437 0.150328 0.975111
0.519529 0.176265 0.016108 -0.226474 0.49109 0.833339
0.077551 -0.0829 0.104779 -0.114302 -0.760511 0.636826
0.057308 -0.605983 -0.052356 -0.756923 -0.036329 -0.652018
0.182906 -0.110909 -0.074098 0.786345 -0.081491 -0.611896
0.183798 0.032104 -0.077417 0.88035 0.046469 -0.471476
0.076359 0.006277 0.137849 0.250692 0.051496 0.961261
-0.099939 -0.741683 -0.001076 -0.630085 0.464618 0.609456
0.201823 -0.168463 0.040745 0.94508 -0.116024 0.299078
0.076434 -0.536771 -0.079758 -0.712629 -0.07129 -0.697882
0.0795 0.814228 -0.091774 0.661518 0.407598 -0.62567
0.038758 -0.024128 -0.142171 -0.241642 -0.388063 -0.888794
0.055596 0.70005 0.085174 0.54158 0.00912 0.836889
0.084992 -0.822536 0.032593 -0.756779 -0.598319 0.202382
0.069541 -0.812559 -0.055337 -0.951992 -0.091083 -0.283808
-0.113936 0.238052 0.019905 -0.974545 0.208326 0.070512
0.515619 0.153625 -0.006697 -0.654549 -0.755616 0.022728
0.02411 0.863527 0.023578 -0.057707 0.995646 0.070117
0.144591 -0.803064 0.043172 0.500134 0.565268 0.654222
-0.09261 -0.798356 -0.116547 -0.798257 -0.040411 -0.599159
0.101805 -0.483104 -0.102444 -0.393088 0.015719 -0.919086
0.370453 0.358862 -0.088881 0.699027 0.697026 0.143024
0.022545 -0.712363 -0.035905 0.942495 -0.13547 0.301539
0.214509 -0.112795 0.004077 0.999581 -0.005448 0.00295
0.197847 0.479403 -0.134219 0.112089 0.107568 -0.986634
-0.016508 -0.013161 0.138014 -0.053141 -0.721109 0.667213
0.080814 -0.421319 -0.084492 -0.698178 -0.006825 -0.715891
-0.005244 -0.653786 0.023539 0.521641 -0.015097 0.846433
-0.00646 -0.012642 -0.140067 -0.135336 -0.220111 -0.965553
-0.010309 0.058831 -0.142826 -0.162217 0.209969 -0.964042
0.160677 0.323118 -0.094653 0.728808 -0.270954 -0.626943
0.159361 0.273331 -0.078534 0.890209 -0.115156 -0.44054
0.132527 -0.494361 -0.107976 0.113034 0.042616 -0.992168
0.093973 -0.858274 -0.028552 -0.630074 -0.695255 0.336373
-0.040763 0.001167 0.136126 -0.268685 0.398462 0.874251
-0.118593 0.56055 0.002121 -0.264314 0.877906 0.38434
0.057003 0.410036 -0.136415 -0.290351 0.038941 -0.956081
-0.159934 0.505253 -0.080772 -0.477225 0.396102 -0.783551
-0.31824 0.320155 0.002173 -0.286476 0.263388 0.918403
0.085493 0.038408 0.128179 0.373622 0.148232 0.915383
0.139631 -0.593188 0.03922 -0.203218 -0.207175 0.956484
0.088233 -0.615501 -0.080498 -0.63937 -0.083332 -0.76328
0.001592 0.160138 0.129475 -0.119108 0.009172 0.992753
0.076196 -0.224988 0.082118 -0.47784 -0.132651 0.866573
-0.025008 0.515142 0.063126 -0.130693 0.516875 0.844702
0.111405 -0.86433 0.153754 -0.084489 -0.9844 0.152992
0.155259 -0.752217 -0.083019 0.809988 0.191853 -0.549983
-0.145699 0.393302 -0.01537 0.750259 -0.651602 0.109254
0.198848 -0.636864 -0.026393 0.9994 -0.014777 0.024393
0.214383 -0.109195 0.01345 0.998441 -0.010499 0.049132
0.088012 0.299135 0.107571 0.383907 0.126795 0.907108
0.153804 -0.849327 -0.094378 0.868018 -0.067118 -0.487117
0.15898 -0.864192 0.10831 0.255193 -0.963977 0.016088
0.186302 0.441183 -0.134757 0.157859 -0.143008 -0.97595
-0.476333 0.131786 0.057278 0.717395 -0.537134 0.440677
0.413546 0.216627 -0.087619 -0.61099 -0.790949 -0.024467
0.59854 0.08444 0.077186 -0.816926 -0.073681 0.550905
-0.138867 -0.015117 0.015648 -0.998294 0.051299 0.026481
