0.194305 0.371018 -0.005015 0.974609 -0.135619 0.177733
-0.001022 -0.047132 0.130595 0.130633 -0.30045 0.944428
0.428046 0.283599 -0.044806 0.280068 0.545442 0.789116
-0.076719 0.203659 -0.085554 -0.760818 -0.076364 -0.644282
-0.532059 0.106217 0.044093 -0.821632 0.54907 -0.130416
-0.5523 0.078732 0.073191 -0.8235 0.536222 0.17569
-0.026765 0.468065 -0.130458 0.086394 0.080868 -0.992839
0.106299 0.50424 0.05619 0.306645 0.484043 0.817184
0.107667 0.10521 -0.131139 0.437576 0.380285 -0.812313
0.135698 0.18714 0.093057 0.680129 0.031011 0.732411
-0.120943 0.366114 0.014692 -0.966199 -0.205166 0.154583
0.443205 0.198854 -0.063796 -0.519583 -0.847453 0.054828
-0.118927 -0.652589 0.012289 -0.955662 -0.104291 0.268912
0.093299 -0.419815 0.045093 -0.628483 -0.361557 0.688538
0.147032 -0.023778 -0.131378 0.667377 -0.028864 -0.74338
0.088913 0.685624 -0.005474 0.976179 -0.181779 0.03233
-0.264305 0.420018 -0.0252 -0.76708 0.632191 0.095793
-0.117038 -0.272929 -0.034973 -0.835605 0.013259 -0.548581
-0.113396 -0.279832 0.095218 -0.726831 -0.051373 0.6845
0.244408 0.527103 -0.026941 0.671731 0.648615 0.352828
-0.08047 -0.010603 -0.121199 -0.569948 -0.081431 -0.816505
-0.069486 -0.203186 0.116392 -0.305921 -0.087896 0.947883
0.205567 -0.369559 -0.003248 0.997747 0.001053 0.054723
0.166612 -0.858588 0.147456 0.910436 -0.265788 0.243458
0.027984 -0.246325 -0.030077 0.141931 -0.090839 -0.902832
0.151925 -0.08171 0.107591 0.68642 0.03938 0.677733
-0.101636 -0.241284 0.107108 -0.424621 -0.023677 0.904824
-0.106773 0.538742 -0.08578 -0.414121 0.605084 -0.67976
-0.536623 0.066672 0.05509 0.365146 -0.928537 0.02393
-0.048111 0.589831 -0.046369 -0.172487 0.980983 0.004007
-0.047077 -0.006579 0.137984 -0.334975 -0.054144 0.915299
-0.060628 0.131145 -0.10328 -0.381557 0.277379 -0.880658
0.07033 0.334141 -0.141838 -0.341383 -0.032399 -0.939273
0.089392 0.828186 0.011092 0.967713 0.207509 0.128062
0.216553 0.552505 -0.045831 0.52902 0.832968 0.07783
-0.002683 0.840328 0.041513 -0.616276 0.362643 0.690883
0.103453 0.799631 -0.014028 0.953154 0.282046 0.072526
0.104038 -0.832618 0.147978 -0.766194 0.594545 0.179613
0.104562 -0.671195 -0.088558 -0.458756 0.038343 -0.885949
0.026607 0.592352 -0.090333 -0.066726 0.591832 -0.803259
0.543851 0.135844 0.037962 -0.719268 -0.106465 0.637183
-0.106709 -0.503539 -0.079593 -0.628002 0.128323 -0.766478
-0.127923 0.160689 0.0095 -0.993149 -0.05342 0.084208
-0.026935 0.25253 0.112452 -0.277288 0.011763 0.960681
-0.034202 0.225988 0.11115 -0.357939 0.053578 0.928774
0.035697 -0.304275 -0.02608 -0.975468 -0.049378 -0.205723
-0.071665 -0.614041 -0.105022 -0.047412 0.065465 -0.995923
0.543105 0.190388 -0.002226 0.980009 0.098194 0.144378
0.109586 0.256948 0.104261 0.365954 0.052253 0.928972
-0.253836 0.427411 -0.007356 -0.733005 0.607052 0.304792
0.086142 -0.859786 -0.074087 -0.853626 -0.470252 -0.077451
0.068252 -0.459128 -0.073132 -0.725766 0.027313 -0.687312
-0.130106 -0.589841 -0.029676 -0.985969 -0.097114 0.129951
-0.027471 0.040288 -0.144015 -0.163477 0.183941 -0.968952
0.183088 -0.560936 -0.075391 0.72908 -0.028011 -0.683806
0.152346 -0.309753 0.079068 0.229668 -0.059171 0.970285
-0.097734 -0.849802 -0.042421 -0.802931 -0.590009 -0.049473
0.1926 -0.018951 -0.063317 0.917956 0.041025 -0.394149
0.020632 -0.387713 0.028709 0.945294 -0.13528 0.29538
-0.102933 0.134484 0.06699 -0.753754 0.077405 0.651659
-0.346815 0.223223 -0.061176 0.460878 -0.720507 -0.505736
0.054472 -0.236644 0.061877 -0.7642 -0.164167 0.62366
0.01373 -0.788937 -0.046789 0.894102 -0.37085 0.250343
-0.085042 0.215007 -0.076747 -0.772647 -0.181756 -0.601218
0.008211 -0.186596 -0.060416 0.779808 0.064961 -0.622189
-0.06819 -0.863125 -0.093603 -0.02772 -0.999532 -0.003688
-0.105472 0.359375 0.052645 -0.831499 -0.259845 0.490377
0.077551 -0.0829 0.104779 -0.114302 -0.760511 0.636826
0.118331 -0.348707 -0.09937 0.27837 0.063951 -0.956539
0.121424 -0.567145 -0.105241 -0.18623 -0.134569 -0.970546
-0.128393 -0.441601 0.03957 -0.921059 -0.100883 0.375906
-0.089562 -0.01443 -0.113398 -0.642202 -0.115646 -0.757432
-0.380185 0.19391 -0.000969 0.553271 -0.803237 0.200801
0.001157 0.5432 -0.114761 0.007791 0.386267 -0.922252
0.057811 -0.199073 0.071461 -0.679138 -0.108736 0.725665
0.544157 0.122126 0.010657 -0.85909 -0.498613 0.044842
0.207548 -0.193821 -0.015208 0.998735 -0.033624 -0.034281
-0.300861 0.24478 -0.031967 0.675468 -0.731378 0.084977
0.113277 -0.253097 -0.099529 0.028468 -0.006557 -0.993649
0.075853 -0.746191 -0.047286 -0.898216 0.075982 -0.431055
0.206688 -0.21362 0.001122 0.999089 -0.033141 0.026172
0.098788 -0.731575 -0.088611 -0.710164 -0.037843 -0.69267
0.308092 0.313285 -0.094802 -0.701321 -0.709917 -0.05187
0.049382 -0.616388 -0.03775 -0.926118 -0.123409 -0.341237
-0.136805 -0.464934 -0.028273 -0.970284 0.060423 -0.231226
-0.124282 -0.069888 -0.057292 -0.802976 -0.093844 -0.588318
0.204444 -0.259748 0.029312 0.990349 0.007142 0.132712
0.140059 0.405255 -0.137271 0.380212 -0.180047 -0.907134
0.020655 0.743657 0.089823 -0.90833 0.210667 0.360221
0.326452 0.301176 -0.10793 -0.568382 -0.705082 -0.415294
0.199556 -0.089044 0.062744 0.876891 -0.019222 0.479503
0.469406 0.205011 -0.064267 0.152395 -0.718729 -0.677652
0.117389 -0.260832 0.08548 0.053524 -0.232981 0.96769
0.032141 -0.138628 -0.06286 -0.858515 -0.345056 -0.378786
-0.103985 -0.729046 -0.094467 -0.822876 0.00612 -0.566739
0.145579 0.238012 0.078802 0.737505 0.054563 0.673049
0.004499 0.201912 -0.122448 0.064263 -0.416651 -0.905447
0.199529 0.037739 -0.038166 0.967391 0.068806 -0.242991
0.125115 0.294499 -0.12839 0.584609 -0.044736 -0.810056
0.363477 0.366443 -0.100271 0.700681 0.712227 -0.005388
-0.184385 0.367419 -0.073471 0.586589 -0.65351 -0.476541
0.194815 -0.137225 -0.058231 0.76594 -0.028523 -0.642051
0.087333 -0.599439 -0.081349 -0.659385 -0.081233 -0.747279
-0.12629 0.11823 -0.024573 -0.949996 0.000175 -0.309964
0.311575 0.377896 -0.026623 0.604276 -0.24313 0.748797
-0.147052 0.398201 -0.063123 0.588413 -0.761234 -0.262885
0.02105 0.498216 0.070967 0.090836 0.557043 0.824497
-0.537217 0.070295 0.030653 0.578528 -0.692235 -0.426484
-0.131818 -0.267913 0.041877 -0.976441 -0.182431 0.099226
-0.244125 0.305965 -0.027017 0.740207 -0.654484 0.151131
-0.226042 0.346522 -0.085324 0.405493 -0.605241 -0.684021
-0.08202 0.094855 -0.100487 -0.649874 0.208444 -0.730765
-0.118402 -0.534225 0.023484 -0.855093 -0.098735 0.508778
0.096066 0.318567 0.103772 0.259931 0.083759 0.959441
0.065659 0.081731 -0.148877 -0.057802 0.323255 -0.942945
0.586544 0.053785 0.041427 -0.039802 -0.6098 0.634075
0.027745 0.307641 0.121413 0.014773 0.096195 0.994392
-0.1352 0.495962 0.05812 -0.158589 0.297848 0.939508
-0.07817 -0.112678 0.118209 -0.360184 0.003996 0.932491
-0.175381 0.523236 0.021511 -0.648927 0.600471 0.403511
-0.024975 -0.765815 6.5e-05 0.63825 0.524818 0.552958
0.026175 -0.35846 0.022164 0.984183 -0.095322 0.14268
-0.152695 0.432436 0.044567 -0.506551 -0.492244 0.703801
-0.135797 0.001669 -0.027883 -0.987669 0.043303 -0.143525
0.002752 0.533639 -0.118624 0.001325 0.331312 -0.941581
0.152749 0.321994 0.063631 0.721648 0.002913 0.692009
-0.231627 0.386161 -0.096268 -0.005313 0.109956 -0.993261
-0.065356 -0.170504 0.120057 -0.240354 -0.074055 0.966152
-0.027913 -0.659556 -0.093484 0.530394 0.08879 -0.842543
0.14244 -0.39589 -0.09261 0.519104 0.133571 -0.843902
0.59137 0.076558 0.057131 -0.697185 -0.597745 0.377964
0.107612 -0.79082 -0.109667 -0.416626 0.420255 -0.798947
-0.134395 -0.482893 -0.039186 -0.922706 0.041106 -0.382459
0.093546 -0.845711 0.137672 -0.83895 0.456319 0.290653
0.063574 -0.696002 0.029398 -0.569491 0.289345 0.7594
0.444269 0.261653 -0.110816 0.663388 -0.001858 -0.740353
0.069274 0.334231 0.110784 0.317731 0.17866 0.929741
0.019279 0.22534 0.128259 -0.01999 0.039342 0.998971
0.154159 -0.823838 0.062409 0.670932 0.72003 0.169118
-0.068189 -0.752711 -0.126497 -0.274161 0.18261 -0.939572
0.096831 -0.49293 -0.099356 -0.549511 -0.012977 -0.835271
0.165574 0.3526 0.053829 0.791895 -0.088304 0.604115
-0.27468 0.278603 -0.016614 0.607019 -0.64382 0.463474
0.057003 0.410036 -0.136415 -0.290351 0.038941 -0.956081
0.263773 0.357163 -0.046995 -0.619949 -0.662999 0.414339
-0.030706 0.176133 0.117055 -0.602163 0.129267 0.787298
-0.011695 0.715101 -0.073489 -0.687363 -0.544554 -0.475001
0.171494 0.036538 -0.096892 0.790373 0.125181 -0.597883
0.008663 0.556298 0.027286 -0.073739 0.429575 0.891661
-0.172952 0.420495 0.031883 -0.005368 -0.387202 0.921534
0.440057 0.289518 -0.058028 0.406079 0.803944 0.415553
-0.011242 0.122005 0.127171 -0.343827 0.043905 0.931015
-0.00154 0.284534 -0.130479 0.130008 -0.005318 -0.99099
0.597706 0.066386 0.0205 0.71883 -0.588338 0.018906
-0.100571 -0.525693 -0.088191 -0.557917 0.110601 -0.82202
0.475573 0.224759 -0.00637 -0.294084 0.316719 0.874571
0.121241 0.0195 0.12116 0.306419 0.26878 0.912208
-0.129273 0.012411 -0.048286 -0.937241 0.04456 -0.344884
-0.012874 0.482506 -0.128171 0.083292 0.09096 -0.99217
-0.213121 0.406335 -0.095037 -0.143317 0.165345 -0.975466
0.235559 0.378136 -0.068342 -0.696656 -0.713836 0.053588
0.023669 -0.161087 0.072005 0.868247 -0.238652 0.434394
0.198805 -0.640984 -0.037795 0.999703 -0.006361 -0.020688
0.103567 0.563152 0.010596 0.321282 0.712981 0.60627
-0.005752 0.74831 0.067033 -0.458019 0.044849 0.878428
0.074139 -0.383135 0.043553 -0.647329 -0.301464 0.700002
-0.029988 0.105452 0.121743 -0.425069 0.183571 0.885364
-0.15723 0.549118 -0.014314 -0.503449 0.854805 0.024158
0.277891 0.494059 -0.041098 0.73411 0.591054 0.330227
0.065524 0.7022 0.078344 0.603264 -0.071456 0.793876
0.166156 0.392142 0.056056 0.690853 -0.002176 0.722689
0.198494 -0.103878 -0.051277 0.882657 0.037676 -0.467623
-0.081497 -0.829569 0.119276 -0.317714 0.928786 0.170961
-0.065676 0.238926 -0.108116 -0.593541 -0.249793 -0.764651
-0.131831 0.056512 -0.023729 -0.955075 0.185387 -0.229095
-0.096702 -0.849263 0.132243 -0.898977 0.070211 0.370452
-0.006296 -0.346847 0.08085 0.623977 -0.05558 0.774906
0.182051 -0.784144 -0.013349 0.92361 -0.360204 0.118293
-0.391 0.270955 -0.075862 -0.625526 0.365193 -0.67444
0.12245 -0.07057 0.117013 0.295449 -0.125443 0.945559
-0.113019 0.245511 0.007692 -0.981575 0.171799 0.025824
0.576833 0.068288 0.030566 -0.865443 -0.484782 0.123751
0.020273 -0.414344 0.014825 0.987129 -0.057703 0.147619
0.159033 -0.823144 -0.099433 0.714507 -0.339025 -0.598891
-0.090763 0.265432 -0.093986 -0.686306 -0.124938 -0.716412
0.085472 -0.826879 -0.049251 -0.524998 -0.849082 -0.046222
-0.038522 -0.067056 0.129196 -0.082039 -0.053933 0.995148
0.171697 -0.304598 -0.060214 0.702295 -0.059115 -0.709392
0.093331 -0.848555 -0.10284 -0.84067 -0.022113 -0.529651
0.150175 0.015042 -0.123723 0.675218 0.066288 -0.734263
0.097441 0.17183 0.114597 0.408366 0.052214 0.911208
-0.080821 -0.050756 -0.111325 -0.559532 -0.262436 -0.785366
-0.118805 0.381225 0.040763 -0.915344 -0.229769 0.305561
-0.052283 0.571147 -0.0879 -0.394807 0.631322 -0.666823
0.144672 0.172183 0.084872 0.710597 0.026712 0.703082
0.15795 -0.339054 -0.072632 0.635413 0.012568 -0.772017
-0.142814 0.42929 0.05046 -0.638119 -0.350895 0.682093
0.18601 0.328935 0.011289 0.923621 -0.121871 0.36273
0.103147 -0.024489 -0.151286 0.164399 -0.233091 -0.95698
-0.031812 0.793051 0.016567 -0.899108 0.117161 0.420102
0.130511 -0.2288 0.089367 0.082191 -0.167994 0.982335
0.341613 0.404792 -0.061212 0.783901 0.291673 0.489134
-0.137561 0.441334 0.058089 -0.391356 -0.173332 0.885086
0.204668 -0.539404 -0.012577 0.982969 -0.038368 0.179412
0.088012 0.299135 0.107571 0.383907 0.126795 0.907108
0.046739 -0.431329 -0.00753 -0.846098 -0.115582 0.510526
-0.128525 -0.370793 0.014226 -0.99954 -0.004626 0.024722
-0.554873 0.071356 0.081939 -0.840831 0.35038 0.342611
-0.137478 0.019118 -0.0184 -0.984664 -0.005525 -0.168635
-0.021122 -0.489311 -0.086459 0.657415 0.09255 -0.745766
0.149009 -0.110401 0.109179 0.422743 -0.016616 0.904958
-0.084567 0.238637 0.078159 -0.628377 0.079185 0.773443
-0.123196 -0.365004 0.062351 -0.980876 -0.05313 0.185735
0.267325 0.38458 -0.138482 -0.385024 -0.256122 -0.884509
0.105434 0.094537 0.113603 0.476969 -0.181003 0.85837
0.020411 -0.32219 -0.028611 0.920923 -0.002172 -0.389502
0.202669 0.527753 -0.110531 0.219593 0.672896 -0.705781
0.012325 -0.425698 0.035042 0.851148 -0.147254 0.503483
-0.11364 -0.02496 -0.081817 -0.831215 -0.055447 -0.553014
-0.056555 -0.561862 -0.103192 0.08298 0.013693 -0.995163
-0.470665 0.184667 -0.009581 -0.813212 0.57877 -0.047
0.200385 0.061669 0.02942 0.966151 0.215865 0.139147
-0.111619 0.439684 0.062841 -0.163926 0.019417 0.986114
-0.059054 -0.864012 0.041742 -0.004074 -0.999807 -0.019006
0.086672 0.687756 0.025825 0.877463 -0.476073 0.033148
0.036857 0.440613 0.091544 0.159497 0.184007 0.968588
0.210268 -0.032546 -0.008682 0.963709 0.002859 -0.266589
-0.125133 0.110898 0.032767 -0.91949 0.102949 0.378907
-0.127591 -0.712424 -0.055121 -0.993192 -0.032235 -0.10639
-0.137333 -0.171822 0.049248 -0.990528 -0.048485 0.126409
0.54768 0.113497 -0.00797 -0.954755 -0.293736 -0.025576
0.601834 0.105646 0.062455 0.752405 0.603703 0.25554
0.070562 0.240642 -0.134654 -0.223724 -0.159482 -0.960956
-0.011174 0.658727 -0.028251 -0.975772 -0.028039 -0.189541
0.258455 0.466003 -0.003589 0.43468 -0.024578 0.894436
0.037027 0.381271 0.105734 0.0592 0.179113 0.981717
0.202197 -0.369902 -0.031993 0.926134 0.075322 -0.367018
-0.349815 0.216427 -0.052552 0.503597 -0.7934 -0.329446
-0.13717 -0.492008 -0.03078 -0.977911 -0.032356 -0.204394
0.077402 -0.2923 -0.088076 -0.581414 0.007526 -0.81337
0.26519 0.367994 -0.032878 -0.551106 -0.490982 0.673033
0.11244 -0.194008 0.097105 -0.044531 -0.128765 0.990064
0.018197 0.669141 -0.064439 -0.393321 -0.295728 -0.861571
-0.112379 -0.701236 0.00185 -0.849764 -0.391012 0.344305
-0.055569 -0.386363 0.09084 0.173949 -0.184501 0.966853
0.118555 0.578457 -0.093447 0.410259 0.678832 -0.604052
0.106028 0.56998 -0.000382 0.397036 0.718533 0.570883
-0.128129 -0.220253 -0.015818 -0.921126 -0.063371 -0.383478
-0.291266 0.387951 -0.051927 -0.993539 0.008097 -0.091411
-0.045774 0.513895 0.059923 -0.168845 0.512752 0.84151
-0.544714 0.089968 0.028365 -0.564775 0.700411 -0.254016
-0.258255 0.403422 0.011245 -0.617133 0.366974 0.687899
-0.06248 -0.842788 0.160069 0.472637 0.290306 0.812648
-0.128848 0.558482 -0.000976 -0.220122 0.953867 0.196498
0.200978 -0.504476 -0.001391 0.951436 0.056086 0.295391
-0.048276 -0.250037 0.110789 0.127589 -0.123307 0.984032
-0.016354 0.718317 0.05856 -0.781066 -0.077596 0.613917
-0.162767 0.380385 -0.005158 0.545054 -0.738022 0.397558
0.348413 0.407849 -0.117358 0.767425 0.444449 -0.449477
-0.081513 0.270991 0.078218 -0.60271 0.051806 0.79617
0.048634 0.282041 0.122425 0.125572 0.113737 0.985424
0.162779 -0.588026 -0.091553 0.553846 -0.106512 -0.825101
-0.128756 0.397252 -0.036497 -0.926162 -0.354195 -0.004036
-0.492336 0.159935 0.027669 -0.753756 0.65479 0.048128
0.06674 -0.633417 -0.059172 -0.705471 -0.158749 -0.690159
-0.378818 0.193048 -0.021166 0.478495 -0.877262 -0.003186
0.319629 0.406701 -0.037131 0.600248 0.359732 0.712997
-0.056002 -0.103367 -0.108147 -0.154804 -0.20449 -0.965567
0.194234 0.435737 0.035344 0.625686 -0.050219 0.775433
0.109536 -0.104652 -0.123652 0.024966 -0.312455 -0.948183
0.119033 0.239313 -0.125366 0.606508 -0.281798 -0.739988
-0.02722 -0.211637 -0.088275 0.359909 -0.010557 -0.928737
-0.037795 0.584233 -0.082008 -0.360687 0.723518 -0.584268
0.101456 0.004549 0.131291 0.278052 -0.009969 0.948065
-0.497645 0.095001 0.056408 0.436411 -0.865069 0.133567
-0.058408 0.097448 -0.116448 -0.508415 0.301572 -0.806254
0.143417 0.142979 -0.094652 0.697764 0.145052 -0.701075
-0.06229 -0.856193 0.153709 0.266029 -0.753235 0.582258
0.213316 -0.068016 -0.001158 0.98667 0.06054 -0.141686
0.199374 -0.553491 -0.04947 0.952419 -0.018191 -0.299675
0.042476 0.725777 0.098404 0.702855 -0.280489 0.640522
-0.228147 0.435404 -0.076954 -0.470628 0.502585 -0.725185
0.608147 0.071764 0.012449 -0.274394 -0.707029 -0.623968
0.198002 -0.508317 0.008974 0.954743 -0.008462 0.296756
0.185465 -0.237466 -0.06265 0.699126 -0.117705 -0.705026
0.193197 0.490223 -0.13281 0.102872 0.230471 -0.967437
0.005455 0.657418 0.032123 -0.621536 -0.645947 0.422215
-0.038592 0.27892 0.106968 -0.509448 0.076582 0.856773
0.382627 0.337769 -0.117073 0.654913 0.519507 -0.548602
0.163096 0.272591 0.054076 0.742548 0.021385 0.669353
0.063623 0.131657 0.129071 0.151307 0.023719 0.987333
0.013094 -0.383423 0.049377 0.856066 -0.131577 0.499366
0.066895 -0.675307 -0.049657 -0.774584 -0.133728 -0.617474
0.028703 0.868301 -0.02417 -0.250642 0.948864 -0.174697
0.003677 -0.128327 0.112139 0.575725 -0.180918 0.79701
-0.024531 -0.717439 -0.105601 0.520079 0.289354 -0.802685
0.141395 -0.274048 0.082918 0.057953 -0.058227 0.996462
0.081959 -0.130068 -0.111613 -0.392841 -0.164603 -0.902887
0.016753 -0.320646 0.063125 0.837576 -0.149904 0.520339
-0.070748 -0.861351 -0.119945 -0.142172 -0.966367 -0.199976
0.047233 0.693985 0.088944 0.312317 -0.096947 0.942116
-0.016064 -0.236618 -0.082748 0.523456 -0.009237 -0.851861
-0.109151 0.208792 -0.041959 -0.854087 -0.016843 -0.516763
0.065543 -0.093245 -0.118554 -0.33268 -0.489901 -0.804472
0.038647 -0.28886 -0.037225 -0.91426 -0.014755 -0.403374
0.178711 0.239056 0.035192 0.926609 0.005067 0.373441
-0.023261 -0.147156 0.123625 0.208948 -0.101447 0.972224
0.048113 -0.135364 -0.0864 -0.649966 -0.302722 -0.694521
0.089205 -0.253537 -0.092925 -0.450763 0.043185 -0.891391
0.174495 -0.480071 0.059757 0.563277 -0.16155 0.805674
-0.001753 -0.830296 -0.091466 0.407667 -0.890462 -0.121923
0.080975 0.679854 0.042682 0.833018 -0.54616 0.078016
0.019676 -0.094715 0.111265 0.587242 -0.257112 0.766296
0.138386 -0.189006 -0.100753 0.449535 -0.084731 -0.889109
0.164885 -0.011961 -0.111937 0.770045 0.061499 -0.632977
-0.112743 0.280677 -0.021709 -0.997223 -0.069866 0.021182
-0.111807 0.263333 0.011316 -0.996975 0.039276 0.060052
0.348574 0.296172 -0.122643 -0.464255 -0.580878 -0.665646
0.013492 -0.262101 0.080262 0.801032 -0.1242 0.584649
-0.200962 0.342272 -0.038898 0.643834 -0.763866 -0.022646
0.004767 0.2111 -0.126303 0.051672 -0.23595 -0.969767
0.210457 -0.051931 -0.009061 0.983169 0.022648 -0.172659
0.153011 -0.172776 0.097463 0.168562 -0.173948 0.96968
0.065044 0.489699 0.071241 0.079184 0.503609 0.859199
-0.263363 0.339203 -0.09586 0.159742 -0.159903 -0.972905
-0.028084 0.593921 -0.020066 -0.647224 0.651682 0.393415
0.162972 -0.758865 0.023775 0.126631 0.083463 0.980998
-0.05824 -0.203115 0.119453 -0.133348 -0.139784 0.976466
0.208334 -0.04011 0.036903 0.952979 0.030094 0.30139
0.070099 -0.679613 0.02557 -0.408988 0.379195 0.829823
-0.098296 0.081377 0.086266 -0.400552 0.487916 0.773468
0.00066 -0.602654 0.017561 0.549708 0.052458 0.833285
0.095567 -0.6331 -0.084765 -0.618192 -0.035152 -0.785134
-0.072255 -0.550143 -0.102226 -0.13573 0.058414 -0.988171
-0.002772 -0.52018 -0.070606 0.792799 0.061386 -0.606235
0.322985 0.396462 -0.035009 0.646266 0.17957 0.726277
0.628646 0.066063 0.059972 0.855922 0.509429 0.035331
0.420084 0.292066 -0.047696 0.321359 0.629235 0.706681
0.137027 0.569972 -0.092695 0.369978 0.693704 -0.615917
0.38608 0.325454 -0.122526 0.540334 0.406208 -0.736052
-0.537754 0.089011 0.020989 0.169989 0.431847 -0.726845
-0.176376 0.497654 -0.072728 -0.553494 0.426204 -0.71439
0.195685 -0.740232 -0.021664 0.923579 -0.3279 -0.131157
-0.127991 -0.585625 -0.015987 -0.977568 -0.044606 0.205516
-0.007647 0.668992 0.039375 -0.710359 -0.698411 0.085582
0.039315 -0.203617 0.023654 -0.975866 -0.098285 0.194846
0.044354 -0.472324 -0.02306 -0.980778 -0.022246 0.17678
0.266551 0.489646 -0.018005 0.648029 0.456366 0.606604
0.033365 0.240814 0.127826 0.020802 0.033613 0.999013
0.200956 -0.053294 -0.041793 0.940889 -0.013512 -0.337227
-0.003341 0.029856 -0.150126 -0.200581 0.037913 -0.969627
0.007155 -0.555985 0.014002 0.685176 -0.144327 0.712752
0.355721 0.355471 -0.131219 0.505294 0.306876 -0.803098
0.172136 0.138861 0.059807 0.740978 0.128643 0.658578
0.628242 0.063507 0.019601 0.822622 0.495405 -0.226022
-0.111904 -0.811141 -0.047018 -0.868841 -0.491764 0.039722
0.12932 0.560798 -0.1064 0.244391 0.659806 -0.710362
-0.054347 -0.188867 -0.095346 -0.074448 -0.092191 -0.991962
0.055495 -0.271341 0.056489 -0.730403 -0.125126 0.671322
-0.287158 0.380504 -0.016311 -0.923564 0.235228 0.244274
-0.06973 -0.072243 -0.111491 -0.366171 -0.252518 -0.894689
-0.083505 -0.861387 0.140539 -0.188732 -0.955897 0.20988
-0.102196 -0.501056 0.05617 -0.798362 -0.249586 0.547797
0.067594 -0.388093 0.034884 -0.690358 -0.328067 0.644402
-0.469487 0.156827 0.05237 0.359842 0.606355 0.705065
0.171599 0.128838 -0.059913 0.839468 0.181243 -0.510144
0.165461 -0.025991 0.097244 0.638342 0.023467 0.768973
-0.025029 -0.636828 -0.090643 0.573059 0.009096 -0.818116
0.146166 -0.054144 -0.125124 0.594052 -0.22696 -0.771439
-0.045487 0.090431 0.115912 -0.471229 0.123058 0.873217
0.038315 -0.269058 -0.036564 -0.860294 -0.003463 -0.508085
0.453273 0.228974 -0.091337 0.612519 -0.242484 -0.747381
-0.020112 -0.801956 0.036225 0.924365 0.274787 0.263993
0.097914 -0.857404 -0.10897 -0.761842 -0.053561 -0.637556
0.200067 -0.078153 0.062039 0.864446 0.029513 0.50179
0.188581 -0.730168 -0.036789 0.696818 -0.218598 -0.667972
-0.125115 0.459917 -0.108136 -0.491062 0.093795 -0.865783
-0.037183 0.202645 0.110804 -0.49198 0.021688 0.869794
-0.020522 0.745156 -0.085438 -0.808826 -0.296126 -0.507473
-0.046508 -0.172643 -0.095496 0.172131 -0.060431 -0.982894
-0.131392 0.029203 0.058089 -0.857574 0.179807 0.480166
0.557007 0.095042 -0.011205 -0.732316 -0.670177 -0.096188
0.354871 0.272327 -0.075443 -0.674307 -0.720762 0.157969
0.121974 0.142307 -0.110229 0.454388 0.227465 -0.860084
0.064207 0.314127 0.11446 0.285555 0.14814 0.946446
0.021145 0.836307 -0.091368 -0.159037 0.715193 -0.679902
0.022491 -0.069932 0.118055 0.246723 -0.282287 0.924443
0.14174 -0.078542 0.112175 0.338395 0.034084 0.930034
-0.162829 0.522231 -0.066722 -0.517775 0.594865 -0.614388
0.553443 0.119536 0.045565 -0.862321 -0.16286 0.456973
0.19936 -0.477561 -0.005448 0.991903 0.045635 0.113373
0.09163 -0.724429 -0.080101 -0.805752 -0.073484 -0.584539
0.158752 0.571934 -0.076079 0.352237 0.823092 -0.431963
-0.037641 0.192365 0.111021 -0.512787 0.067982 0.855601
-0.014835 0.681438 -0.024184 -0.814798 -0.48208 -0.315938
-0.031409 0.459346 -0.131481 0.087207 0.047176 -0.994723
0.110806 -0.869134 0.035459 -0.040333 -0.997391 -0.056287
0.045706 0.034177 -0.158555 -0.147436 0.134429 -0.977142
0.062104 0.501076 -0.129575 -0.18904 0.094677 -0.977102
0.206109 0.425619 0.016694 0.692454 -0.582116 0.406779
0.018309 0.132957 -0.122909 -0.133427 0.45187 -0.881835
-0.049267 -0.544727 -0.10172 0.19052 0.03726 -0.980101
0.085548 0.507817 0.059036 0.137747 0.456714 0.878863
-0.024733 -0.350458 -0.077483 0.555298 -0.113295 -0.822898
-0.138675 -0.083531 -0.023888 -0.952526 -0.010231 -0.304114
-0.126159 0.141153 0.019164 -0.982754 0.051906 0.174826
0.62861 0.048276 0.015195 -0.850807 -0.383643 -0.330941
0.010109 -0.810988 -0.064381 0.955831 -0.254452 0.113989
-0.136284 -0.125727 0.058112 -0.954307 0.014191 0.294852
-0.039694 -0.70195 0.018212 -0.404379 0.130391 0.896673
0.046209 -0.168737 0.059364 -0.890006 -0.039613 0.450057
-0.102276 -0.454508 0.078973 -0.597176 -0.142122 0.766933
-0.083975 -0.60336 0.054183 0.375622 -0.22911 0.881674
0.006901 -0.814482 -0.053975 0.885178 -0.376619 0.248877
-0.006081 -0.831413 -0.045092 0.152184 -0.972794 0.038237
-0.085347 0.157078 -0.080135 -0.617764 0.211525 -0.75688
-0.125459 0.204998 0.004615 -0.917504 0.384003 0.005226
0.147805 -0.559629 -0.102919 0.407809 -0.070126 -0.90944
0.510649 0.160834 0.017432 -0.559381 -0.632398 0.441305
0.357526 0.272519 -0.064975 -0.693315 -0.67928 0.234534
-0.319442 0.307552 0.003777 -0.206302 0.113678 0.971367
0.573533 0.080886 -0.015937 0.22038 -0.296544 -0.771101
-0.049285 -0.02207 -0.13199 -0.246398 -0.157732 -0.955476
0.198019 -0.248754 -0.044199 0.88107 -0.142311 -0.447249
-0.136756 0.036512 -0.009911 -0.980422 0.165107 -0.09995
0.437446 0.212174 -0.040164 -0.690366 -0.477583 0.518203
-0.016562 -0.227486 0.108393 0.427533 -0.203938 0.880644
0.135279 0.507151 -0.135999 0.116709 0.266508 -0.955298
-0.301968 0.29419 -0.095064 0.09142 -0.244374 -0.96356
-0.135892 -0.530157 -0.016343 -0.985488 -0.065603 0.149716
0.117801 -0.692367 -0.094897 -0.112137 0.061247 -0.990813
-0.36059 0.2962 -0.004904 -0.330878 0.592354 0.729417
-0.142928 -0.037177 0.008087 -0.988292 0.136281 0.013741
-0.052525 -0.864288 0.05592 0.002967 -0.999858 -0.006748
0.522514 0.19563 0.01955 -0.120793 0.69342 0.675725
0.076324 0.761347 0.063098 0.704222 0.034819 0.688453
-0.120833 0.533253 0.039657 -0.061236 0.631897 0.772189
-0.082586 -0.482056 0.0791 0.137767 -0.118778 0.95815
0.040624 0.347475 0.113733 0.086041 0.167633 0.981741
-0.108023 -0.305601 0.099039 -0.681016 -0.0506 0.729452
-0.029441 0.099348 -0.12828 -0.21102 0.259311 -0.942232
0.315686 0.339067 -0.04057 -0.217127 -0.401102 0.885434
-0.11031 -0.426988 0.075548 -0.725799 -0.236821 0.644944
-0.124744 0.037769 -0.055541 -0.623412 0.037145 -0.759877
0.181812 -0.622562 0.017854 0.277926 -0.010106 0.955596
0.153766 0.460323 0.060581 0.59848 0.22678 0.767375
0.203217 -0.321807 0.026059 0.959086 -0.047339 0.277774
0.355057 0.341003 -0.049531 0.428405 0.334167 0.837784
0.201887 0.009416 -0.03181 0.946374 0.028496 -0.319913
-0.011759 0.649873 -0.018807 -0.999301 -0.000299 -0.021478
0.005164 0.82423 -0.098962 -0.351773 0.624 -0.693308
0.425579 0.307338 -0.085465 0.587616 0.808551 0.016499
0.010621 -0.34813 0.062736 0.799164 -0.123244 0.587967
0.183471 -0.314514 0.069246 0.733347 -0.041128 0.676855
0.102364 0.75654 0.001538 0.931475 0.030818 0.35357
0.022715 0.723495 0.097369 -0.609347 -0.146636 0.74002
0.150134 0.571899 -0.025636 0.266791 0.829406 0.484332
0.083497 0.627644 -0.012279 0.95501 0.069261 0.277242
0.003877 0.462105 0.089419 0.015104 0.338724 0.940079
0.33785 0.414298 -0.063093 0.765936 0.484135 0.422031
0.062416 -0.654896 0.01274 -0.302206 0.296372 0.90443
0.095108 0.160294 0.116197 0.492934 0.069378 0.864288
-0.084916 -0.47063 -0.089791 -0.451397 0.109457 -0.885011
0.101062 0.043113 0.121669 0.348752 0.208601 0.912509
0.159809 -0.22619 0.086699 0.182988 -0.251193 0.950105
0.416151 0.283536 -0.124918 0.341263 0.21087 -0.915679
-0.135953 -0.019379 -0.032334 -0.983107 0.027565 -0.175599
0.045707 0.504145 -0.126819 -0.20725 0.06804 -0.97575
0.000316 0.076231 -0.13992 -0.174942 0.300301 -0.937411
0.051522 -0.655565 -0.003194 -0.990359 -0.000939 0.120252
0.237226 0.522821 -0.094959 0.549434 0.6245 -0.554368
0.176944 -0.477791 -0.083248 0.698303 0.065937 -0.712535
0.202356 -0.560024 -0.009184 0.942902 -0.048527 0.328527
0.151623 -0.428703 0.071768 -0.110238 -0.097527 0.985064
-0.098156 -0.111084 -0.081634 -0.664473 -0.111138 -0.737363
0.185591 0.008945 0.083753 0.751215 -0.141264 0.634364
-0.127165 -0.379363 0.035508 -0.988539 0.047254 0.133931
-0.125051 -0.35538 0.054041 -0.982469 0.065302 0.174038
0.083644 0.538082 -0.126846 -0.095745 0.380347 -0.916325
-0.11469 -0.70548 -0.08329 -0.747319 -0.113111 -0.654063
-0.068629 0.457936 -0.129198 -0.170512 -0.00246 -0.984964
-0.100181 -0.802704 -0.10514 -0.83212 -0.116541 -0.539897
-0.128602 0.135412 -0.002441 -0.998263 0.045994 -0.017051
-0.01236 0.313376 0.113646 -0.11639 0.078011 0.989747
-0.113736 -0.671999 -0.088871 -0.653384 -0.042864 -0.751735
0.055498 0.852063 0.042035 0.425449 0.65904 0.61867
0.097125 -0.178891 0.096305 -0.305208 -0.119135 0.94175
-0.017633 0.686698 0.039941 -0.890556 -0.348741 0.266654
0.106865 -0.003247 0.128218 0.317697 -0.215798 0.922936
0.017206 -0.373186 0.043519 0.88045 -0.115043 0.443856
-0.000426 -0.063646 -0.116768 0.248766 -0.584372 -0.77168
0.308334 0.420857 -0.030459 0.802659 0.176514 0.564545
-0.030064 0.276341 0.11118 -0.351054 0.027767 0.934682
-0.128613 -0.633816 -0.061277 -0.99443 -0.024864 -0.09618
0.192991 -0.436746 -0.054995 0.829254 0.132976 -0.542676
-0.072643 0.524313 0.048323 -0.112519 0.564919 0.816741
-0.105336 -0.789755 -0.097464 -0.868997 0.040795 -0.491889
-0.126485 -0.560262 -0.000736 -0.925483 -0.129969 0.352435
-0.42269 0.172072 -0.046019 0.482247 -0.720365 -0.495899
0.372651 0.355953 -0.110308 0.698281 0.671823 -0.234428
-0.007916 0.631287 0.001336 -0.819469 -0.017043 0.570671
0.249449 0.492239 -0.002806 0.591439 0.219841 0.77572
-0.445476 0.218683 -0.009946 -0.787925 0.59676 0.126957
0.113662 -0.868238 0.021111 -0.076862 -0.990133 -0.11178
-0.074906 -0.789932 -0.135318 -0.60465 0.231924 -0.752632
0.051401 -0.064438 -0.127511 -0.344461 -0.391126 -0.853229
0.295778 0.427649 -0.135317 0.271055 0.432752 -0.856766
0.045976 -0.558455 -0.037352 -0.928416 -0.025614 -0.347945
-0.495776 0.127743 -0.008297 -0.163567 -0.794389 -0.535022
-0.007496 0.854205 -0.041737 -0.492041 0.844725 -0.202759
0.343001 0.299943 -0.050866 -0.559867 -0.569575 0.600813
-0.42774 0.185309 -0.053878 -0.105148 -0.029574 -0.956332
0.045463 -0.280779 -0.048928 -0.834477 0.008468 -0.550543
-0.062287 -0.472056 0.07405 0.266189 -0.173562 0.948065
0.141788 0.354026 0.077548 0.696682 -0.04747 0.715111
-0.122171 -0.6885 -0.026211 -0.969659 -0.093827 0.205423
0.389909 0.305567 -0.127946 0.306913 0.192018 -0.929427
-0.102964 -0.462928 -0.076436 -0.663344 0.124406 -0.735487
0.187962 -0.672028 -0.050694 0.705209 -0.296777 -0.642163
0.067653 -0.744829 -0.030177 -0.862075 0.091935 -0.496357
0.094875 0.716765 0.025634 0.922203 -0.142278 0.257495
-0.075111 -0.863793 0.093678 -0.043934 -0.998946 0.008777
-0.464627 0.153344 -0.037958 0.239612 -0.583824 -0.74895
0.099057 -0.674226 0.034664 -0.001639 0.082913 0.994951
0.165374 -0.627299 -0.083067 0.533012 -0.154802 -0.831424
-0.117916 0.233851 -0.015882 -0.930971 0.357567 -0.028127
-0.138807 0.003924 0.008536 -0.980381 -0.174953 -0.037665
0.06244 -0.620513 -0.002019 -0.391785 0.164028 0.881759
0.122459 -0.315693 0.080965 -0.05683 -0.067622 0.995394
-0.023405 -0.136723 -0.094622 0.50954 -0.257988 -0.818439
0.356033 0.37214 -0.116438 0.778692 0.591968 -0.198171
0.205847 -0.231098 -0.008317 0.998028 -0.060833 -0.014484
-0.055505 -0.055142 -0.120652 -0.189843 -0.314074 -0.929775
0.186787 -0.20576 -0.064337 0.626472 -0.087033 -0.774428
0.559349 0.161747 0.016622 0.733562 0.67937 0.010078
-0.061471 -0.159483 -0.09766 -0.13325 -0.156581 -0.976533
0.183238 -0.03842 0.080717 0.738845 0.022857 0.673372
-0.125156 0.195674 0.021228 -0.935328 0.204157 0.284744
0.058709 0.483179 0.074989 0.070559 0.448095 0.891025
0.199879 -0.196587 0.043612 0.951651 -0.024906 0.305726
-0.132319 -0.255788 0.001567 -0.966219 -0.112581 -0.230884
0.096777 -0.857955 0.013158 -0.759663 -0.634511 -0.136704
-0.091231 0.532546 0.04109 -0.013268 0.591674 0.805678
0.023866 -0.104628 -0.071968 -0.492291 -0.606715 -0.561117
-0.272432 0.290127 -0.081576 0.573435 -0.522219 -0.629552
0.274392 0.469484 -0.115592 0.481527 0.627713 -0.611211
0.109451 0.072027 0.112798 0.50994 0.137878 0.848524
0.353143 0.402571 -0.090769 0.938683 0.008707 0.095636
0.01475 0.654679 0.038984 -0.586057 -0.673136 0.446697
0.147762 0.1225 -0.095339 0.635736 0.217161 -0.735893
0.295797 0.34811 -0.040601 -0.202304 -0.666028 0.713398
0.134552 -0.812708 -0.11833 0.240911 -0.209819 -0.944552
-0.122701 0.436167 0.061012 -0.10718 -0.085752 0.988684
-0.134029 -0.522376 -0.044414 -0.908158 0.030624 -0.395364
-0.112701 -0.458155 -0.065658 -0.720963 0.151745 -0.676034
0.063595 0.143841 -0.124304 -0.050807 0.396995 -0.913769
-0.079718 0.127072 -0.092731 -0.624503 0.16903 -0.762097
0.324274 0.345469 -0.038317 0.143502 -0.106482 0.975905
-0.095598 -0.742428 -0.107588 -0.749116 0.090388 -0.655263
0.613906 0.066547 0.095059 -0.840149 -0.002708 0.482971
-0.119205 -0.118934 -0.056003 -0.787877 -0.085438 -0.609613
0.201411 -0.220666 0.038226 0.952656 0.02773 0.302666
0.082597 0.320161 0.107341 0.349075 0.108473 0.927898
0.157357 -0.640173 -0.085492 0.517392 -0.180604 -0.8364
0.10026 0.555253 -0.118643 0.112314 0.546364 -0.82873
-0.088185 0.183546 -0.073557 -0.69709 0.057705 -0.714402
0.198615 -0.43069 -0.039579 0.979774 0.039339 -0.191265
0.007023 -0.819682 -0.074266 0.875377 -0.476614 -0.023713
0.401888 0.286171 -0.041421 0.13267 0.317259 0.938162
0.058114 -0.742139 0.018827 -0.959597 -0.240474 0.129729
0.077595 -0.767281 -0.05819 -0.847133 0.224677 -0.480699
-0.079177 0.184939 -0.081887 -0.648513 -0.019114 -0.760383
-0.002535 -0.181786 0.107455 0.610779 -0.077066 0.787985
-0.254625 0.290559 -0.040192 0.74134 -0.668191 0.047569
-0.020864 0.724596 0.051536 -0.868884 -0.087709 0.47999
0.185449 0.182861 -0.018328 0.920666 0.249937 -0.289272
0.022209 -0.728711 -0.057409 0.975388 -0.009101 -0.210124
0.187516 -0.553263 -0.070755 0.733078 -0.030456 -0.679183
-0.011715 -0.047449 -0.127862 0.004091 -0.499783 -0.865438
-0.539604 0.088334 0.088307 -0.172538 0.309314 0.715181
-0.105119 -0.836374 -0.027958 -0.994451 0.015926 -0.048805
-0.128552 0.086516 0.00945 -0.99925 0.000794 0.03281
-0.098337 0.151974 -0.068762 -0.729531 0.177556 -0.65945
-0.03899 -0.712245 0.022334 -0.488643 0.329276 0.807742
-0.003732 -0.471318 -0.06603 0.754521 0.103117 -0.647247
0.033432 0.361847 0.111156 0.035015 0.219679 0.97322
0.19013 0.32677 -0.007357 0.99075 -0.100431 0.088068
-0.020408 -0.392787 -0.07057 0.618424 0.058184 -0.782585
0.157054 -0.422528 -0.086909 0.518861 0.173311 -0.836988
0.052366 -0.436727 -0.053915 -0.800022 0.028888 -0.599186
0.103371 -0.385516 -0.100341 -0.296381 -0.048284 -0.948678
0.199194 0.389878 -0.052353 0.993627 -0.109211 0.01721
0.068188 0.107639 -0.13907 0.033557 0.460295 -0.886335
0.349536 0.381051 -0.106467 0.847094 0.504752 0.004792
0.146097 -0.355088 0.078075 0.153809 -0.105128 0.981342
-0.08233 0.33792 0.078696 -0.718845 -0.020588 0.691072
-0.120396 -0.2151 0.090957 -0.823212 -0.041974 0.564276
0.070044 -0.609214 -0.064958 -0.675668 -0.019766 -0.73691
0.160761 0.260466 -0.072544 0.891627 -0.058823 -0.448383
-0.062718 0.212104 0.096511 -0.468047 0.093793 0.878313
-0.005048 0.101229 0.132762 -0.28934 0.129013 0.946867
0.081251 -0.395094 0.045273 -0.673927 -0.26986 0.687309
0.112282 -0.169473 -0.108572 0.006935 -0.177465 -0.980596
0.154885 0.05226 -0.11103 0.68556 0.292968 -0.666219
0.047938 -0.016228 -0.148039 -0.308527 -0.352244 -0.883576
0.167694 0.525782 -0.120948 0.201508 0.506945 -0.837664
0.087814 0.795629 0.042789 0.894962 0.246111 0.358742
-0.096019 0.572737 -0.038978 -0.377908 0.902429 -0.122304
0.285122 0.403523 -0.143402 -0.107184 0.1169 -0.984245
-0.114855 -0.390509 -0.050049 -0.734377 -0.118404 -0.668198
0.153011 -0.861183 -0.011727 0.41487 -0.904832 -0.043681
-0.371134 0.277411 0.002874 -0.262057 0.384699 0.883951
-0.1256 -0.665208 -0.073805 -0.909857 -0.013929 -0.403139
-0.159743 0.535155 -0.053039 -0.490752 0.74039 -0.457717
0.073824 0.647463 -0.048545 0.745921 0.17382 -0.638887
-0.492593 0.157104 0.045392 -0.653615 0.729532 0.189752
-0.10296 -0.826479 -0.069468 -0.963569 -0.185525 -0.14011
-0.058277 0.241738 -0.114338 -0.543251 -0.190176 -0.817022
-0.393801 0.191384 -0.04889 0.281855 -0.810532 -0.48621
-0.080972 0.444064 0.079395 -0.53757 0.157423 0.826671
-0.021708 0.563907 0.017742 -0.058363 0.74928 0.65071
0.057308 -0.605983 -0.052356 -0.756923 -0.036329 -0.652018
-0.132467 -0.151375 0.069887 -0.87221 0.039702 0.486772
0.091712 -0.853602 0.020378 -0.806335 -0.566029 -0.132492
0.16471 -0.074741 -0.103557 0.717842 -0.099072 -0.687914
0.368441 0.337174 -0.129673 0.497711 0.251903 -0.82495
0.34651 0.39495 -0.08043 0.725122 -0.637667 0.201573
0.003525 0.580209 0.018911 -0.468653 0.218731 0.852965
-0.001984 0.198404 0.128432 -0.16954 0.069822 0.978631
0.605658 0.100892 0.039835 0.835292 0.547533 0.003513
0.085814 -0.587655 -0.081729 -0.659283 -0.113793 -0.743151
0.118836 -0.315977 -0.097655 0.318121 0.027429 -0.945772
0.076713 -0.425733 0.025142 -0.697524 -0.349624 0.625356
0.109524 -0.869404 -0.052499 -0.009876 -0.996761 0.078547
0.098675 0.777399 -0.068514 0.949294 0.010853 -0.312117
0.019949 0.280649 -0.127573 0.082425 -0.019892 -0.995375
0.080026 0.23541 -0.134966 -0.097198 -0.191129 -0.975693
0.047782 -0.282073 0.043558 -0.858145 -0.04989 0.509315
0.051567 0.738574 0.081841 0.877361 0.184913 0.438261
0.20301 0.051328 0.030948 0.951774 0.238192 0.192666
-0.115627 0.321257 0.004277 -0.976267 -0.05645 0.208057
-0.026896 -0.581078 0.032168 0.377516 -0.296158 0.877282
-0.003886 0.570876 0.017609 -0.401658 0.36306 0.833288
0.102142 0.108048 0.116049 0.502001 0.096699 0.857145
0.06435 0.66676 0.072547 0.64357 -0.698387 0.303171
0.176624 -0.694781 0.008412 0.425194 -0.493843 0.757905
0.025974 0.863052 -0.048784 -0.079459 0.976673 -0.18841
0.052383 -0.291281 0.048962 -0.768758 -0.090996 0.631531
0.123552 -0.307036 -0.09531 0.3952 0.008049 -0.916927
0.021938 0.12503 -0.127435 -0.123546 0.421487 -0.898344
0.544448 0.138851 -0.022261 0.237225 -0.229844 -0.841487
0.2054 -0.24822 0.00311 0.999827 0.00109 0.002517
0.145715 0.255637 -0.099428 0.803044 -0.113416 -0.584272
-0.13454 -0.402438 0.019121 -0.970254 0.147689 0.185247
0.402439 0.257118 -0.126127 -0.1507 -0.243047 -0.953819
0.04924 0.16821 0.129609 0.097124 0.046994 0.994133
0.002297 0.844122 -0.073593 -0.411643 0.750331 -0.516576
0.134174 -0.809743 0.059782 0.386711 0.726271 0.562489
0.07795 0.160694 -0.120284 0.106135 0.143707 -0.983604
-0.101692 -0.841274 0.102591 -0.726854 0.674019 0.126264
0.008996 0.227922 0.127878 -0.136404 0.055064 0.988183
-0.058766 0.214889 -0.105332 -0.594377 -0.283079 -0.752101
0.089285 0.694863 0.011057 0.984329 -0.157861 0.050172
-0.034483 0.583514 -0.010472 -0.360591 0.742205 0.558784
0.641795 0.035787 0.006304 0.913786 -0.101509 -0.255894
0.024828 -0.537256 -0.017104 0.982184 -0.078288 -0.081397
0.120948 0.172946 -0.105538 0.427271 0.078458 -0.900112
-0.092308 -0.311816 -0.069277 -0.679797 -0.003588 -0.733266
-0.021341 -0.848367 0.036762 0.983133 -0.069215 0.026631
-0.0555 -0.714442 -0.120821 0.126053 0.261432 -0.954285
0.118217 0.386099 -0.143015 0.28869 -0.085043 -0.952378
0.15271 -0.058301 0.106282 0.506724 0.000949 0.861992
-0.427207 0.160786 -0.013986 0.534259 -0.842891 -0.038785
-0.053869 -0.833776 0.142906 0.557709 0.691107 0.428507
-0.015678 -0.338345 0.087386 0.466843 -0.097487 0.878808
-0.123682 -0.505931 0.020489 -0.814374 -0.180533 0.550554
-0.086957 0.399943 -0.115716 -0.386605 -0.183308 -0.90346
0.189003 0.050276 -0.063189 0.880118 0.152043 -0.448912
-0.119529 0.098501 0.051504 -0.924557 0.08213 0.367485
0.12424 -0.825077 0.134689 0.037517 0.996568 0.055331
0.04169 -0.370968 -0.03506 -0.924055 -0.061636 -0.36893
-0.018028 0.071468 -0.137849 -0.184916 0.229166 -0.955006
0.020343 -0.323113 0.053803 0.909793 -0.12481 0.395338
0.175256 0.338525 0.037586 0.879777 -0.05004 0.471763
-0.086403 0.556067 -0.080464 -0.41782 0.654561 -0.629883
0.032928 -0.229221 -0.034662 -0.490445 -0.075462 -0.84587
-0.125597 0.127628 -0.02671 -0.93599 0.023932 -0.344249
0.108326 -0.462426 0.041887 -0.677809 -0.051349 0.73337
-0.046038 0.16201 0.108869 -0.58716 0.109135 0.801872
0.046812 -0.007168 0.138297 0.067364 -0.425604 0.901066
0.174533 -0.521676 0.049782 0.563809 -0.196748 0.799563
-0.098149 -0.236015 -0.066685 -0.755789 -0.056217 -0.651259
-0.552719 0.055999 0.077469 0.836471 -0.501678 0.188528
-0.092662 0.077968 -0.094901 -0.750719 0.221844 -0.620881
-0.011329 0.67704 -0.036695 -0.958476 -0.145692 -0.227682
0.181093 0.189876 -0.029793 0.941387 0.06738 -0.326458
0.126145 -0.720936 0.018664 0.389296 -0.036195 0.915069
0.011489 0.863272 -0.032226 -0.155983 0.98436 -0.065878
0.280959 0.372771 -0.137881 -0.215509 -0.508817 -0.828454
-0.061263 -0.440269 -0.090411 -0.092363 0.258438 -0.960835
-0.119308 -0.211965 -0.034394 -0.865268 -0.096282 -0.491503
0.08838 -0.093258 -0.125572 -0.186614 -0.392685 -0.899648
-0.109347 -0.717108 -0.00789 -0.839582 -0.352947 0.410351
0.087609 -0.791828 -0.087012 -0.820969 0.265072 -0.505123
-0.134332 -0.130095 -0.029388 -0.890376 -0.111897 -0.436999
-0.079329 -0.310278 -0.080012 -0.572739 -0.037934 -0.818548
0.037395 0.714913 0.096812 0.211747 -0.331041 0.911856
-0.025202 0.754249 0.0421 -0.894934 0.131459 0.420538
0.027107 -0.13343 -0.051998 -0.938326 -0.25484 -0.232969
0.597598 0.069365 0.046635 -0.300938 -0.920346 0.170072
0.150658 0.538379 -0.117666 0.279693 0.57194 -0.769116
0.214256 -0.124516 0.004886 0.997735 -0.057223 0.022101
-0.100174 -0.783206 -0.104573 -0.793145 0.100893 -0.600501
-0.14013 0.007005 0.018659 -0.955992 -0.286461 -0.033263
-0.280606 0.262867 -0.041908 0.699412 -0.71053 0.064395
0.010477 0.847666 0.047853 -0.420132 0.596967 0.677535
0.288704 0.422766 -0.016046 0.447279 0.204741 0.869553
0.393135 0.260337 -0.124498 -0.350502 -0.347413 -0.86839
-0.214399 0.333132 -0.038117 0.565072 -0.823714 -0.018474
-0.053925 -0.863128 0.126929 0.116386 -0.984905 0.09552
-0.035447 -0.334072 -0.085927 0.480231 -0.083281 -0.872813
-0.181003 0.470186 -0.082905 -0.380702 0.312707 -0.869075
0.097538 -0.813574 0.060573 -0.682462 0.518431 0.510655
-0.000367 -0.319432 -0.0575 0.73418 -0.06847 -0.675422
-0.00283 -0.495259 -0.068227 0.781705 0.067056 -0.619867
-0.101071 -0.159595 -0.070277 -0.727078 -0.166802 -0.665229
-0.570687 0.039094 0.058861 -0.978971 0.195955 0.051404
0.602698 0.070154 0.075549 -0.736934 -0.585415 0.283218
-0.07274 -0.083204 -0.106563 -0.436671 -0.225979 -0.868071
0.075403 -0.5841 0.01561 -0.702677 -0.089873 0.705559
0.070115 -0.538408 0.010993 -0.646481 -0.01877 0.76265
-0.007873 0.516287 0.063806 -0.000768 0.444075 0.895372
0.019313 -0.363204 0.041505 0.918856 -0.149925 0.362132
0.015085 0.432239 0.096688 0.107962 0.148707 0.982937
0.310456 0.454499 -0.097576 0.61314 0.668335 -0.420276
0.01233 -0.611785 0.009948 0.636222 0.088396 0.764544
-0.126667 -0.532589 0.008771 -0.892089 -0.126361 0.430179
0.050502 0.844814 -0.082021 0.224569 0.756396 -0.60816
-0.233048 0.463285 -0.018971 -0.774584 0.612583 0.133613
-0.220652 0.338321 -0.005098 0.480773 -0.657955 0.569094
-0.02387 -0.465171 0.064835 0.428695 -0.275813 0.858484
0.093668 0.247071 0.111264 0.341657 0.080326 0.936269
0.105261 0.782726 -0.036624 0.999528 0.013537 -0.021896
-0.017243 -0.206934 0.112507 0.346942 -0.142663 0.925372
-0.127727 0.555762 0.009475 -0.224438 0.866101 0.432896
-0.127766 0.495317 -0.100697 -0.403373 0.266574 -0.874895
0.117456 -0.55708 -0.105931 -0.249104 -0.111432 -0.961645
0.3683 0.257683 -0.071836 -0.729487 -0.645921 0.222735
-0.047922 -0.685991 -0.10983 0.320598 0.228684 -0.917923
-0.040496 -0.862732 -0.090123 0.105726 -0.99239 0.045885
0.121595 0.480387 0.06495 0.216966 0.481938 0.846796
-0.1311 0.016398 0.064502 -0.828915 0.292085 0.475435
-0.299425 0.245739 -0.042297 0.643682 -0.760798 -0.034777
-0.137353 -0.468725 0.002706 -0.980924 -0.031872 0.190541
-0.124269 -0.728708 -0.065703 -0.867284 -0.037041 -0.486891
0.008974 -0.277406 -0.05265 0.756636 -0.122566 -0.641392
0.010206 -0.005998 -0.143732 -0.125268 -0.215953 -0.96807
0.141465 -0.822537 0.082845 0.308811 0.919123 0.238511
0.107886 -0.494709 0.039167 -0.590316 -0.066246 0.804272
0.114279 0.497823 -0.139188 -0.030886 0.325499 -0.942994
-0.326363 0.22667 -0.02549 0.663716 -0.747139 0.006775
0.091814 0.706228 -0.031159 0.881565 -0.421761 -0.155064
0.154074 -0.092006 0.106685 0.485229 0.002862 0.873919
0.319092 0.360275 -0.139226 -0.039367 -0.219616 -0.973417
0.135454 -0.11644 -0.116448 0.462039 -0.242623 -0.852865
0.15804 -0.762183 -0.08427 0.766784 0.338086 -0.537681
-0.485443 0.141066 -0.028824 -0.123487 -0.741208 -0.596772
0.033197 0.589541 0.0263 0.043028 0.008711 0.997147
0.048996 0.705457 -0.086944 0.242312 -0.639539 -0.728355
-0.154484 0.386235 -0.006643 0.636002 -0.693045 0.335017
0.137911 0.320399 0.080759 0.755617 0.036636 0.65295
-0.127761 0.547946 0.023594 -0.156738 0.81965 0.545561
0.158873 0.18393 -0.072968 0.761552 0.06238 -0.644996
0.196495 -0.414745 -0.04415 0.934214 -0.004866 -0.351708
0.027949 -0.301363 0.029046 0.994706 -0.00723 0.102479
0.065142 -0.415798 0.017761 -0.68343 -0.336971 0.647042
-0.120826 -0.497777 0.02816 -0.81019 -0.241753 0.533923
-0.104174 -0.336996 -0.059049 -0.739105 0.071752 -0.66821
0.06121 -0.559355 0.003978 -0.697012 0.013921 0.716491
0.055138 0.314284 0.117736 0.320481 0.182991 0.927631
0.498542 0.227663 -0.06908 0.432649 0.346283 -0.753776
0.093634 0.708484 0.008902 0.704842 -0.698439 0.065613
-0.047216 -0.558977 -0.101419 0.323245 0.000436 -0.94565
-0.076175 0.445755 -0.127168 -0.245457 -0.106123 -0.962751
0.165108 0.004225 -0.108857 0.821307 0.104191 -0.559541
0.093807 -0.437779 0.03568 -0.636407 -0.366309 0.678604
0.164733 -0.142734 0.098342 0.478137 -0.124653 0.868563
-0.417342 0.168561 -0.022816 0.636813 -0.763892 -0.100523
0.103337 -0.315817 -0.099883 -0.095239 0.028977 -0.989855
-0.055704 -0.864287 0.071784 -0.004001 -0.999987 0.00119
-0.079055 0.240577 -0.096757 -0.662095 -0.313759 -0.680304
-0.031279 0.729776 -0.04324 -0.820109 -0.425459 -0.367145
0.079314 0.719774 -0.078739 0.679815 -0.456555 -0.572875
0.080481 0.185064 -0.11835 0.13886 -0.16266 -0.969452
-0.099665 -0.826996 0.02381 -0.867244 0.475848 0.12884
0.199492 -0.541279 0.000974 0.938568 -0.037279 0.342962
0.202146 0.40263 -0.095885 0.900263 -0.398274 -0.155587
0.052039 0.77284 0.080134 0.490223 -0.435128 0.738682
-0.202169 0.478407 0.030323 -0.643788 0.281583 0.710646
0.013159 -0.410214 -0.040274 0.822604 -0.030167 -0.567614
-0.366651 0.201587 -0.008 0.640058 -0.758948 0.116598
0.005882 -0.172101 -0.06182 0.774275 0.04224 -0.631095
-0.079538 0.261678 0.080425 -0.600353 0.065898 0.796909
0.062639 0.78917 -0.111906 0.48019 0.0533 -0.875442
0.098501 -0.83849 0.142 -0.864959 0.445605 0.21369
-0.067302 0.189303 -0.091353 -0.577916 -0.155499 -0.800124
0.017081 -0.086316 -0.09049 -0.060257 -0.700715 -0.691666
-0.159763 0.383051 -0.058266 0.709609 -0.655371 -0.257743
-0.06979 0.139758 0.09657 -0.574591 0.087342 0.8131
0.033857 -0.046071 -0.129814 -0.263004 -0.487712 -0.832089
0.158546 0.071198 -0.101573 0.704124 0.210834 -0.675997
0.029269 -0.218456 0.037081 0.975547 -0.033587 0.216615
-0.137451 -0.052773 0.050201 -0.97827 0.038566 0.202265
0.07898 0.573004 0.00908 0.499831 0.375638 0.77842
-0.018275 0.619242 -0.029792 -0.940434 0.281554 -0.011447
-0.128301 -0.027539 0.070026 -0.870327 0.097521 0.482434
0.301187 0.441288 -0.031859 0.75752 0.391847 0.489262
0.083535 -0.625349 -0.075498 -0.654646 -0.080849 -0.751357
0.111473 -0.834131 0.16498 -0.52267 0.717378 0.433567
0.33134 0.397847 -0.044199 0.806283 -0.048229 0.578294
-0.129128 0.10019 0.007689 -0.995269 -0.091249 0.02078
0.095845 -0.322752 -0.098108 -0.304522 0.010749 -0.947878
0.082345 0.677141 -0.03064 0.976697 -0.116686 -0.168576
0.428892 0.292446 -0.112825 0.561849 0.494838 -0.661579
0.032997 0.413072 -0.128908 -0.133278 0.031317 -0.988791
0.021173 -0.542793 -0.004104 0.937628 -0.095831 0.330691
-0.096808 -0.822827 0.032215 -0.859151 0.468024 0.187304
0.172703 0.162831 0.055922 0.745907 0.093194 0.658996
-0.129821 -0.604912 -0.047131 -0.998818 -0.043611 -0.016881
-0.171248 0.517276 -0.063796 -0.591689 0.543142 -0.594299
-0.293004 0.261409 -0.011478 0.78655 -0.443341 0.407107
0.03026 -0.05221 0.12287 -0.347823 -0.384531 0.849462
0.382248 0.286059 -0.038541 0.04414 0.278441 0.93125
-0.103344 0.511012 -0.106299 -0.350074 0.386843 -0.851585
-0.120716 -0.69374 -0.015458 -0.95995 -0.217271 0.143747
-0.0257 0.470238 0.08422 -0.134863 0.39638 0.907241
-0.057718 -0.233548 -0.092388 -0.116583 0.028203 -0.990181
0.040187 0.52686 -0.121463 -0.101943 0.182063 -0.977881
-0.037096 0.797771 -0.040032 -0.997061 -0.029948 -0.062052
-0.285389 0.306245 0.006067 0.082771 -0.202825 0.97344
0.015472 0.804219 0.075886 -0.340022 0.395315 0.853189
-0.107761 -0.181552 0.104712 -0.658886 -0.002031 0.752055
0.1185 -0.870027 -0.101437 0.041679 -0.994714 -0.090851
0.125105 0.583664 -0.035898 0.379799 0.835045 0.388745
0.154453 0.448845 0.062833 0.627846 0.153817 0.760854
-0.12874 -0.62714 -0.030175 -0.996279 -0.041533 0.068774
0.179656 -0.302228 0.07317 0.396262 -0.03383 0.917262
0.112008 0.478108 0.068638 0.279862 0.490569 0.822586
0.285218 0.362706 -0.02736 -0.131955 -0.628671 0.737077
0.620933 0.057858 0.016926 -0.674308 -0.571618 -0.434745
0.198618 0.061246 0.041091 0.953036 0.205467 0.217244
0.177641 0.018057 0.090611 0.655655 0.136507 0.741761
