0.108869 -0.203655 -0.103005 -0.143436 -0.176801 -0.973073
-0.1282 -0.150989 0.078702 -0.887733 0.019233 0.45845
0.001847 -0.438475 -0.055397 0.758098 0.040383 -0.650757
0.075044 0.79359 0.065316 0.794512 0.219466 0.564627
0.240489 0.436404 -0.00061 0.651634 -0.210013 0.720062
0.201133 0.126344 -0.002059 0.934048 -0.243754 -0.194788
-0.119522 -0.578153 0.009606 -0.908017 -0.046539 0.414585
0.083497 0.627644 -0.012279 0.95501 0.069261 0.277242
0.201909 -0.066822 -0.039507 0.929276 0.034359 -0.367062
0.01767 -0.418997 0.02593 0.945162 -0.073152 0.311852
-0.019837 -0.371386 -0.070644 0.668211 -0.081716 -0.738779
-0.00593 0.532614 0.054608 0.03154 0.546018 0.834295
-0.090776 -0.8633 0.075636 -0.023772 -0.999707 0.002345
0.080346 0.417607 -0.143355 -0.221017 0.037626 -0.973668
0.373634 0.249463 -0.078363 -0.72866 -0.678831 0.084382
-0.024531 -0.717439 -0.105601 0.520079 0.289354 -0.802685
0.046394 0.131624 0.131117 0.101855 0.039954 0.993951
-0.088747 0.084503 0.088916 -0.476327 0.362262 0.777743
-0.084612 -0.156069 -0.087052 -0.616298 -0.176363 -0.766527
-0.019456 -0.514704 -0.087472 0.638685 0.05413 -0.764898
0.32795 0.313616 -0.051295 -0.517061 -0.575238 0.633185
0.182717 -0.700121 0.00155 0.39629 -0.529069 0.745661
0.163623 -0.652387 -0.078928 0.573345 -0.203591 -0.792939
0.629084 0.035874 0.078653 -0.862138 -0.479766 0.004097
0.019183 -0.011066 -0.143463 -0.118762 -0.279336 -0.95166
-0.142333 0.396904 -0.026662 0.758267 -0.650856 0.021992
0.130998 -0.580751 -0.104384 0.008282 -0.148745 -0.985891
0.144303 -0.703494 -0.088264 0.524079 0.004598 -0.847838
0.108269 -0.232465 0.089793 -0.037053 -0.147785 0.987943
0.197887 0.05917 -0.038337 0.959562 0.077922 -0.269251
0.111916 0.266839 0.102655 0.413699 0.050746 0.907255
0.172485 -0.046293 -0.098054 0.800984 -0.126059 -0.584669
0.198521 -0.572564 -0.051198 0.956401 -0.024273 -0.278591
-0.140849 -0.121022 -0.014316 -0.935595 -0.083222 -0.339784
0.108279 0.179325 0.109046 0.545914 0.050763 0.83612
0.10794 0.230893 -0.129159 0.448547 -0.296672 -0.839617
0.250045 0.526814 -0.065828 0.699791 0.705676 -0.092909
0.038113 -0.003777 -0.149096 -0.260592 -0.220915 -0.935756
0.163755 -0.032587 -0.113139 0.750654 -0.071802 -0.656192
0.022714 -0.637542 -0.003576 0.864667 -0.118081 0.487054
0.044354 -0.472324 -0.02306 -0.980778 -0.022246 0.17678
0.178174 0.489199 0.031408 0.537204 0.350043 0.763944
0.022247 -0.47844 0.007434 0.906344 -0.107159 0.407985
-0.282058 0.3949 -0.07279 -0.633227 0.499208 -0.550782
0.087664 -0.298947 0.075091 -0.357612 -0.199457 0.912162
0.134684 -0.751694 0.031258 -0.086227 -0.753048 0.634887
0.051522 -0.655565 -0.003194 -0.990359 -0.000939 0.120252
0.236477 0.528132 -0.015748 0.647066 0.607287 0.460718
0.020039 -0.285587 0.061983 0.934309 -0.050103 0.352162
-0.138577 0.412829 0.030327 -0.444643 -0.832793 0.265762
-0.116068 -0.152231 -0.052462 -0.793521 -0.153967 -0.588384
0.520783 0.208766 -0.019701 0.18128 0.9387 0.283552
-0.094873 -0.833541 0.099206 -0.642465 0.756908 0.108562
0.0908 0.330746 -0.144121 0.022063 -0.061438 -0.996055
0.033365 0.240814 0.127826 0.020802 0.033613 0.999013
0.074886 0.191789 0.123409 0.44203 0.042437 0.893024
0.068015 -0.794063 -0.048904 -0.925106 0.035605 -0.370492
0.187921 0.532713 0.007236 0.268589 0.604161 0.750091
0.129748 -0.857667 0.183372 -0.012526 -0.445647 0.835843
0.115594 0.228913 -0.123582 0.549542 -0.341184 -0.761715
-0.132183 -0.581783 -0.037545 -0.983426 -0.156937 0.069418
0.089182 -0.835681 0.051979 -0.981134 0.185421 0.022579
0.070945 -0.013263 0.134495 0.139177 -0.333998 0.931791
-0.048545 -0.591744 0.039061 0.481402 -0.291019 0.826746
0.086033 0.51673 0.054183 0.218494 0.560866 0.797913
0.022632 0.475802 -0.124761 -0.031816 0.12187 -0.990459
-0.026827 0.558006 0.026394 0.057771 0.827266 0.555274
-0.015318 0.295922 -0.131334 0.020356 0.034311 -0.999053
0.053878 -0.585225 -0.048885 -0.806199 -0.025461 -0.590089
-0.479237 0.173661 0.016911 -0.598653 0.788664 0.124867
0.335861 0.316139 -0.044291 -0.328736 -0.37002 0.854357
-0.031945 0.261399 -0.129 -0.153333 -0.049461 -0.985589
0.144174 -0.037744 -0.131685 0.621002 -0.179802 -0.762006
0.169978 -0.441684 0.067258 0.378334 -0.0956 0.917511
-0.072504 -0.801959 0.051564 -0.425506 0.768693 0.462342
-0.112769 -0.689758 -0.087497 -0.658583 -0.10934 -0.74381
-0.022231 -0.732664 0.018717 0.4376 -0.546314 0.702748
0.109989 0.244826 0.104716 0.390413 0.057794 0.917204
-0.075111 -0.863793 0.093678 -0.043934 -0.998946 0.008777
0.190215 0.1757 0.004032 0.980578 0.189835 -0.002858
-0.070526 0.571637 -0.074364 -0.467521 0.7315 -0.492241
0.110477 0.513867 0.04899 0.295286 0.537839 0.787949
-0.028084 0.593921 -0.020066 -0.647224 0.651682 0.393415
0.181211 0.443528 0.042562 0.499643 0.121747 0.856859
-0.064416 0.202543 -0.096795 -0.558106 -0.246073 -0.791972
0.204587 -0.282638 -0.015802 0.97965 -0.031733 -0.193527
0.027621 -0.626924 -0.021385 0.996698 -0.016588 0.052317
0.209235 0.411461 -0.095043 0.078173 -0.88952 -0.131268
-0.081847 0.074234 0.099494 -0.509406 0.34991 0.780251
-0.115157 0.549007 -0.06912 -0.373189 0.767161 -0.51974
-0.009925 -0.829949 -0.008419 0.441941 -0.884368 0.139497
0.182585 0.245143 0.015213 0.998002 -0.013531 0.060852
-0.057332 0.24893 0.095362 -0.557232 0.089644 0.825166
0.330798 0.425252 -0.115352 0.586158 0.631802 -0.497422
-0.021117 -0.474853 -0.084556 0.691329 0.096119 -0.716107
0.121553 -0.468095 -0.106037 -0.04662 0.08272 -0.993011
0.177393 -0.02506 0.086485 0.691848 0.057534 0.719448
0.198832 -0.619475 -0.015472 0.997966 -0.038455 0.0486
-0.131818 -0.267913 0.041877 -0.976441 -0.182431 0.099226
0.160546 -0.837029 0.108542 0.725552 0.684486 0.066357
-0.142001 -0.068459 -0.013787 -0.968083 0.020162 -0.242904
0.197322 -0.089685 -0.053048 0.89008 0.023642 -0.45451
-0.10549 0.260854 0.047228 -0.972921 0.053887 0.221013
-0.205705 0.374557 0.016932 0.116493 -0.531839 0.838687
-0.109378 -0.003996 -0.089735 -0.824812 -0.001154 -0.565103
0.014048 0.661177 0.073322 -0.34637 -0.90614 0.216492
-0.121729 -0.649486 -0.080288 -0.808751 0.006882 -0.587541
0.138799 0.168376 -0.095132 0.606904 0.074976 -0.789703
-0.128585 0.394215 -0.025174 -0.958686 -0.217164 0.003491
-0.032635 0.504479 -0.124797 -0.058188 0.31184 -0.948209
-0.150492 0.394322 0.002493 0.659313 -0.670512 0.336496
0.204394 -0.273923 0.028263 0.986489 -0.022233 0.154431
0.030941 -0.257128 0.023312 0.983135 -0.063429 0.170709
0.503781 0.225841 -0.060074 0.645855 0.747491 -0.140801
-0.051707 0.581807 -0.016561 -0.204441 0.912765 0.351034
0.05012 -0.293733 -0.055674 -0.822455 -0.014716 -0.568597
-0.092033 -0.839774 0.133073 -0.687214 0.681305 0.247009
-0.168353 0.368874 -0.042547 0.693527 -0.698453 -0.160248
0.067785 -0.747227 0.027496 0.026025 -0.540076 0.791382
0.541441 0.187604 0.007588 0.960681 0.186475 0.204446
-0.035903 0.781011 9.4e-05 -0.992589 0.061799 0.104387
-0.009875 -0.639967 -0.077687 0.661974 0.038138 -0.748322
-0.112435 -0.147058 0.101484 -0.679478 0.038233 0.732314
-0.010131 -0.659795 -0.079757 0.633523 0.106626 -0.766088
-0.124737 -0.368083 0.052833 -0.976441 -0.082256 0.199173
-0.325949 0.271146 -0.089216 -0.01909 -0.372554 -0.926193
0.125026 0.262584 -0.12574 0.633314 -0.12155 -0.763825
-0.130648 0.041831 -0.036717 -0.949037 0.140872 -0.281349
0.328677 0.304515 -0.059532 -0.581703 -0.627908 0.516981
-0.075423 -0.062386 -0.111047 -0.268039 -0.219617 -0.934182
0.131884 0.152933 0.097042 0.548847 0.026188 0.835422
-0.035114 0.11281 0.117435 -0.486476 0.1671 0.854997
-0.013473 0.825211 -0.08681 -0.463891 0.659366 -0.59074
0.092048 0.816035 -0.068321 0.845479 0.407173 -0.335323
0.148108 -0.505124 0.060669 -0.211268 -0.170311 0.961805
0.066855 0.031023 0.136406 0.141314 0.141283 0.975583
0.167 0.04662 -0.100175 0.776523 0.22769 -0.587251
0.190765 -0.578046 -0.065307 0.792931 -0.025867 -0.608446
0.133436 0.311578 0.086523 0.67338 0.058596 0.733261
-0.092178 -0.121104 -0.085195 -0.650302 -0.0905 -0.753928
0.196554 -0.487292 0.01116 0.94835 0.043236 0.309598
-0.118107 -0.758037 -0.007154 -0.826818 -0.319592 0.435915
0.079054 -0.814324 0.026423 -0.893467 -0.155057 0.401357
-0.12068 0.143628 -0.033542 -0.89098 0.166178 -0.41846
0.093421 0.577591 -0.003956 0.476965 0.557177 0.67706
0.17206 -0.656542 -0.071767 0.58643 -0.222459 -0.77873
0.082345 0.677141 -0.03064 0.976697 -0.116686 -0.168576
-0.088934 0.435675 0.074492 -0.621665 0.11372 0.774831
-0.293338 0.252167 -0.029942 0.707961 -0.684335 0.162276
0.035762 0.257364 -0.126056 -0.10605 -0.057587 -0.990966
0.005314 -0.691627 0.002428 0.827142 -0.233186 0.508563
0.153278 -0.827624 0.088664 0.475588 0.865039 0.145816
-0.361635 0.309861 -0.06258 -0.652359 0.721414 -0.231951
0.096983 0.762277 0.028814 0.976177 0.033728 0.20544
-0.098627 -0.821241 -0.09521 -0.819893 -0.421352 -0.37012
0.558337 0.162107 0.029476 0.720857 0.688801 0.073255
0.068999 -0.820848 -0.035824 -0.760673 -0.586086 -0.059834
0.301568 0.326708 -0.114906 -0.604211 -0.641996 -0.462283
0.185231 0.552955 -0.0882 0.312687 0.751396 -0.580739
0.204776 0.002624 0.043088 0.961283 -0.059308 0.24868
0.053375 0.666022 0.087663 0.499013 -0.464271 0.67211
-0.024067 0.576239 -0.094817 -0.198263 0.794595 -0.529822
0.224334 0.452363 -0.133747 -0.030004 -0.000776 -0.997889
0.205427 -0.263602 -0.001855 0.999673 -0.000341 -0.023327
0.022416 0.784111 -0.12003 -0.102263 0.112217 -0.987148
-0.216585 0.484433 0.001486 -0.784903 0.545804 0.291823
-0.061263 -0.440269 -0.090411 -0.092363 0.258438 -0.960835
0.001703 -0.655972 -0.070967 0.556578 0.141532 -0.818631
-0.21228 0.339373 -0.062208 0.544407 -0.775233 -0.318803
-0.048399 0.127786 -0.110299 -0.415722 0.363004 -0.833385
0.064904 -0.141395 0.079024 -0.64204 0.049847 0.764727
0.175939 -0.360112 0.070673 0.232304 -0.099997 0.966959
-0.174347 0.534718 -0.015808 -0.596855 0.799287 0.016907
0.072057 -0.061067 -0.13624 -0.220575 -0.382122 -0.896626
-0.053869 -0.833776 0.142906 0.557709 0.691107 0.428507
-0.141371 0.021615 0.026853 -0.968056 0.151203 0.186951
0.072692 0.289324 0.115807 0.420317 0.15436 0.892975
-0.067994 -0.693113 0.019197 0.239608 -0.317656 0.91724
0.043906 -0.483666 -0.03111 -0.999716 -0.00021 0.014588
0.02884 -0.264172 0.029839 0.984259 -0.048361 0.169864
0.204018 0.053671 0.021208 0.954942 0.260927 0.132616
0.102364 0.75654 0.001538 0.931475 0.030818 0.35357
-0.010633 -0.44838 0.05961 0.696779 -0.204145 0.686095
-0.277353 0.345596 0.008911 -0.312627 -0.044153 0.941634
0.149009 -0.110401 0.109179 0.422743 -0.016616 0.904958
0.065047 -0.696747 -0.042027 -0.790184 -0.2003 -0.578711
0.03824 -0.146676 -0.069529 -0.838756 -0.324595 -0.43569
-0.081427 -0.207862 0.11312 -0.208959 -0.039845 0.976898
0.134601 -0.499755 0.056177 -0.44935 -0.139432 0.880833
0.043295 -0.273028 0.030271 -0.988553 -0.021979 0.14867
0.028756 -0.251055 0.034344 0.98139 -0.031635 0.188206
-0.046567 -0.213529 -0.092108 0.083001 -0.053077 -0.994478
0.199439 0.412436 -0.116082 0.614328 -0.548219 -0.556763
0.068163 0.766941 0.06947 0.3693 -0.376372 0.825559
0.043459 -0.396815 -0.036922 -0.979299 -0.037712 -0.184855
-0.122325 -0.279948 0.079658 -0.944644 -0.034906 0.321521
0.285814 0.405031 -0.01414 0.126724 -0.063409 0.981021
-0.137643 -0.077616 0.052035 -0.973145 0.006606 0.228471
-0.072587 0.106883 -0.104176 -0.555836 0.283972 -0.780685
0.189151 0.001869 0.074581 0.753877 -0.358419 0.54392
0.199681 -0.411619 -0.034143 0.96466 -0.060693 -0.251709
-0.003304 -0.067896 0.127463 0.178958 -0.134667 0.972872
0.005113 -0.402982 0.055368 0.79311 -0.210142 0.571236
-0.01069 0.333876 0.112333 -0.171698 0.086353 0.977631
-0.068674 -0.863937 0.040523 -0.022792 -0.99964 -0.012926
-0.475985 0.139307 -0.022372 0.235202 -0.891249 -0.386635
0.611343 0.094198 0.044654 0.773815 0.633345 0.00637
-0.09615 0.059145 0.096196 -0.426261 0.233712 0.873371
-0.111862 0.262336 -0.042849 -0.999549 -0.006075 -0.022396
-0.080696 0.014429 0.117234 -0.458149 0.296804 0.837529
0.172394 0.39737 0.050518 0.676487 -0.054036 0.73403
-0.082123 -0.863445 0.044425 -0.03146 -0.999402 -0.008074
-0.004761 0.671849 0.05657 -0.85548 -0.398295 0.326721
-0.038639 -0.686188 0.019359 -0.220728 -0.15301 0.962195
0.079627 -0.606253 0.015917 -0.748134 -0.148614 0.645917
0.193429 0.344481 -0.01839 0.980379 -0.171897 0.084614
-0.10822 -0.722529 -0.088705 -0.818706 -0.058354 -0.57024
-0.045431 0.224527 -0.118604 -0.525645 -0.249959 -0.81062
0.039008 -0.105078 0.095582 0.482706 -0.589514 0.643932
-0.021265 -0.703689 -0.099846 0.587735 0.214411 -0.779779
0.112474 -0.266017 -0.099421 0.059413 -0.01082 -0.990307
-0.132313 -0.403666 0.028714 -0.962525 0.138218 0.229997
0.158434 -0.86194 0.151393 0.319462 -0.939547 0.112799
0.104689 0.589103 -0.027046 0.481712 0.751728 0.428796
0.052339 -0.17131 -0.079625 -0.77278 -0.17752 -0.606757
0.085173 -0.477586 0.02174 -0.631787 0.09001 0.769581
-0.208215 0.453605 -0.077278 -0.467502 0.531934 -0.70545
0.182723 0.194301 0.029426 0.979804 0.098141 0.166123
0.343001 0.299943 -0.050866 -0.559867 -0.569575 0.600813
0.023191 -0.198424 -0.032437 0.797085 0.054346 -0.503291
-0.126039 -0.737222 -0.060028 -0.974743 -0.031782 -0.21369
0.054384 -0.043804 -0.138259 -0.294502 -0.345367 -0.887682
-0.185973 0.407901 0.02767 0.182134 -0.333882 0.922449
0.082424 -0.194514 0.089483 -0.406079 -0.066142 0.909761
-0.365345 0.286564 0.000611 -0.232279 0.450935 0.856837
0.194755 0.030591 -0.054819 0.912807 0.026129 -0.407287
0.056124 0.865588 0.004307 0.317123 0.934952 0.143012
0.042101 -0.138696 -0.079257 -0.66855 -0.362784 -0.648631
-0.159168 0.460058 0.055112 -0.306454 -0.169393 0.936228
0.198615 -0.43069 -0.039579 0.979774 0.039339 -0.191265
0.009979 -0.405416 0.047009 0.859457 -0.1989 0.470835
-0.118136 -0.66448 0.00818 -0.96395 -0.186091 0.189633
0.197925 -0.325187 -0.027147 0.876557 0.042419 -0.478152
-0.108501 -0.482505 -0.074349 -0.688946 0.114719 -0.715615
-0.290161 0.347453 0.003608 -0.442342 0.236203 0.860361
-0.117981 0.513544 -0.098248 -0.420988 0.431474 -0.793517
-0.042268 0.235863 0.106872 -0.506343 0.024883 0.860468
-0.059917 -0.490874 -0.098113 -0.035114 0.101003 -0.992653
-0.027347 0.34653 0.10516 -0.159092 -0.033276 0.983591
0.087104 0.065978 0.122832 0.440786 0.102175 0.889831
-0.10139 -0.031585 -0.098552 -0.74048 -0.085576 -0.666142
-0.007027 0.313007 -0.130155 0.092224 0.060775 -0.99376
0.528795 0.158537 0.025445 -0.523287 0.063701 0.845131
-0.03339 0.497612 0.070271 -0.150801 0.491479 0.857655
0.06028 -0.658037 -0.044998 -0.83459 -0.159638 -0.526662
-0.04431 0.421795 0.096219 -0.209865 0.237051 0.947653
0.018459 -0.277851 0.068455 0.922566 -0.064484 0.379091
-0.141909 -0.165705 0.030205 -0.974435 -0.13506 0.170888
0.270728 0.35492 -0.113096 -0.49969 -0.727682 -0.460242
-0.553679 0.052123 0.031699 0.826232 -0.56007 -0.040425
-0.015331 0.056771 0.131362 -0.351223 0.158902 0.921795
0.197132 -0.438193 0.017752 0.971469 -0.097733 0.213599
-0.041714 -0.864034 0.063119 0.05064 -0.998572 -0.002296
-0.1355 -0.399402 0.008969 -0.982921 0.169719 0.051501
-0.127863 -0.339399 0.022069 -0.99773 -0.004499 0.063366
0.088233 -0.615501 -0.080498 -0.63937 -0.083332 -0.76328
-0.361085 0.205887 -0.022175 0.558156 -0.825074 0.009888
0.325535 0.306788 -0.115761 -0.538295 -0.635305 -0.548443
-0.113315 -0.513139 0.034634 -0.852168 -0.117915 0.507889
-0.214686 0.481045 0.011506 -0.787698 0.473255 0.387239
-0.156688 0.490938 -0.088037 -0.438754 0.281994 -0.852945
-0.123254 -0.749047 -0.064592 -0.869356 -0.176068 -0.446292
-0.164071 0.496265 0.051003 -0.381174 0.277482 0.88088
0.02614 0.493989 -0.123253 -0.090184 0.051403 -0.992702
0.026064 -0.651682 -0.046074 0.965939 0.054223 -0.2438
0.025813 -0.579118 -0.028109 0.958928 0.099186 -0.23747
0.147068 0.048175 0.101819 0.683894 0.302021 0.662967
0.162308 0.113426 -0.08066 0.740682 0.260014 -0.619179
-0.064514 -0.155138 0.121 -0.112716 -0.050248 0.991577
-0.002803 0.250659 -0.129285 0.099639 -0.045684 -0.99341
-0.020354 0.492347 -0.127582 0.047763 0.137874 -0.989198
0.176323 0.08403 -0.072825 0.81472 0.201612 -0.54294
-0.109292 0.288809 0.025713 -0.966698 -0.05776 0.248464
0.291121 0.329401 -0.089853 -0.663176 -0.746229 -0.026182
-0.197977 0.496799 0.023345 -0.737067 0.481001 0.473485
0.042322 -0.22567 0.030172 -0.991192 -0.045292 0.120186
-0.053573 -0.580106 0.045611 0.378611 -0.29069 0.878042
0.625356 0.042644 0.044854 -0.827251 -0.560089 -0.031097
0.100768 -0.527975 -0.101257 -0.527052 -0.037537 -0.84883
-0.125113 -0.524204 0.013864 -0.845021 -0.123701 0.519629
0.608147 0.071764 0.012449 -0.274394 -0.707029 -0.623968
0.568056 0.080695 0.018987 -0.871522 -0.483834 0.026385
-0.029279 0.242648 0.112038 -0.283216 0.026337 0.95856
-0.074847 0.172564 -0.084934 -0.594968 0.018984 -0.803406
0.26962 0.495084 -0.026437 0.708788 0.507876 0.483736
0.105818 -0.722291 -0.093821 -0.399084 0.060947 -0.914343
0.52252 0.214984 -0.038457 0.519883 0.782047 0.34174
0.163937 -0.545104 0.048971 0.24762 -0.310323 0.917377
0.003561 -0.701622 0.00156 0.851 -0.180648 0.492956
0.012659 -0.293684 0.075623 0.796711 -0.127444 0.590203
0.012961 -0.62647 -0.057201 0.684031 0.120311 -0.719378
0.130003 0.110669 -0.115054 0.564697 0.300896 -0.766308
0.029904 -0.164345 0.049746 0.898319 -0.269722 0.341762
-0.486404 0.148465 -0.036447 -0.549058 -0.147414 -0.807118
-0.125562 -0.386882 0.047124 -0.967896 0.102183 0.221908
-0.11387 0.559504 -0.052667 -0.438893 0.794655 -0.415829
0.083274 -0.826262 -0.014119 -0.443738 -0.886212 0.026975
0.122044 -0.294529 -0.096195 0.368161 -0.018702 -0.92637
0.04449 0.415501 0.096774 0.041664 0.197656 0.979083
0.088476 -0.193175 -0.099012 -0.375773 -0.213714 -0.901649
0.194087 -0.542143 0.016455 0.929927 -0.063246 0.361637
-0.141844 -0.07022 0.036397 -0.970127 0.027729 0.234366
0.024884 -0.369171 0.022282 0.963544 -0.112017 0.233979
0.145103 -0.835204 0.161527 0.465257 0.844239 0.255001
-0.380185 0.19391 -0.000969 0.553271 -0.803237 0.200801
0.021965 0.173863 -0.11673 -0.004115 0.212992 -0.973957
0.196484 0.108712 -0.018092 0.959179 -0.102853 -0.238914
-0.451061 0.143949 -0.015295 0.448509 -0.832166 -0.298376
0.213516 -0.044523 0.011458 0.99824 0.013068 -0.012173
-0.044771 -0.454442 -0.092754 0.211483 0.149896 -0.963419
-0.037647 0.341876 -0.128049 -0.142898 -0.005233 -0.988752
-0.259165 0.384278 -0.094023 -0.320796 0.367573 -0.870178
-0.123757 -0.488376 0.02811 -0.810628 -0.243554 0.532254
-0.0992 -0.475544 0.073511 -0.608951 -0.270951 0.734263
-0.200873 0.463823 -0.075115 -0.549126 0.445918 -0.703467
-0.136615 -0.410296 0.007675 -0.995194 0.08369 0.048467
-0.104196 -0.519321 0.048237 -0.825981 -0.051186 0.56039
-0.079177 0.184939 -0.081887 -0.648513 -0.019114 -0.760383
0.02579 0.159362 -0.117682 -0.101903 -0.049248 -0.99285
0.191011 0.381828 0.017313 0.940745 -0.14922 0.299253
0.031562 0.038652 -0.155154 -0.192364 0.226279 -0.954612
0.100287 0.025882 -0.154713 0.357487 -0.010945 -0.931863
0.203742 0.060322 0.003023 0.962428 0.264049 0.034929
-0.129986 -0.246143 0.066437 -0.948555 -0.060495 0.309401
0.045707 0.504145 -0.126819 -0.20725 0.06804 -0.97575
0.141731 -0.806623 -0.1153 0.394461 0.076961 -0.903076
-0.102196 -0.501056 0.05617 -0.798362 -0.249586 0.547797
0.167359 -0.809691 0.013144 0.961653 -0.112182 0.220707
0.059511 -0.778919 -0.012721 -0.997663 -0.003515 -0.060283
0.177016 0.259265 0.036905 0.894973 0.126033 0.41797
0.086397 -0.107037 -0.119531 -0.278731 -0.325001 -0.90301
-0.156249 0.540004 0.018418 -0.460991 0.773996 0.431509
0.547257 0.158537 0.036707 -0.517564 0.213574 0.809001
0.234655 0.542472 -0.048976 0.66547 0.744537 0.042053
0.161004 -0.447073 -0.090652 0.570241 0.204504 -0.795182
-0.440704 0.186406 -0.049528 -0.454437 0.281943 -0.841178
-0.432377 0.212433 -0.049296 -0.52057 0.10037 -0.847556
0.095174 0.744596 -0.072387 0.922731 -0.217644 -0.299949
0.185232 0.159597 0.038514 0.856492 0.172454 0.48529
0.20521 0.042243 -0.01332 0.980057 0.092145 -0.165765
0.017284 -0.77936 -0.048554 0.965601 -0.181285 0.163515
-0.128546 -0.017362 0.067295 -0.891791 0.097129 0.440617
0.005678 0.438442 -0.127439 0.099146 0.000237 -0.994841
-0.415988 0.192963 0.02148 -0.042705 0.321593 0.944435
0.06574 0.862886 -0.018157 0.371135 0.923647 -0.030867
-0.515116 0.123292 0.083722 -0.380425 0.64089 0.534228
0.090224 0.37338 0.098251 0.186956 0.104856 0.975217
0.153706 0.4141 0.067994 0.702026 0.044837 0.710405
-0.129292 0.067015 -0.025585 -0.971265 0.17703 -0.152701
0.00897 0.684933 0.081383 -0.63466 0.022662 0.767883
0.021797 0.725645 -0.104484 -0.147652 -0.538963 -0.828104
-0.084331 -0.178318 0.114569 -0.20264 -0.093509 0.97435
-0.101445 0.141551 -0.068713 -0.756464 0.199345 -0.622174
0.009858 0.833502 0.057021 -0.503993 0.395454 0.765436
-0.080145 0.481898 -0.124051 -0.325937 0.229242 -0.915816
-0.07474 0.487788 0.066872 -0.243496 0.379795 0.889958
-0.032867 -0.856307 -0.006745 0.566151 -0.806195 -0.16599
0.398964 0.295728 -0.044217 0.206065 0.352631 0.911294
0.019732 0.509139 0.065125 0.092515 0.497087 0.861453
0.179229 -0.303621 -0.052598 0.739246 -0.084683 -0.667559
-0.163865 0.496221 -0.082424 -0.469959 0.327324 -0.818811
-0.002575 0.78554 0.074292 -0.57172 0.178558 0.791126
0.095883 0.738976 0.026763 0.962693 -0.12375 0.237766
-0.057871 0.184893 -0.096313 -0.529121 -0.182419 -0.82688
0.057935 0.660161 0.056871 0.341797 -0.9201 0.135696
-0.226859 0.357266 0.011746 0.306288 -0.429093 0.848649
0.265156 0.460582 -0.126832 0.27461 0.515354 -0.811029
-0.381228 0.225496 -0.073718 -0.114506 -0.298066 -0.945365
0.503122 0.194458 -0.057605 0.188698 -0.409666 -0.89129
0.019313 -0.363204 0.041505 0.918856 -0.149925 0.362132
0.205541 -0.362583 -0.013292 0.995831 0.019399 -0.070853
0.180982 0.208287 0.034465 0.972524 0.059604 0.219198
0.064413 0.049622 -0.156934 -0.065787 0.309374 -0.947099
-0.539604 0.088334 0.088307 -0.172538 0.309314 0.715181
-0.059314 -0.70121 0.014215 0.114924 -0.267899 0.947425
-0.130536 0.051766 -0.032064 -0.95704 0.13591 -0.255676
-0.109044 -0.84138 0.004716 -0.840766 0.53198 -0.072996
-0.201174 0.4048 0.031236 0.297283 -0.345166 0.889755
-0.106917 0.288405 0.037613 -0.986415 0.002985 0.163018
0.358496 0.295631 -0.127336 -0.310473 -0.369662 -0.871749
-0.109057 0.298292 0.027244 -0.957041 0.003598 0.289276
0.103371 -0.385516 -0.100341 -0.296381 -0.048284 -0.948678
0.336495 0.320553 -0.131895 -0.221425 -0.352329 -0.908826
0.074413 0.563643 0.015893 0.378598 0.431713 0.816734
0.15164 -0.126882 0.106795 0.340023 -0.102924 0.933244
-0.042097 0.153697 0.112506 -0.518979 0.073005 0.85116
-0.375175 0.198912 -0.049765 0.529487 -0.785222 -0.310985
-0.139419 -0.469151 -0.009144 -0.992821 0.05568 0.072527
0.148444 0.105868 0.083305 0.586969 0.086617 0.802676
-0.148947 0.545626 -0.045481 -0.502251 0.754578 -0.422003
0.166318 0.013443 -0.105806 0.709804 0.014704 -0.676136
0.018031 -0.61959 0.004872 0.765738 0.016392 0.641269
-0.478457 0.151134 0.062307 0.220527 0.740547 0.618929
0.313857 0.364004 -0.034028 0.363767 -0.244914 0.882142
-0.461615 0.186685 0.017833 -0.321054 0.716587 0.599285
-0.008904 0.737719 0.065878 -0.58822 0.034536 0.802171
-0.105921 -0.280863 0.102427 -0.621137 -0.036397 0.774445
-0.260849 0.297964 -0.008438 0.565273 -0.595622 0.568742
-0.078496 -0.862389 -0.017169 -0.045676 -0.997044 -0.049624
-0.184148 0.497644 -0.066257 -0.603607 0.463558 -0.647815
-0.50956 0.137652 0.02752 -0.848496 0.528352 -0.017435
-0.059359 -0.469279 -0.095776 -0.003698 0.11512 -0.992396
-0.12803 -0.667559 -0.047616 -0.997768 -0.016026 0.061821
0.348574 0.296172 -0.122643 -0.464255 -0.580878 -0.665646
0.11922 0.282797 0.09796 0.496955 0.041656 0.866078
-0.136123 -0.093606 0.059766 -0.954463 0.004164 0.293783
0.032937 0.861153 0.039645 0.009632 0.895501 0.429162
-0.137483 -0.437912 0.007236 -0.9917 0.013523 0.125888
0.199819 -0.440201 -0.005026 0.995464 -0.065304 0.05859
-0.058268 0.420919 -0.127563 -0.184125 -0.112229 -0.975321
0.049443 0.118837 0.131344 0.127832 0.127551 0.982249
0.44487 0.233087 -0.100615 0.6261 -0.297864 -0.718294
0.02449 -0.356047 0.031654 0.938072 -0.158133 0.303676
0.054375 -0.470341 -0.058848 -0.772619 0.034737 -0.633113
-0.002687 0.852489 0.030075 -0.540416 0.725648 0.424834
0.007205 -0.138717 -0.062719 0.804074 -0.123513 -0.581474
-0.012735 0.553101 0.029556 0.148845 0.807607 0.560457
-0.408521 0.175058 -0.003206 0.571021 -0.817167 0.008442
-0.033872 -0.181856 0.120825 0.156603 -0.110507 0.980938
-0.090494 0.013072 -0.113823 -0.718647 -0.01792 -0.694815
0.167902 -0.073773 0.096619 0.613671 0.053372 0.786596
-0.087731 -0.188375 -0.07968 -0.650058 -0.042063 -0.757063
0.030207 -0.115453 0.091962 0.560499 -0.54443 0.620077
0.117577 0.147599 0.105024 0.519202 0.0308 0.854082
0.028354 -0.147845 -0.040526 -0.913691 -0.23623 -0.328961
-0.018323 0.356608 -0.128865 -0.009988 -0.007394 -0.999857
-0.03922 0.172164 0.112573 -0.53837 0.108162 0.835682
0.14087 -0.69045 0.024819 0.23563 -0.342101 0.907247
0.087276 0.838082 0.002866 0.838635 0.521006 0.090335
0.043686 -0.339745 0.020895 -0.976069 -0.077811 0.197547
0.04445 -0.558586 -0.027209 -0.990856 -0.029253 0.015692
0.091134 0.741311 0.044487 0.964979 -0.032197 0.255171
0.212605 -0.091806 0.030334 0.970785 -0.006727 0.236643
0.091168 0.80711 -0.078417 0.87499 0.238993 -0.417001
-0.007604 -0.234202 -0.077519 0.628514 -0.044845 -0.77634
-0.079651 0.355185 0.082874 -0.742199 -0.057441 0.666186
0.206191 0.043324 0.01378 0.995314 0.0858 0.032162
-0.395413 0.273259 -0.015508 -0.649602 0.691901 0.314934
0.002396 0.772345 -0.115635 -0.484071 -0.046209 -0.872104
0.187924 0.02735 -0.069917 0.922175 0.012202 -0.358729
-0.08825 0.283732 0.072311 -0.660198 0.019258 0.749868
-0.134379 -0.229413 0.003384 -0.977148 -0.036906 -0.201315
0.024131 -0.126701 0.09178 0.810329 -0.274071 0.517851
0.242958 0.375901 -0.05115 -0.584458 -0.71626 0.380907
0.082758 0.351404 0.103883 0.270565 0.137327 0.95206
0.000421 -0.273377 -0.06432 0.75666 -0.12724 -0.641231
-7.6e-05 -0.641327 0.021179 0.46609 -0.000886 0.884007
-0.147507 0.389985 -0.032305 0.743739 -0.665265 -0.05792
-0.000466 0.502727 -0.124155 0.108487 0.096827 -0.988271
0.22105 0.394589 -0.058974 -0.76019 -0.627513 0.148374
-0.107132 -0.840018 -0.006224 -0.961578 0.19156 -0.10791
0.202114 -0.286535 0.035636 0.955069 -0.052577 0.291264
0.142587 -0.491257 -0.105167 0.286662 0.05383 -0.955823
0.122408 0.452769 -0.146604 0.070534 0.025502 -0.996777
0.163868 0.134768 0.068788 0.676485 0.15948 0.718273
-0.12998 -0.272143 0.050432 -0.978151 -0.160742 0.126559
-0.094315 0.385213 -0.109896 -0.420101 -0.222439 -0.879261
-0.039594 -0.537491 -0.098899 0.306061 0.026598 -0.951335
0.144166 0.184527 0.084966 0.715543 0.031403 0.697835
0.147805 -0.559629 -0.102919 0.407809 -0.070126 -0.90944
0.263886 0.404298 -0.139948 -0.227783 -0.103608 -0.966714
-0.10846 -0.391657 0.08855 -0.62017 -0.167383 0.758887
0.131418 0.43345 0.078744 0.386283 0.190157 0.900409
-0.052846 0.022289 -0.138829 -0.286272 -0.232647 -0.921092
-0.367592 0.306544 -0.055453 -0.668409 0.734591 -0.105251
0.153234 0.257887 0.067653 0.783294 0.072527 0.617353
0.079109 0.152685 0.122802 0.415981 0.055813 0.906918
0.598202 0.104088 0.008588 0.686497 0.349873 -0.614906
0.618735 0.052094 0.049174 -0.774084 -0.628872 -0.024342
-0.033454 0.829427 0.004926 -0.857221 0.146706 0.460714
-0.288332 0.365676 -0.003007 -0.726027 0.416125 0.545884
0.077186 0.566225 -0.110927 -0.062698 0.590685 -0.803206
0.166318 -0.524395 -0.093133 0.655581 -0.036781 -0.754148
0.141334 -0.236717 0.086764 0.110181 -0.223288 0.968287
-0.095877 -0.858565 -0.08773 -0.811514 -0.530325 -0.129523
-0.232986 0.338483 -0.082323 0.449928 -0.595163 -0.663427
0.197236 -0.581896 -0.055384 0.924077 -0.020897 -0.374063
0.062911 -0.307559 -0.073358 -0.787403 -0.009148 -0.616305
-0.004451 0.244793 0.121564 -0.367497 0.080108 0.926436
0.063984 0.260335 -0.135014 -0.314552 -0.088841 -0.943349
-0.094902 0.315094 -0.095083 -0.680282 -0.110524 -0.724333
-0.190058 0.471386 0.041756 -0.503957 0.124459 0.838111
0.099057 0.52662 0.043516 0.284454 0.537482 0.792413
0.073447 0.324531 0.110815 0.321523 0.126654 0.937387
0.126383 -0.739119 0.025652 0.233558 0.583707 0.743635
3.4e-05 -0.399435 -0.055364 0.624414 0.099111 -0.77465
-0.287015 0.399963 -0.037533 -0.626246 0.770132 0.117701
0.073071 -0.547942 -0.075322 -0.71219 -0.070267 -0.698382
0.489134 0.194083 -0.058471 -0.107403 -0.461129 -0.878424
-0.237842 0.449773 -0.003604 -0.753434 0.587432 0.29429
-0.001705 0.222893 0.125352 -0.339399 0.151714 0.92714
0.013492 -0.262101 0.080262 0.801032 -0.1242 0.584649
-0.310006 0.239182 -0.042079 0.522283 -0.849775 -0.056536
-0.15526 0.409562 -0.087637 0.471312 -0.480002 -0.728078
0.37042 0.320591 -0.047455 0.296251 0.403919 0.865382
0.175612 -0.024807 -0.096148 0.841447 -0.004056 -0.539876
0.046321 -0.411571 -0.002011 -0.89318 -0.180639 0.401153
-0.078811 -0.459772 0.080478 0.139529 -0.123508 0.980881
-0.065293 -0.764603 0.023111 -0.299134 0.515615 0.788904
-0.522837 0.119902 0.040539 -0.793133 0.60685 -0.042995
-0.398102 0.181015 -0.003586 0.561205 -0.824734 0.059373
0.006757 0.863266 -0.015561 -0.13658 0.98518 -0.002815
0.057289 -0.682799 0.016548 -0.840559 0.137146 0.520244
-0.014353 -0.589823 0.026736 0.273165 -0.129787 0.946528
0.036271 0.025224 0.13999 0.08046 0.267895 0.959985
0.192655 0.117355 0.031719 0.918676 -0.002435 0.392059
-0.094623 0.44301 -0.121087 -0.266843 -0.109923 -0.956986
-0.046508 -0.172643 -0.095496 0.172131 -0.060431 -0.982894
0.00339 0.667211 0.069473 -0.715216 -0.540101 0.383599
0.168432 0.203855 0.0551 0.753157 0.077828 0.653205
0.082312 0.128247 0.123405 0.409234 0.050325 0.908474
0.048634 0.282041 0.122425 0.125572 0.113737 0.985424
0.109302 -0.734079 0.028479 0.319506 0.14636 0.935138
-0.418938 0.166194 0.003819 0.674087 -0.73834 0.005229
0.198179 0.07008 0.03493 0.952187 0.232672 0.187377
0.089978 0.69909 -0.024502 0.963586 -0.233363 -0.068627
-0.121526 -0.516668 0.020984 -0.830707 -0.09667 0.548006
0.090544 0.576991 -0.102284 0.138573 0.670491 -0.728463
-0.023281 -0.847158 -0.069066 0.815893 -0.566274 0.063998
0.411798 0.315601 -0.105863 0.666745 0.639218 -0.366914
-0.085098 0.224839 -0.081177 -0.714607 -0.338128 -0.609998
0.326452 0.301176 -0.10793 -0.568382 -0.705082 -0.415294
0.018494 -0.467878 0.018797 0.893987 -0.07109 0.440289
-0.103716 0.41019 -0.111722 -0.438929 -0.213688 -0.866658
0.131648 -0.462283 -0.10527 0.128606 0.103699 -0.985047
0.045287 0.51178 0.060742 0.064456 0.530964 0.844425
-0.12845 0.181002 0.005921 -0.99891 0.029951 0.004806
0.020991 0.476823 0.082298 0.058218 0.411982 0.909038
0.020343 -0.323113 0.053803 0.909793 -0.12481 0.395338
-0.050085 -0.296802 -0.091408 -0.035195 -0.088176 -0.99279
0.249449 0.492239 -0.002806 0.591439 0.219841 0.77572
-0.34005 0.328019 -0.028622 -0.680097 0.722913 0.11631
-0.119744 0.458186 0.06137 -0.06474 0.010786 0.997288
-0.128552 0.086516 0.00945 -0.99925 0.000794 0.03281
0.640928 0.044232 0.047115 0.933021 0.34696 -0.000369
0.205456 0.452464 0.025156 0.627813 0.036858 0.776912
0.000108 0.039072 0.137125 -0.172983 0.076119 0.98189
0.081575 -0.661192 -0.069987 -0.740999 -0.054424 -0.668941
0.00356 -0.821783 -0.091452 0.91698 -0.354069 -0.164093
0.390817 0.291519 -0.041179 0.169031 0.29634 0.939784
0.15804 -0.762183 -0.08427 0.766784 0.338086 -0.537681
-0.001847 0.69451 -0.065161 -0.657428 -0.516563 -0.54798
-0.037365 0.798134 -0.027825 -0.997717 -0.021241 0.034224
-0.129139 -0.276409 -0.003828 -0.989102 -0.070111 -0.122026
-0.100213 -0.180639 -0.067952 -0.737433 -0.062335 -0.671839
-0.00929 0.674827 0.04851 -0.817875 -0.454286 0.329073
0.182844 -0.019288 -0.084547 0.879681 0.032456 -0.473702
-0.034888 0.835292 -0.037824 -0.710478 0.683207 -0.159849
-0.073795 0.395174 0.089981 -0.566474 0.007118 0.819597
0.161648 0.174563 0.066681 0.720325 0.060472 0.690856
0.005455 0.657418 0.032123 -0.621536 -0.645947 0.422215
-0.033012 -0.246454 0.109031 0.197051 -0.204531 0.958764
-0.240874 0.435318 0.007248 -0.735295 0.505686 0.450927
0.198561 0.152386 0.006801 0.934206 0.348746 0.05683
-0.127923 -0.268534 -0.013474 -0.966271 -0.040108 -0.248156
0.013029 -0.391908 -0.040496 0.782179 0.038515 -0.62116
-0.02612 -0.85117 0.083951 0.9843 -0.04298 0.166114
0.102158 -0.868245 0.031144 -0.324024 -0.937734 -0.099848
0.207188 -0.157506 0.016663 0.995591 -0.068123 0.05532
-0.097889 -0.848113 -0.074118 -0.987581 -0.117898 -0.074994
-0.065356 -0.170504 0.120057 -0.240354 -0.074055 0.966152
-0.480688 0.116968 0.039452 0.83702 -0.524977 0.151
0.041418 -0.323397 -0.040985 -0.875462 -0.0248 -0.482449
0.093675 0.718505 -0.048424 0.837131 -0.450003 -0.30925
-0.12969 -0.235744 0.069181 -0.944388 -0.071906 0.320508
-0.028674 0.747087 0.028645 -0.985718 -0.047108 0.160504
-0.098938 -0.838948 -0.07748 -0.961837 -0.179518 -0.198184
0.420735 0.274742 -0.038844 0.056223 0.456851 0.886543
0.584866 0.047819 0.006952 -0.847747 -0.529603 -0.000922
0.236379 0.478559 0.006083 0.585348 -0.029823 0.807498
0.189638 0.172786 0.019216 0.964509 0.187118 0.171991
-0.04333 -0.012029 -0.134973 -0.217895 -0.114035 -0.968357
-0.055718 -0.863839 0.027446 0.002268 -0.999835 -0.016413
-0.105778 -0.541943 -0.086259 -0.625979 0.110131 -0.771327
0.18772 0.185609 0.000524 0.93932 0.339544 -0.026842
0.034532 -0.31567 -0.009577 -0.998679 -0.032973 0.002815
0.09819 -0.63571 0.027217 -0.617608 0.149064 0.756729
0.580185 0.069209 0.041562 -0.802601 -0.41281 0.411179
-0.204407 0.344083 -0.014722 0.52779 -0.752744 0.392261
0.108423 -0.571664 0.035765 -0.339681 -0.141016 0.929756
0.15917 -0.566656 0.042942 0.108153 -0.155259 0.978467
0.566777 0.088622 0.047652 -0.855124 -0.43576 0.262627
0.10549 -0.821491 0.085605 -0.360939 0.868184 0.325777
-0.133927 -0.243586 0.004065 -0.976316 -0.061313 -0.198555
0.088966 0.569795 -0.108527 0.043139 0.639542 -0.76638
0.33785 0.414298 -0.063093 0.765936 0.484135 0.422031
0.174133 -0.469645 0.061879 0.520277 -0.137564 0.838435
0.19949 -0.269688 0.047007 0.935852 -0.053632 0.347885
0.06885 -0.357003 0.050012 -0.634677 -0.307761 0.707378
0.161829 -0.330695 -0.069337 0.650824 0.004421 -0.758829
-0.022539 0.831649 0.015931 -0.720763 0.282282 0.629825
0.415424 0.312269 -0.069035 0.642156 0.693625 0.31383
0.019608 -0.168392 0.078905 0.943568 -0.107895 0.308333
0.032258 0.612984 -0.076001 -0.059679 0.375105 -0.91775
-0.127473 0.081223 -0.027507 -0.983208 0.073553 -0.156712
0.017206 -0.373186 0.043519 0.88045 -0.115043 0.443856
0.201325 -0.305917 -0.021151 0.895748 -0.041339 -0.441451
-0.314366 0.347761 -0.064163 -0.631203 0.704214 -0.323925
-0.145242 0.519975 -0.080442 -0.45929 0.526805 -0.713157
0.136268 0.383496 -0.134931 0.491548 -0.16997 -0.848565
0.205739 -0.344922 -0.008386 0.995938 0.019822 -0.079895
-0.018102 0.783554 -0.100464 -0.722981 -0.050037 -0.688381
0.176944 -0.477791 -0.083248 0.698303 0.065937 -0.712535
0.064752 -0.312078 0.059476 -0.720599 -0.0866 0.687899
-0.030064 0.276341 0.11118 -0.351054 0.027767 0.934682
0.142331 -0.174088 -0.100066 0.503329 -0.073206 -0.860363
0.329036 0.437902 -0.081517 0.794773 0.590356 0.110691
-0.427799 0.196371 -0.053394 -0.35543 0.052301 -0.930053
0.095761 -0.867317 0.070079 -0.489837 -0.868848 -0.039525
-0.114738 -0.802911 -0.042816 -0.884203 -0.457238 0.061316
0.113559 0.306585 0.098967 0.408714 0.102051 0.906579
0.086016 0.483856 -0.139821 -0.285981 0.294484 -0.911387
-0.086447 0.028838 0.109035 -0.515127 0.378033 0.768211
-0.042906 -0.133684 0.124375 -0.021627 -0.099474 0.994665
0.021284 0.539397 -0.116793 -0.064004 0.394372 -0.916473
0.072298 0.503467 -0.13204 -0.311741 0.190955 -0.928672
0.46087 0.234229 -0.087931 0.579845 -0.364072 -0.728715
0.073549 -0.470644 -0.079138 -0.710503 0.036756 -0.702718
0.01294 -0.691547 -0.071614 0.626792 0.157739 -0.761955
-0.108236 0.014878 -0.091106 -0.836586 0.014921 -0.547554
-0.118232 -0.402145 0.074218 -0.850633 -0.158537 0.48357
-0.115899 -0.420439 0.071305 -0.756409 -0.252207 0.602878
-0.43175 0.164316 0.03435 0.536536 -0.348002 0.730038
0.100969 0.753097 -0.053087 0.946531 -0.234345 -0.214775
0.04644 -0.395459 -0.04709 -0.880836 0.025729 -0.462738
0.228449 0.385143 -0.084613 -0.71665 -0.697125 -0.018361
-0.127458 0.377869 -0.046167 -0.982656 -0.172867 -0.001507
0.192419 -0.434915 0.036641 0.957186 -0.08866 0.275226
0.182792 0.183353 0.035139 0.935622 0.128773 0.314759
0.187011 0.316614 -0.04102 0.879336 -0.342749 -0.32959
-0.050851 -0.084159 0.1263 -0.251048 -0.062104 0.962313
0.0657 0.714372 -0.086336 0.456735 -0.557102 -0.691432
0.24127 0.382258 -0.041198 -0.557338 -0.733069 0.389621
0.023331 -0.434596 -0.003889 0.9663 0.233313 -0.038276
-0.110352 -0.570696 0.030394 -0.89503 -0.060577 0.441699
0.016451 0.569139 0.025612 -0.191304 0.091406 0.974534
0.10169 -0.84853 -0.110742 -0.560433 0.08882 -0.818527
0.520525 0.167177 0.020706 -0.296205 0.214673 0.916179
0.554559 0.109572 -0.022645 -0.109303 0.378317 -0.899878
-0.064728 0.373748 -0.120602 -0.339061 -0.080335 -0.936792
0.137507 0.175632 0.09172 0.680657 0.020111 0.732237
-0.018918 0.234655 -0.12831 -0.081768 -0.108866 -0.990263
-0.084307 -0.682407 0.029032 0.137219 -0.367962 0.914809
0.148404 -0.345615 0.078275 0.18756 -0.034839 0.981427
0.035968 -0.197119 -0.037952 -0.677585 -0.281438 -0.624623
-0.001424 0.580288 -0.095491 -0.070821 0.56929 -0.817976
0.193183 -0.32779 0.050315 0.916633 -0.082519 0.39099
0.180638 0.241007 -0.027701 0.960391 0.00726 -0.264868
-0.050621 -0.863964 0.036234 0.008918 -0.999752 -0.017176
-0.072707 -0.32557 -0.08371 -0.448939 -0.030339 -0.89075
-0.506858 0.114554 0.008888 -0.132369 -0.7372 -0.66019
0.041195 0.65407 0.050654 0.134221 -0.871988 0.420998
0.19465 0.431001 -0.130659 0.216317 -0.329145 -0.917853
-0.129174 -0.62602 -0.054908 -0.998942 -0.015903 -0.039828
0.207775 -0.096474 -0.029282 0.933956 0.058581 -0.351971
-0.093719 -0.228891 -0.072241 -0.73007 -0.038213 -0.682264
-0.021488 -0.842526 -0.035094 0.918738 -0.391358 -0.006844
0.195782 -0.119358 -0.057071 0.806067 0.013064 -0.58983
0.006814 -0.127064 -0.06636 0.778751 -0.198655 -0.593576
0.58364 0.129814 0.039788 0.748174 0.660525 0.055574
0.140028 -0.869321 0.116654 0.054708 -0.998026 0.026632
0.135513 0.086218 -0.118764 0.639282 0.235116 -0.731575
0.05063 0.211156 -0.122223 -0.111384 -0.402728 -0.906053
0.027363 -0.234459 0.043517 0.979693 -0.019076 0.199205
-0.044473 -0.775704 -0.139786 -0.025612 0.439699 -0.894017
0.095378 -0.611981 -0.086361 -0.582198 -0.082344 -0.808492
-0.079236 0.064315 0.104528 -0.541655 0.197225 0.815679
0.001546 0.596875 0.013701 -0.644901 0.119152 0.751706
0.095521 -0.652946 -0.083125 -0.599036 -0.060333 -0.798265
0.025352 -0.146903 0.077859 0.842149 -0.318073 0.434971
-0.007848 -0.831758 -0.073798 0.043882 -0.998669 -0.01043
0.45936 0.212855 -0.011573 -0.474992 0.17458 0.850895
0.181398 -0.051676 0.083257 0.725384 0.033553 0.687294
0.206196 0.041976 -0.003556 0.995274 0.067815 -0.056722
-0.123017 0.406424 0.049664 -0.785416 -0.448779 0.411609
0.201411 -0.220666 0.038226 0.952656 0.02773 0.302666
0.150384 -0.469156 0.066616 -0.173092 -0.116855 0.973829
-0.053001 0.27692 0.096762 -0.582988 0.04652 0.810209
-0.022859 0.515385 -0.122087 -0.048434 0.242267 -0.968929
0.296014 0.38839 -0.144611 -0.01987 -0.102346 -0.991745
-0.182278 0.527277 -0.008526 -0.709503 0.695565 0.109997
0.159809 -0.22619 0.086699 0.182988 -0.251193 0.950105
-0.087874 -0.015895 0.112305 -0.555989 -0.244063 0.792047
-0.128597 0.050726 0.052034 -0.900797 0.265357 0.341253
-0.134727 -0.445724 -0.03054 -0.929626 0.128572 -0.342578
-0.006243 -0.295699 0.08876 0.407027 -0.183653 0.894037
0.581922 0.054753 0.013529 -0.909854 -0.413132 0.03491
-0.225386 0.466759 -0.046949 -0.68601 0.596241 -0.416571
0.181891 -0.656375 -0.064055 0.635271 -0.266604 -0.724386
0.158664 0.004789 -0.116107 0.724355 0.110365 -0.680191
-0.268919 0.278686 -0.064238 0.730385 -0.587224 -0.339544
0.08153 -0.639535 0.01523 -0.593305 0.330533 0.725285
-0.090967 0.571831 -0.052254 -0.452004 0.811693 -0.338655
-0.034483 0.583514 -0.010472 -0.360591 0.742205 0.558784
-0.548325 0.086569 0.068217 -0.876133 0.474538 0.071696
-0.115428 0.395196 -0.097785 -0.689212 -0.248479 -0.6781
0.117932 -0.694253 0.029434 0.293044 -0.17896 0.93825
0.495366 0.170235 -0.039586 -0.454162 -0.853373 -0.217615
0.097437 0.164056 -0.115261 0.258063 0.160069 -0.952557
-0.023023 0.603977 -0.057679 -0.638497 0.702094 -0.296267
0.396617 0.284284 -0.128823 0.082919 0.004006 -0.991053
-0.081685 -0.073915 -0.103675 -0.539543 -0.236752 -0.807714
-0.113817 -0.485931 0.045815 -0.859604 -0.240554 0.450439
-0.003718 0.722019 -0.089439 -0.540011 -0.551059 -0.632067
0.494357 0.227556 -0.0125 0.456736 0.548012 0.651412
0.113877 -0.643823 0.036016 -0.03262 -0.12974 0.986369
0.311943 0.411193 -0.032238 0.71638 0.238339 0.652453
-0.003653 -0.720929 0.006126 0.779756 -0.12337 0.612867
-0.103444 0.324478 0.041149 -0.883003 -0.047413 0.459878
0.132498 0.210504 -0.102414 0.619795 -0.219381 -0.753346
-0.095598 -0.742428 -0.107588 -0.749116 0.090388 -0.655263
-0.129221 -0.615621 -0.034399 -0.998837 -0.029145 0.03522
0.21864 0.534678 -0.006895 0.363605 0.674192 0.642305
-0.328339 0.322464 -0.003769 -0.462533 0.420485 0.77542
-0.054675 0.48311 0.073401 -0.178491 0.413453 0.892735
0.161935 0.493019 0.04254 0.453016 0.391813 0.795738
0.59137 0.076558 0.057131 -0.697185 -0.597745 0.377964
0.018569 0.761411 0.077193 -0.745513 -0.059942 0.624469
0.10332 -0.86737 -0.038531 -0.242636 -0.949111 0.186826
-0.00484 0.801597 -0.107862 -0.470822 0.291062 -0.830198
-0.109198 -0.11109 -0.069207 -0.754405 -0.099019 -0.64884
0.155327 0.50736 -0.131539 0.198844 0.369592 -0.906457
-0.127766 0.002296 -0.055295 -0.925333 0.073116 -0.371174
0.17446 -0.792307 0.000409 0.790201 -0.541414 0.278072
0.163676 -0.838306 0.048172 0.831524 0.5534 0.016321
-0.085712 0.347093 0.074555 -0.786352 -0.015876 0.617012
-0.010104 -0.784463 -0.129585 0.687049 0.387032 -0.606426
0.062541 -0.74016 0.033937 -0.271797 -0.366807 0.880694
0.26519 0.367994 -0.032878 -0.551106 -0.490982 0.673033
0.145224 0.119208 0.086231 0.697584 0.013326 0.716219
-0.152695 0.432436 0.044567 -0.506551 -0.492244 0.703801
0.053795 -0.705478 0.014922 -0.975837 0.069851 0.197778
0.01774 -0.139291 0.09487 0.773628 -0.215983 0.594822
-0.079235 0.404237 -0.119485 -0.303442 -0.12453 -0.944193
0.01627 0.359909 0.111954 0.016506 0.179155 0.98328
-0.110297 0.487532 -0.110921 -0.434117 0.215987 -0.873845
0.011824 0.760228 -0.118338 -0.294455 -0.220272 -0.924239
0.265207 0.434376 -0.00972 0.041332 -0.046164 0.996239
-0.028812 -0.853678 -0.074009 0.69995 -0.672489 0.227391
-0.096899 0.438098 0.068069 -0.532518 0.073284 0.831786
0.009719 -0.792942 -0.094235 0.950802 -0.023118 -0.297042
0.144924 -0.29923 0.081152 0.133669 -0.065922 0.988111
-0.05997 -0.500626 -0.099043 -0.044043 0.084981 -0.993788
0.557645 0.162417 -0.005014 0.74223 0.660976 -0.10528
0.164468 0.123227 0.071714 0.602877 0.212497 0.768013
0.343719 0.371656 -0.132564 0.56826 0.289167 -0.769402
0.020193 -0.707726 -0.026809 0.909149 -0.128524 0.393489
0.08553 0.355312 -0.145133 -0.085257 -0.022963 -0.995811
-0.487866 0.132463 -0.015023 0.259961 -0.845954 -0.463634
0.008699 0.316101 -0.127835 0.108848 0.045224 -0.993028
-0.076024 -0.249179 -0.085837 -0.564411 -0.021814 -0.825169
-0.224164 0.326291 -0.041199 0.679779 -0.732403 -0.026366
0.175234 -0.377251 0.069691 0.442097 -0.044337 0.887667
0.369377 0.297981 -0.130336 -0.077363 -0.196641 -0.971518
0.063707 -0.739497 -0.022761 -0.860483 0.011105 -0.505434
-0.065466 -0.216115 -0.090702 -0.245064 -0.006589 -0.966141
-0.209713 0.472207 0.025887 -0.679824 0.280748 0.6757
0.190993 -0.063743 0.073327 0.759955 0.073151 0.645471
-0.107975 -0.710269 0.001594 -0.75879 -0.491101 0.42625
-0.070946 0.247228 -0.106576 -0.621406 -0.242121 -0.744844
0.168957 -0.742287 -0.057929 0.864586 -0.108547 -0.490057
-0.04959 -0.072966 -0.115933 -0.13265 -0.296237 -0.945204
0.134477 -0.680648 0.028618 0.145512 -0.143911 0.978075
0.130444 -0.83453 0.173685 0.102553 0.810163 0.538652
-0.090819 -0.715156 0.013157 -0.27958 -0.522365 0.797811
-0.086098 -0.74961 -0.117193 -0.577848 -0.010815 -0.815322
0.192132 -0.356635 -0.044642 0.690038 0.267726 -0.667351
0.301251 0.465465 -0.093753 0.677076 0.654447 -0.336287
0.014353 -0.281268 -0.045133 0.819299 -0.102983 -0.561574
0.021897 0.646448 0.038198 -0.426709 -0.480855 0.760706
-0.168412 0.381367 0.003012 0.516833 -0.686873 0.507631
0.539072 0.129403 -0.011374 -0.742781 -0.65501 -0.116246
-0.125133 0.110898 0.032767 -0.91949 0.102949 0.378907
-0.096315 -0.541919 0.059358 -0.848353 -0.079027 0.522735
0.177564 -0.077556 0.088533 0.599919 0.073991 0.777727
-0.037941 -0.863011 0.101095 0.204793 -0.968176 0.065625
0.192991 -0.683257 -0.040202 0.789342 -0.154584 -0.592064
0.10844 0.278488 0.103522 0.352791 0.042845 0.934474
0.160504 -0.406764 -0.082828 0.551901 0.094619 -0.827823
0.164567 0.434058 0.053838 0.6272 0.109669 0.769984
0.070226 -0.647854 -0.059821 -0.716966 -0.134636 -0.683961
-0.127339 0.196438 8.7e-05 -0.986014 0.138888 -0.063883
-0.030766 0.034679 0.130373 -0.222803 0.195754 0.953491
-0.073945 -0.800159 -0.137148 -0.64495 -0.133085 -0.744266
0.066104 0.648149 0.026444 0.662091 -0.343497 0.665458
-0.393766 0.239381 0.011194 -0.037558 0.185891 0.98123
0.174623 -9.5e-05 -0.095298 0.836081 0.09158 -0.540047
-0.018072 -0.305372 -0.077695 0.670862 -0.115714 -0.732436
0.199948 -0.467229 -0.017813 0.999721 -0.00243 0.017233
0.215621 0.401151 -0.081546 -0.905358 -0.420571 -0.004248
0.198467 -0.469692 0.001234 0.986599 -0.017659 0.15773
-0.145973 0.552787 -0.004429 -0.491669 0.84872 0.130594
-0.294285 0.34977 -0.085664 -0.534073 0.491007 -0.687189
-0.128936 -0.389839 -0.023675 -0.966596 0.10346 -0.232988
0.049356 0.618037 0.025985 0.27829 -0.189348 0.933517
0.178387 0.121067 0.057297 0.773189 0.15686 0.613704
0.050995 0.694344 -0.077934 0.216433 -0.599749 -0.769591
-0.085743 -0.257057 0.110726 -0.158019 -0.040989 0.986504
-0.022626 -0.82183 -0.141376 0.607579 -0.353326 -0.701192
-0.181061 0.500985 0.038569 -0.564619 0.461932 0.681505
0.142311 0.205567 -0.090688 0.746216 -0.078741 -0.659903
-0.059911 -0.049925 0.126582 -0.293867 -0.08196 0.949137
-0.079902 -0.55842 0.0612 0.440788 -0.175386 0.879474
0.015257 -0.069824 -0.106982 0.012963 -0.690587 -0.721606
0.044266 -0.254516 0.039724 -0.961162 -0.034837 0.259501
0.102665 0.781156 -0.057867 0.936732 0.017461 -0.337813
0.031347 -0.170886 0.042625 0.705963 -0.330228 0.610158
0.106224 -0.539163 -0.103124 -0.405108 -0.065732 -0.910478
-0.539874 0.078719 0.087854 0.48357 -0.272458 0.739626
-0.090341 0.151521 0.077396 -0.693521 0.010127 0.719753
-0.080284 0.309172 -0.107209 -0.652064 -0.049316 -0.756101
-0.135626 -0.505382 -0.003239 -0.960518 -0.105793 0.238958
-0.128351 -0.380652 0.022534 -0.986992 0.124529 0.070221
-0.308337 0.275845 0.005919 0.185155 -0.083372 0.96942
0.022545 -0.712363 -0.035905 0.942495 -0.13547 0.301539
0.095316 -0.341922 -0.098064 -0.343062 0.007164 -0.934817
-0.135921 0.458313 -0.102601 -0.463895 0.047903 -0.88396
0.000515 0.417031 0.10146 0.125134 0.274379 0.953298
-0.052059 -0.558921 0.049927 0.370455 -0.173613 0.912014
-0.143449 -0.090042 0.02933 -0.991572 0.023676 0.123161
0.012965 0.727764 0.080475 -0.799962 0.150414 0.580393
0.447838 0.201347 -0.086877 0.679757 -0.560856 -0.289536
0.501108 0.164726 -0.025417 -0.592547 -0.803578 -0.051217
0.348413 0.407849 -0.117358 0.767425 0.444449 -0.449477
0.019419 0.09378 -0.13884 -0.18264 0.23742 -0.954063
0.183673 -0.170801 -0.067432 0.651734 -0.005261 -0.757846
0.004304 0.118911 -0.127683 -0.11578 0.368319 -0.921948
0.102643 0.527304 -0.129772 0.007374 0.302641 -0.950747
-0.171869 0.407182 -0.093873 0.228955 -0.167206 -0.958136
-0.131447 0.054032 0.040508 -0.911099 0.309346 0.271422
0.168734 -0.064643 -0.100046 0.780216 -0.08055 -0.62028
-0.366739 0.201077 -0.028602 0.641536 -0.766157 -0.032067
-0.023325 -0.603272 0.026555 0.189542 -0.136083 0.971733
-0.057823 -0.093212 0.123919 -0.285212 -0.020644 0.957764
-0.229393 0.469099 -0.030339 -0.786972 0.611012 -0.07965
0.205416 -0.170978 -0.037946 0.965456 -0.009295 -0.255567
0.051196 -0.56621 -0.046051 -0.843206 -0.036003 -0.535861
0.142426 -0.301026 -0.083813 0.590515 -0.00839 -0.806714
0.089211 0.168819 0.118513 0.421051 0.052406 0.903155
0.135454 -0.11644 -0.116448 0.462039 -0.242623 -0.852865
0.167427 -0.56088 0.042365 0.279155 -0.197664 0.934588
-0.347946 0.311381 -0.010964 -0.493583 0.551714 0.664006
-0.136011 0.557766 -0.028627 -0.367304 0.917158 -0.115508
