-0.129246 -0.613766 -0.05597 -0.996896 -0.014893 -0.065309
0.061932 0.419596 0.094384 0.196676 0.302699 0.930173
-0.038717 0.59141 -0.039584 -0.475459 0.871834 0.080526
-0.1286 -0.371219 -0.00453 -0.999762 0.008286 -0.00936
0.272796 0.447577 -0.132837 0.230299 0.524359 -0.819326
0.004126 0.415474 -0.12833 0.062523 0.024505 -0.997544
-0.075035 -0.359308 0.100407 0.165671 -0.19731 0.966105
0.554542 0.155303 0.043036 -0.25243 0.10147 0.957381
0.135684 -0.868141 -0.037014 0.05404 -0.99395 0.0848
0.162721 -0.0519 -0.109687 0.721455 -0.192953 -0.664007
0.023669 -0.161087 0.072005 0.868247 -0.238652 0.434394
-0.5058 0.105467 0.080704 0.600549 -0.267321 0.7498
-0.093824 -0.732645 -0.108111 -0.763911 0.088256 -0.63907
0.254359 0.46256 -0.128973 0.218239 0.396005 -0.89031
-0.135868 -0.214762 0.009618 -0.991132 -0.060051 -0.112602
0.102699 0.421233 -0.146077 -0.033516 -0.016431 -0.99901
0.089321 -0.845326 0.115044 -0.874964 0.457006 0.152345
0.104331 0.771608 -0.002998 0.984245 -0.04351 0.155444
-0.02475 -0.03054 0.132763 -0.047268 0.149122 0.986112
0.197131 0.381412 -0.084817 0.949073 -0.233053 -0.207539
0.091518 -0.253235 0.084441 -0.254247 -0.131898 0.957473
0.076543 0.73629 0.067117 0.629139 0.122092 0.767362
0.097073 0.71434 0.016317 0.840971 -0.369334 0.220763
0.261648 0.51564 -0.054184 0.718767 0.695141 0.009401
0.10844 0.278488 0.103522 0.352791 0.042845 0.934474
-0.326596 0.227455 -0.014669 0.6648 -0.716723 0.194331
-0.022804 -0.06236 0.130449 0.021162 -0.102465 0.994158
0.199937 -0.45843 -0.028532 0.999214 0.002459 -0.033975
0.014865 -0.348809 -0.037916 0.783774 -0.038736 -0.61675
0.146866 -0.829829 0.118907 0.406896 0.901482 0.126165
-0.161785 0.418558 0.032013 -0.187287 -0.401448 0.887141
0.216305 0.40385 -0.054192 -0.873425 -0.463063 0.133604
-0.019758 0.55007 0.038456 0.041675 0.838562 0.533922
-0.129296 -0.043182 0.071024 -0.847529 0.055313 0.525335
0.07546 -0.756152 0.01675 0.112883 -0.638159 0.744338
0.261714 0.515136 -0.044062 0.73 0.672294 0.097955
0.008612 -0.160344 -0.05816 0.811739 -0.016532 -0.58302
-0.111993 0.250778 -0.044228 -0.997552 0.041769 -0.049628
-0.10337 -0.827957 -0.004657 -0.97989 0.189362 0.047151
0.183163 -0.179913 0.083593 0.67212 -0.088322 0.734008
0.165215 0.122142 -0.073506 0.805248 0.201251 -0.554417
0.211606 -0.00978 0.010046 0.928915 0.341811 -0.031323
-0.02402 -0.787884 -0.142487 0.392813 0.407445 -0.822547
-0.003215 -0.698533 0.013717 0.803188 -0.19878 0.560628
-0.108218 0.063161 -0.077701 -0.826217 0.123671 -0.54933
-0.485443 0.141066 -0.028824 -0.123487 -0.741208 -0.596772
-0.012735 0.553101 0.029556 0.148845 0.807607 0.560457
0.072973 -0.626723 -0.066473 -0.660213 -0.098563 -0.744535
0.075926 -0.691517 -0.059707 -0.843758 -0.08159 -0.529821
-0.053801 0.430268 0.091059 -0.187075 0.228252 0.955035
-0.271588 0.272033 -0.042205 0.725619 -0.685068 0.048994
0.048672 -0.381251 -0.049413 -0.907487 0.001823 -0.393711
0.176263 -0.035351 0.08778 0.69863 0.021041 0.715118
0.023756 0.562822 0.02669 -0.015908 0.10788 0.993543
-0.054994 0.14043 0.105443 -0.53052 0.066398 0.844916
-0.079651 0.355185 0.082874 -0.742199 -0.057441 0.666186
0.092684 -0.392919 0.054397 -0.521749 -0.218568 0.824495
0.060319 -0.401956 -0.063818 -0.748023 -0.027644 -0.663072
-0.015869 -0.832201 -0.038718 0.36645 -0.917459 0.005968
-0.154551 0.429224 -0.093968 0.077441 -0.104592 -0.990425
0.075787 0.099406 -0.142543 0.088761 0.40708 -0.905701
0.088884 0.768673 -0.089806 0.825318 -0.023511 -0.561374
-0.128026 0.182541 0.015444 -0.991913 0.046513 0.111881
0.206926 -0.068249 0.046869 0.930663 0.072916 0.358381
-0.057983 -0.163955 0.121845 -0.145875 0.008066 0.988517
-0.091152 -0.816507 0.038361 -0.803214 0.509402 0.299049
-0.207537 0.498665 -0.003595 -0.757529 0.64051 0.115414
0.143251 -0.664615 0.029554 0.142839 -0.158438 0.976863
-0.084405 -0.836042 0.141662 -0.461568 0.804851 0.369895
0.100117 0.261641 0.107186 0.357214 0.071592 0.930179
0.180065 0.563492 -0.026351 0.308868 0.864661 0.37544
0.119666 -0.869486 0.041222 -0.009846 -0.999436 -0.031202
0.03824 -0.211399 -0.031386 0.431143 0.258904 -0.71787
-0.105419 -0.441472 0.077159 -0.742801 -0.112946 0.65934
-0.235952 0.31601 -0.022345 0.72288 -0.665827 0.17743
-0.060341 0.23085 0.095289 -0.557539 0.093824 0.823507
0.007468 -0.573246 -0.05857 0.790641 -0.005505 -0.612064
0.167902 -0.073773 0.096619 0.613671 0.053372 0.786596
-0.09333 0.195916 0.076013 -0.672915 -0.003888 0.739479
0.167359 -0.809691 0.013144 0.961653 -0.112182 0.220707
-0.034935 0.386125 0.105198 -0.120379 0.084256 0.98802
0.26917 0.362359 -0.122867 -0.376437 -0.739094 -0.553032
0.199376 0.070858 0.024256 0.97135 0.209609 0.105907
-0.089301 0.050814 0.101328 -0.463654 0.179164 0.866388
0.204642 -0.312986 -0.010949 0.980048 -0.025358 -0.187573
-0.195304 0.431007 -0.09258 -0.159178 0.277577 -0.947217
-0.119205 -0.118934 -0.056003 -0.787877 -0.085438 -0.609613
0.530514 0.139206 -0.017584 -0.701559 -0.694878 -0.130611
0.073224 -0.195781 0.084564 -0.555719 -0.063859 0.82863
-0.060094 -0.686301 -0.112185 0.010816 0.214743 -0.971417
0.082086 -0.776642 0.028296 -0.143423 0.860248 0.483541
0.135684 -0.842239 0.180538 0.11889 0.632644 0.733311
0.243691 0.473574 0.001756 0.394641 -0.055464 0.91489
0.017806 0.724514 0.08884 -0.800357 0.080997 0.58572
-0.067767 0.58218 -0.048967 -0.303802 0.942608 -0.0712
0.04722 -0.181298 0.060881 -0.861857 -0.043644 0.503742
-0.039262 0.775006 -0.036081 -0.989121 0.110513 -0.076349
-0.136068 -0.230406 0.028298 -0.999014 -0.041648 -0.000731
0.155892 -0.781316 -0.097602 0.572725 0.387061 -0.722472
0.350111 0.361402 -0.058309 0.594179 0.543322 0.587732
-0.008124 0.442852 -0.129362 0.10155 -0.006782 -0.994772
0.03686 -0.119467 0.081196 0.641543 -0.576308 0.496313
0.294853 0.337188 -0.119413 -0.599332 -0.560973 -0.567578
-0.123344 -0.116453 0.083886 -0.837589 0.032524 0.544503
0.629199 0.039524 0.03652 -0.856056 -0.50836 -0.078948
0.120261 0.030797 -0.144651 0.480903 0.101201 -0.870274
0.108523 0.744312 -0.013736 0.97729 0.098634 0.075504
0.199721 -0.231124 0.044662 0.947819 0.03567 0.316455
0.07048 -0.76502 0.012068 0.352356 0.137792 0.906027
-0.013223 0.27186 0.11627 -0.356492 0.05493 0.932019
-0.096763 0.364876 -0.103277 -0.50021 -0.22467 -0.835384
0.142517 -0.869061 0.04457 0.155754 -0.980809 -0.043612
-0.016111 -0.62836 0.022292 -0.016246 0.056282 0.996079
0.080382 0.446115 0.086224 0.124275 0.299574 0.945646
0.14241 -0.20166 0.094132 0.02968 -0.151152 0.982693
0.178611 0.346568 0.031736 0.852347 -0.108106 0.505067
-0.106795 0.52727 0.044555 -0.016804 0.577041 0.816269
0.203471 -0.03266 -0.035711 0.941813 0.022221 -0.333513
-0.112636 -0.706963 -0.006459 -0.883465 -0.367604 0.276942
-0.111858 -0.846701 0.065512 -0.923276 0.191153 0.06928
0.057811 -0.199073 0.071461 -0.679138 -0.108736 0.725665
0.089794 -0.52744 0.027876 -0.548479 0.039895 0.834022
0.210257 0.490129 0.019031 0.239081 0.200027 0.94726
0.021596 0.455237 0.090718 0.088903 0.275612 0.956876
0.002582 -0.625224 0.018601 0.426811 0.099143 0.889979
0.019011 -0.44947 0.0197 0.906702 -0.009624 0.418097
-0.089899 -0.197488 -0.077281 -0.689981 -0.025768 -0.72333
0.019419 0.09378 -0.13884 -0.18264 0.23742 -0.954063
-0.127114 -0.354085 0.035907 -0.994542 0.047536 0.089531
-0.128613 -0.633816 -0.061277 -0.99443 -0.024864 -0.09618
0.087765 0.609055 -0.013636 0.872483 0.212344 0.423624
0.012744 -0.293434 -0.045213 0.79688 -0.092364 -0.595729
0.177048 0.146057 -0.045485 0.888638 0.017607 -0.456603
0.176438 -0.219262 -0.071176 0.605917 -0.001009 -0.795263
0.110477 0.513867 0.04899 0.295286 0.537839 0.787949
-0.133568 -0.463354 -0.039127 -0.896905 0.078299 -0.43377
0.002498 -0.047365 -0.127323 0.044378 -0.554169 -0.830922
0.182752 0.23573 0.005035 0.999664 -0.012964 0.02014
0.005001 -0.195845 -0.064806 0.727736 0.040632 -0.684231
0.041401 0.869072 0.00542 0.07026 0.970751 0.183088
0.184383 -0.779794 -0.029586 0.970274 -0.234403 -0.003338
0.06885 -0.357003 0.050012 -0.634677 -0.307761 0.707378
0.009193 0.547024 0.034048 0.083253 0.707754 0.700038
-0.081497 -0.829569 0.119276 -0.317714 0.928786 0.170961
-0.024194 -0.8545 0.06378 0.927374 -0.291868 0.050448
-0.148737 0.451155 0.056306 -0.333319 -0.265265 0.902286
0.146184 -0.336315 -0.082085 0.616599 0.023613 -0.786907
0.182092 0.337422 0.023353 0.89907 -0.108445 0.423973
-0.125043 -0.169282 0.084098 -0.820964 0.003508 0.570828
-0.00548 0.240618 -0.129131 0.057234 -0.056572 -0.995764
-0.150402 0.540633 -0.053779 -0.459718 0.765653 -0.448693
0.070086 0.861587 -0.003399 0.483237 0.870245 0.082333
-0.002575 0.78554 0.074292 -0.57172 0.178558 0.791126
-0.120749 -0.533795 -0.069553 -0.789591 0.109417 -0.603743
0.347075 0.382926 -0.09573 0.900768 0.408874 0.105868
0.052277 0.4389 -0.133762 -0.399348 0.014734 -0.91513
-0.124628 0.064431 0.050716 -0.901708 0.256884 0.344801
0.146971 -0.869147 0.091164 0.251299 -0.963362 0.008355
-0.042027 -0.222986 -0.091688 0.126328 0.008242 -0.991018
0.289014 0.350527 -0.124713 -0.556785 -0.473445 -0.681857
0.214081 -0.1048 -0.00813 0.995052 0.03117 -0.090082
0.190384 0.540083 0.00034 0.273573 0.642051 0.715042
0.123752 -0.365835 -0.098288 0.363574 0.090238 -0.924084
0.207462 -0.017613 -0.017789 0.974074 0.055402 -0.21828
-0.35872 0.305419 -0.013687 -0.500232 0.727771 0.461273
0.180173 -0.683957 -0.052951 0.713923 -0.236883 -0.657727
0.184032 0.514257 -0.124365 0.129121 0.51553 -0.84649
-0.130536 0.051766 -0.032064 -0.95704 0.13591 -0.255676
0.022545 -0.712363 -0.035905 0.942495 -0.13547 0.301539
0.072057 -0.061067 -0.13624 -0.220575 -0.382122 -0.896626
0.201214 -0.187759 0.039381 0.950162 -0.013272 0.311424
0.099149 -0.858424 0.000204 -0.744402 -0.654329 -0.128826
-0.04503 0.238265 -0.122198 -0.541378 -0.15333 -0.826074
0.149947 -0.1007 0.108844 0.487794 -0.012872 0.87276
0.103782 -0.634875 -0.090218 -0.477617 -0.059705 -0.875414
-0.030071 -0.303956 -0.08621 0.449624 -0.11371 -0.885863
-0.27468 0.278603 -0.016614 0.607019 -0.64382 0.463474
-0.01181 0.354151 0.110022 -0.374593 0.168602 0.905184
0.614869 0.056432 0.078699 -0.780643 -0.615541 0.064349
0.104038 -0.832618 0.147978 -0.766194 0.594545 0.179613
0.156089 -0.260268 0.082327 0.158392 -0.076586 0.984349
0.006173 0.513616 -0.122812 0.021351 0.131535 -0.990634
-0.112977 0.159036 0.049913 -0.838558 0.033748 0.541215
0.079719 0.787796 -0.099184 0.687536 0.079661 -0.721334
-0.212267 0.344953 -0.072438 0.50224 -0.702697 -0.501462
0.216977 0.472081 0.018542 0.283635 0.012207 0.954981
-0.274692 0.346884 -0.096356 -0.189965 0.063398 -0.975764
-0.125549 -0.640255 -0.074452 -0.89051 0.008962 -0.443032
0.131234 0.585648 -0.050901 0.552474 0.810211 0.163113
0.039514 0.167328 0.130651 0.063479 0.059143 0.996205
-0.065363 -0.187029 -0.092567 -0.336576 -0.116784 -0.932864
-0.063512 -0.036132 0.126332 -0.340958 0.032755 0.936628
0.396646 0.237654 -0.049082 -0.521057 -0.732198 0.428949
0.008883 -0.379764 0.057443 0.832313 -0.113344 0.541248
-0.075929 -0.46965 0.078582 0.268718 -0.150406 0.950054
0.183673 -0.170801 -0.067432 0.651734 -0.005261 -0.757846
0.19036 0.086004 -0.049599 0.87749 0.169726 -0.442029
0.006757 0.863266 -0.015561 -0.13658 0.98518 -0.002815
0.153471 0.205369 -0.078217 0.766788 -0.005218 -0.641441
-0.119703 0.317853 -0.048604 -0.992093 -0.088023 -0.075961
0.0657 0.714372 -0.086336 0.456735 -0.557102 -0.691432
0.014683 0.80722 -0.113195 -0.183426 0.335973 -0.917177
0.18926 -0.66715 0.008878 0.852903 -0.066762 0.5027
0.107996 0.201147 -0.115961 0.445572 -0.374153 -0.811032
0.013708 0.750853 -0.115702 -0.290918 -0.359491 -0.884321
-0.387712 0.248262 0.009446 -0.092252 0.240714 0.963658
0.105551 -0.759804 -0.091689 -0.774522 0.008365 -0.561358
0.071913 0.816041 0.05954 0.727111 0.380618 0.558224
-0.05252 -0.062795 0.127592 -0.192865 -0.048181 0.979369
-0.164611 0.46832 0.054023 -0.459688 -0.07594 0.884512
-0.007859 -0.624683 -0.075545 0.667048 0.016909 -0.744819
0.038194 -0.35341 -0.027737 -0.974716 -0.062994 -0.19982
-0.132606 -0.573939 -0.048114 -0.959448 -0.080261 -0.249875
-0.12845 0.181002 0.005921 -0.99891 0.029951 0.004806
-0.018856 -0.832695 -0.117537 0.49329 -0.857499 -0.122782
-0.095967 0.129836 -0.077417 -0.734004 0.138129 -0.664345
0.199927 -0.425041 -0.031131 0.987571 -0.025205 -0.153221
0.406213 0.312515 -0.115075 0.576421 0.498444 -0.647513
0.204828 -0.248441 0.02052 0.997833 0.018374 0.060621
-0.00792 0.579608 0.011466 -0.537529 0.309699 0.782818
-0.058954 -0.41427 -0.084016 -0.142444 0.22402 -0.960502
-0.016863 -0.115605 0.123498 0.255652 -0.13361 0.956356
0.2054 -0.24822 0.00311 0.999827 0.00109 0.002517
-0.239937 0.404509 0.02301 -0.480798 0.09626 0.86978
-0.113242 0.490124 0.06024 0.005266 0.158505 0.986435
0.370453 0.358862 -0.088881 0.699027 0.697026 0.143024
0.061571 -0.229975 -0.073558 -0.730775 -0.117183 -0.672031
0.076359 0.006277 0.137849 0.250692 0.051496 0.961261
0.161267 0.250106 0.058416 0.721345 0.084445 0.68586
-0.113073 0.345708 0.027913 -0.923031 -0.197828 0.326876
0.124209 -0.869917 0.056795 -0.00043 -0.999856 -0.016214
-0.068011 0.038581 0.1137 -0.396201 0.234742 0.886028
-0.081199 -0.848273 0.156554 -0.532125 0.011169 0.760314
0.023321 -0.29185 0.053602 0.908156 -0.037904 0.416302
-0.207571 0.492553 -0.043156 -0.711676 0.559365 -0.421825
-0.088934 0.435675 0.074492 -0.621665 0.11372 0.774831
0.057096 0.148007 0.129344 0.12056 0.030211 0.992241
-0.140849 -0.121022 -0.014316 -0.935595 -0.083222 -0.339784
-0.276681 0.386694 -0.083227 -0.564808 0.38648 -0.72283
0.117932 -0.694253 0.029434 0.293044 -0.17896 0.93825
0.201244 0.014815 0.055007 0.917833 0.075976 0.386387
0.19065 -0.512698 0.02928 0.916097 -0.046198 0.3964
0.106643 -0.47171 0.039774 -0.662059 -0.043721 0.748029
-0.02203 -0.848132 -0.094879 0.984622 -0.127215 0.032227
0.181656 -0.429586 -0.068262 0.736852 0.154311 -0.657843
0.546604 0.194526 -0.02836 0.967461 -0.232494 0.069082
0.192077 0.085458 0.034659 0.949002 0.260099 0.170932
0.052337 -0.463781 -0.004177 -0.798328 -0.026902 0.593082
-0.118136 -0.66448 0.00818 -0.96395 -0.186091 0.189633
-0.334501 0.333959 -0.039149 -0.676604 0.735575 0.031753
-0.025077 -0.794083 0.038862 0.688137 0.503369 0.516122
0.01594 0.074342 0.136362 0.202724 0.058439 0.977369
-0.496267 0.153238 -0.014937 -0.773013 0.610855 -0.152421
0.183789 -0.571231 -0.074159 0.742472 -0.032529 -0.66881
-0.38359 0.227891 0.011528 0.084119 0.030935 0.995837
0.379212 0.316406 -0.048149 0.276823 0.420572 0.863725
-0.034429 -0.093674 0.128021 -0.038004 -0.035188 0.997577
0.1228 -0.677661 0.030521 0.115599 -0.07931 0.989173
-0.447848 0.216469 -0.027291 -0.742681 0.653167 -0.095283
0.224334 0.452363 -0.133747 -0.030004 -0.000776 -0.997889
-0.107535 -0.022958 -0.091232 -0.816338 -0.061244 -0.574299
-0.020987 0.174034 0.122611 -0.449152 0.008766 0.89295
0.125334 -0.1771 0.099916 0.085744 -0.299614 0.948159
0.064319 -0.168657 0.079666 -0.613992 -0.029542 0.787362
0.171787 -0.5901 0.033181 0.557206 -0.312326 0.766582
0.083021 0.13169 -0.127437 0.152621 0.323452 -0.933152
-0.058843 -0.757618 0.019406 0.247536 0.122648 0.939685
0.155134 -0.229139 -0.08448 0.522688 -0.129174 -0.842501
0.098725 -0.137404 -0.115173 -0.151293 -0.247013 -0.953195
0.133281 0.355749 0.084711 0.568511 0.037603 0.821371
-0.443614 0.211721 0.006192 -0.595346 0.495891 0.625699
-0.388889 0.187631 -0.002014 0.666034 -0.738751 0.090689
0.093919 -0.352251 -0.097622 -0.405784 -0.015574 -0.913368
0.149619 -0.21856 -0.089727 0.519734 -0.130113 -0.844079
0.164842 -0.842414 0.116827 0.773466 0.627381 0.073846
0.034365 0.684467 0.089982 0.027365 0.099879 0.977287
0.112327 0.590307 -0.037537 0.390197 0.865915 0.304519
-0.111077 0.535775 0.038086 -0.035742 0.647013 0.760796
0.399451 0.321638 -0.114065 0.591353 0.519205 -0.616158
0.201196 -0.186592 -0.047951 0.867297 0.026694 -0.495701
-0.11926 -0.60003 0.010474 -0.914961 0.033455 0.400744
0.145579 0.238012 0.078802 0.737505 0.054563 0.673049
-0.124289 0.370905 -0.002678 -0.939162 -0.310829 0.133438
0.035925 0.156015 0.13145 0.041749 0.058329 0.996954
-0.060921 0.484914 -0.12785 -0.102165 0.201441 -0.973821
0.032141 -0.138628 -0.06286 -0.858515 -0.345056 -0.378786
0.124883 -0.521484 -0.108119 -0.040507 -0.00446 -0.998957
0.031933 0.852773 -0.072609 -0.032899 0.839273 -0.541305
0.005758 0.858459 -0.049242 -0.410585 0.824788 -0.385714
0.010109 -0.810988 -0.064381 0.955831 -0.254452 0.113989
0.196484 0.108712 -0.018092 0.959179 -0.102853 -0.238914
0.206089 -0.222962 0.009129 0.998232 -0.042462 0.039641
-0.100518 0.200333 0.069438 -0.693176 -0.011309 0.719621
0.280959 0.372771 -0.137881 -0.215509 -0.508817 -0.828454
-0.17757 0.371394 -0.001051 0.543304 -0.673013 0.500618
0.072306 -0.416143 0.025507 -0.701276 -0.353543 0.618969
-0.492593 0.157104 0.045392 -0.653615 0.729532 0.189752
0.017433 -0.238695 0.077287 0.918109 -0.047909 0.38956
-0.013765 -0.743604 0.001884 0.272156 -0.73003 0.620083
-0.032337 0.400451 0.1039 -0.148876 0.162004 0.973258
-0.109745 -0.060707 0.096886 -0.705673 0.029429 0.707858
-0.565392 0.049535 0.052184 -0.950847 0.228545 0.178167
0.002139 -0.827882 -0.038705 0.907513 -0.392903 0.138503
0.15486 -0.748417 0.026097 0.310118 0.541508 0.668946
-0.10781 -0.248213 0.102329 -0.607432 -0.023257 0.78903
0.161141 -0.817516 0.02589 0.926038 -0.155058 0.315839
-0.132632 -0.391533 0.016899 -0.903518 0.391986 0.157809
-0.013953 -0.548986 0.034045 0.505173 -0.191723 0.841432
-0.109198 -0.11109 -0.069207 -0.754405 -0.099019 -0.64884
0.012755 -0.118458 -0.063374 0.665622 -0.384617 -0.633942
0.15085 0.299685 -0.100789 0.817979 -0.133997 -0.558961
0.056614 -0.324692 0.04776 -0.702481 -0.206315 0.679325
0.582798 0.082496 -0.009265 0.589694 0.361285 -0.716335
0.203944 -0.078624 -0.036462 0.93367 0.067392 -0.351058
0.186899 0.040793 -0.069941 0.866016 0.117081 -0.485538
0.15966 -0.82965 0.053706 0.893773 0.442884 0.06293
0.046739 -0.431329 -0.00753 -0.846098 -0.115582 0.510526
0.050181 -0.251152 0.052688 -0.830265 -0.075458 0.551164
-0.134665 0.047982 0.032745 -0.968848 0.185326 0.150174
0.197165 0.381202 -0.013504 0.986657 -0.113933 0.111457
0.162192 -0.707439 -0.073312 0.72948 -0.021981 -0.682664
0.063983 0.808551 0.069303 0.498238 0.428356 0.753368
0.049637 -0.226908 0.056647 -0.843489 -0.138273 0.51615
-0.09256 -0.259583 -0.071106 -0.729581 -0.054275 -0.681558
0.073945 0.548997 -0.120574 -0.104699 0.392632 -0.910862
0.014248 -0.754974 -0.027689 0.7246 -0.384421 0.570871
0.091268 0.795039 -0.083108 0.861493 0.117771 -0.492385
0.100181 0.495743 -0.138746 -0.130618 0.293249 -0.94302
-0.114793 -0.54263 0.027844 -0.866532 -0.092462 0.489177
-0.120362 0.183453 0.035732 -0.888527 0.058974 0.4531
0.099294 0.346137 0.099359 0.292982 0.113129 0.948271
0.218438 0.414288 -0.120608 -0.679298 -0.444002 -0.580898
-0.007919 -0.380753 0.07676 0.588752 -0.22559 0.775575
0.084743 0.148328 -0.121539 0.145032 0.227483 -0.962589
0.065047 -0.696747 -0.042027 -0.790184 -0.2003 -0.578711
-0.112273 0.255258 -0.017544 -0.99876 0.037693 -0.007319
-0.048361 0.586866 -0.026618 -0.391992 0.780066 0.448384
-0.184315 0.50784 0.029614 -0.652389 0.528285 0.542165
0.194661 -0.51126 0.018505 0.93695 -0.019514 0.348777
-0.128638 -0.56249 -0.010418 -0.966789 -0.100787 0.234766
0.185231 0.552955 -0.0882 0.312687 0.751396 -0.580739
-0.011174 0.658727 -0.028251 -0.975772 -0.028039 -0.189541
-0.138278 -0.478531 -0.025433 -0.968653 0.037195 -0.240448
0.025909 0.342003 -0.126395 -0.068449 -0.043638 -0.995383
0.191621 0.122694 -0.024981 0.857168 0.202766 -0.472762
0.00065 -0.162357 -0.067988 0.768777 -0.018195 -0.639116
0.460069 0.193803 -0.015391 -0.559857 -0.806623 0.133181
0.049234 -0.583924 -0.016536 -0.904251 -0.095459 0.416027
-0.130375 -0.190188 0.074637 -0.893998 -0.033296 0.44651
0.061181 -0.51829 0.004676 -0.687232 -0.031173 0.725315
-0.068629 0.457936 -0.129198 -0.170512 -0.00246 -0.984964
0.066152 0.098722 0.130778 0.192534 -0.031903 0.973751
0.192678 0.404286 -0.117221 0.493126 -0.480175 -0.721692
-0.255793 0.386459 0.0178 -0.378741 0.138031 0.911422
0.12597 -0.291095 0.082672 -0.001692 -0.05662 0.99827
-0.458157 0.136229 0.003925 0.55562 -0.823377 -0.04342
0.113008 -0.754425 -0.09632 -0.436281 -0.007431 -0.894155
0.410466 0.301191 -0.119959 0.482697 0.462662 -0.742451
-0.092084 -0.208376 0.111066 -0.194697 -0.046828 0.979693
0.059177 -0.43227 0.0047 -0.634188 -0.222741 0.739616
0.017429 -0.196062 0.081708 0.920752 -0.056765 0.367694
-0.395313 0.183997 -0.030356 0.505167 -0.847653 -0.150713
0.052928 0.265419 0.123836 0.213147 0.129689 0.968296
0.020666 0.620048 -0.070114 -0.19214 0.517392 -0.830605
0.179214 -0.593691 0.026114 0.555434 -0.330273 0.762931
0.012965 0.727764 0.080475 -0.799962 0.150414 0.580393
-0.028769 -0.860101 0.093096 0.778055 -0.541776 0.125583
0.198159 0.381679 -0.027946 0.997305 -0.057728 0.039368
-0.540185 0.095723 0.078231 -0.725607 0.654341 0.202656
0.192244 0.370906 0.005335 0.964841 -0.138345 0.222089
0.070044 -0.609214 -0.064958 -0.675668 -0.019766 -0.73691
0.197062 0.35796 -0.028936 0.986862 -0.10706 0.110122
0.01168 -0.721474 -0.078752 0.738626 0.10697 -0.665254
-0.028666 0.731211 -0.053554 -0.887977 -0.342701 -0.284949
0.114272 -0.725662 -0.097229 -0.219862 0.093478 -0.964043
0.277528 0.497071 -0.078732 0.688007 0.663955 -0.287139
-0.392379 0.280707 -0.061138 -0.737463 0.636468 -0.215756
0.126406 -0.742224 -0.099621 0.018062 0.070286 -0.992429
0.07463 -0.247855 -0.084498 -0.590279 -0.000887 -0.804841
0.194234 0.435737 0.035344 0.625686 -0.050219 0.775433
0.051939 0.782846 0.084191 0.297949 -0.000752 0.937088
0.15158 -0.818514 0.053126 0.692857 0.642189 0.297787
0.198654 0.385663 -0.039395 0.997155 -0.065056 0.022226
0.182906 -0.110909 -0.074098 0.786345 -0.081491 -0.611896
0.294085 0.327211 -0.099116 -0.686741 -0.717234 -0.11015
0.184041 -0.008042 0.076046 0.737116 -0.05863 0.67219
0.111916 0.266839 0.102655 0.413699 0.050746 0.907255
0.240333 0.418108 -0.009953 0.204743 -0.505744 0.823008
0.555443 0.150652 -0.013969 0.631642 0.118028 -0.758671
-0.1054 -0.83552 0.013217 -0.853755 0.515393 0.030616
0.065543 -0.093245 -0.118554 -0.33268 -0.489901 -0.804472
0.19793 0.054678 0.049824 0.918708 0.220204 0.317767
-0.044699 -0.379431 0.090223 0.177215 -0.157684 0.971038
0.097595 0.117105 0.117586 0.466138 0.05401 0.882111
0.63001 0.034697 0.089487 -0.872032 -0.445976 0.048461
0.015289 -0.087331 0.116394 0.570504 -0.255374 0.7803
-0.020354 0.492347 -0.127582 0.047763 0.137874 -0.989198
0.499006 0.172005 0.01594 -0.533703 -0.706515 0.440407
-0.119344 0.135941 -0.039584 -0.862089 0.12558 -0.488448
-0.126896 0.529208 -0.083508 -0.357518 0.599036 -0.715216
0.186103 -0.087827 0.081244 0.714637 0.030081 0.698744
0.122331 0.449678 0.077557 0.285082 0.352692 0.890297
0.029761 0.803876 -0.115969 -0.046988 0.304984 -0.950245
0.112993 -0.151668 0.107676 -0.293363 -0.28203 0.898368
-0.130602 -0.393539 0.028212 -0.954623 0.216226 0.196219
0.141395 -0.274048 0.082918 0.057953 -0.058227 0.996462
-0.012918 -0.008556 0.145894 -0.094472 -0.391933 0.864785
0.055152 0.441769 0.089703 0.083709 0.192799 0.977652
-0.37323 0.2905 -0.075196 -0.536442 0.585702 -0.599765
0.157328 -0.860414 -0.035394 0.579814 -0.779841 0.159468
0.000288 -0.74194 -0.005278 0.546352 -0.490832 0.676771
-0.209313 0.481082 0.021013 -0.725413 0.432663 0.525945
-0.134835 0.000639 0.057566 -0.928961 -0.24483 0.253838
0.213857 -0.116295 -0.012751 0.990043 0.001064 -0.131225
0.100132 -0.644314 -0.087442 -0.538198 -0.081887 -0.836817
0.014214 -0.339765 0.05959 0.8033 -0.154687 0.573849
-0.071896 -0.208452 -0.088915 -0.39117 -0.021733 -0.916608
0.049382 -0.616388 -0.03775 -0.926118 -0.123409 -0.341237
0.070754 -0.23904 -0.082241 -0.646526 -0.04292 -0.76102
0.076915 -0.069848 -0.133604 -0.199359 -0.401433 -0.893659
0.185908 -0.534409 -0.073636 0.750518 -0.030293 -0.659917
0.131648 -0.462283 -0.10527 0.128606 0.103699 -0.985047
0.081642 0.767785 -0.098512 0.759419 -0.04345 -0.612038
-0.126512 -0.330979 -0.02055 -0.977381 0.003709 -0.203939
-0.103184 -0.846617 0.111697 -0.889894 0.320088 0.218201
-0.085044 -0.35211 -0.076392 -0.523154 0.010785 -0.851907
-0.121114 0.194351 0.032313 -0.92675 0.098595 0.359315
-0.111338 -0.182638 -0.05281 -0.817491 -0.091359 -0.56811
0.310096 0.458272 -0.061946 0.755613 0.626493 0.175557
0.043906 -0.483666 -0.03111 -0.999716 -0.00021 0.014588
-0.116306 0.008725 0.092115 -0.785922 0.090153 0.61076
-0.029326 0.441883 -0.131117 0.05794 -0.059828 -0.996177
0.110745 0.541249 0.027051 0.410056 0.575966 0.705857
0.196394 -0.706874 -0.011225 0.951832 -0.026107 0.276413
0.163636 0.269901 -0.068676 0.875722 -0.122596 -0.465598
-0.347123 0.276762 -0.08939 -0.112094 -0.145767 -0.980892
-0.526212 0.074152 0.038777 0.553705 -0.724374 -0.403247
-0.044669 -0.859805 -0.049604 0.208416 -0.973391 0.074544
0.30685 0.314796 -0.07723 -0.691508 -0.712386 0.101642
-0.060341 0.466546 0.079267 -0.202561 0.390859 0.895021
0.167462 0.235831 0.053317 0.72475 0.063972 0.68544
-0.347643 0.289022 0.001767 -0.04876 0.287468 0.954501
0.607035 0.065642 0.047259 -0.485119 -0.863394 -0.030249
-0.115404 0.238473 -0.002864 -0.903801 0.41067 0.030274
0.154883 -0.860043 -0.025111 0.554949 -0.818891 0.125869
0.044706 -0.519024 -0.035885 -0.976905 -0.035274 -0.184927
-0.116622 0.338582 -0.074727 -0.878083 -0.207602 -0.427669
-0.216751 0.450888 0.02883 -0.666745 0.264359 0.695781
-0.10376 -0.809326 -0.096282 -0.883868 -0.248847 -0.382261
-0.07391 -0.831185 0.1385 -0.236635 0.935033 0.24845
0.011112 -0.035807 -0.133593 0.021023 -0.417053 -0.907665
0.073397 0.806881 0.062535 0.774228 0.261813 0.57242
-0.007371 0.053271 0.135461 -0.289095 0.109563 0.949724
-0.288332 0.365676 -0.003007 -0.726027 0.416125 0.545884
0.05872 0.039693 0.134683 -0.022611 0.209722 0.97722
-0.140009 -0.108433 0.046008 -0.945343 0.001551 0.325917
-0.262095 0.373478 0.017331 -0.303795 0.096116 0.944195
-0.021708 0.563907 0.017742 -0.058363 0.74928 0.65071
0.004664 -0.074564 -0.104805 0.329075 -0.629811 -0.697354
-0.095592 -0.622832 -0.099103 -0.464127 0.100198 -0.879558
-0.129569 -0.140657 -0.035195 -0.858134 -0.131939 -0.495885
-0.065688 -0.296355 0.106331 0.09956 -0.101154 0.98965
-0.221951 0.427127 -0.085614 -0.374469 0.446251 -0.811627
-0.545653 0.086002 0.01458 -0.254414 0.684991 -0.552594
0.090839 0.615205 -0.037617 0.85257 0.500972 0.063902
0.53834 0.181437 -0.039692 0.525892 -0.598184 -0.592101
0.021809 -0.457929 0.012597 0.899251 -0.029787 0.435342
0.180058 0.266042 -0.030938 0.949932 -0.00688 -0.311119
0.042916 0.196233 0.129371 0.06145 0.022628 0.997783
0.038695 0.858344 -0.063319 0.062936 0.844897 -0.530598
0.122375 -0.064849 -0.134537 0.237639 -0.28489 -0.927916
0.180795 0.558697 -0.017787 0.238947 0.819482 0.518517
0.02256 -0.39961 0.011664 0.946796 -0.222533 0.223502
0.310935 0.314723 -0.06636 -0.577403 -0.673188 0.461275
0.052057 0.602972 0.022329 0.389187 -0.08666 0.916138
0.029366 0.471039 0.084051 0.117157 0.399393 0.908679
-0.374193 0.218744 -0.070926 0.16981 -0.479036 -0.858646
-0.125113 -0.524204 0.013864 -0.845021 -0.123701 0.519629
0.031996 0.517304 -0.122713 -0.074673 0.157425 -0.984554
-0.117251 -0.288398 0.089993 -0.813666 -0.048669 0.578778
0.200605 0.53395 0.001605 0.253395 0.63743 0.727264
0.153983 0.137086 0.077673 0.692585 0.064636 0.718356
-0.036337 -0.055657 -0.122811 -0.05798 -0.380094 -0.922252
-0.005048 0.101229 0.132762 -0.28934 0.129013 0.946867
-0.089595 -0.44823 0.082257 -0.075057 -0.140071 0.985289
-0.092234 -0.75837 0.018449 -0.572371 -0.156695 0.794963
0.142311 0.205567 -0.090688 0.746216 -0.078741 -0.659903
0.063639 0.587707 -0.093612 0.070825 0.655485 -0.751718
-0.194329 0.350891 -0.016571 0.567267 -0.76223 0.308182
0.083493 -0.624724 0.013596 -0.744331 -0.171673 0.643779
-0.012356 0.79026 -0.105555 -0.641139 0.103254 -0.754861
-0.120949 -0.652423 0.00206 -0.981094 -0.123951 0.145512
0.094823 -0.094326 0.104698 -0.433997 -0.181709 0.881945
-0.136093 -0.149561 0.06095 -0.960632 0.010432 0.276191
0.122127 0.493833 0.056238 0.23275 0.533419 0.812644
-0.440286 0.151887 -0.00278 0.634927 -0.769233 0.013179
0.179156 -0.583233 0.030325 0.596242 -0.2977 0.745345
0.088966 0.569795 -0.108527 0.043139 0.639542 -0.76638
-0.006098 -0.039309 0.134113 0.017115 -0.155956 0.984738
0.19802 -0.479944 0.004185 0.977418 0.029583 0.203341
-0.101472 0.296506 -0.085087 -0.751566 -0.096693 -0.65233
0.042237 -0.208161 -0.047617 -0.95063 -0.053401 -0.30366
0.093896 0.815423 0.014437 0.805333 0.52757 0.26258
0.029904 -0.164345 0.049746 0.898319 -0.269722 0.341762
0.22172 0.545117 -0.025249 0.523876 0.759395 0.378663
-0.010189 -0.487684 0.047618 0.600301 -0.248558 0.759018
-0.235231 0.456638 -0.010297 -0.80731 0.546289 0.216327
0.104533 0.291327 0.10395 0.303712 0.080586 0.946794
0.125886 0.283812 -0.12724 0.600384 -0.048577 -0.798089
-0.154701 0.547533 -0.035318 -0.506775 0.786297 -0.337674
-0.042959 -0.139951 -0.101013 0.238768 -0.303842 -0.920977
-0.09659 0.371755 0.067618 -0.664915 -0.18691 0.723054
-0.071373 -0.497482 -0.097599 -0.180449 0.082049 -0.979555
-0.084214 -0.227724 0.111938 -0.189475 -0.047682 0.980596
-0.002772 0.486274 -0.126743 0.157583 0.120729 -0.978828
-0.109447 -0.550696 -0.084686 -0.635394 0.128345 -0.760891
0.118516 -0.283368 -0.098087 0.291658 -0.026489 -0.954472
0.192641 0.070872 0.049911 0.863043 0.26363 0.426289
-0.335172 0.224147 -0.01032 0.491344 -0.851509 0.170517
-0.128585 0.394215 -0.025174 -0.958686 -0.217164 0.003491
-0.05105 0.097282 0.112098 -0.487816 0.15216 0.859107
0.181211 0.443528 0.042562 0.499643 0.121747 0.856859
0.083224 -0.505416 -0.088924 -0.664082 -0.022386 -0.746721
0.077242 0.194977 -0.120437 -0.029942 -0.249486 -0.966806
0.040692 0.545759 -0.116262 -0.179124 0.42551 -0.885625
-0.344184 0.250665 -0.080197 0.194195 -0.411097 -0.889899
0.095845 -0.322752 -0.098108 -0.304522 0.010749 -0.947878
-0.036956 -0.861837 0.01396 0.2481 -0.955284 -0.099764
0.198205 -0.006712 0.057048 0.877291 -0.067104 0.464782
-0.055108 0.346329 0.09927 -0.471478 -0.100348 0.874188
0.201411 -0.220666 0.038226 0.952656 0.02773 0.302666
0.564538 0.153913 0.040412 0.589 0.603407 0.510985
-0.043522 0.428536 -0.129928 -0.065852 -0.077701 -0.994441
-0.450808 0.165035 0.040495 0.17267 0.535901 0.814289
-0.078048 -0.535336 -0.099487 -0.267277 0.099794 -0.958359
0.041279 0.428483 0.093755 0.116334 0.323225 0.938454
-0.120633 -0.318329 0.077504 -0.973206 -0.065672 0.219607
0.036626 0.169208 -0.118192 -0.065472 0.165382 -0.978925
-0.043105 -0.444214 -0.090552 0.194042 0.182829 -0.961645
0.095615 -0.01442 -0.153865 0.131272 -0.151711 -0.977301
0.055111 0.083291 -0.147331 -0.139252 0.314984 -0.938114
0.11718 -0.439601 0.05537 -0.562795 -0.35952 0.743334
-0.074906 -0.789932 -0.135318 -0.60465 0.231924 -0.752632
-0.056473 -0.582949 -0.103291 0.128778 0.001238 -0.990603
-0.184148 0.497644 -0.066257 -0.603607 0.463558 -0.647815
-0.131998 -0.181079 0.071953 -0.853663 -0.064639 0.515509
-0.107 0.004329 0.102623 -0.683182 0.053917 0.72114
0.192993 -0.106066 0.073038 0.782504 -0.01808 0.62053
-0.108517 0.119264 0.061366 -0.761728 0.169452 0.622384
-0.053713 0.295224 0.095663 -0.491697 0.001681 0.870063
0.373468 0.325023 -0.130176 0.390263 0.190709 -0.894261
-0.091912 -0.820153 -0.109476 -0.837773 -0.274555 -0.471725
0.145617 0.486415 0.053761 0.32842 0.526864 0.783119
0.143029 -0.542183 -0.105242 0.33939 -0.020712 -0.938877
0.161887 -0.632877 0.026017 0.263753 0.154186 0.947858
0.109658 -0.823423 0.095176 -0.218484 0.94611 0.235764
-0.132393 -0.199947 -0.01101 -0.904178 -0.111123 -0.412355
-0.040945 0.100367 0.11712 -0.520574 0.162275 0.837565
0.307955 0.450491 -0.106254 0.576577 0.649089 -0.495911
-0.147139 0.508198 0.050712 -0.20928 0.37747 0.901863
0.110094 0.464985 0.075095 0.228171 0.371085 0.899429
0.166201 -0.440759 -0.085276 0.656125 0.182819 -0.732065
-0.110131 -0.851903 0.00487 -0.791623 -0.555199 -0.117213
-0.12969 -0.235744 0.069181 -0.944388 -0.071906 0.320508
-0.104174 -0.336996 -0.059049 -0.739105 0.071752 -0.66821
-0.072278 0.113535 0.095612 -0.561481 0.237384 0.78331
0.063838 0.204543 0.12685 0.22507 0.037344 0.973232
0.007573 -0.015165 0.13636 0.037602 -0.570678 0.813735
0.155465 0.137371 -0.081943 0.768829 0.12313 -0.627366
0.161986 0.446503 0.055122 0.740307 0.081014 0.666627
-0.128936 -0.389839 -0.023675 -0.966596 0.10346 -0.232988
0.190222 0.170556 -0.011288 0.962567 0.209458 -0.147897
-0.426282 0.240459 -0.03755 -0.742598 0.662359 -0.092932
0.198845 -0.447032 0.002858 0.990137 -0.042637 0.12694
0.205416 -0.170978 -0.037946 0.965456 -0.009295 -0.255567
0.154989 -0.358174 -0.076249 0.628339 0.122615 -0.767734
0.096538 -0.865698 -0.100528 -0.719795 -0.641783 -0.245735
-0.128488 -0.293781 0.030111 -0.997254 -0.060286 0.038275
0.016472 -0.703821 -0.070117 0.816231 0.080999 -0.569977
-0.134128 -0.567231 -0.039507 -0.994838 -0.075763 -0.028558
0.131501 0.254314 -0.118354 0.688033 -0.208096 -0.694451
0.18094 -0.525429 0.043449 0.74661 -0.143941 0.645559
-0.047557 -0.050483 0.128886 -0.160152 -0.07243 0.984167
-0.467172 0.134532 0.041834 0.73277 -0.612558 0.275595
0.027197 -0.223758 0.046293 0.974138 -0.027233 0.224151
0.169003 -0.846026 0.051535 0.788524 0.613074 -0.019284
-0.002585 -0.735434 0.001346 0.635061 -0.374697 0.665979
0.105822 -0.808989 -0.115131 -0.504286 0.057394 -0.848806
0.105579 -0.558219 0.036154 -0.39928 -0.068242 0.914137
0.067291 0.777615 -0.109493 0.513295 0.008022 -0.857933
-0.006936 -0.691376 0.020804 0.645 -0.140416 0.739741
-0.191121 0.498823 0.030148 -0.649979 0.481533 0.585015
0.071336 0.059217 0.131191 0.190772 0.106219 0.970753
0.089018 -0.748245 0.02506 -0.060012 -0.62242 0.778922
0.054806 -0.116673 0.061483 -0.140448 -0.410142 0.784465
0.303515 0.420063 -0.137055 0.26998 0.451509 -0.848166
0.128925 0.178436 0.097671 0.5218 0.023226 0.852475
-0.259922 0.362562 0.018299 -0.175689 -0.121238 0.964327
0.122838 -0.440854 -0.103954 0.057477 0.060987 -0.993415
0.098772 0.792083 -0.066259 0.935744 0.105765 -0.334892
0.086707 0.461132 -0.144184 -0.189304 0.064153 -0.979537
0.023399 -0.394903 -0.015398 0.947863 -0.105824 -0.29917
0.24305 0.435162 -0.136458 -0.15539 0.059637 -0.984686
-0.197977 0.496799 0.023345 -0.737067 0.481001 0.473485
-0.112418 -0.270858 -0.043795 -0.870748 -0.004392 -0.491098
0.075061 -0.631023 0.006833 -0.526485 0.322295 0.771457
0.080862 -0.373253 -0.086686 -0.665457 -0.075012 -0.742333
-0.090718 0.467071 0.067628 -0.407718 0.189776 0.888548
0.168092 0.386815 -0.117758 0.417313 -0.408572 -0.808525
0.004675 0.504388 0.068717 0.034087 0.476354 0.877035
0.097825 0.312297 -0.141863 0.210923 -0.097604 -0.968013
-0.002516 -0.829691 -0.029462 0.440356 -0.874667 0.117397
0.026342 -0.50879 -0.004585 0.965073 -0.059319 0.206949
-0.093695 0.411137 0.073678 -0.636818 0.053203 0.768873
-0.158154 0.529728 -0.062682 -0.437166 0.693147 -0.5692
0.086173 0.254377 0.112986 0.399254 0.065544 0.91447
-0.125132 -0.373087 -0.035256 -0.915237 0.010302 -0.398708
0.117914 0.051751 -0.140965 0.514504 0.250815 -0.819704
0.076713 -0.425733 0.025142 -0.697524 -0.349624 0.625356
-0.136668 -0.041011 -0.032753 -0.964486 0.009255 -0.26078
-0.038003 -0.76687 0.019913 0.428603 0.75914 0.479903
-0.129139 -0.276409 -0.003828 -0.989102 -0.070111 -0.122026
0.022247 -0.47844 0.007434 0.906344 -0.107159 0.407985
0.096194 0.213101 0.113185 0.364461 0.082066 0.927191
-0.102013 0.014334 0.104456 -0.516158 0.23097 0.8238
-0.036863 -0.459732 -0.091047 0.35057 0.121993 -0.927228
-0.11923 -0.793778 -0.054994 -0.955757 -0.256914 -0.06216
0.113277 -0.253097 -0.099529 0.028468 -0.006557 -0.993649
0.19315 -0.095851 0.073168 0.746162 0.002897 0.665735
0.175295 -0.802341 -0.07355 0.959568 -0.174781 -0.194283
0.000196 -0.101197 0.121289 0.363608 -0.165344 0.916658
0.035895 0.133497 0.132084 0.076924 0.02439 0.996526
0.080883 -0.261016 0.080001 -0.399901 -0.133568 0.90333
-0.355184 0.235932 -0.076332 0.213457 -0.461771 -0.858178
-0.032292 -0.863383 0.061203 0.284422 -0.954134 0.002068
0.018459 -0.277851 0.068455 0.922566 -0.064484 0.379091
0.205804 -0.028964 0.044751 0.930427 0.019945 0.36223
-0.114364 -0.50978 -0.072473 -0.737857 0.112202 -0.665277
0.198738 -0.651647 -0.03417 0.998684 -0.031492 -0.029203
0.062639 0.78917 -0.111906 0.48019 0.0533 -0.875442
-0.02587 0.594477 -0.073042 -0.510077 0.711634 -0.479061
-0.060111 0.441792 0.08782 -0.18043 0.254061 0.948608
0.04346 -0.283821 0.030485 -0.986469 -0.01767 0.161774
-0.114456 0.162087 -0.039394 -0.889754 0.113012 -0.441562
-0.242279 0.425187 -0.074739 -0.474202 0.561357 -0.675714
0.091712 -0.853602 0.020378 -0.806335 -0.566029 -0.132492
-0.045004 0.333637 0.100069 -0.305509 -0.148795 0.936475
-0.041087 -0.340146 0.0964 0.257527 -0.100256 0.960748
-0.11483 0.565151 -0.036473 -0.368946 0.904344 -0.178251
0.085313 0.245543 -0.137025 -0.037416 -0.128106 -0.990717
-0.229554 0.433599 0.022514 -0.716683 0.294277 0.629835
0.054621 0.262898 -0.131233 -0.36624 -0.09593 -0.925329
0.346543 0.319597 -0.133341 -0.108137 -0.241163 -0.962793
0.055596 0.70005 0.085174 0.54158 0.00912 0.836889
0.084973 -0.123326 0.093926 -0.5805 -0.052472 0.81165
-0.14061 -0.147497 0.043139 -0.950555 -0.044844 0.307154
-0.036463 -0.859062 -0.068718 0.560532 -0.805027 0.191219
0.05238 0.864348 -0.036119 0.168096 0.969405 -0.166427
0.203959 -0.543791 -0.035653 0.96652 -0.027113 -0.249112
-0.318433 0.232924 -0.024246 0.650184 -0.75823 0.04054
0.047136 0.6492 0.042262 0.305399 -0.622326 0.715085
-0.087706 0.359198 -0.106952 -0.545521 -0.170169 -0.819987
0.113662 -0.868238 0.021111 -0.076862 -0.990133 -0.11178
-0.077881 -0.387081 0.094926 0.143039 -0.211708 0.966694
0.580273 0.132576 0.009119 0.778341 0.612145 -0.136843
0.20785 -0.126989 0.04174 0.943555 -0.068458 0.322037
0.061183 -0.706493 0.031319 -0.794905 0.202435 0.564867
-0.472145 0.16475 0.044699 0.051227 0.744016 0.656146
0.175489 0.554913 -0.090872 0.322389 0.750306 -0.576304
-0.001022 -0.047132 0.130595 0.130633 -0.30045 0.944428
0.063853 0.356064 -0.139063 -0.392695 -0.02071 -0.918902
0.209583 -0.14002 0.024788 0.962852 -0.217564 0.156974
0.512349 0.196884 0.01114 -0.253602 0.838711 0.474035
-0.016412 -0.037637 -0.132459 -0.073565 -0.350065 -0.933547
0.039479 -0.213691 0.019329 -0.45708 -0.259188 0.675037
0.075113 -0.646812 0.014233 -0.488135 0.396817 0.766072
0.00655 -0.563747 -0.059921 0.793983 -0.013254 -0.607474
0.164779 0.349399 -0.102681 0.672061 -0.31149 -0.671069
0.19046 -0.445208 0.039911 0.955277 -0.090511 0.279172
0.165047 0.131368 -0.070709 0.83912 0.15113 -0.521544
0.019276 -0.408324 0.022684 0.969751 -0.091333 0.224682
-0.092562 -0.272327 0.108175 -0.212429 -0.056746 0.975449
-0.127206 -0.381111 -0.027378 -0.973561 0.053992 -0.211145
0.12048 0.247781 0.099293 0.527057 0.057294 0.847683
0.235897 0.508823 0.002317 0.658288 0.347775 0.665385
-0.111509 0.257593 -0.051474 -0.995589 -0.006881 -0.084602
-0.028224 -0.850828 0.095742 0.9799 -0.01632 0.192905
0.139349 0.153184 0.090672 0.679429 0.020134 0.733406
-0.136546 -0.516819 -0.022343 -0.998861 -0.015489 0.018786
-0.18837 0.491617 0.038088 -0.600419 0.326475 0.727459
0.008052 -0.317504 -0.048101 0.761922 -0.039064 -0.646408
0.160919 -0.536933 -0.096182 0.547473 -0.03264 -0.835378
-0.024702 -0.22809 -0.087603 0.390205 0.014703 -0.918849
-0.129227 -0.567086 -0.060355 -0.945261 0.029003 -0.322494
0.194147 -0.36822 0.040715 0.932171 -0.062014 0.356499
0.202537 -0.177119 0.036548 0.947101 -0.04892 0.316424
0.053307 -0.680965 -0.025201 -0.951135 -0.076868 -0.279925
-0.037898 -0.104477 0.127596 -0.052541 -0.07186 0.994596
-0.340711 0.296606 2.6e-05 -0.199296 0.272531 0.940798
-0.009387 0.833699 0.037262 -0.84036 0.193909 0.491522
0.083765 0.028673 -0.159729 0.165039 0.008027 -0.98093
-0.122205 -0.436049 0.054763 -0.860605 -0.14767 0.487193
-0.042366 -0.114539 0.126272 -0.092922 -0.090334 0.988998
0.391946 0.324871 -0.060778 0.481473 0.636674 0.598978
0.428046 0.283599 -0.044806 0.280068 0.545442 0.789116
0.099146 0.01419 -0.153978 0.305107 -0.069614 -0.949362
0.192824 0.079013 0.042622 0.908126 0.309146 0.272761
0.053186 -0.09191 0.095215 0.316251 -0.760326 0.561309
-0.093157 0.488041 0.061785 -0.176608 0.351318 0.917843
0.145196 0.025008 -0.12754 0.767791 0.078772 -0.60124
0.42608 0.240009 -0.029579 -0.365163 -0.540657 0.698662
-0.134822 -0.53683 -0.042689 -0.95019 0.001378 -0.277172
-0.088686 -0.522703 0.070532 -0.570166 -0.174678 0.783142
0.196507 -0.649539 -0.009479 0.96714 -0.091983 0.233304
-0.082624 -0.352982 0.102866 0.064184 -0.144793 0.984403
0.096083 -0.391372 -0.096104 -0.461892 -0.07006 -0.881096
0.568253 0.080099 -0.004825 -0.868229 -0.477779 -0.053046
-0.036168 -0.688761 -0.105162 0.450248 0.269162 -0.851182
0.033147 0.333988 -0.127146 -0.162679 -0.018705 -0.985019
0.16419 -0.839386 0.06683 0.79762 0.603085 0.008469
-0.103444 0.324478 0.041149 -0.883003 -0.047413 0.459878
-0.111653 0.326328 0.021696 -0.939734 -0.125674 0.31434
0.271321 0.398243 -0.016027 -0.163994 -0.426253 0.889475
-0.360449 0.217433 -0.063048 0.374302 -0.710968 -0.592441
-0.047871 -0.80773 0.061759 0.304105 0.575355 0.748876
0.062968 0.605628 0.017498 0.538253 -0.04959 0.840559
-0.330505 0.308442 0.000234 -0.365574 0.225473 0.90093
-0.106156 -0.813748 -0.020903 -0.899017 -0.352622 0.211938
0.296271 0.344173 -0.126158 -0.522598 -0.450193 -0.723104
-0.315986 0.342058 -0.072801 -0.580201 0.676196 -0.444867
-0.064458 -0.793162 0.045631 -0.347186 0.514298 0.76929
0.193127 -0.378784 -0.049822 0.738538 0.093102 -0.660878
0.459119 0.276367 -0.063801 0.709127 0.685619 0.150021
-0.228934 0.461556 0.001107 -0.838063 0.452717 0.302292
0.180982 0.208287 0.034465 0.972524 0.059604 0.219198
-0.069479 0.265765 0.087214 -0.515873 0.070257 0.853663
0.166365 -0.177264 0.092941 0.37633 -0.173817 0.908275
0.055092 0.513677 0.05918 0.020561 0.510176 0.859581
0.091072 0.492369 -0.138051 -0.169235 0.256503 -0.950341
-0.004506 -0.054788 -0.122874 0.082602 -0.517994 -0.850967
0.614973 0.059239 0.029986 -0.742695 -0.639248 -0.186444
0.156342 -0.465194 -0.096823 0.452934 0.133174 -0.881505
0.064428 0.400687 0.098021 0.111966 0.205264 0.972267
0.04169 -0.370968 -0.03506 -0.924055 -0.061636 -0.36893
-0.040284 0.74663 -0.020028 -0.993273 0.02061 0.057494
0.412403 0.258822 -0.127 0.094893 -0.17696 -0.974511
-0.482078 0.160274 0.05003 -0.205514 0.803951 0.509682
-0.112022 0.252306 0.018212 -0.991578 0.093109 0.080162
0.189638 0.172786 0.019216 0.964509 0.187118 0.171991
0.026607 0.592352 -0.090333 -0.066726 0.591832 -0.803259
-0.024067 0.576239 -0.094817 -0.198263 0.794595 -0.529822
0.191852 0.501197 -0.129534 0.080243 0.327224 -0.939963
-0.243227 0.311592 -0.064656 0.708125 -0.578891 -0.39822
0.172373 0.046315 0.0889 0.669054 0.240426 0.702885
0.387157 0.239448 -0.062962 -0.607626 -0.759467 0.225554
-0.1405 0.011738 0.030902 -0.980018 -0.124037 0.12599
0.190684 -0.128471 -0.063242 0.752905 -0.01706 -0.657531
-0.039497 -0.862445 0.111785 0.254442 -0.956348 0.127644
0.187613 -0.602294 0.019126 0.469322 -0.143803 0.86954
-0.004803 0.285845 0.11847 -0.337515 0.086229 0.936398
0.094875 0.716765 0.025634 0.922203 -0.142278 0.257495
0.104981 0.792363 -0.035313 0.987225 0.11682 -0.028909
-0.12044 0.378518 0.031139 -0.957203 -0.209353 0.198777
0.084673 -0.518485 0.024344 -0.610509 0.037781 0.789594
0.170719 -0.270879 -0.067017 0.579833 -0.197011 -0.790432
-0.095088 0.214985 -0.063825 -0.784618 -0.185255 -0.581735
-0.10475 -0.233901 -0.057855 -0.844563 -0.040807 -0.533747
0.080282 -0.702992 -0.065005 -0.845025 -0.095674 -0.524666
-0.044362 -0.019528 0.130393 -0.21152 -0.27217 0.91385
0.098672 0.197237 -0.118378 0.320599 -0.432339 -0.837433
-0.0204 -0.547663 -0.089577 0.578207 -0.006643 -0.814597
-0.08896 0.141713 0.079394 -0.673409 0.077627 0.734852
0.110776 -0.448883 0.045974 -0.654331 -0.217248 0.719401
-0.007858 -0.428237 0.063008 0.647937 -0.263627 0.713353
0.019811 -0.175757 -0.04002 0.928614 0.057696 -0.362195
-0.118848 -0.262658 -0.032444 -0.827851 0.003763 -0.560436
0.156283 -0.845602 0.163527 0.812668 0.459866 0.345005
-0.110693 -0.842343 0.018472 -0.864717 0.466179 -0.042257
0.058114 -0.742139 0.018827 -0.959597 -0.240474 0.129729
-0.098101 -0.511674 -0.087661 -0.558018 0.11726 -0.82004
0.056345 -0.635564 -0.045916 -0.830463 -0.14478 -0.537425
0.177505 -0.01346 0.084388 0.708592 0.086419 0.692589
0.104704 0.729325 -0.012662 0.690799 -0.581231 0.309631
0.027408 -0.646479 -0.030536 0.999572 -0.013806 -0.007664
0.134716 -0.182661 0.097548 0.09365 -0.183767 0.977468
0.17446 -0.792307 0.000409 0.790201 -0.541414 0.278072
-0.049385 -0.199377 -0.093977 0.036654 -0.108266 -0.987366
-0.02722 -0.211637 -0.088275 0.359909 -0.010557 -0.928737
-0.064532 -0.863643 0.018972 -0.006111 -0.999856 -0.014786
-0.025008 0.515142 0.063126 -0.130693 0.516875 0.844702
-0.083933 0.307514 0.076435 -0.631094 -0.029827 0.768972
-0.032896 -0.617756 -0.095137 0.475306 0.016206 -0.879182
0.244971 0.521503 -0.019056 0.640692 0.612612 0.459246
0.164286 -0.839634 0.006555 0.931236 0.35788 -0.019797
0.17882 0.214711 -0.034046 0.932765 0.011696 -0.359987
0.162299 -0.515933 -0.09634 0.541795 -0.033428 -0.839013
0.210001 0.555527 -0.065122 0.519425 0.774625 -0.339473
0.191997 -0.523142 0.02484 0.919807 -0.042997 0.388642
0.065165 -0.632484 0.003567 -0.211689 0.471715 0.851673
0.151748 -0.686607 0.023592 0.312359 -0.394352 0.86288
0.065376 -0.369622 -0.071467 -0.756235 -0.054875 -0.650145
0.10169 -0.84853 -0.110742 -0.560433 0.08882 -0.818527
-0.033834 -0.467174 0.06692 0.262333 -0.276344 0.924188
0.092587 -0.792149 -0.095583 -0.79464 0.288306 -0.530645
0.006462 -0.181987 0.100559 0.681643 -0.084089 0.722224
-0.041732 0.823775 -0.024341 -0.975085 0.021724 0.03478
-0.092057 -0.373729 -0.07193 -0.543647 -0.032099 -0.838171
0.153895 0.249069 -0.084074 0.861855 -0.074752 -0.499848
0.060975 0.280292 -0.135298 -0.324442 -0.042007 -0.944754
-0.350269 0.298465 -0.002983 -0.253936 0.459581 0.848796
0.031005 0.77358 -0.120891 -0.001918 0.038621 -0.999201
-0.036149 0.798129 -0.053586 -0.995874 -0.025221 -0.083637
-0.088243 -0.861349 -0.079951 -0.161396 -0.984791 -0.009063
0.186246 0.068789 0.061671 0.829315 0.167586 0.532032
-0.119976 -0.67686 -0.082125 -0.796782 -0.062659 -0.598075
0.353858 0.271567 -0.085116 -0.672545 -0.739145 0.008284
0.356134 0.306346 -0.041735 -0.108835 -0.065726 0.970075
0.000464 -0.682483 -0.077858 0.488372 0.216791 -0.845074
0.184993 -0.754665 0.007508 0.693519 0.045265 0.685192
-0.027542 -0.581774 -0.092797 0.495089 -0.04339 -0.865357
0.522263 0.147529 0.001646 -0.727121 -0.684897 0.043467
-0.068674 -0.863937 0.040523 -0.022792 -0.99964 -0.012926
-0.116587 0.363853 -0.085224 -0.8064 -0.192536 -0.555455
0.175101 0.301432 0.038196 0.949014 0.013599 0.314345
0.109249 0.732637 -0.022207 0.828784 -0.340553 -0.360329
-0.557397 0.069894 0.029219 -0.895981 0.439573 -0.034368
0.08575 0.675001 -0.008028 0.915345 -0.395687 0.018687
-0.112 0.436007 -0.113693 -0.416912 -0.166515 -0.892879
0.001917 0.774198 0.076512 -0.416248 -0.366394 0.820812
-0.135456 -0.422945 -0.015956 -0.962014 0.124125 -0.240647
0.193155 -0.116711 0.07249 0.824849 -0.01528 0.563258
0.051325 -0.556063 -0.046995 -0.857937 -0.036951 -0.51236
0.196041 -0.4494 -0.052871 0.888154 0.102644 -0.432368
0.507179 0.1717 -0.046202 0.101159 -0.538774 -0.831411
-0.018185 0.751863 -0.092518 -0.763992 -0.260773 -0.589317
0.007197 0.092069 -0.136916 -0.154881 0.218278 -0.963317
0.180874 -0.550372 -0.078368 0.72705 -0.03478 -0.68555
0.080975 0.679854 0.042682 0.833018 -0.54616 0.078016
0.287108 0.354915 -0.035785 -0.091212 -0.796868 0.587571
-0.06644 -0.113552 -0.10335 -0.298063 -0.151734 -0.940507
-0.102984 0.131679 -0.069142 -0.837558 0.115826 -0.533667
0.026861 -0.671987 -0.043725 0.994794 0.00499 -0.076304
0.164037 0.536263 -0.115144 0.239406 0.59473 -0.76742
-0.115118 -0.104753 -0.062906 -0.771095 -0.106479 -0.62747
-0.092964 0.317363 0.061463 -0.876994 0.091251 0.467481
0.092696 -0.661708 0.031614 -0.295345 0.170882 0.938273
0.004767 0.2111 -0.126303 0.051672 -0.23595 -0.969767
-0.087948 0.161596 0.080003 -0.678081 -0.025103 0.734394
-0.080853 0.317994 0.079008 -0.550973 -0.031804 0.833462
-0.120488 -0.642361 0.009843 -0.962753 -0.075297 0.255999
0.207641 -0.177547 -0.014582 0.999722 -0.000441 -0.02268
-0.093807 -0.829172 -0.101024 -0.93566 -0.077383 -0.341475
-0.11627 -0.117828 0.095325 -0.728169 0.04517 0.683665
-0.201096 0.506662 -0.007466 -0.762688 0.641995 0.076476
0.041797 0.271035 0.125276 0.14797 0.171675 0.973007
