0.158631 -0.042357 -0.11698 0.701747 -0.168118 -0.690608
0.131648 -0.462283 -0.10527 0.128606 0.103699 -0.985047
-0.104719 -0.292322 -0.055818 -0.799092 0.011234 -0.600773
0.359397 0.307485 -0.131606 -0.098337 -0.243004 -0.962558
0.167074 -0.383434 0.072942 0.31606 -0.005068 0.945356
-0.200873 0.463823 -0.075115 -0.549126 0.445918 -0.703467
-0.512696 0.124648 0.005712 -0.830868 -0.027078 -0.497424
-0.126451 -0.537217 -0.062267 -0.876795 0.087988 -0.471941
0.3733 0.261619 -0.052447 -0.722431 -0.541384 0.424964
0.182357 0.464296 0.037428 0.492392 0.234232 0.837631
0.030941 -0.257128 0.023312 0.983135 -0.063429 0.170709
-0.504713 0.130862 -0.004867 -0.669479 -0.266279 -0.539389
0.06244 -0.620513 -0.002019 -0.391785 0.164028 0.881759
0.199549 -0.347318 -0.030118 0.87542 0.164547 -0.45401
-0.107066 -0.702004 0.011351 -0.721891 -0.410374 0.55403
0.120606 -0.827439 0.158619 -0.078797 0.947679 0.251309
0.046739 -0.431329 -0.00753 -0.846098 -0.115582 0.510526
0.388358 0.338558 -0.109357 0.712372 0.649094 -0.265471
0.003184 0.237676 0.125318 -0.391454 0.094842 0.911702
0.412268 0.236454 -0.117251 0.042162 -0.556548 -0.820786
0.277034 0.338939 -0.089082 -0.62714 -0.767013 -0.119777
0.091278 -0.83556 0.094999 -0.873937 0.468658 0.089668
0.168432 0.203855 0.0551 0.753157 0.077828 0.653205
0.182432 0.227216 0.01123 0.998733 0.013592 0.045834
-0.453562 0.207278 -0.029617 -0.867036 0.381457 -0.295141
0.096486 0.413418 -0.145615 -0.062768 0.003765 -0.997427
0.002122 -0.719248 -0.001513 0.801575 -0.06402 0.593847
-0.44226 0.18463 0.023022 -0.082581 0.486468 0.861627
-0.128339 -0.213854 0.07687 -0.908552 -0.040582 0.414988
0.402217 0.230775 -0.05444 -0.602925 -0.718224 0.345021
0.434285 0.204556 -0.073501 -0.46308 -0.88083 0.09156
0.114609 -0.869787 0.052894 -0.004137 -0.999642 -0.024199
0.536205 0.159181 -0.030384 0.581929 -0.206856 -0.783295
0.019438 -0.688707 -0.018509 0.874871 -0.175679 0.451044
0.145616 -0.747177 0.028766 0.24627 0.78287 0.569065
0.087333 -0.599439 -0.081349 -0.659385 -0.081233 -0.747279
0.143312 0.518136 -0.129698 0.193793 0.423347 -0.88482
0.093201 0.774041 -0.082507 0.843597 0.029756 -0.535917
0.073849 0.573858 -0.104691 -0.056975 0.634022 -0.770517
-0.101523 -0.792061 0.007564 -0.725678 0.221209 0.650216
0.008265 0.690236 -0.07132 -0.440501 -0.593736 -0.670975
-0.128345 -0.316791 1.5e-05 -0.999818 -0.008581 -0.0164
-0.098836 0.321594 0.049233 -0.885311 0.016106 0.461083
0.188669 0.165717 0.027851 0.92609 0.212073 0.30588
0.194435 -0.531794 0.017777 0.912377 -0.061199 0.404409
0.321261 0.433059 -0.115087 0.539239 0.663257 -0.518712
0.196526 0.07877 0.028942 0.903614 0.387282 0.177554
-0.002803 0.250659 -0.129285 0.099639 -0.045684 -0.99341
-0.145606 0.551629 -0.033816 -0.434878 0.868552 -0.211291
0.198179 0.07008 0.03493 0.952187 0.232672 0.187377
0.107567 -0.825932 0.106362 -0.280568 0.946991 0.131807
0.079891 -0.309257 -0.089751 -0.603046 -0.01241 -0.79736
-0.070168 -0.863903 0.104164 -0.026518 -0.999391 0.022389
0.087664 -0.298947 0.075091 -0.357612 -0.199457 0.912162
0.166405 0.259542 -0.061546 0.895951 -0.025575 -0.442784
0.13127 0.280915 0.090222 0.635811 0.040751 0.770227
-0.319942 0.23147 -0.033625 0.611022 -0.790413 -0.024026
0.167292 -0.69554 0.012927 0.38649 -0.502484 0.772851
0.188171 0.542384 -0.100655 0.262855 0.724006 -0.637517
0.055194 0.765467 0.072178 0.538929 -0.240103 0.804362
-0.011174 0.658727 -0.028251 -0.975772 -0.028039 -0.189541
0.080615 -0.635101 -0.071805 -0.657036 -0.083976 -0.748582
0.093331 -0.848555 -0.10284 -0.84067 -0.022113 -0.529651
0.362081 0.271299 -0.110425 -0.610618 -0.689694 -0.380675
-0.096378 -0.425293 0.086019 -0.252152 -0.324373 0.901329
0.175412 0.415372 0.048933 0.593998 0.00252 0.803283
0.157525 -0.207873 0.090847 0.162598 -0.172518 0.97049
-0.119808 -0.781983 -0.031436 -0.99229 -0.040749 0.108652
-0.220789 0.473421 0.008344 -0.84804 0.413386 0.327942
-0.051491 0.138096 -0.104347 -0.334489 0.362151 -0.868793
0.574722 0.12309 -0.005221 0.560107 0.266429 -0.782647
0.249449 0.492239 -0.002806 0.591439 0.219841 0.77572
0.586083 0.086839 0.058209 -0.277549 -0.50875 0.775068
-0.03658 -0.005288 -0.137016 -0.161896 -0.080986 -0.983024
-0.124554 0.083264 -0.039337 -0.940154 0.109741 -0.321779
0.006725 -0.296361 -0.05223 0.769981 -0.102475 -0.629779
-0.080097 -0.668356 -0.106999 -0.236044 0.029478 -0.969241
-0.103305 -0.6761 0.02831 -0.473265 -0.357952 0.789938
-0.048237 0.286912 0.099234 -0.579894 0.08192 0.810097
0.202245 -0.048139 0.053056 0.888602 0.041699 0.45603
0.192641 0.070872 0.049911 0.863043 0.26363 0.426289
-0.108022 0.158555 -0.053144 -0.839609 0.136222 -0.525598
0.009275 0.086227 0.136806 -0.050853 0.046778 0.991662
0.133802 0.251732 0.089668 0.663747 0.041743 0.746169
0.065142 -0.415798 0.017761 -0.68343 -0.336971 0.647042
0.287346 0.345287 -0.047243 -0.32443 -0.720871 0.610691
0.061007 -0.517208 -0.065217 -0.753952 -0.085718 -0.651212
-0.121827 -0.296407 0.079245 -0.945398 -0.064406 0.314233
-0.136068 -0.230406 0.028298 -0.999014 -0.041648 -0.000731
-0.192673 0.491952 -0.062543 -0.607438 0.508246 -0.61046
0.305243 0.394284 -0.144737 0.069682 0.033472 -0.992731
0.151618 0.377824 0.070264 0.671055 -0.041423 0.740178
0.110745 0.541249 0.027051 0.410056 0.575966 0.705857
-0.340243 0.219855 -0.037717 0.616023 -0.776089 -0.07983
0.090529 0.204335 -0.123542 0.133086 -0.444886 -0.883439
0.319733 0.31336 -0.058447 -0.537972 -0.647866 0.538911
0.044099 -0.473301 -0.036429 -0.991553 -0.000816 -0.10254
-0.135251 0.056626 0.000823 -0.97424 0.189742 -0.030074
-0.081465 0.555744 0.017686 -0.050221 0.767295 0.639241
-0.006296 -0.346847 0.08085 0.623977 -0.05558 0.774906
-0.13931 -0.04441 -0.021614 -0.965898 0.02799 -0.2484
0.162967 -0.361888 -0.070612 0.621448 0.16893 -0.764439
-0.027582 -0.180188 -0.089202 0.414255 -0.019617 -0.908463
0.328243 0.40742 -0.044954 0.635995 0.4422 0.631217
0.006748 -0.213324 -0.063639 0.702476 0.009021 -0.711603
0.529835 0.202662 -0.000987 -0.119978 0.935763 0.32288
0.343679 0.417861 -0.099217 0.743305 0.667701 -0.024757
0.132405 0.290986 -0.122461 0.680945 -0.051799 -0.729667
-0.052039 -0.832879 -0.144466 -0.042991 -0.259385 -0.960307
0.080637 -0.577317 0.021316 -0.684338 -0.05154 0.727253
0.092709 -0.567681 -0.090263 -0.61757 -0.120736 -0.777163
0.205672 -0.285266 0.005108 0.99973 0.020149 0.00954
-0.020015 0.271466 -0.130919 -0.054523 -0.050983 -0.996473
-0.333482 0.236862 -0.066748 0.317009 -0.701281 -0.637056
-0.282467 0.263881 -0.028458 0.686356 -0.663708 0.289724
-0.094335 -0.767233 0.008614 -0.619205 -0.327418 0.694751
-0.072562 -0.368775 0.098125 0.134223 -0.184785 0.973497
-0.106231 -0.403056 0.087394 -0.608122 -0.221251 0.737088
-0.0251 -0.391574 0.082539 0.341917 -0.223116 0.912455
-0.047226 -0.741083 0.022218 0.45072 -0.593665 0.662386
0.147762 0.1225 -0.095339 0.635736 0.217161 -0.735893
-0.059302 0.549271 -0.101118 -0.363196 0.517816 -0.774344
0.140494 -0.135152 0.108874 0.29463 -0.202373 0.932308
0.171065 0.348577 -0.09501 0.710629 -0.347768 -0.610739
0.181432 -0.207204 0.081717 0.596658 -0.148598 0.785067
0.109586 0.256948 0.104261 0.365954 0.052253 0.928972
-0.102606 -0.103522 0.106874 -0.591841 0.084622 0.800311
0.022697 -0.37838 0.025721 0.927798 -0.12719 0.348211
0.477071 0.190429 0.006537 -0.635537 -0.429806 0.626515
0.045126 0.145352 0.130906 0.126117 0.016502 0.991692
0.591971 0.089005 0.06928 -0.831208 -0.179573 0.512213
0.042748 -0.063713 0.120612 0.008848 -0.385539 0.919703
0.068227 -0.004192 -0.15626 -0.242269 -0.154435 -0.956388
0.177936 -0.784563 -0.07134 0.866866 0.169356 -0.435475
-0.12476 -0.140589 0.08354 -0.83228 0.08102 0.548192
-0.131505 -0.586528 -0.046256 -0.988492 -0.12674 -0.075492
0.008769 -0.465865 -0.049737 0.821349 0.066438 -0.564749
0.02013 -0.252102 0.066273 0.948628 -0.023108 0.315218
-0.017239 0.81728 0.034806 -0.826053 0.362399 0.427926
-0.131973 0.065927 -0.001944 -0.887657 0.444513 -0.019037
0.059585 0.699964 -0.078141 0.416392 -0.5672 -0.708067
0.021344 -0.266462 0.061469 0.937918 -0.041764 0.341753
-0.038446 0.017885 -0.140571 -0.226882 -0.48744 -0.842778
0.041953 0.490991 -0.126656 -0.210711 0.083022 -0.97384
0.013458 0.0294 0.139927 -0.020633 0.174666 0.983313
0.097663 -0.235869 -0.09648 -0.329618 -0.036544 -0.941898
0.341155 0.383769 -0.074479 0.84292 0.353533 0.316387
0.042494 0.335652 -0.129289 -0.328758 -0.031817 -0.939264
0.152669 0.096149 0.083251 0.388363 0.224604 0.881435
-0.421475 0.237938 0.002418 -0.580859 0.56328 0.577988
-0.561869 0.063904 0.041763 -0.793657 0.602495 0.006822
-0.378818 0.193048 -0.021166 0.478495 -0.877262 -0.003186
-0.108794 -0.736873 -0.087077 -0.842953 0.128346 -0.522022
-0.492336 0.159935 0.027669 -0.753756 0.65479 0.048128
0.026243 0.08767 -0.141789 -0.162282 0.246869 -0.955252
0.171308 -0.249107 -0.071806 0.519087 -0.150863 -0.841269
0.250045 0.526814 -0.065828 0.699791 0.705676 -0.092909
0.144985 -0.780454 -0.104201 0.394181 0.417584 -0.816876
-0.060341 0.23085 0.095289 -0.557539 0.093824 0.823507
-0.134549 0.475067 -0.101917 -0.42743 0.106127 -0.897424
0.468831 0.186983 -0.02598 -0.524616 -0.851077 0.000803
-0.411777 0.172681 -0.014827 0.611915 -0.788194 -0.034506
0.006102 -0.812207 -0.096119 0.917085 -0.277161 -0.281242
0.550706 0.115845 0.03141 -0.919947 -0.322303 0.219598
0.18094 -0.525429 0.043449 0.74661 -0.143941 0.645559
-0.051637 0.219603 -0.112288 -0.577729 -0.283345 -0.765174
-0.057013 0.544699 0.034714 -0.188116 0.64892 0.734577
-0.109211 -0.115975 0.102006 -0.685244 0.042684 0.726704
-0.105058 -0.838419 0.067923 -0.709533 0.698556 0.091266
-0.055569 -0.386363 0.09084 0.173949 -0.184501 0.966853
-0.144047 -0.068234 0.013736 -0.999664 0.01908 0.011915
0.386787 0.268196 -0.037985 -0.262594 -0.15488 0.94467
-0.026073 0.407748 -0.129751 -0.007648 -0.014163 -0.999703
0.111043 -0.827026 0.142839 -0.330301 0.927126 0.089965
-0.096702 -0.849263 0.132243 -0.898977 0.070211 0.370452
0.18714 0.371003 -0.093851 0.654395 -0.488015 -0.577355
-0.100011 -0.832756 0.060993 -0.726398 0.682071 0.084053
-0.140674 -0.476994 -0.015766 -0.980594 0.085677 -0.148261
-0.110567 0.361573 0.044435 -0.85886 -0.285999 0.422862
0.083577 0.687247 0.049254 0.903462 -0.36304 0.219951
-0.035227 -0.658915 0.023851 0.022656 -0.056032 0.990757
0.152217 -0.332295 0.077894 0.240139 -0.052761 0.969287
0.082334 0.666885 -0.029262 0.979515 0.01882 -0.191321
0.112397 0.190529 0.106416 0.492389 0.028284 0.86981
0.012584 -0.588586 0.007192 0.560011 0.038177 0.825927
0.052075 0.106255 -0.139514 -0.055066 0.437456 -0.896605
0.065657 -0.426706 0.012796 -0.650133 -0.324111 0.686856
-0.115908 -0.205859 -0.041595 -0.851762 -0.098907 -0.513364
-0.033642 0.735674 -0.0028 -0.931619 -0.208921 0.291371
0.477418 0.252056 -0.070646 0.793424 0.5832 -0.167728
0.104463 0.250576 -0.135851 0.28521 -0.126285 -0.943245
0.028756 -0.251055 0.034344 0.98139 -0.031635 0.188206
-0.002687 0.852489 0.030075 -0.540416 0.725648 0.424834
0.053374 -0.520226 -0.054917 -0.874866 -0.074801 -0.47795
-0.119976 -0.67686 -0.082125 -0.796782 -0.062659 -0.598075
0.3659 0.257696 -0.082847 -0.777003 -0.621949 0.023094
0.090688 -0.780573 -0.08552 -0.781362 0.311149 -0.537562
0.124704 -0.842821 0.179914 -0.177981 0.42785 0.882407
0.018986 0.466109 -0.125953 0.008062 0.07552 -0.995739
0.144318 0.536723 0.017482 0.287355 0.640541 0.710962
0.006173 0.513616 -0.122812 0.021351 0.131535 -0.990634
-0.013497 0.17714 -0.114284 -0.294198 -0.205774 -0.928984
-0.128339 -0.65064 -0.051265 -0.999285 -0.017696 0.024487
0.066028 0.434819 -0.137975 -0.291357 0.009013 -0.95588
-0.10031 -0.022145 -0.10089 -0.730872 -0.108046 -0.672968
0.014788 -0.468871 -0.040314 0.871661 0.069059 -0.484735
0.170248 0.114725 0.068593 0.714924 0.182818 0.67445
-0.126212 0.447481 0.061382 -0.06934 -0.017847 0.994713
-0.125132 -0.373087 -0.035256 -0.915237 0.010302 -0.398708
-0.089552 0.333096 0.068783 -0.882214 -0.010321 0.469173
0.071772 -0.298142 0.06778 -0.569991 -0.152159 0.804549
0.19949 -0.269688 0.047007 0.935852 -0.053632 0.347885
-0.13861 -0.062006 0.046459 -0.967729 0.042516 0.248163
-0.180441 0.45266 -0.089038 -0.228176 0.268298 -0.935653
-0.128129 -0.220253 -0.015818 -0.921126 -0.063371 -0.383478
0.079213 -0.238079 -0.087788 -0.5067 -0.045699 -0.860394
-0.130997 -0.048801 -0.046669 -0.909114 -0.048052 -0.413538
0.013834 -0.651477 0.007362 0.767235 -0.143544 0.623796
0.064943 -0.300406 0.061305 -0.71163 -0.11168 0.693448
0.199625 -0.443756 -0.031941 0.997356 0.010965 -0.066294
-0.037214 0.805572 -0.017158 -0.986537 -0.117486 0.076573
0.148888 0.147277 0.081724 0.696927 0.042416 0.715869
0.092413 0.825351 -0.03482 0.834239 0.529893 -0.050034
0.095761 -0.867317 0.070079 -0.489837 -0.868848 -0.039525
0.482521 0.246936 -0.058708 0.75577 0.652068 -0.039558
-0.025416 0.703626 0.006533 -0.882099 -0.469549 0.013358
0.019464 -0.646459 -0.055308 0.667854 0.171368 -0.723939
-0.003618 0.649213 0.012431 -0.837001 -0.220926 0.496581
0.080914 0.675803 0.024078 0.876816 -0.409509 0.223726
-0.137806 -0.428192 -0.002269 -0.995559 0.063031 -0.017559
-0.122114 -0.060618 0.082839 -0.78791 0.029879 0.614902
0.075511 0.672374 0.036488 0.803452 -0.573671 0.13735
0.079719 0.787796 -0.099184 0.687536 0.079661 -0.721334
0.192824 0.079013 0.042622 0.908126 0.309146 0.272761
0.191804 -0.182613 0.072219 0.907679 -0.057188 0.406071
-0.11981 0.22356 -0.013886 -0.990015 0.113334 -0.069557
-0.096036 -0.039435 -0.102563 -0.668438 -0.166729 -0.724544
0.055707 -0.152901 -0.088633 -0.663539 -0.193235 -0.722398
0.117577 0.147599 0.105024 0.519202 0.0308 0.854082
-0.090585 -0.077246 0.112202 -0.487495 0.031175 0.872111
0.208849 -0.148736 -0.014527 0.966844 -0.247671 -0.045672
0.17725 -0.094218 0.090061 0.682703 0.030161 0.729935
0.046861 0.865858 0.013491 0.220765 0.942527 0.241264
-0.113008 -0.023898 0.089599 -0.764185 0.051915 0.642549
0.197009 0.034794 0.059554 0.878851 0.111217 0.458303
-0.035597 0.091023 0.120783 -0.368505 0.009971 0.925281
-0.011222 0.628222 -0.040956 -0.883182 0.318169 -0.333372
0.040576 0.822798 -0.10437 0.09626 0.643025 -0.759037
0.129124 -0.208549 -0.101142 0.265415 -0.204753 -0.941197
0.11459 0.137554 0.107419 0.561647 0.026649 0.825591
0.220067 0.549748 -0.034766 0.454183 0.865314 0.190922
0.509828 0.220599 -0.038099 0.472364 0.851985 0.179635
0.025855 -0.183542 -0.031212 -0.650162 0.034635 -0.751626
0.125115 0.294499 -0.12839 0.584609 -0.044736 -0.810056
0.050146 -0.34678 -0.053563 -0.837127 -0.070481 -0.541866
0.075058 0.855001 0.008948 0.654664 0.730571 0.193642
-0.015306 0.408094 -0.129589 0.032871 -0.00142 -0.99944
-0.133527 -0.414186 0.029258 -0.960037 0.078328 0.265543
-0.120749 -0.533795 -0.069553 -0.789591 0.109417 -0.603743
0.095567 -0.6331 -0.084765 -0.618192 -0.035152 -0.785134
-0.042472 0.214744 -0.117139 -0.558026 -0.304411 -0.771859
-0.068622 -0.115596 0.120883 -0.211302 -0.034252 0.97667
0.039784 0.124647 0.132322 0.081694 0.062899 0.994376
0.093546 -0.845711 0.137672 -0.83895 0.456319 0.290653
0.503241 0.164873 0.008468 -0.601053 -0.776953 0.184006
0.183588 -0.506835 -0.076751 0.767097 -0.000132 -0.641451
0.012884 -0.78306 -0.037783 0.878759 -0.280555 0.384017
0.197231 -0.446758 0.013024 0.975705 -0.086426 0.198034
0.226415 0.390182 -0.051374 -0.693459 -0.671212 0.256401
-0.113284 0.506598 -0.103731 -0.440084 0.355371 -0.814959
0.037305 -0.358523 -0.017533 -0.992873 -0.089098 0.016635
0.189948 0.560586 -0.069465 0.395789 0.845547 -0.32667
-0.250755 0.395524 0.018521 -0.437254 0.141094 0.884021
-0.136011 0.557766 -0.028627 -0.367304 0.917158 -0.115508
0.179758 -0.770954 -0.053721 0.769976 0.538651 -0.337642
0.156294 0.261183 -0.081588 0.861301 -0.085109 -0.500523
-0.003942 -0.203285 0.10604 0.587365 -0.152502 0.793918
-0.212118 0.494441 -0.011088 -0.744052 0.664302 0.06054
-0.127646 -0.348265 0.026338 -0.996166 0.0352 0.076631
-0.016297 -0.054832 -0.123542 0.0151 -0.452758 -0.891345
0.167904 -0.7502 0.021691 0.569041 0.374265 0.7238
0.000332 0.043417 -0.14806 -0.194624 0.326211 -0.92452
-0.276681 0.386694 -0.083227 -0.564808 0.38648 -0.72283
0.521165 0.148922 -0.022663 -0.709848 -0.699269 -0.076934
0.018239 0.585883 0.024282 -0.318529 0.10577 0.937138
0.023803 -0.036111 -0.133003 -0.098384 -0.479077 -0.871087
-0.003653 -0.720929 0.006126 0.779756 -0.12337 0.612867
0.141424 0.242753 -0.102837 0.786135 -0.154494 -0.597991
-0.222281 0.400804 -0.094787 -0.113049 0.173669 -0.977631
0.025597 -0.454265 0.0015 0.983479 0.020534 0.149224
-0.020312 -0.835608 -0.061702 0.831015 -0.525283 -0.012061
-0.05506 -0.694305 -0.114148 0.130425 0.267005 -0.953686
-0.023267 0.211673 0.116546 -0.512554 0.177883 0.839551
0.597706 0.066386 0.0205 0.71883 -0.588338 0.018906
0.055185 -0.643413 0.006032 -0.650738 0.250931 0.706316
0.034225 -0.286412 0.0027 -0.29001 -0.486708 0.485328
0.196858 -0.708303 -0.028008 0.973289 -0.010029 -0.200592
0.113008 -0.754425 -0.09632 -0.436281 -0.007431 -0.894155
-0.028674 0.747087 0.028645 -0.985718 -0.047108 0.160504
0.029064 -0.157748 0.058804 0.862502 -0.33517 0.352854
0.052264 -0.460535 -0.055632 -0.796051 0.034491 -0.603182
0.14697 0.216778 -0.087232 0.714168 -0.173115 -0.67212
-0.496401 0.154262 -0.003396 -0.778545 0.625418 -0.047935
0.015984 0.494885 -0.123121 0.032452 0.051755 -0.997208
0.186476 0.433489 0.040616 0.554622 0.019343 0.829522
-0.014251 0.471358 -0.129032 0.095146 0.060678 -0.99359
-0.259922 0.362562 0.018299 -0.175689 -0.121238 0.964327
0.131194 -0.78672 -0.112265 0.092898 0.423043 -0.899014
0.021598 -0.366912 0.032859 0.929982 -0.160029 0.330395
0.180874 -0.550372 -0.078368 0.72705 -0.03478 -0.68555
0.190749 -0.636129 0.011224 0.845446 -0.085662 0.515367
-0.154786 0.394979 -0.071125 0.667068 -0.623456 -0.407479
-0.09198 -0.105527 -0.08802 -0.633592 -0.162742 -0.753993
0.017416 0.710343 0.08815 -0.724576 -0.218603 0.625486
-0.07474 0.487788 0.066872 -0.243496 0.379795 0.889958
-0.021782 0.074791 0.127118 -0.331757 0.195066 0.920465
-0.125464 0.104998 -0.027823 -0.945711 0.059879 -0.31302
0.197645 -0.534265 0.007674 0.952498 -0.044616 0.301067
-0.033438 0.760632 0.014769 -0.945825 -0.114804 0.296412
0.232385 0.436013 0.006558 0.544483 -0.346041 0.745834
0.189753 -0.563291 -0.067232 0.78379 -0.019953 -0.619199
0.063058 -0.088385 0.097701 0.116774 -0.802921 0.576963
-0.05604 0.108085 0.106486 -0.465006 0.224601 0.855271
0.037477 0.217565 -0.123567 0.021008 -0.262432 -0.962863
-0.038756 0.816598 -0.011558 -0.920328 -0.333669 0.183774
-0.112805 0.006392 -0.084068 -0.861215 0.016741 -0.507863
-0.136674 -0.505412 -0.01286 -0.99231 -0.09029 0.06061
-0.240874 0.435318 0.007248 -0.735295 0.505686 0.450927
0.295049 0.361163 -0.029368 0.117749 -0.73002 0.664843
-0.036503 0.776456 -0.05661 -0.991728 0.041336 -0.12039
-0.09714 -0.412323 -0.065384 -0.55866 0.107106 -0.819449
0.096983 0.762277 0.028814 0.976177 0.033728 0.20544
0.150849 0.57707 -0.041747 0.537276 0.797358 0.204207
-0.094 -0.355442 -0.070298 -0.789316 0.042217 -0.576611
0.210528 -0.142442 0.015002 0.917729 -0.376163 0.109951
0.270728 0.35492 -0.113096 -0.49969 -0.727682 -0.460242
-0.10376 -0.809326 -0.096282 -0.883868 -0.248847 -0.382261
-0.144041 -0.144957 0.019327 -0.998974 -0.032497 0.021114
-0.129882 -0.202137 0.074139 -0.920112 -0.058859 0.386079
0.020482 -0.309435 -0.028071 0.937328 -0.001135 -0.347319
-0.118857 0.095022 -0.048714 -0.871415 0.184106 -0.450481
-0.125459 0.204998 0.004615 -0.917504 0.384003 0.005226
0.30808 0.315941 -0.106588 -0.6413 -0.691102 -0.307677
-0.336811 0.223774 -0.046184 0.500871 -0.842456 -0.182266
-0.000901 0.356488 -0.128218 0.092941 -0.019235 -0.995346
0.167294 -0.517403 0.05567 0.437979 -0.247909 0.857777
0.0085 -0.515933 0.023298 0.757821 -0.181136 0.626492
-0.137173 -0.443252 -0.019563 -0.973371 0.106078 -0.196295
-0.119788 -0.348269 -0.040488 -0.842129 0.121889 -0.524439
0.138838 0.409774 0.078169 0.533544 0.080017 0.841597
-0.109462 0.401751 -0.10527 -0.578615 -0.258456 -0.773472
-0.044743 -0.864123 0.077669 0.037941 -0.998966 0.01084
0.196758 -0.456494 0.011444 0.972964 -0.059435 0.220424
-0.191114 0.398883 -0.096827 0.117645 -0.075087 -0.987572
0.120741 0.442525 -0.14664 0.069006 -0.036142 -0.996535
0.164054 0.372024 -0.113325 0.535909 -0.320146 -0.780975
-0.019502 0.304705 0.113649 -0.180599 0.057585 0.978725
0.608113 0.096235 0.015804 0.774649 0.617007 -0.118426
-0.000642 -0.142945 -0.072237 0.781651 -0.165766 -0.600524
-0.033647 -0.825345 0.080664 0.613049 0.72328 0.272103
0.194702 -0.06882 -0.057333 0.871675 -0.008659 -0.489088
-0.023627 0.761162 -0.088823 -0.782227 -0.218371 -0.581077
0.154453 0.448845 0.062833 0.627846 0.153817 0.760854
0.064968 -0.40093 0.025155 -0.694508 -0.328057 0.640317
-0.14077 -0.089887 0.041763 -0.951586 0.036342 0.304441
-0.033388 0.215383 0.112114 -0.376474 0.045307 0.921427
0.640311 0.023019 0.07699 0.091638 -0.986991 0.0821
0.175744 -0.805094 -0.062593 0.961119 -0.269689 -0.05066
-0.068117 -0.65149 -0.107842 0.009585 0.069817 -0.995571
0.209338 0.458341 -0.133876 0.032918 -0.044524 -0.997497
-0.071009 -0.824686 0.093252 -0.154301 0.983191 0.09649
0.107684 -0.365007 -0.10119 -0.07286 0.013363 -0.991406
0.118331 -0.348707 -0.09937 0.27837 0.063951 -0.956539
0.068667 0.664406 -0.052292 0.690865 -0.043815 -0.719521
0.152081 0.365537 0.068909 0.669388 -0.072325 0.739213
-0.090641 -0.682189 -0.103428 -0.583121 0.036335 -0.772726
-0.122325 -0.279948 0.079658 -0.944644 -0.034906 0.321521
0.06042 -0.273872 -0.069924 -0.810149 0.009547 -0.586134
-0.124269 -0.728708 -0.065703 -0.867284 -0.037041 -0.486891
-0.107177 0.171493 -0.052024 -0.852333 0.080517 -0.51667
0.022662 -0.172986 0.068494 0.931924 -0.154456 0.32597
0.107996 0.201147 -0.115961 0.445572 -0.374153 -0.811032
0.032937 0.861153 0.039645 0.009632 0.895501 0.429162
-0.079888 0.516952 0.05162 -0.11856 0.504461 0.854461
0.017081 -0.086316 -0.09049 -0.060257 -0.700715 -0.691666
0.041195 0.65407 0.050654 0.134221 -0.871988 0.420998
0.063784 0.386832 -0.139351 -0.382759 0.022936 -0.922987
0.234845 0.535825 -0.080107 0.571776 0.70837 -0.411637
-0.079718 0.127072 -0.092731 -0.624503 0.16903 -0.762097
0.012784 -0.213051 -0.055931 0.803666 0.008507 -0.594063
-0.152028 0.453279 -0.095756 -0.284696 0.029444 -0.956853
0.188633 -0.641698 -0.062145 0.741131 -0.158453 -0.651924
-0.107197 0.05275 -0.082315 -0.804088 0.184378 -0.561881
0.273856 0.478554 -0.017203 0.601773 0.441839 0.660586
0.111916 0.266839 0.102655 0.413699 0.050746 0.907255
0.064235 -0.345166 0.049997 -0.694278 -0.241991 0.675452
0.071082 0.677889 0.072829 0.816711 -0.134333 0.516437
0.02608 -0.38612 -0.002332 0.994486 -0.065089 -0.0397
-0.051863 0.274104 -0.122309 -0.458556 -0.052591 -0.886676
0.146166 -0.054144 -0.125124 0.594052 -0.22696 -0.771439
0.388885 0.240381 -0.10288 -0.664346 -0.670938 -0.32479
0.014865 -0.348809 -0.037916 0.783774 -0.038736 -0.61675
-0.10549 0.260854 0.047228 -0.972921 0.053887 0.221013
-0.12256 -0.625098 -0.07848 -0.775229 0.048462 -0.628674
0.127322 0.555366 0.004227 0.282365 0.719559 0.633565
-0.247685 0.343135 0.012553 0.116824 -0.372055 0.916424
-0.512839 0.129875 0.014799 -0.85126 0.473552 -0.135522
0.208823 0.5166 0.011113 0.276699 0.409928 0.867477
0.171524 0.012966 0.096702 0.627473 0.079022 0.764237
0.349995 0.282501 -0.110005 -0.611149 -0.679994 -0.401937
-0.051106 0.326071 0.097701 -0.326063 -0.085484 0.938685
0.054094 0.304197 -0.133909 -0.378483 -0.033747 -0.924752
-0.244551 0.31992 -0.003711 0.549198 -0.553562 0.624044
-0.100083 -0.488332 0.066002 -0.728357 -0.347458 0.587618
-0.014835 0.681438 -0.024184 -0.814798 -0.48208 -0.315938
-0.004419 -0.579476 -0.072167 0.735431 -0.037189 -0.676261
0.227649 0.386015 -0.074967 -0.715768 -0.698185 0.011425
-0.10846 -0.391657 0.08855 -0.62017 -0.167383 0.758887
0.17358 -0.035901 -0.098456 0.849562 -0.081228 -0.519269
-0.362419 0.309724 -0.035286 -0.625658 0.766392 0.136194
0.489134 0.194083 -0.058471 -0.107403 -0.461129 -0.878424
0.1189 -0.352533 0.076921 -0.234431 -0.197063 0.951729
0.182906 -0.110909 -0.074098 0.786345 -0.081491 -0.611896
-0.05166 -0.86108 -0.026172 0.155412 -0.983101 -0.073448
-0.118925 -0.775176 -0.023136 -0.971403 -0.061753 0.22558
-0.223064 0.327751 -0.026356 0.655826 -0.747228 0.097044
-0.249681 0.324835 -0.083664 0.59125 -0.49427 -0.636635
0.120606 -0.664149 0.032387 0.099772 -0.141846 0.984436
0.095324 -0.684794 -0.083257 -0.644279 0.027692 -0.76394
0.052535 -0.112799 0.070116 0.182487 -0.746115 0.523654
0.149809 -0.723625 -0.08516 0.701928 0.039511 -0.710744
0.631648 0.03015 0.06976 -0.94918 -0.309245 -0.003048
-0.092033 -0.839774 0.133073 -0.687214 0.681305 0.247009
-0.112771 0.280819 -0.039094 -0.994627 -0.101683 -0.015902
-0.000986 -0.188938 -0.070556 0.643754 0.01349 -0.764981
0.279737 0.461315 -0.119505 0.412902 0.605173 -0.6799
-0.090621 0.090713 -0.093211 -0.717015 0.186699 -0.671332
0.228205 0.422645 -0.004269 -0.029003 -0.753504 0.639671
-0.124519 0.501187 0.057599 -0.060985 0.309807 0.947231
0.105996 -0.05979 0.120997 0.10744 -0.174583 0.975235
-0.042218 0.458296 -0.131973 -0.019217 0.038629 -0.99763
0.007468 -0.573246 -0.05857 0.790641 -0.005505 -0.612064
0.204987 -0.24194 -0.016122 0.997516 -0.046677 -0.052007
-0.288332 0.365676 -0.003007 -0.726027 0.416125 0.545884
-0.019196 0.683747 0.002898 -0.958511 -0.252449 0.008585
0.168295 0.172645 0.059591 0.731268 0.086785 0.676085
-0.04399 -0.855125 0.136342 0.75124 -0.383659 0.464006
-0.052899 -0.041447 0.128827 -0.191218 -0.039962 0.980489
-0.135281 -0.107972 0.062921 -0.93021 -0.016108 0.361864
0.126145 -0.720936 0.018664 0.389296 -0.036195 0.915069
-0.014807 -0.417318 -0.070674 0.667724 0.145968 -0.729731
-0.069486 -0.203186 0.116392 -0.305921 -0.087896 0.947883
0.090383 0.805076 0.03008 0.920985 0.157898 0.352987
-0.128234 0.098237 -0.016209 -0.992031 0.005991 -0.118154
0.307955 0.450491 -0.106254 0.576577 0.649089 -0.495911
-0.139903 0.010642 0.001086 -0.971954 -0.202091 -0.114839
0.164535 0.239522 -0.065116 0.846787 -0.000135 -0.53081
0.03033 -0.142832 -0.053842 -0.897663 -0.329135 -0.288103
0.157039 -0.017342 0.103299 0.560718 0.09629 0.821166
-0.018694 -0.02182 0.132502 -0.058112 -0.205944 0.96929
0.103349 -0.746172 0.027851 -0.049415 -0.406603 0.878405
0.182787 0.25743 0.010866 0.998319 0.009056 0.050573
-0.48756 0.165737 0.016656 -0.742133 0.666306 0.032467
0.156489 0.194522 -0.07483 0.761222 0.034066 -0.647533
0.337843 0.361478 -0.136908 0.280504 0.056796 -0.945767
-0.221951 0.427127 -0.085614 -0.374469 0.446251 -0.811627
0.322985 0.396462 -0.035009 0.646266 0.17957 0.726277
0.105141 0.788681 -0.014247 0.998093 0.038798 0.03891
0.042514 -0.065686 -0.12268 -0.401879 -0.432021 -0.807305
-0.281162 0.278483 -0.079516 0.532747 -0.528369 -0.659832
-0.023871 0.156008 0.121039 -0.3706 -0.003163 0.928649
-0.168054 0.390435 -0.083163 0.578052 -0.594754 -0.55744
0.072768 0.245943 0.120359 0.34029 0.06872 0.931883
0.20191 -0.119618 0.055877 0.896642 -0.031282 0.441577
-0.121734 -0.342906 0.068761 -0.981334 0.028327 0.189237
-0.020496 0.333509 -0.129191 -0.032756 0.04575 -0.998131
-0.008124 0.442852 -0.129362 0.10155 -0.006782 -0.994772
0.20667 0.03635 0.005623 0.999004 0.040926 -0.005937
0.173791 0.501914 -0.130566 0.123953 0.314878 -0.940701
0.05392 -0.369217 0.028362 -0.725593 -0.276432 0.628608
0.052209 -0.053218 -0.133086 -0.352836 -0.432335 -0.829631
-0.539285 0.096219 0.037646 -0.634292 0.753477 -0.170462
-0.095247 -0.188333 -0.072421 -0.705639 -0.040807 -0.707356
0.020787 -0.392271 -0.024381 0.949732 -0.040569 -0.307966
0.15486 -0.748417 0.026097 0.310118 0.541508 0.668946
0.04445 -0.558586 -0.027209 -0.990856 -0.029253 0.015692
-0.12868 -0.376998 0.003773 -0.990558 0.084028 0.008664
-0.027596 -0.755238 -0.000406 0.594618 -0.035806 0.756558
-0.10264 0.283184 -0.082388 -0.798765 -0.045923 -0.597699
-0.127591 -0.712424 -0.055121 -0.993192 -0.032235 -0.10639
0.019949 0.280649 -0.127573 0.082425 -0.019892 -0.995375
-0.008262 -0.805517 0.000126 0.929604 0.137887 0.341007
0.328182 0.354278 -0.138264 0.035577 -0.103147 -0.992953
0.459119 0.276367 -0.063801 0.709127 0.685619 0.150021
-0.43377 0.17819 0.026737 0.059094 0.573787 0.811289
-0.11317 0.099491 0.064418 -0.843478 0.197837 0.498103
0.109437 -0.229247 -0.09997 -0.184717 -0.064355 -0.980533
0.099602 -0.061181 -0.138858 0.034881 -0.33345 -0.940923
0.198026 -0.029394 -0.05229 0.936997 0.020342 -0.346453
0.177246 -0.382366 -0.065562 0.683901 0.221076 -0.689004
-0.127736 -0.31913 0.027787 -0.995299 -0.03064 0.086957
0.198763 0.38142 -0.061008 0.999137 -0.040265 0.001293
0.200978 -0.504476 -0.001391 0.951436 0.056086 0.295391
0.1369 -0.774199 -0.104687 0.270914 0.363364 -0.885396
-0.113737 0.141001 -0.047397 -0.887879 0.134142 -0.439826
0.006215 -0.082825 -0.096215 0.367249 -0.632314 -0.676317
0.015519 -0.38263 -0.036988 0.823506 0.020009 -0.566571
-0.080787 0.466552 0.072932 -0.407125 0.277249 0.868547
-0.04508 -0.693008 0.017069 -0.18516 -0.176146 0.965677
-0.122384 -0.41817 0.060527 -0.896186 -0.130966 0.421692
0.164797 -0.33038 0.074822 0.229771 -0.044429 0.971958
0.199785 0.550525 -0.084103 0.287516 0.813752 -0.502518
0.09327 0.106955 0.120587 0.358475 0.056153 0.930344
-0.15713 0.514318 0.045033 -0.313071 0.494931 0.808548
-0.094702 -0.554563 0.059473 -0.717303 -0.108604 0.680979
0.011704 0.249909 -0.127345 0.149445 -0.043313 -0.987722
-0.059656 0.5158 0.056407 -0.160626 0.51117 0.844028
-0.068352 0.26199 -0.11198 -0.524245 -0.15577 -0.836958
0.082222 -0.712831 -0.06646 -0.893886 -0.092327 -0.437082
0.574529 0.117958 0.058827 -0.345254 0.299066 0.88137
0.530757 0.138435 0.006574 -0.769413 -0.637206 0.041326
0.061619 -0.768716 -0.026205 -0.951285 0.087113 -0.277344
-0.109238 -0.470446 0.06375 -0.778875 -0.295463 0.552326
3.4e-05 -0.399435 -0.055364 0.624414 0.099111 -0.77465
0.043679 0.384649 -0.132231 -0.402903 -0.007254 -0.912845
-0.054336 -0.152413 0.122028 -0.088471 -0.021919 0.994848
-0.037071 0.593705 -0.048833 -0.636095 0.76909 -0.004035
0.054947 0.862901 -0.045792 0.174389 0.96292 -0.20038
-0.075738 -0.659732 -0.107608 -0.133254 0.036146 -0.988157
0.108068 -0.396694 -0.100702 -0.246825 -0.018755 -0.966315
0.076359 0.006277 0.137849 0.250692 0.051496 0.961261
-0.013334 0.853279 0.006438 -0.537061 0.825099 0.153067
-0.117981 0.513544 -0.098248 -0.420988 0.431474 -0.793517
0.200398 -0.396616 0.018412 0.944764 -0.049628 0.323096
-0.028498 0.759254 0.030632 -0.965523 0.016881 0.253178
-0.136676 -0.432675 -0.01631 -0.970716 0.117456 -0.205646
-0.326596 0.227455 -0.014669 0.6648 -0.716723 0.194331
0.155353 0.039563 0.100435 0.457005 0.308872 0.831856
0.118565 -0.823385 0.104463 -0.077653 0.985407 0.136573
0.092561 -0.033759 -0.149064 0.047994 -0.351059 -0.934738
-0.114616 0.329538 0.01251 -0.962602 -0.132992 0.23291
0.027609 0.111241 0.134083 -0.021465 0.18272 0.982004
-0.126197 -0.127905 -0.044184 -0.659191 -0.058622 -0.716439
0.116513 0.533545 0.030411 0.370273 0.586024 0.720414
0.182566 0.494789 -0.132125 0.077023 0.31352 -0.945708
0.094738 -0.664238 -0.08199 -0.603244 -0.0065 -0.797454
0.189003 0.050276 -0.063189 0.880118 0.152043 -0.448912
0.187072 -0.525366 0.034534 0.838988 -0.08389 0.537263
0.22105 0.394589 -0.058974 -0.76019 -0.627513 0.148374
-0.025618 0.479729 0.080449 -0.101166 0.422894 0.897443
-0.432377 0.212433 -0.049296 -0.52057 0.10037 -0.847556
0.150548 -0.015214 -0.12748 0.703185 0.048774 -0.708941
0.200289 -0.114682 -0.048722 0.879477 0.043019 -0.473649
-0.110739 -0.813345 -0.056853 -0.811079 -0.574673 -0.009925
-0.276261 0.268441 -0.061911 0.701131 -0.680253 -0.209516
0.205622 -0.077632 0.051634 0.908253 0.013131 0.413348
0.200786 -0.428834 -0.001988 0.987581 -0.134594 0.07538
-0.032039 -0.862957 0.08402 0.342552 -0.933372 0.046114
0.189166 -0.117986 -0.065324 0.776005 -0.023951 -0.63004
0.111026 0.173525 -0.109942 0.399734 0.086065 -0.910709
-0.087927 -0.776275 0.012862 -0.540218 0.036028 0.80882
-0.156939 0.394118 0.010868 0.467374 -0.71688 0.51492
0.097852 0.069725 -0.147073 0.431525 0.228175 -0.871309
0.173017 -0.687032 0.014982 0.463486 -0.423265 0.777337
0.178711 0.239056 0.035192 0.926609 0.005067 0.373441
0.350557 0.364188 -0.130888 0.547386 0.326737 -0.759688
0.182285 -0.160503 -0.069073 0.667403 -0.06591 -0.741391
0.175203 -0.573338 0.036087 0.53483 -0.227819 0.811999
0.038456 0.549751 0.030704 0.062568 0.548297 0.830666
0.106634 0.744678 -0.027175 0.964035 0.076536 -0.235533
-0.12156 0.361221 -0.001417 -0.974142 -0.206926 0.07151
0.010243 -0.806733 -0.082985 0.978306 -0.150955 -0.124836
0.058269 -0.417052 0.010159 -0.674897 -0.356197 0.644713
-0.004506 -0.054788 -0.122874 0.082602 -0.517994 -0.850967
0.063574 -0.696002 0.029398 -0.569491 0.289345 0.7594
-0.144289 0.402476 0.008244 0.519252 -0.745135 0.410644
-0.077009 -0.647639 -0.106967 -0.123538 0.063732 -0.989347
-0.105822 0.056567 0.091735 -0.515536 0.277644 0.809869
-0.053486 -0.287806 -0.092166 -0.094471 -0.07422 -0.991188
-0.082637 0.201773 0.08463 -0.618285 0.063214 0.783026
0.602044 0.108897 0.0456 0.838322 0.543764 0.037587
0.128163 -0.81945 0.085782 0.140185 0.946972 0.275658
-0.114997 -0.802943 -0.052982 -0.894426 -0.441408 -0.012479
0.039275 -0.073079 0.117302 -0.001539 -0.535079 0.843851
0.195404 0.447222 -0.133962 0.145364 -0.108318 -0.982967
-0.016598 -0.795262 0.019147 0.884404 0.268595 0.37928
0.022632 0.475802 -0.124761 -0.031816 0.12187 -0.990459
0.027077 -0.349783 0.01811 0.995271 -0.054095 0.069461
-0.100717 -0.149246 -0.073009 -0.728429 -0.143442 -0.66991
-0.206883 0.48665 -0.050891 -0.695619 0.516104 -0.498736
0.117739 -0.817515 0.081447 -0.054515 0.944264 0.321272
-0.043073 -0.263741 -0.093179 0.117321 -0.016072 -0.989812
0.072785 0.692803 -0.061099 0.653129 -0.51732 -0.550915
-0.143027 -0.08035 -0.009368 -0.984039 0.00977 -0.16873
-0.112 0.436007 -0.113693 -0.416912 -0.166515 -0.892879
0.197568 0.046556 -0.043386 0.95079 0.097181 -0.290495
-0.031206 -0.259736 -0.090277 0.320269 0.00094 -0.94716
0.1228 -0.677661 0.030521 0.115599 -0.07931 0.989173
0.003239 -0.785456 -0.10689 0.87018 0.198581 -0.444107
0.034365 0.684467 0.089982 0.027365 0.099879 0.977287
-0.079051 -0.862329 -0.07587 -0.069772 -0.996747 0.031612
-0.015331 0.056771 0.131362 -0.351223 0.158902 0.921795
-0.047747 0.209418 -0.111042 -0.557123 -0.318886 -0.766407
0.166633 0.360104 -0.105759 0.630001 -0.371951 -0.680627
0.201002 -0.498077 -0.037257 0.981138 0.083055 -0.17016
-0.091319 -0.190131 0.112333 -0.203153 -0.052832 0.977309
0.200989 0.071831 -9.1e-05 0.972524 0.230678 0.030004
0.026342 -0.50879 -0.004585 0.965073 -0.059319 0.206949
0.172394 0.39737 0.050518 0.676487 -0.054036 0.73403
0.065291 0.423987 -0.138079 -0.297763 0.0454 -0.953017
-0.128001 -0.347125 -0.011346 -0.996189 0.037713 -0.069085
-0.014822 0.607425 -0.062325 -0.528173 0.690712 -0.490925
0.031163 -0.105095 -0.085549 -0.748914 -0.407264 -0.522448
0.016366 -0.151884 0.092323 0.820925 -0.158815 0.542012
-0.093655 -0.8633 0.084943 -0.027543 -0.999611 0.002776
0.011593 -0.801633 -0.068747 0.975996 -0.19744 0.003175
-0.002572 -0.760773 -0.102887 0.800427 0.242887 -0.543326
-0.352078 0.228676 -0.070549 0.339816 -0.593724 -0.72849
0.240576 0.499363 0.001249 0.651174 0.280998 0.702218
0.325617 0.44178 -0.092768 0.709661 0.684411 -0.158468
-0.047456 -0.663851 -0.104993 0.365811 0.123904 -0.921352
0.173566 -0.341962 0.07242 0.232203 -0.043108 0.96415
0.034915 -0.31142 -3e-05 -0.955405 -0.059548 0.28844
0.075672 -0.588554 -0.071602 -0.694795 -0.095631 -0.712629
0.157054 -0.422528 -0.086909 0.518861 0.173311 -0.836988
0.17882 0.214711 -0.034046 0.932765 0.011696 -0.359987
-0.361085 0.205887 -0.022175 0.558156 -0.825074 0.009888
0.372677 0.314786 -0.131441 0.225711 0.03113 -0.965413
-0.007283 -0.12257 -0.0865 0.652363 -0.248499 -0.714455
0.20515 -0.243615 0.012184 0.999224 -0.002169 0.03683
-0.003888 0.261235 -0.129924 0.098103 -0.050549 -0.993285
-0.134822 -0.53683 -0.042689 -0.95019 0.001378 -0.277172
0.039479 -0.213691 0.019329 -0.45708 -0.259188 0.675037
-0.132319 -0.255788 0.001567 -0.966219 -0.112581 -0.230884
0.01741 0.385685 -0.128051 0.002256 -0.020665 -0.999332
0.098607 -0.151293 0.100909 -0.53177 -0.080909 0.842009
0.201389 -0.335538 -0.022099 0.88983 0.109973 -0.441694
0.121765 0.118777 -0.117059 0.511131 0.335857 -0.790775
0.165842 -0.705234 0.006983 0.39825 -0.571181 0.71656
0.276432 0.46861 -0.01708 0.684762 0.159946 0.710914
0.144788 -0.26232 -0.085803 0.533301 -0.105971 -0.83911
0.083497 0.627644 -0.012279 0.95501 0.069261 0.277242
-0.001897 0.371207 -0.128649 0.065249 -0.019564 -0.997525
0.090311 -0.835815 0.083536 -0.928694 0.362574 0.069447
-0.01441 -0.082146 0.127859 0.123182 -0.07233 0.989024
0.164939 -0.321272 -0.066578 0.680974 0.002575 -0.731999
0.44309 0.29207 -0.068414 0.581508 0.774693 0.220582
-0.018315 0.848013 -0.037896 -0.552638 0.804063 -0.215974
0.014003 0.77088 -0.119734 -0.184326 -0.013448 -0.974668
-0.249984 0.438323 -0.020452 -0.767669 0.612802 0.176066
0.109702 -0.414554 0.058748 -0.458053 -0.233012 0.857773
0.003677 -0.128327 0.112139 0.575725 -0.180918 0.79701
0.088627 0.616763 -0.048328 0.729393 0.598187 -0.319888
-0.167753 0.376434 -0.062577 0.661474 -0.6842 -0.306641
0.174376 0.099604 0.068172 0.726645 0.24659 0.640999
0.16625 -0.115222 -0.094455 0.729902 -0.153307 -0.664729
-0.000319 0.78194 -0.114247 -0.407453 0.082902 -0.908585
-0.098156 -0.111084 -0.081634 -0.664473 -0.111138 -0.737363
0.20012 -0.438656 -0.020322 0.998118 -0.048394 -0.026609
-0.04937 0.56227 -0.096537 -0.353999 0.547667 -0.757904
-0.037681 0.562315 -0.101695 -0.241508 0.559988 -0.791326
0.079379 -0.738479 -0.053467 -0.904107 -0.010854 -0.425936
-0.448476 0.145481 0.013638 0.676043 -0.724007 0.08877
-0.0552 -0.368514 -0.086614 -0.024682 -0.126802 -0.990315
0.192419 -0.434915 0.036641 0.957186 -0.08866 0.275226
0.086269 -0.827947 -0.029545 -0.766569 -0.609726 -0.001973
0.150497 0.283432 0.068209 0.719358 0.053997 0.690943
-0.220652 0.338321 -0.005098 0.480773 -0.657955 0.569094
0.108869 -0.203655 -0.103005 -0.143436 -0.176801 -0.973073
0.025276 -0.517372 -0.021794 0.936585 -0.030339 -0.325331
-0.127752 -0.368806 0.029225 -0.996423 -0.012209 0.082087
0.576833 0.068288 0.030566 -0.865443 -0.484782 0.123751
0.194147 -0.36822 0.040715 0.932171 -0.062014 0.356499
0.144953 0.071274 0.095911 0.741587 0.210319 0.635031
0.001379 0.093695 0.134767 -0.265254 0.004587 0.960765
0.172247 0.347511 0.043235 0.827068 -0.060837 0.558017
0.162809 -0.611398 0.027875 0.427623 -0.375781 0.820811
-0.042316 -0.641358 -0.100792 0.436457 0.054065 -0.897371
-0.098841 0.009111 -0.10486 -0.85095 0.00017 -0.492384
0.138565 0.342375 0.079932 0.680904 -0.023298 0.729605
0.033762 -0.062016 -0.120324 -0.404792 -0.477471 -0.779058
-0.204934 0.416264 -0.094472 -0.167117 0.222917 -0.959388
0.002752 0.533639 -0.118624 0.001325 0.331312 -0.941581
-0.128213 0.145204 -0.004403 -0.996178 0.03934 -0.054733
0.019356 -0.455909 -0.029418 0.925863 0.048547 -0.374646
0.0734 0.704862 -0.071741 0.600782 -0.551574 -0.574383
-0.472145 0.16475 0.044699 0.051227 0.744016 0.656146
-0.136805 -0.464934 -0.028273 -0.970284 0.060423 -0.231226
0.198383 -0.684531 -0.022317 0.997691 -0.028485 -0.011843
0.036594 0.282326 0.123716 0.085027 0.155863 0.983802
0.205328 0.471178 0.02381 0.511738 0.097115 0.851275
0.017678 0.349007 0.113313 -0.0538 0.10134 0.992583
0.040463 0.43803 -0.129023 -0.238808 0.021499 -0.968388
-0.036508 0.733564 -0.033976 -0.865172 -0.361906 -0.328082
-0.0914 -0.854551 -0.10496 -0.830017 -0.286475 -0.37251
0.012744 -0.293434 -0.045213 0.79688 -0.092364 -0.595729
-0.018323 0.356608 -0.128865 -0.009988 -0.007394 -0.999857
-0.23603 0.314588 -0.047954 0.748451 -0.656605 -0.084785
0.115135 -0.005496 -0.149571 0.411929 0.073507 -0.907213
-0.042145 0.373585 0.105171 -0.22105 0.063813 0.968609
0.183179 -0.596793 -0.072895 0.700797 -0.058307 -0.710457
0.291121 0.329401 -0.089853 -0.663176 -0.746229 -0.026182
0.146951 -0.524592 0.055667 -0.200313 -0.276869 0.936766
-0.162767 0.380385 -0.005158 0.545054 -0.738022 0.397558
0.443995 0.292959 -0.078913 0.663234 0.746589 0.027196
-0.024534 -0.810627 -0.145935 0.450719 -0.129784 -0.87743
-0.120051 0.563684 -0.007149 -0.393944 0.871954 0.2612
0.143455 -0.356881 -0.085245 0.611544 0.079887 -0.786882
0.465312 0.236595 -0.016706 -0.198618 0.489662 0.841101
0.040068 -0.378683 -0.017006 -0.977505 -0.148532 0.133576
-0.183168 0.361724 -0.061775 0.628512 -0.720534 -0.292285
0.112876 -0.711504 -0.095331 -0.227293 0.099385 -0.961704
-0.065363 -0.187029 -0.092567 -0.336576 -0.116784 -0.932864
-0.069542 0.471722 0.075323 -0.232766 0.351023 0.906369
0.54339 0.176319 -0.026706 0.824431 -0.016387 -0.46159
0.108579 0.049395 -0.146723 0.476459 0.235332 -0.846874
-0.324006 0.34123 -0.060903 -0.644692 0.727401 -0.226167
-0.137937 -0.004019 0.018531 -0.994799 -0.01848 0.028357
0.160911 0.199759 0.06444 0.771515 0.092008 0.628995
0.135849 -0.802418 0.049854 0.429343 0.574776 0.691804
0.193229 0.546522 -0.093473 0.301244 0.735307 -0.606628
0.139908 0.349416 -0.124013 0.641218 -0.211227 -0.7374
0.01367 0.207358 -0.123986 0.146634 -0.415735 -0.896703
0.152981 -0.531767 -0.100925 0.507872 -0.02003 -0.861157
0.350911 0.279795 -0.063752 -0.669694 -0.679259 0.298021
0.036655 0.105015 -0.138634 -0.108076 0.313172 -0.940496
0.195458 -0.718416 -0.008378 0.965608 0.007835 0.25759
0.006572 -0.367633 0.063494 0.794043 -0.163087 0.584898
0.202499 0.06121 0.014328 0.948473 0.298751 0.100266
0.060381 -0.603539 -0.002986 -0.713704 -0.120825 0.687403
-0.037365 0.798134 -0.027825 -0.997717 -0.021241 0.034224
-0.051627 0.150824 0.10673 -0.548336 0.100162 0.8299
0.047772 -0.369661 -0.047792 -0.851632 -0.00827 -0.523359
-0.040419 0.331641 -0.127566 -0.205055 0.008783 -0.976846
0.102643 0.527304 -0.129772 0.007374 0.302641 -0.950747
0.083789 -0.047885 -0.143725 -0.084063 -0.368315 -0.92496
-0.054328 -0.849359 0.15455 0.601127 -0.145888 0.732455
-0.114345 -0.267119 0.095283 -0.717621 -0.061028 0.69337
0.252843 0.422263 -0.138865 -0.200117 0.014652 -0.978751
-0.543454 0.094306 0.052015 -0.718427 0.694268 -0.023752
-0.091912 -0.820153 -0.109476 -0.837773 -0.274555 -0.471725
-0.191871 0.370662 0.010902 0.371081 -0.613663 0.694391
-0.214686 0.481045 0.011506 -0.787698 0.473255 0.387239
-0.129139 -0.276409 -0.003828 -0.989102 -0.070111 -0.122026
0.000316 0.076231 -0.13992 -0.174942 0.300301 -0.937411
-0.094804 0.398587 0.07324 -0.613785 -0.025522 0.788967
0.090556 0.700841 -0.013043 0.946526 -0.295429 -0.011917
0.137834 -0.869715 0.095388 0.033559 -0.999046 0.01461
-0.487891 0.131836 0.073712 0.560039 -0.206255 0.780961
0.537876 0.13035 -0.000267 -0.751517 -0.659485 -0.003121
0.008231 -0.154501 0.103464 0.686703 -0.114659 0.713181
0.066277 0.303911 -0.138177 -0.297875 -0.06834 -0.95118
0.106388 0.752021 -0.008401 0.95697 0.226185 0.168483
-0.133592 0.00365 -0.038774 -0.94273 0.062614 -0.321009
-0.102693 0.42214 0.065351 -0.429403 0.079717 0.895046
0.080869 -0.540066 0.021466 -0.691818 0.018744 0.721747
0.18363 0.081375 -0.06276 0.838401 0.156318 -0.521626
0.081362 0.71419 -0.070717 0.716699 -0.497855 -0.487838
-0.001382 -0.009596 0.143749 0.052632 -0.601696 0.744619
-0.386122 0.191494 -0.041142 0.388792 -0.886611 -0.220272
-0.108218 0.063161 -0.077701 -0.826217 0.123671 -0.54933
-0.086884 -0.694169 0.024519 0.040074 -0.415511 0.905395
-0.154551 0.429224 -0.093968 0.077441 -0.104592 -0.990425
0.033147 0.333988 -0.127146 -0.162679 -0.018705 -0.985019
0.152336 0.111272 -0.093927 0.738938 0.241888 -0.628691
-0.016269 -0.457869 0.061637 0.62462 -0.277579 0.729116
0.193307 -0.277024 0.058457 0.86616 -0.055266 0.492809
-0.053752 0.194779 0.102424 -0.485444 0.012861 0.873993
0.024131 -0.126701 0.09178 0.810329 -0.274071 0.517851
-0.419529 0.200988 -0.056704 -0.31362 -0.065008 -0.944297
0.010762 -0.486389 0.027206 0.775169 -0.155125 0.612143
0.070563 -0.50484 0.011802 -0.603518 0.030286 0.796613
0.025114 0.733937 -0.110579 -0.100176 -0.48305 -0.868564
-0.029014 0.138743 0.119457 -0.404757 0.008852 0.914151
0.604974 0.099082 0.071316 0.57255 0.68563 0.291023
-0.081427 -0.207862 0.11312 -0.208959 -0.039845 0.976898
-0.058011 -0.009237 0.133432 -0.273804 -0.566883 0.739439
0.143405 -0.005498 -0.133191 0.652896 0.100877 -0.750197
0.175612 -0.024807 -0.096148 0.841447 -0.004056 -0.539876
0.104728 0.776588 -0.047779 0.992047 -0.017158 -0.112453
0.049172 -0.272716 0.047008 -0.85201 -0.088551 0.515617
0.005597 -0.264213 -0.059698 0.774686 -0.116953 -0.621326
0.149822 0.094988 -0.102884 0.701144 0.209941 -0.681003
0.190757 -0.419274 -0.0549 0.827227 0.066893 -0.556931
0.201647 -0.492815 -0.027683 0.986537 0.127101 -0.094864
0.086241 -0.845931 0.048113 -0.980224 0.173219 -0.053259
-0.446548 0.149326 0.025745 0.759204 -0.615045 0.192322
0.102103 0.549354 0.025479 0.391582 0.635262 0.664345
0.045243 -0.344625 -0.045386 -0.871732 -0.079583 -0.483238
0.196484 0.108712 -0.018092 0.959179 -0.102853 -0.238914
-0.047149 0.088731 -0.125627 -0.451429 0.308791 -0.835617
0.0383 -0.363261 -0.026529 -0.951296 -0.05596 -0.227043
0.17474 0.360451 -0.097865 0.649631 -0.434106 -0.622259
-0.007937 -0.711936 -0.092577 0.560534 0.314327 -0.765947
0.119033 0.239313 -0.125366 0.606508 -0.281798 -0.739988
-0.443614 0.211721 0.006192 -0.595346 0.495891 0.625699
0.368877 0.339224 -0.056684 0.515357 0.548866 0.655245
0.103673 0.543029 -0.124426 0.073428 0.520007 -0.850147
-0.177216 0.435421 0.038951 0.020397 -0.474528 0.878404
-0.128266 -0.062788 0.073578 -0.843613 0.028822 0.53578
-0.11286 -0.354416 -0.05119 -0.768806 0.114186 -0.627551
-0.093342 -0.094403 -0.089069 -0.67511 -0.137986 -0.723633
0.267627 0.346345 -0.07016 -0.681907 -0.728565 0.058885
-0.075924 0.220054 -0.090276 -0.754871 -0.236495 -0.610973
0.122047 -0.701939 -0.095283 0.016633 0.070023 -0.992293
0.313664 0.352377 -0.136648 -0.183823 -0.216259 -0.957017
-0.118687 -0.550772 -0.075398 -0.759395 0.122926 -0.638005
-0.104514 -0.832185 -0.039155 -0.997877 -0.030748 -0.021191
0.190416 0.018669 -0.064802 0.903766 -0.018277 -0.423227
-0.116692 0.233412 0.01029 -0.910965 0.386055 0.140033
0.15346 -0.330198 -0.076183 0.631793 0.010768 -0.775054
-0.13634 -0.163468 0.058897 -0.977525 -0.016176 0.203077
0.15085 0.299685 -0.100789 0.817979 -0.133997 -0.558961
-0.085391 0.327511 -0.10464 -0.591559 -0.088423 -0.800545
0.172087 0.556142 -0.011277 0.209356 0.781345 0.586935
-0.335172 0.224147 -0.01032 0.491344 -0.851509 0.170517
-0.526286 0.069617 0.06072 0.208984 -0.974801 0.034941
0.444364 0.243784 -0.106179 0.61956 -0.308575 -0.721166
0.010305 -0.255438 0.086415 0.780896 -0.103152 0.61277
-0.073081 0.270444 -0.110212 -0.612868 -0.10678 -0.781256
0.007828 0.194969 0.129713 -0.066747 0.047116 0.996647
0.076262 -0.070765 0.11673 -0.016655 -0.413847 0.901239
0.026895 0.629306 0.030966 -0.221959 -0.43736 0.862794
-0.02424 -0.848125 0.073444 0.981106 0.016773 0.148499
0.20111 -0.331886 0.030899 0.935691 -0.055112 0.348041
0.060176 -0.259966 -0.069461 -0.803667 -0.001212 -0.594809
0.041712 -0.136915 0.058042 -0.088778 -0.531095 0.806929
-0.065356 -0.170504 0.120057 -0.240354 -0.074055 0.966152
-0.061331 -0.618443 -0.104875 0.097038 0.068465 -0.991857
0.022185 -0.189762 0.064444 0.953683 -0.028325 0.298202
0.204951 -0.523248 -0.01254 0.973892 0.004512 0.208806
-0.068974 -0.258139 -0.089831 -0.386127 -0.016136 -0.920467
-0.127115 -0.290993 0.057749 -0.986619 -0.092018 0.127042
-0.039318 0.431803 0.09445 -0.234315 0.32787 0.91386
-0.128722 -0.270784 0.059989 -0.970471 -0.127969 0.20257
0.297112 0.324293 -0.076328 -0.671638 -0.733908 0.082195
0.087519 -0.758797 -0.071434 -0.80943 0.133608 -0.570913
0.512317 0.203532 -0.001904 0.069148 0.906269 0.403325
0.236877 0.426611 -0.002237 0.439171 -0.493138 0.716959
0.20423 -0.344649 -0.017898 0.958116 0.090788 -0.251929
0.095307 0.406777 0.092088 0.169443 0.210602 0.96227
0.125972 -0.392269 -0.100246 0.300295 0.077042 -0.948958
0.581922 0.054753 0.013529 -0.909854 -0.413132 0.03491
-0.128125 -0.359322 -0.018237 -0.993141 0.032617 -0.102246
-0.28546 0.401408 -0.047218 -0.553206 0.832348 -0.008509
-0.035005 0.433912 -0.130674 0.0024 -0.076402 -0.996376
-0.010077 0.653124 0.002605 -0.921393 -0.188397 0.305087
-0.06229 -0.856193 0.153709 0.266029 -0.753235 0.582258
0.002811 -0.644728 -0.068503 0.605668 0.112183 -0.787162
0.016017 0.165595 -0.117205 -0.093499 0.0173 -0.993902
-0.062755 0.226931 -0.106117 -0.617139 -0.266598 -0.740296
0.079113 -0.749013 0.024069 0.074226 -0.378018 0.917819
