-0.282058 0.3949 -0.07279 -0.633227 0.499208 -0.550782
-0.129296 -0.043182 0.071024 -0.847529 0.055313 0.525335
0.0458 0.136079 -0.125793 -0.12404 0.412681 -0.901817
-0.027471 0.040288 -0.144015 -0.163477 0.183941 -0.968952
-0.050085 -0.296802 -0.091408 -0.035195 -0.088176 -0.99279
0.225848 0.485573 -0.128013 0.235674 0.287058 -0.92737
-0.134751 -0.550076 -0.024717 -0.967173 -0.155699 0.176631
-0.315306 0.240024 -0.060148 0.425723 -0.834058 -0.335051
0.145539 0.291223 0.073673 0.786022 0.04764 0.615209
0.109586 0.256948 0.104261 0.365954 0.052253 0.928972
-0.186915 0.410496 -0.096345 0.076795 0.046208 -0.994443
0.325617 0.44178 -0.092768 0.709661 0.684411 -0.158468
0.071913 0.816041 0.05954 0.727111 0.380618 0.558224
-0.112701 -0.458155 -0.065658 -0.720963 0.151745 -0.676034
0.155821 -0.148683 0.101651 0.528694 -0.291892 0.795427
0.150548 -0.015214 -0.12748 0.703185 0.048774 -0.708941
-0.005244 -0.653786 0.023539 0.521641 -0.015097 0.846433
0.158543 -0.560191 -0.09651 0.536 -0.048146 -0.841261
0.098501 -0.83849 0.142 -0.864959 0.445605 0.21369
-0.0204 -0.547663 -0.089577 0.578207 -0.006643 -0.814597
-0.072624 0.0781 -0.113853 -0.573609 0.269501 -0.77256
-0.128129 -0.220253 -0.015818 -0.921126 -0.063371 -0.383478
-0.113325 -0.073631 -0.071633 -0.77238 -0.163032 -0.613084
-0.027148 0.084264 -0.133222 -0.256536 0.314713 -0.912888
0.171497 0.069472 0.081636 0.734288 0.21044 0.645032
-0.035272 -0.817861 -0.147416 0.163843 -0.241645 -0.950221
0.135454 -0.11644 -0.116448 0.462039 -0.242623 -0.852865
0.001064 -0.364671 -0.051576 0.687397 -0.044608 -0.724495
-0.016763 0.028219 0.135988 -0.209906 0.187955 0.959007
-0.019392 -0.749623 -0.004161 0.300419 -0.520239 0.784038
0.06281 0.429864 0.090845 0.13051 0.232936 0.963564
-0.033965 0.4211 0.098024 -0.144252 0.229991 0.962158
-0.120195 -0.190252 -0.037762 -0.850454 -0.101697 -0.515844
-0.080943 0.436239 -0.124002 -0.311646 -0.192919 -0.929823
-0.42269 0.172072 -0.046019 0.482247 -0.720365 -0.495899
-0.094274 -0.863159 0.101013 -0.099645 -0.991147 0.02323
-0.014325 0.534576 -0.11768 -0.083441 0.366239 -0.925589
0.492108 0.236645 -0.040032 0.682642 0.729759 0.035476
0.089526 -0.827099 -0.092158 -0.924646 -0.291744 -0.209645
-0.016625 -0.773338 0.002145 0.684631 0.552177 0.471868
0.173843 -0.395815 0.069584 0.496751 -0.022621 0.863866
-0.384103 0.290542 -0.05009 -0.706535 0.705083 -0.052426
0.015329 0.631876 -0.063718 -0.317037 0.322812 -0.890595
-0.119145 0.333887 -0.064447 -0.968644 -0.118481 -0.20502
0.053466 -0.039497 0.130373 0.053537 -0.20125 0.976638
0.084981 -0.263633 -0.091406 -0.484705 0.0618 -0.872273
0.084743 0.148328 -0.121539 0.145032 0.227483 -0.962589
0.529835 0.202662 -0.000987 -0.119978 0.935763 0.32288
0.531288 0.137411 -0.007154 -0.752228 -0.65858 -0.018173
0.059296 -0.755886 0.003555 -0.996734 -0.044976 0.016953
0.04568 -0.506477 -0.019095 -0.766091 -0.000546 0.526244
0.007541 0.723699 -0.099048 -0.427189 -0.680341 -0.571605
0.111529 0.244151 -0.131363 0.47952 -0.217464 -0.848539
-0.028498 0.759254 0.030632 -0.965523 0.016881 0.253178
0.177106 0.071357 0.073892 0.843598 0.116298 0.48844
0.018994 0.637602 0.031757 -0.454038 -0.390883 0.794349
-0.392379 0.280707 -0.061138 -0.737463 0.636468 -0.215756
0.155193 -0.78272 0.029042 0.453511 -0.254266 0.843624
0.013936 -0.609446 -0.053225 0.728811 0.097803 -0.67748
0.192419 -0.434915 0.036641 0.957186 -0.08866 0.275226
0.027576 -0.628848 -0.031393 0.997007 0.00421 -0.070395
0.125185 -0.815842 0.074935 0.110662 0.923261 0.361489
0.148048 0.274902 -0.099531 0.837482 -0.100981 -0.537026
0.280959 0.372771 -0.137881 -0.215509 -0.508817 -0.828454
-0.537754 0.089011 0.020989 0.169989 0.431847 -0.726845
-0.016963 -0.278151 -0.080945 0.649978 -0.095973 -0.753611
0.177238 -0.488933 -0.083533 0.706909 0.020928 -0.706745
-0.022496 -0.547513 0.039545 0.479725 -0.228616 0.846086
-0.061408 -0.357433 -0.086292 -0.231542 -0.067448 -0.967583
0.042824 0.247928 -0.126976 -0.201386 -0.024374 -0.977547
-0.100389 -0.710196 0.012789 -0.49521 -0.528825 0.682381
-0.043519 0.556827 0.02527 -0.169436 0.763632 0.621278
-0.126667 -0.532589 0.008771 -0.892089 -0.126361 0.430179
-0.127692 0.074247 0.030789 -0.977033 0.150462 0.145411
0.071408 0.534022 -0.126201 -0.195413 0.340889 -0.915656
-0.049207 -0.6033 -0.101746 0.318868 0.032084 -0.946516
-0.090341 0.151521 0.077396 -0.693521 0.010127 0.719753
0.625356 0.042644 0.044854 -0.827251 -0.560089 -0.031097
-0.258016 0.409157 -0.078087 -0.465058 0.615891 -0.635904
-0.126558 0.385121 0.006992 -0.966628 -0.206568 0.135905
0.110957 -0.526511 0.039582 -0.520071 -0.017752 0.852238
-0.199625 0.368488 -0.087835 0.38798 -0.525947 -0.75431
0.085263 0.24187 0.11432 0.423255 0.06979 0.901926
-0.161785 0.418558 0.032013 -0.187287 -0.401448 0.887141
0.141553 -0.172149 0.099214 0.161685 -0.276968 0.946305
-0.037889 -0.603844 -0.097515 0.403661 0.012434 -0.914496
0.07546 -0.756152 0.01675 0.112883 -0.638159 0.744338
-0.307164 0.261561 -0.082724 0.22051 -0.558816 -0.793002
-0.093656 -0.065999 0.110195 -0.544132 0.045844 0.837687
-0.09261 -0.798356 -0.116547 -0.798257 -0.040411 -0.599159
0.089189 0.192241 -0.118931 0.197133 -0.329391 -0.921072
-0.102229 -0.25691 0.106433 -0.44299 -0.020457 0.893615
-0.033438 0.760632 0.014769 -0.945825 -0.114804 0.296412
0.093299 -0.419815 0.045093 -0.628483 -0.361557 0.688538
0.083644 0.538082 -0.126846 -0.095745 0.380347 -0.916325
0.10794 0.230893 -0.129159 0.448547 -0.296672 -0.839617
-0.282587 0.310591 -0.096226 0.227461 -0.142386 -0.961053
0.206617 0.484376 -0.132163 0.17156 0.208465 -0.962741
-0.072234 -0.418805 0.088023 0.112874 -0.215161 0.969282
0.067594 -0.388093 0.034884 -0.690358 -0.328067 0.644402
-0.123874 -0.205358 -0.027832 -0.855755 -0.09832 -0.507717
0.094632 -0.50584 -0.097446 -0.557181 -0.020469 -0.83006
-0.112127 -0.852284 0.035258 -0.909435 -0.381137 -0.021101
0.377809 0.349362 -0.081804 0.667199 0.688791 0.268322
-0.100767 0.120183 0.070876 -0.704889 0.156184 0.6858
0.34777 0.385491 -0.116369 0.94692 0.135696 -0.152564
0.105932 -0.587799 0.032112 -0.314957 -0.15813 0.93516
-0.07854 0.225676 0.083967 -0.595825 0.118869 0.794187
-0.00593 0.532614 0.054608 0.03154 0.546018 0.834295
0.109437 -0.229247 -0.09997 -0.184717 -0.064355 -0.980533
-0.033888 -0.493694 -0.094284 0.3981 0.107191 -0.905863
-0.011868 0.157841 0.12654 -0.394213 0.00243 0.910314
-0.108818 -0.848252 0.088977 -0.88559 0.179182 0.223268
0.12036 0.046482 0.112259 0.167672 0.218395 0.943916
0.139469 -0.783629 0.038014 0.385247 0.134138 0.892016
-0.082795 0.417122 -0.120221 -0.274166 -0.160787 -0.94813
0.077551 -0.0829 0.104779 -0.114302 -0.760511 0.636826
-0.086466 0.474308 -0.123264 -0.335658 0.134614 -0.931719
0.09377 0.308748 0.105095 0.205447 0.08691 0.97471
-0.05995 -0.261948 0.110519 0.089101 -0.145327 0.985151
0.437446 0.212174 -0.040164 -0.690366 -0.477583 0.518203
0.184264 0.482697 -0.135167 0.087879 0.165515 -0.981563
-0.108846 -0.461045 0.06829 -0.805478 -0.195126 0.559342
0.141964 -0.829146 0.131508 0.463409 0.881724 0.076
0.073849 0.573858 -0.104691 -0.056975 0.634022 -0.770517
-0.040196 0.74585 -0.02975 -0.991682 -0.018482 -0.088411
0.003565 0.076998 0.135884 -0.278559 0.069189 0.94491
-2.3e-05 -0.456294 0.04553 0.743413 -0.147191 0.652117
0.010477 0.847666 0.047853 -0.420132 0.596967 0.677535
-0.060924 -0.59163 -0.103592 0.085729 0.012739 -0.995455
0.072132 -0.602053 0.007848 -0.763447 -0.189016 0.617576
0.006747 0.634781 -0.058793 -0.483514 0.287884 -0.821698
0.192678 0.404286 -0.117221 0.493126 -0.480175 -0.721692
0.024508 -0.631036 -0.046236 0.887409 0.096388 -0.443074
-0.125549 -0.640255 -0.074452 -0.89051 0.008962 -0.443032
0.033223 0.704861 0.093485 0.001216 -0.364872 0.919574
-0.278202 0.271022 -0.023642 0.635879 -0.650959 0.413198
0.20653 -0.001725 0.033079 0.986288 0.050729 0.141228
0.170147 0.269534 0.046467 0.780614 0.061707 0.619348
-0.115233 0.413749 -0.105741 -0.561725 -0.309431 -0.765835
0.035895 0.133497 0.132084 0.076924 0.02439 0.996526
-0.107004 0.340122 -0.088277 -0.714373 -0.20146 -0.667786
0.095316 -0.341922 -0.098064 -0.343062 0.007164 -0.934817
0.119526 0.408915 -0.144514 0.145508 -0.067734 -0.986805
-0.523287 0.071826 0.070294 0.47015 -0.860126 0.191308
0.126145 -0.720936 0.018664 0.389296 -0.036195 0.915069
0.053648 -0.613539 -0.046665 -0.83946 -0.095475 -0.534006
0.204827 -0.2661 -0.016074 0.994489 -0.003005 -0.100261
0.184041 -0.008042 0.076046 0.737116 -0.05863 0.67219
0.165047 0.131368 -0.070709 0.83912 0.15113 -0.521544
-0.126485 -0.560262 -0.000736 -0.925483 -0.129969 0.352435
-0.256815 0.347073 -0.096135 0.146999 -0.172193 -0.972188
0.330496 0.295452 -0.069153 -0.649427 -0.650121 0.392056
0.196085 -0.572613 0.011389 0.926483 -0.004364 0.369997
-0.113293 -0.715608 -0.082324 -0.776339 -0.132351 -0.614911
0.316334 0.449395 -0.060769 0.791065 0.531879 0.285842
-0.02577 0.364064 -0.128928 -0.027704 -0.018084 -0.999364
-0.102013 0.014334 0.104456 -0.516158 0.23097 0.8238
0.051204 0.603907 -0.081868 0.100009 0.690904 -0.692399
-0.349537 0.213683 -0.043004 0.587338 -0.779779 -0.201475
0.148493 -0.749211 -0.091176 0.696508 0.154593 -0.700224
0.200398 -0.396616 0.018412 0.944764 -0.049628 0.323096
0.090486 -0.829546 0.062101 -0.97084 0.201011 0.116451
0.06674 -0.633417 -0.059172 -0.705471 -0.158749 -0.690159
0.183159 0.479106 0.032866 0.477908 0.310694 0.82092
0.128813 0.031155 0.116266 0.198435 0.185292 0.952855
0.037052 -0.32548 -0.031121 -0.964007 -0.02143 -0.2645
-0.387833 0.259483 0.005711 -0.242518 0.385009 0.884471
0.002681 -0.769233 -0.02062 0.665551 0.025459 0.736437
-0.114435 -0.560289 -0.081629 -0.674866 0.09046 -0.730337
0.183273 0.275173 -0.003888 0.999347 -0.019685 -0.003345
0.263638 0.442319 -0.136494 0.065074 0.316763 -0.940445
-0.469578 0.126464 0.01724 0.738216 -0.673043 0.018006
0.150405 -0.638505 0.028203 0.18161 0.119546 0.975449
-0.065466 -0.216115 -0.090702 -0.245064 -0.006589 -0.966141
-0.083628 0.042555 0.10548 -0.451443 0.165906 0.87207
0.199045 -0.601041 -0.046481 0.988073 -0.023249 -0.150782
0.097595 0.117105 0.117586 0.466138 0.05401 0.882111
0.064752 -0.312078 0.059476 -0.720599 -0.0866 0.687899
0.064478 0.39121 0.100135 0.165928 0.257169 0.951281
-0.14259 -0.058852 0.029819 -0.986291 0.049421 0.154393
-0.101282 -0.572504 0.049338 -0.827831 0.066628 0.555703
-0.129139 -0.276409 -0.003828 -0.989102 -0.070111 -0.122026
0.164431 0.296041 -0.077596 0.855233 -0.22848 -0.464879
-0.500047 0.151017 0.025628 -0.746345 0.665483 0.005464
0.000921 0.654012 0.021723 -0.739078 -0.376785 0.54556
0.451207 0.252836 -0.027966 0.03606 0.568572 0.821373
0.132208 -0.795903 -0.116553 0.173021 0.312296 -0.931101
0.022814 0.867064 -0.015822 -0.533935 0.841136 -0.008487
-0.0914 -0.854551 -0.10496 -0.830017 -0.286475 -0.37251
-0.354739 0.314352 -0.067555 -0.681167 0.67393 -0.276168
0.051543 -0.637185 -0.003788 -0.934898 0.135331 0.322751
0.182531 0.091748 -0.061156 0.825013 0.209936 -0.523583
0.178697 0.038437 -0.085321 0.828488 0.122912 -0.545926
0.530514 0.139206 -0.017584 -0.701559 -0.694878 -0.130611
0.0238 -0.458807 -0.01837 0.905881 0.08262 -0.409439
0.184706 -0.426064 0.056559 0.823682 -0.038736 0.564487
-0.058474 -0.11245 0.122724 -0.214846 -0.028987 0.975822
-0.087042 -0.8633 0.093151 -0.021798 -0.999733 0.00086
0.204784 -0.017691 0.045463 0.90722 0.102507 0.402371
0.165555 -0.48649 0.063826 0.384213 -0.166832 0.89863
0.00339 0.667211 0.069473 -0.715216 -0.540101 0.383599
0.16471 -0.074741 -0.103557 0.717842 -0.099072 -0.687914
0.10026 0.555253 -0.118643 0.112314 0.546364 -0.82873
-0.379273 0.205745 0.010498 0.416591 -0.167255 0.8774
-0.13634 -0.163468 0.058897 -0.977525 -0.016176 0.203077
-0.000901 0.356488 -0.128218 0.092941 -0.019235 -0.995346
0.130511 -0.2288 0.089367 0.082191 -0.167994 0.982335
0.433961 0.231062 -0.032065 -0.632137 -0.485465 0.589626
-0.04277 -0.723329 0.02493 -0.377 0.325538 0.855576
-0.128681 -0.573277 -0.015208 -0.969988 -0.083693 0.227768
-0.098529 0.296479 0.058976 -0.809782 0.189427 0.553369
0.14241 -0.20166 0.094132 0.02968 -0.151152 0.982693
-0.124783 0.370043 -0.058149 -0.931481 -0.343042 -0.113898
0.205202 -0.213178 -0.037025 0.980823 -0.029339 -0.184701
0.20542 -0.270083 0.014008 0.999766 0.00225 0.019563
-0.079236 0.064315 0.104528 -0.541655 0.197225 0.815679
0.168212 -0.708381 -0.065521 0.81303 -0.025984 -0.58156
0.482789 0.217087 -0.008672 0.484663 -0.041738 0.833768
0.197925 -0.325187 -0.027147 0.876557 0.042419 -0.478152
0.030811 0.385437 -0.128884 -0.12939 -0.014053 -0.99132
0.025748 0.041695 0.137163 0.102364 0.114614 0.987571
0.027312 0.22472 -0.125557 0.043509 -0.067265 -0.996352
0.177936 -0.540727 -0.081694 0.697843 -0.036048 -0.71534
0.555443 0.150652 -0.013969 0.631642 0.118028 -0.758671
0.162915 -0.154297 0.097791 0.38053 -0.110723 0.916686
-0.139095 -0.487102 -0.020757 -0.976045 -0.094073 -0.147511
0.074785 -0.496002 -0.080985 -0.698033 -0.012331 -0.715877
0.590984 0.122108 0.035866 0.727253 0.685714 0.010974
0.007915 -0.722654 -0.009501 0.791664 0.001039 0.610764
0.087069 -0.737973 -0.070106 -0.860457 -0.073335 -0.503417
0.019804 -0.435166 0.017419 0.951401 0.026622 0.297493
-0.107434 0.278478 0.032722 -0.985977 -0.007947 0.16435
-0.224164 0.326291 -0.041199 0.679779 -0.732403 -0.026366
0.064527 0.74708 -0.106115 0.473844 -0.285732 -0.831868
0.199879 -0.196587 0.043612 0.951651 -0.024906 0.305726
0.117981 0.055943 0.110423 0.33746 0.229441 0.911801
-0.23241 0.396838 -0.09445 -0.084722 0.190439 -0.977735
0.195679 0.364779 -0.016922 0.973972 -0.1235 0.188994
-0.097186 -0.700984 0.019226 -0.306733 -0.433028 0.836474
-0.125164 0.035869 0.067958 -0.872749 0.164821 0.458095
-0.172952 0.420495 0.031883 -0.005368 -0.387202 0.921534
-0.241329 0.374255 0.019774 -0.023914 -0.16646 0.984794
0.161137 -0.833765 -0.073441 0.97432 -0.104279 -0.084735
-0.102693 0.42214 0.065351 -0.429403 0.079717 0.895046
0.022427 0.815124 -0.110921 -0.09545 0.544249 -0.827529
-0.085347 0.157078 -0.080135 -0.617764 0.211525 -0.75688
-0.019785 -0.835084 -0.028897 0.77086 -0.572513 0.013474
0.623788 0.046015 0.090504 -0.867505 -0.492269 0.057289
0.033039 0.647607 0.042299 -0.110293 -0.604134 0.783754
-0.402888 0.231859 0.012262 -0.027539 0.218297 0.972616
-0.137164 0.0382 0.010001 -0.967866 0.24762 0.003352
-0.137353 -0.468725 0.002706 -0.980924 -0.031872 0.190541
0.202504 -0.232388 0.035226 0.965358 0.01153 0.260079
0.182092 0.337422 0.023353 0.89907 -0.108445 0.423973
0.044077 0.03113 0.13737 0.066763 0.282073 0.957014
0.017459 0.284106 0.123423 -0.093854 0.14338 0.984447
0.19849 0.381601 -0.0732 0.992817 -0.094102 -0.060949
-0.040763 0.001167 0.136126 -0.268685 0.398462 0.874251
-0.082949 -0.825312 0.085001 -0.239557 0.954312 0.148841
0.182585 0.245143 0.015213 0.998002 -0.013531 0.060852
0.153892 -0.738771 -0.082164 0.776985 0.087874 -0.621655
0.019438 -0.688707 -0.018509 0.874871 -0.175679 0.451044
0.198857 -0.563738 0.001824 0.959111 0.004118 0.282585
-0.51885 0.119226 0.016598 -0.870799 0.150687 -0.37273
-0.123451 0.377696 -0.076129 -0.906571 -0.27508 -0.313957
-0.028306 0.714667 -0.023673 -0.901554 -0.398508 -0.139185
0.096893 0.568002 0.005377 0.165896 0.745498 0.638465
0.386787 0.268196 -0.037985 -0.262594 -0.15488 0.94467
-0.015537 -0.817036 -0.135259 0.713837 -0.338419 -0.6068
0.07709 0.051354 0.129904 0.37553 0.12464 0.914182
0.127173 0.269296 0.093832 0.5929 0.047255 0.803809
0.083473 0.649049 -0.028849 0.969208 0.058701 -0.225732
0.137005 -0.742641 0.025542 0.247847 0.692716 0.666396
0.199295 -0.470387 -0.040265 0.995802 0.01211 -0.084943
0.085522 -0.86058 0.077251 -0.708943 -0.667626 -0.141132
-0.033388 0.215383 0.112114 -0.376474 0.045307 0.921427
-0.027347 0.34653 0.10516 -0.159092 -0.033276 0.983591
0.192896 -0.552925 0.018215 0.9247 -0.022725 0.378178
0.178862 0.547258 -0.098995 0.289444 0.731733 -0.616945
-0.112555 -0.849428 0.054479 -0.947085 -0.084707 0.015221
0.102103 0.549354 0.025479 0.391582 0.635262 0.664345
-0.064416 0.202543 -0.096795 -0.558106 -0.246073 -0.791972
0.553443 0.119536 0.045565 -0.862321 -0.16286 0.456973
-0.00484 0.801597 -0.107862 -0.470822 0.291062 -0.830198
-0.005598 0.157877 -0.11237 -0.232608 -0.106595 -0.964257
0.175295 -0.802341 -0.07355 0.959568 -0.174781 -0.194283
0.090433 0.736509 -0.075331 0.822798 -0.325334 -0.463617
-0.005073 -0.37277 -0.056495 0.64683 -0.020606 -0.761624
-0.118937 0.154478 -0.033414 -0.886418 0.128006 -0.441
0.044322 -0.150985 0.058282 -0.863729 -0.111217 0.478339
-0.361635 0.309861 -0.06258 -0.652359 0.721414 -0.231951
-0.134449 -0.560913 -0.03156 -0.986013 -0.107759 0.115355
-0.112771 0.280819 -0.039094 -0.994627 -0.101683 -0.015902
0.100443 0.720682 0.007598 0.977351 -0.004817 0.199099
0.322448 0.321158 -0.126759 -0.417165 -0.508842 -0.740898
-0.014443 -0.108746 -0.097306 0.499572 -0.350324 -0.791186
-0.046201 -0.389143 0.088845 0.173747 -0.172666 0.969471
0.500783 0.228105 -0.036849 0.662422 0.745834 0.060208
0.022209 -0.728711 -0.057409 0.975388 -0.009101 -0.210124
-0.117398 0.19168 0.041181 -0.88745 0.030609 0.4583
0.25367 0.376972 -0.127566 -0.469287 -0.544835 -0.687952
0.155892 -0.781316 -0.097602 0.572725 0.387061 -0.722472
0.009719 -0.792942 -0.094235 0.950802 -0.023118 -0.297042
-0.09761 -0.305789 0.104995 -0.268773 -0.068812 0.952273
0.091188 -0.071402 0.117274 -0.077537 -0.580531 0.808897
0.123558 -0.869162 0.03082 0.00032 -0.998543 -0.052054
0.100181 0.495743 -0.138746 -0.130618 0.293249 -0.94302
0.009037 -0.670292 0.008147 0.780793 -0.230987 0.578782
0.064321 0.847143 0.03949 0.540993 0.555921 0.630285
-0.06973 -0.072243 -0.111491 -0.366171 -0.252518 -0.894689
0.043793 -0.200041 0.048998 -0.962952 -0.04894 0.248466
0.3833 0.239578 -0.083289 -0.649323 -0.756205 -0.047912
-0.172909 0.433097 -0.094049 -0.066846 0.126539 -0.989105
0.040624 0.347475 0.113733 0.086041 0.167633 0.981741
0.204808 -0.313714 0.020667 0.984081 -0.03126 0.166127
0.055716 0.360716 -0.136276 -0.335613 -0.027401 -0.941491
0.153011 -0.172776 0.097463 0.168562 -0.173948 0.96968
-0.111619 0.439684 0.062841 -0.163926 0.019417 0.986114
-0.133948 0.057823 0.023708 -0.92811 0.317161 0.16071
-0.125239 0.420011 0.057391 -0.31227 -0.309574 0.886485
0.046707 0.793346 -0.117645 0.289728 0.172013 -0.939829
-0.129221 -0.615621 -0.034399 -0.998837 -0.029145 0.03522
-0.06309 -0.268651 -0.091039 -0.273214 -0.034834 -0.960228
-0.097362 0.23379 -0.072351 -0.724701 -0.417296 -0.547306
0.248973 0.364697 -0.092624 -0.689432 -0.723568 -0.030863
0.183054 -0.393644 0.062295 0.812768 -0.033486 0.581514
-0.04622 0.062647 0.120233 -0.462601 0.145598 0.873459
-0.307693 0.349487 -0.072543 -0.598196 0.677609 -0.413322
-0.101983 -0.604617 0.050126 -0.667457 -0.076181 0.723111
-0.024534 -0.810627 -0.145935 0.450719 -0.129784 -0.87743
-0.314573 0.351535 -0.054694 -0.666132 0.720762 -0.191715
0.207139 -0.178415 0.012708 0.997323 -0.00962 0.07044
-0.070053 -0.615372 0.043384 0.437427 -0.192451 0.878206
-0.288298 0.380554 -0.066385 -0.898619 0.313124 -0.2827
-0.111946 0.280002 0.00361 -0.998009 -0.030885 0.04946
0.097795 0.737694 0.016617 0.979449 -0.104175 0.171907
0.081722 0.580841 0.003876 0.600378 0.288661 0.737209
-0.12588 0.089613 -0.032212 -0.955287 0.11537 -0.26524
-0.106733 -0.270236 0.102248 -0.631316 -0.040943 0.768211
-0.559398 0.044953 0.014635 0.900987 -0.417468 -0.075074
-0.328202 0.326206 -0.081416 -0.422003 0.651542 -0.626612
0.177489 -0.708377 -0.05233 0.783544 -0.037048 -0.617302
-0.024922 0.451319 -0.131175 0.095801 0.000482 -0.994834
-0.040284 0.74663 -0.020028 -0.993273 0.02061 0.057494
-0.08057 -0.568105 -0.101425 -0.246737 0.047587 -0.967269
-0.508838 0.087927 0.075472 0.83495 -0.452375 0.270584
-0.393502 0.190098 0.013366 0.567138 -0.419181 0.634898
0.037395 0.714913 0.096812 0.211747 -0.331041 0.911856
0.057731 -0.6768 -0.035615 -0.856951 -0.124702 -0.500058
-0.120893 -0.247521 0.087224 -0.883367 -0.034404 0.467045
0.329632 0.292422 -0.078679 -0.672417 -0.722152 0.156921
0.058439 -0.188038 0.073613 -0.657862 -0.092586 0.746862
0.070739 -0.529174 -0.074762 -0.718672 -0.070637 -0.691734
0.065925 0.511256 -0.129285 -0.145377 0.106167 -0.98329
0.119262 0.403009 0.087605 0.332721 0.129289 0.932457
-0.134589 -0.005614 0.050213 -0.941464 -0.107863 0.27609
0.544025 0.12692 -0.019371 -0.487447 -0.4107 -0.652083
0.631002 0.055533 0.09546 0.863446 0.424614 0.263196
0.156489 0.194522 -0.07483 0.761222 0.034066 -0.647533
-0.092308 -0.311816 -0.069277 -0.679797 -0.003588 -0.733266
0.466494 0.261116 -0.086536 0.77965 0.523999 -0.32504
-0.123805 0.074712 -0.043935 -0.927999 0.119241 -0.351303
-0.062817 -0.639574 -0.10645 0.100577 0.074016 -0.991869
0.10142 0.08018 0.115105 0.436484 0.152425 0.882151
0.162756 0.251808 -0.068078 0.873091 -0.013214 -0.486039
0.136779 0.140188 -0.101633 0.66831 0.175051 -0.72287
0.053186 0.660135 0.070509 0.233731 -0.961346 0.136473
0.122406 -0.863279 0.166375 -0.039133 -0.985786 0.159626
0.086672 0.687756 0.025825 0.877463 -0.476073 0.033148
-0.445675 0.192816 -0.043515 -0.587062 0.252682 -0.766057
-0.395079 0.212217 0.013689 0.15358 0.131042 0.978519
0.166646 0.286488 -0.068516 0.894714 -0.174875 -0.410517
0.087276 0.838082 0.002866 0.838635 0.521006 0.090335
0.157344 -0.295331 0.07896 0.241427 -0.09539 0.965649
0.001852 0.794605 0.073735 -0.5164 0.362195 0.771307
-0.043669 0.307083 -0.127085 -0.312825 0.014954 -0.945659
-0.065206 0.005481 0.127152 -0.287454 0.315609 0.902007
-0.209969 0.381896 0.02213 0.105916 -0.517476 0.84905
0.086297 -0.303227 -0.094237 -0.439205 0.0118 -0.897868
-0.008012 -0.582294 0.025917 0.502359 -0.123428 0.854446
0.140945 0.081459 0.097636 0.651758 0.19304 0.732268
0.213316 -0.068016 -0.001158 0.98667 0.06054 -0.141686
-0.026422 -0.859698 0.07578 0.807814 -0.559754 0.055699
-0.554746 0.071228 0.001518 -0.617818 0.51995 -0.274083
0.062968 0.605628 0.017498 0.538253 -0.04959 0.840559
-0.088505 0.452642 -0.123786 -0.346622 -0.038946 -0.935817
0.025242 -0.335973 0.038804 0.948042 -0.106958 0.297678
0.02026 0.467135 0.08709 0.086405 0.446509 0.88627
0.150113 -0.867357 0.120631 0.44206 -0.894098 0.03502
-0.075035 -0.359308 0.100407 0.165671 -0.19731 0.966105
0.200845 -0.152531 0.051858 0.928237 -0.145111 0.340308
0.077814 0.552291 0.022974 -0.066292 0.831968 0.532631
-0.137054 -0.06787 0.054283 -0.977577 0.014888 0.209706
0.216287 0.404441 -0.101555 -0.823449 -0.489928 -0.1565
-0.111077 0.535775 0.038086 -0.035742 0.647013 0.760796
0.197795 0.368061 -0.066195 0.970369 -0.186343 -0.125718
-0.114857 0.304211 -0.000202 -0.974797 -0.15642 0.157713
-0.018323 0.356608 -0.128865 -0.009988 -0.007394 -0.999857
0.114888 -0.16343 0.104639 -0.120892 -0.305656 0.940182
0.164623 -0.847194 0.139841 0.876018 0.42922 0.207317
-0.03899 -0.712245 0.022334 -0.488643 0.329276 0.807742
0.100457 0.582587 -0.09437 0.14696 0.760152 -0.632665
0.465312 0.236595 -0.016706 -0.198618 0.489662 0.841101
0.117364 0.557482 -0.112585 0.219356 0.606155 -0.762908
0.139038 0.11152 0.092822 0.670022 0.089609 0.736176
0.053773 -0.625667 -0.044382 -0.869422 -0.114129 -0.476144
0.017404 0.199866 0.129712 -0.020876 0.05588 0.99808
0.014147 0.262693 0.12623 -0.140387 0.099684 0.981659
-0.552045 0.05558 0.067187 0.819448 -0.557672 0.059888
0.177728 0.29694 0.02984 0.945135 0.029966 0.324886
-0.073204 -0.038427 -0.120392 -0.482479 -0.247083 -0.833014
-0.013643 0.837641 0.026522 -0.875566 0.147976 0.448274
0.121595 0.480387 0.06495 0.216966 0.481938 0.846796
-0.123215 -0.362795 -0.037767 -0.877284 0.075064 -0.469613
0.19802 -0.479944 0.004185 0.977418 0.029583 0.203341
-0.42774 0.185309 -0.053878 -0.105148 -0.029574 -0.956332
-0.095796 -0.249424 0.10828 -0.296952 -0.020003 0.951613
0.017399 -0.74416 -0.071761 0.914784 -0.022552 -0.397659
0.206894 0.007023 -0.004235 0.996531 0.031937 -0.05945
0.199915 -0.472997 -0.026706 0.998122 0.038012 -0.023155
0.059286 -0.003036 0.140116 0.080514 -0.401289 0.909872
0.19003 -0.318448 -0.039252 0.771821 -0.00825 -0.635551
0.240576 0.499363 0.001249 0.651174 0.280998 0.702218
0.118056 0.555384 0.009205 0.367482 0.681883 0.632229
-0.0555 -0.714442 -0.120821 0.126053 0.261432 -0.954285
-0.070481 -0.854941 -0.131071 -0.391943 -0.61816 -0.668313
-0.090718 0.467071 0.067628 -0.407718 0.189776 0.888548
0.009678 0.136842 0.131089 -0.122541 0.03328 0.991762
-0.040223 -0.547099 -0.099245 0.319658 0.006087 -0.947188
0.205478 -0.394065 -0.016941 0.99178 -0.038082 -0.113508
0.02428 0.611886 0.027014 -0.214772 -0.098162 0.968879
0.482746 0.246825 -0.047805 0.734523 0.677567 0.024956
0.343997 0.341223 -0.136577 0.074393 -0.025502 -0.994113
0.111566 -0.548351 -0.104612 -0.344198 -0.079583 -0.932943
0.065165 -0.632484 0.003567 -0.211689 0.471715 0.851673
-0.130252 -0.078957 -0.0453 -0.856489 -0.060464 -0.51182
0.153357 -0.03846 0.106269 0.568742 -0.003761 0.821497
0.183015 -0.325328 0.069179 0.76348 -0.057653 0.642183
0.169621 -0.368199 -0.067071 0.621195 0.223401 -0.750528
0.192171 -0.356828 0.047556 0.92286 -0.054619 0.380726
0.341718 0.370328 -0.056802 0.640529 0.47709 0.593567
0.194137 0.411194 0.017782 0.891875 -0.293592 0.305451
-0.050004 0.506039 -0.122523 -0.118966 0.294962 -0.947674
0.019728 -0.242751 0.068658 0.958701 -0.022437 0.282739
0.173017 -0.687032 0.014982 0.463486 -0.423265 0.777337
-0.062 -0.306555 -0.088709 -0.260955 -0.069684 -0.962066
0.169586 -0.81851 -0.030035 0.785233 -0.617429 0.039205
-0.125043 -0.169282 0.084098 -0.820964 0.003508 0.570828
0.020198 0.826216 0.065914 -0.330212 0.525616 0.778671
0.137273 0.226115 -0.102181 0.749228 -0.225953 -0.62156
0.023157 -0.287596 -0.021644 0.843353 -0.074883 -0.512578
0.171529 -0.719919 -0.06015 0.815828 -0.08649 -0.571205
0.194701 0.025951 0.065488 0.853087 0.109232 0.509805
0.224495 0.43995 -0.13336 -0.185494 -0.099955 -0.976084
0.142517 -0.869061 0.04457 0.155754 -0.980809 -0.043612
-0.118729 0.172822 0.039986 -0.878773 0.011188 0.476424
-0.394687 0.2024 -0.061518 -0.077088 -0.575021 -0.807441
0.10168 0.205943 -0.122083 0.349524 -0.440251 -0.826257
-0.080909 -0.029012 -0.117445 -0.58515 -0.181876 -0.790181
0.199721 -0.231124 0.044662 0.947819 0.03567 0.316455
-0.094308 0.145068 -0.075093 -0.6962 0.203699 -0.688254
-0.087532 -0.251831 -0.07747 -0.723571 -0.048963 -0.688402
-0.201973 0.403005 -0.096861 -0.085328 0.065853 -0.992388
0.096939 0.034869 -0.155312 0.352623 0.125211 -0.925948
0.402439 0.257118 -0.126127 -0.1507 -0.243047 -0.953819
0.18337 0.501395 0.025413 0.380003 0.283831 0.878945
-0.101811 -0.583687 -0.092223 -0.54403 0.051964 -0.837281
0.067637 0.002604 0.140004 0.211073 -0.077043 0.967522
-0.137762 -0.204061 0.024584 -0.996076 -0.087132 -0.010023
-0.119344 0.135941 -0.039584 -0.862089 0.12558 -0.488448
-0.126483 -0.628001 -0.012174 -0.97873 -0.096686 0.174026
0.047024 0.068965 -0.15023 -0.184328 0.260513 -0.946907
0.239061 0.379465 -0.114022 -0.698372 -0.575665 -0.408451
-0.387712 0.248262 0.009446 -0.092252 0.240714 0.963658
0.183017 -0.505738 0.044642 0.83269 -0.141163 0.534405
0.139583 -0.616655 -0.097238 0.237505 -0.13887 -0.959977
0.175627 0.119995 -0.056656 0.848178 0.245077 -0.467917
-0.00792 0.579608 0.011466 -0.537529 0.309699 0.782818
0.040217 0.373091 -0.130368 -0.317308 -0.028126 -0.945793
-0.023339 0.57436 0.005514 -0.351888 0.646796 0.672869
0.113822 -0.594479 0.033299 -0.229011 -0.157266 0.959236
-0.012858 0.187788 -0.116769 -0.283748 -0.237298 -0.928602
0.081577 0.695794 -0.049204 0.848215 -0.377756 -0.362813
0.206723 -0.146562 0.036829 0.968444 -0.149126 0.196721
-0.005092 -0.648917 -0.074585 0.599876 0.086828 -0.794745
-0.063492 0.537712 0.039454 -0.172156 0.613798 0.769928
0.482401 0.246205 -0.03599 0.705179 0.702532 0.086956
0.012299 -0.339037 -0.041656 0.746147 -0.053193 -0.663344
-0.360449 0.217433 -0.063048 0.374302 -0.710968 -0.592441
0.176085 0.310897 0.033129 0.960395 0.001234 0.277836
-0.242279 0.425187 -0.074739 -0.474202 0.561357 -0.675714
-0.006378 0.068111 -0.141307 -0.162293 0.229573 -0.959531
-0.080821 -0.050756 -0.111325 -0.559532 -0.262436 -0.785366
0.30297 0.467608 -0.069241 0.80202 0.592216 0.023865
0.172653 0.026087 0.093162 0.626244 0.15184 0.763334
0.0892 0.688605 0.003715 0.982088 -0.16859 0.066516
-0.071408 0.371023 0.091014 -0.603594 -0.049903 0.794812
-0.138675 -0.083531 -0.023888 -0.952526 -0.010231 -0.304114
-0.032414 -0.274127 0.10344 0.232689 -0.212083 0.94883
0.217647 0.518649 0.006943 0.28381 0.551422 0.784185
-0.10379 0.566716 -0.010736 -0.149569 0.972708 0.150333
0.099085 0.71296 0.000216 0.831888 -0.504596 0.002384
0.047938 -0.016228 -0.148039 -0.308527 -0.352244 -0.883576
0.05136 -0.078619 0.111202 0.132065 -0.5923 0.792814
-0.127991 -0.585625 -0.015987 -0.977568 -0.044606 0.205516
-0.002355 -0.414813 0.060996 0.76436 -0.203144 0.611746
0.132494 -0.459206 0.060508 -0.502486 -0.138062 0.853119
0.211606 -0.00978 0.010046 0.928915 0.341811 -0.031323
-0.131818 -0.267913 0.041877 -0.976441 -0.182431 0.099226
-0.072421 0.207716 0.091117 -0.561189 0.116801 0.819004
0.341613 0.404792 -0.061212 0.783901 0.291673 0.489134
0.105283 -0.870053 0.079577 -0.093029 -0.989658 -0.002473
-0.09162 -0.759955 -0.110938 -0.691303 -0.028132 -0.717506
0.24305 0.435162 -0.136458 -0.15539 0.059637 -0.984686
0.0473 0.576772 0.023983 0.356106 0.001832 0.934271
0.063962 -0.438989 -0.067698 -0.750012 0.024587 -0.660947
0.097775 -0.49753 0.031726 -0.570204 -0.013903 0.821158
0.106995 -0.11678 0.109287 -0.623989 -0.072527 0.777912
0.053253 -0.218024 -0.066677 -0.769274 -0.150965 -0.618218
0.131572 -0.097013 -0.122461 0.306546 -0.216037 -0.924851
0.531348 0.199004 -0.057456 -0.133694 -0.566222 -0.811753
0.035556 -0.326624 -0.001462 -0.942121 -0.084683 0.295609
0.098433 0.766183 0.01924 0.982829 0.014781 0.180769
0.248968 0.481396 -0.000943 0.493925 0.091364 0.860484
0.187456 0.130699 -0.028693 0.847817 0.20014 -0.488599
0.127041 -0.406842 -0.100926 0.267788 0.070662 -0.958144
0.277138 0.455977 -0.014377 0.57964 0.147663 0.798706
-0.031195 -0.596413 0.029264 0.302341 -0.176575 0.93546
-0.260849 0.297964 -0.008438 0.565273 -0.595622 0.568742
0.195929 -0.662784 -0.010717 0.953097 0.00161 0.296825
-0.002367 -0.668813 0.02 0.686097 -0.118871 0.717036
0.105245 -0.041076 0.124878 0.39605 -0.165111 0.902083
0.167647 0.282193 0.04928 0.752367 -0.044566 0.656314
0.348574 0.296172 -0.122643 -0.464255 -0.580878 -0.665646
0.016791 -0.252569 0.076682 0.879402 -0.078083 0.457885
0.174095 -0.735668 -0.003582 0.25351 0.547191 0.786636
-0.005197 0.671907 -0.044914 -0.769491 -0.269179 -0.578473
-0.037862 0.254864 0.109013 -0.419227 0.029494 0.905252
0.019535 -0.547912 -0.036159 0.944089 0.045487 -0.322592
-0.051773 -0.380656 -0.084144 0.118669 -0.14851 -0.977724
0.0964 0.804901 -0.06742 0.935505 0.197813 -0.282088
-0.120793 -0.380307 0.071092 -0.972169 -0.031926 0.226382
-0.05252 -0.062795 0.127592 -0.192865 -0.048181 0.979369
0.181486 -0.041686 -0.085607 0.850297 -0.090553 -0.517215
-0.165508 0.458724 -0.091382 -0.285755 0.151628 -0.945156
0.067943 -0.024985 0.131567 0.071827 -0.160819 0.983519
0.169437 -0.642591 0.024048 0.43859 0.048919 0.893881
-0.126429 -0.344504 0.035812 -0.993995 0.033366 0.103105
-0.046038 0.16201 0.108869 -0.58716 0.109135 0.801872
-0.024292 -0.834288 0.040916 0.975483 0.089622 0.082832
-0.011261 0.722698 -0.082171 -0.650284 -0.530741 -0.539457
-0.004307 -0.81806 -0.118363 0.8255 -0.366527 -0.423212
0.461382 0.259699 -0.034659 0.202903 0.709603 0.654547
-0.096443 -0.219409 0.109608 -0.249629 -0.059914 0.966334
0.590628 0.10478 0.002582 0.544434 0.195539 -0.814417
0.179634 0.178848 0.043333 0.84871 0.082894 0.522204
0.008447 -0.802893 -0.094905 0.940519 -0.149246 -0.298644
-0.174876 0.510112 0.036046 -0.547721 0.518728 0.654257
-0.121114 0.194351 0.032313 -0.92675 0.098595 0.359315
0.085841 -0.72459 0.036449 0.017691 -0.115084 0.992456
0.145131 -0.816932 -0.112456 0.406809 -0.213933 -0.880452
-0.036619 -0.298405 0.099314 0.304644 -0.156955 0.938538
0.183214 0.285677 -0.018263 0.988739 -0.107331 -0.089399
0.129939 -0.052821 0.11525 0.317169 -0.044783 0.946353
-0.065287 -0.763418 -0.130002 -0.345396 0.298346 -0.885084
0.123651 -0.380432 -0.09993 0.340551 0.090121 -0.935613
-0.11153 -0.810374 -0.070405 -0.888889 -0.430185 -0.109884
0.117739 -0.817515 0.081447 -0.054515 0.944264 0.321272
0.019138 0.269255 -0.127235 0.105623 -0.057137 -0.991562
0.126463 -0.041608 0.117408 0.391079 -0.069777 0.91759
0.07853 0.201073 0.12124 0.372104 0.045142 0.927039
0.182844 -0.019288 -0.084547 0.879681 0.032456 -0.473702
0.05063 0.211156 -0.122223 -0.111384 -0.402728 -0.906053
-0.13307 -0.53643 -0.009525 -0.885862 -0.214316 0.409457
-0.068622 -0.115596 0.120883 -0.211302 -0.034252 0.97667
0.071721 0.79604 -0.10542 0.600208 0.122996 -0.78798
0.175412 0.415372 0.048933 0.593998 0.00252 0.803283
0.132169 0.539651 -0.121549 0.176901 0.476272 -0.86107
0.206415 0.033169 -0.007883 0.9961 0.03945 -0.077029
0.532453 0.187522 -0.047546 0.124301 -0.656899 -0.736277
0.200605 0.53395 0.001605 0.253395 0.63743 0.727264
-0.033748 0.195489 -0.112417 -0.36695 -0.353361 -0.860036
-0.40344 0.241903 -0.069316 -0.550518 -0.058923 -0.831827
0.182947 -0.782087 -0.051952 0.988511 0.003759 -0.104747
-0.007453 -0.354887 -0.061063 0.677676 -0.113638 -0.726318
-0.120949 -0.652423 0.00206 -0.981094 -0.123951 0.145512
0.070417 -0.478244 0.009647 -0.567888 0.082744 0.818712
0.122501 -0.086186 -0.127672 0.199799 -0.257854 -0.944139
0.092384 -0.801288 -0.099202 -0.806802 0.182054 -0.559142
0.160361 0.169622 -0.072786 0.763166 0.067264 -0.64224
0.097399 -0.401682 0.055422 -0.532855 -0.212568 0.817997
0.026602 -0.341834 0.027281 0.987668 -0.065104 0.135315
0.182674 0.224519 -0.014366 0.998032 0.010099 -0.059194
-0.408521 0.175058 -0.003206 0.571021 -0.817167 0.008442
0.126736 -0.725758 -0.097482 0.145287 0.170077 -0.969907
-0.04886 0.251844 -0.121683 -0.515601 -0.098447 -0.851109
-0.000204 0.639201 -0.051524 -0.719661 0.231813 -0.651302
0.150766 -0.625312 0.028272 0.346767 -0.184477 0.914283
-0.127766 0.495317 -0.100697 -0.403373 0.266574 -0.874895
-0.327447 0.233311 -0.058761 0.361449 -0.825883 -0.422456
0.435257 0.274296 -0.117625 0.576309 0.197188 -0.790249
-0.127467 -0.64417 -0.03259 -0.988832 -0.089348 0.110469
0.576748 0.093126 -0.010375 0.624933 0.178094 -0.758496
0.199159 -0.589569 -0.046856 0.985032 -0.017283 -0.171398
0.054621 0.262898 -0.131233 -0.36624 -0.09593 -0.925329
0.099917 -0.621682 -0.088803 -0.549828 -0.073683 -0.830287
0.158299 0.38879 -0.123273 0.398745 -0.331128 -0.853136
-0.103076 0.241691 -0.070637 -0.784695 -0.331394 -0.522266
0.087569 -0.859455 0.065884 -0.779278 -0.599353 -0.176779
-0.112835 -0.615622 0.026527 -0.896582 0.046691 0.439301
0.20191 -0.119618 0.055877 0.896642 -0.031282 0.441577
0.573533 0.080886 -0.015937 0.22038 -0.296544 -0.771101
0.075068 0.057622 -0.154552 0.057332 0.247084 -0.965051
0.295698 0.412419 -0.141884 0.077168 0.296363 -0.948076
0.077095 -0.481741 0.015734 -0.658601 0.077073 0.748263
-0.031409 0.459346 -0.131481 0.087207 0.047176 -0.994723
0.030207 -0.115453 0.091962 0.560499 -0.54443 0.620077
-0.118107 -0.758037 -0.007154 -0.826818 -0.319592 0.435915
0.164617 -0.104586 -0.098402 0.722324 -0.12723 -0.679115
0.056992 0.690474 0.084151 0.49817 -0.001463 0.861454
-0.496401 0.154262 -0.003396 -0.778545 0.625418 -0.047935
-0.143532 0.529193 -0.07382 -0.453567 0.616416 -0.642198
0.161829 -0.330695 -0.069337 0.650824 0.004421 -0.758829
0.2059 -0.30828 0.002084 0.999609 -0.000368 -0.015226
0.026247 -0.685603 -0.036512 0.985865 -0.068989 0.125168
0.400977 0.226017 -0.100367 -0.549359 -0.813586 -0.167101
-0.128108 -0.280745 0.055715 -0.986281 -0.0992 0.127533
0.065444 -0.157426 0.080279 -0.620456 0.02994 0.782447
0.16214 -0.835216 0.029577 0.915256 0.388622 0.019895
0.387157 0.239448 -0.062962 -0.607626 -0.759467 0.225554
-0.07282 -0.825921 0.104906 -0.162826 0.981487 0.099611
0.038216 -0.0723 -0.116968 -0.50256 -0.472588 -0.723482
-0.033527 -0.232295 -0.090164 0.239588 0.025041 -0.969318
-0.077009 -0.647639 -0.106967 -0.123538 0.063732 -0.989347
0.210001 0.555527 -0.065122 0.519425 0.774625 -0.339473
0.027347 -0.309864 0.034036 0.991784 -0.029897 0.121055
0.167359 -0.809691 0.013144 0.961653 -0.112182 0.220707
-0.077036 -0.863555 0.035722 -0.038052 -0.999238 -0.005908
0.169585 0.298521 -0.068284 0.858898 -0.248885 -0.446404
-0.067536 -0.51773 -0.099894 -0.145609 0.109443 -0.982137
-0.026827 0.558006 0.026394 0.057771 0.827266 0.555274
0.261648 0.51564 -0.054184 0.718767 0.695141 0.009401
0.027173 0.58427 -0.095817 -0.073293 0.534212 -0.841833
-0.27416 0.390149 0.00454 -0.655868 0.402722 0.636964
-0.178522 0.418158 -0.09541 0.048621 0.050059 -0.996235
0.046246 -0.354262 -0.04596 -0.899151 -0.042731 -0.420694
0.025741 0.865174 -0.033402 -0.16779 0.968484 -0.180128
-0.13916 0.552828 -0.041231 -0.466571 0.811118 -0.34937
0.294853 0.337188 -0.119413 -0.599332 -0.560973 -0.567578
0.18405 0.192301 0.018817 0.974517 0.192431 0.094315
-0.024645 0.838909 -0.052232 -0.563301 0.763016 -0.314495
-0.112418 -0.270858 -0.043795 -0.870748 -0.004392 -0.491098
-0.069881 0.558333 0.015631 -0.085123 0.773336 0.628124
0.321616 0.373253 -0.037204 0.657871 -0.132281 0.728071
-0.001085 0.436217 0.097253 0.026472 0.170292 0.984539
0.13502 -0.472665 -0.105777 0.165815 0.100554 -0.97893
0.01457 -0.184897 -0.051098 0.831764 0.066583 -0.550993
0.193199 -0.457023 0.025344 0.965324 -0.076436 0.24923
0.187329 0.388738 -0.108595 0.471946 -0.561713 -0.67845
0.170216 -0.207593 0.087904 0.366802 -0.168557 0.911217
-0.069175 -0.527123 0.063595 0.416205 -0.225858 0.879567
0.037598 0.789833 -0.120221 0.07533 0.123998 -0.985752
-0.013657 -0.614421 0.022549 0.185352 -0.142332 0.966081
0.10273 -0.091129 0.109446 -0.498674 -0.194692 0.842698
0.421375 0.274035 -0.12524 0.370131 0.122608 -0.920276
-0.069256 -0.138426 -0.099133 -0.356276 -0.124755 -0.924508
0.193183 -0.32779 0.050315 0.916633 -0.082519 0.39099
0.346368 0.392117 -0.089845 0.768801 -0.577178 0.193658
-0.120833 0.533253 0.039657 -0.061236 0.631897 0.772189
0.071051 -0.227629 -0.083312 -0.616442 -0.085379 -0.782063
0.046795 -0.497662 -0.046089 -0.884281 -0.053615 -0.457476
0.051421 -0.160462 -0.081468 -0.769483 -0.186796 -0.610099
0.203171 -0.220299 -0.044048 0.922629 -0.072918 -0.375498
-0.107579 0.470267 -0.115464 -0.450871 0.131634 -0.882575
-0.034429 0.155532 -0.102869 -0.258032 0.18588 -0.943384
0.632311 0.024392 0.049055 -0.895663 -0.434347 -0.008128
0.168295 0.172645 0.059591 0.731268 0.086785 0.676085
-0.058744 0.003458 -0.131744 -0.271297 -0.08574 -0.958491
0.106348 0.752801 -0.01819 0.971581 0.224206 -0.007621
-0.129714 -0.256979 -0.008745 -0.966169 -0.036721 -0.251005
0.547523 0.177405 -0.007372 0.859152 0.51015 -0.0121
0.006014 0.067537 -0.14339 -0.142872 0.206548 -0.967727
-0.049736 -0.678743 0.020955 0.080472 -0.285075 0.953188
0.135102 0.57789 -0.029392 0.341997 0.763059 0.546484
-0.133693 0.040891 -0.026627 -0.95926 0.158568 -0.230057
-0.040908 0.485261 0.075177 -0.164154 0.439679 0.882796
0.075761 -0.494751 0.015565 -0.644061 0.048689 0.763393
0.061183 -0.706493 0.031319 -0.794905 0.202435 0.564867
-0.370868 0.297409 -0.01529 -0.568553 0.723495 0.389995
0.035477 -0.278308 -0.031757 -0.888293 -0.079008 -0.449346
0.205291 -0.192202 -0.038882 0.96991 0.004058 -0.242123
0.597706 0.066386 0.0205 0.71883 -0.588338 0.018906
0.176743 0.210003 0.044231 0.82312 0.060475 0.561963
-0.131561 -0.004031 -0.045861 -0.935002 0.05729 -0.348609
0.15346 -0.330198 -0.076183 0.631793 0.010768 -0.775054
-0.122701 0.436167 0.061012 -0.10718 -0.085752 0.988684
0.048319 -0.573597 -0.015738 -0.895595 -0.103972 0.431887
0.065494 0.209162 -0.124637 -0.212759 -0.417142 -0.881771
-0.116912 0.553536 -0.060556 -0.415523 0.762805 -0.494641
-0.036168 -0.688761 -0.105162 0.450248 0.269162 -0.851182
-0.258256 0.315831 0.002408 0.376046 -0.380168 0.839799
0.164885 -0.011961 -0.111937 0.770045 0.061499 -0.632977
-0.127568 0.05322 -0.041724 -0.938233 0.128617 -0.31665
0.22172 0.545117 -0.025249 0.523876 0.759395 0.378663
-0.064278 0.579363 -0.066695 -0.450662 0.811748 -0.346835
-0.114442 -0.623852 -0.086352 -0.611174 0.101061 -0.784996
0.204551 -0.204625 0.027464 0.970972 -0.031967 0.229442
0.168168 -0.16699 0.094031 0.466579 -0.125051 0.87346
-0.119308 -0.211965 -0.034394 -0.865268 -0.096282 -0.491503
0.232944 0.40235 -0.020962 -0.284218 -0.555518 0.756695
-0.022626 -0.82183 -0.141376 0.607579 -0.353326 -0.701192
0.046134 -0.351032 0.025414 -0.891148 -0.175335 0.406481
0.011824 0.760228 -0.118338 -0.294455 -0.220272 -0.924239
-0.092989 0.253998 0.068836 -0.718692 0.068551 0.6912
-0.359303 0.275581 -0.087573 -0.175571 0.019798 -0.977083
-0.176376 0.497654 -0.072728 -0.553494 0.426204 -0.71439
-0.113936 0.238052 0.019905 -0.974545 0.208326 0.070512
0.326719 0.295096 -0.094549 -0.680177 -0.720588 -0.1175
0.035905 0.814606 -0.111504 0.06193 0.541937 -0.832514
-0.417636 0.250061 -0.032665 -0.769199 0.638699 -0.004774
-0.04054 -0.673605 0.021606 -0.041409 -0.180313 0.981134
-0.009468 0.669677 0.027101 -0.771355 -0.608215 0.166994
-0.102933 -0.838362 -0.056979 -0.918769 -0.350638 -0.092002
0.087765 0.609055 -0.013636 0.872483 0.212344 0.423624
0.310932 0.330137 -0.126969 -0.447447 -0.522197 -0.724124
0.099581 -0.868233 -0.051831 -0.369511 -0.910793 0.109876
-0.102912 -0.120725 -0.075653 -0.709261 -0.096787 -0.696033
-0.092988 0.248426 -0.086367 -0.694452 -0.310671 -0.648472
0.123327 -0.081087 0.115258 0.083057 -0.102813 0.986708
-0.065125 -0.863319 0.004807 0.004251 -0.999387 -0.03449
-0.056665 -0.093273 -0.109894 -0.229268 -0.195598 -0.95043
-0.020206 0.796996 0.04027 -0.910527 0.186292 0.367778
0.141898 -0.515903 0.056377 -0.332167 -0.222341 0.913191
-0.027057 0.744747 0.038802 -0.969462 -0.005247 0.239333
-0.122412 -0.613405 0.005634 -0.915495 0.052415 0.396466
-0.104261 -0.82418 -0.053921 -0.962905 -0.190687 -0.017053
0.629084 0.035874 0.078653 -0.862138 -0.479766 0.004097
-0.005061 -0.098244 -0.096293 0.538709 -0.383973 -0.748902
-0.033666 0.148216 0.117221 -0.474642 0.016062 0.879983
-0.049729 -0.003236 -0.133956 -0.29953 -0.089613 -0.949069
0.190215 0.1757 0.004032 0.980578 0.189835 -0.002858
-0.548536 0.087073 0.057219 -0.851924 0.522061 0.025837
-0.393801 0.191384 -0.04889 0.281855 -0.810532 -0.48621
-0.302141 0.254303 -0.004621 0.656174 -0.519427 0.519096
-0.112283 0.255652 -0.007752 -0.998966 0.037016 -0.002027
0.069274 0.334231 0.110784 0.317731 0.17866 0.929741
0.329324 0.313956 -0.125554 -0.393409 -0.540689 -0.741292
0.115594 0.228913 -0.123582 0.549542 -0.341184 -0.761715
-0.12296 -0.488658 -0.058766 -0.795539 0.080439 -0.600512
-0.173733 0.410767 0.027866 0.002076 -0.379772 0.923575
-0.136585 -0.150201 -0.017792 -0.931196 -0.098884 -0.349368
0.083837 -0.615194 0.018865 -0.729391 -0.235497 0.639933
0.244408 0.527103 -0.026941 0.671731 0.648615 0.352828
0.190067 -0.004704 -0.068127 0.892664 0.087708 -0.439343
0.089211 0.168819 0.118513 0.421051 0.052406 0.903155
-0.13861 -0.062006 0.046459 -0.967729 0.042516 0.248163
-0.118411 -0.596619 -0.080103 -0.687459 0.043556 -0.723476
-0.252969 0.337414 -0.092236 0.371689 -0.349685 -0.857833
-0.128328 0.118139 0.020485 -0.972992 0.073414 0.213974
-0.081132 0.298569 -0.105723 -0.527518 -0.05775 -0.827416
0.126273 -0.77181 -0.105229 -0.042749 0.382815 -0.916925
0.110671 -0.573546 -0.100753 -0.445071 -0.158523 -0.880971
0.166775 -0.744772 0.013138 0.315833 0.818908 0.476787
0.024511 -0.663085 -0.017216 0.896838 -0.18913 0.374172
0.212011 0.554446 -0.037187 0.582024 0.747509 0.300483
0.011726 -0.794985 -0.083225 0.964004 -0.175087 -0.177303
-0.051989 -0.604003 0.037067 0.538755 -0.244894 0.771039
-0.125588 -0.191904 0.083592 -0.834433 -0.003864 0.549219
0.214081 -0.1048 -0.00813 0.995052 0.03117 -0.090082
0.0908 0.330746 -0.144121 0.022063 -0.061438 -0.996055
0.086269 -0.827947 -0.029545 -0.766569 -0.609726 -0.001973
0.128683 -0.603031 0.035123 -0.196176 -0.028122 0.975648
-0.108194 0.162603 0.057449 -0.807327 -0.005596 0.589649
-0.042027 -0.222986 -0.091688 0.126328 0.008242 -0.991018
0.090896 0.11563 -0.132066 0.220151 0.468796 -0.853181
0.130064 0.580671 -0.081706 0.326317 0.845458 -0.408573
-0.122095 -0.136612 -0.047934 -0.822066 -0.14761 -0.549691
0.402217 0.230775 -0.05444 -0.602925 -0.718224 0.345021
0.121553 -0.468095 -0.106037 -0.04662 0.08272 -0.993011
-0.117493 0.205938 0.0381 -0.918403 0.152745 0.362329
0.085886 -0.575851 -0.083674 -0.650133 -0.114216 -0.751123
-0.121694 -0.456745 -0.054841 -0.771402 0.13561 -0.621447
-0.102454 -0.168266 0.109441 -0.650553 -0.020315 0.757743
0.191448 0.168032 -0.001873 0.94846 0.287756 -0.03678
0.182344 0.397868 -0.118032 0.300605 -0.510675 -0.804057
-0.34382 0.239035 0.007724 0.260884 -0.180339 0.947852
-0.081513 0.270991 0.078218 -0.60271 0.051806 0.79617
0.050682 0.522434 -0.12449 -0.244324 0.302196 -0.92044
0.108615 0.388097 -0.145114 0.140303 -0.030676 -0.98915
-0.470665 0.184667 -0.009581 -0.813212 0.57877 -0.047
0.090223 -0.848593 0.128788 -0.917486 0.341662 0.180926
0.064566 0.542384 -0.121654 -0.140027 0.31044 -0.939076
0.246607 0.428149 -0.007247 0.457714 -0.354839 0.812663
-0.100201 -0.317806 -0.061903 -0.695417 0.037857 -0.716609
-0.028692 -0.014084 -0.137039 -0.116108 -0.129066 -0.984743
0.220987 0.464351 -0.133585 0.059397 0.064973 -0.994959
0.052365 0.384027 0.104026 0.111228 0.187202 0.975077
0.00161 -0.340893 0.073689 0.689187 -0.107857 0.715599
-0.330454 0.225241 -0.038271 0.507663 -0.85182 -0.121968
0.205613 -0.212011 0.020864 0.989936 -0.019524 0.133207
0.041203 -0.194841 -0.048153 -0.940281 -0.149998 -0.304627
-0.140401 -0.145109 -0.009459 -0.907048 -0.122802 -0.402088
0.2054 -0.24822 0.00311 0.999827 0.00109 0.002517
0.170087 0.180225 -0.056519 0.867351 0.071573 -0.492401
0.029001 -0.301396 0.016016 0.998371 -0.043241 0.03225
0.009474 0.502566 -0.123223 0.064909 0.017149 -0.997258
0.19739 0.556579 -0.07625 0.281144 0.85721 -0.422997
-0.184315 0.50784 0.029614 -0.652389 0.528285 0.542165
0.087697 -0.843858 -0.006697 -0.965206 -0.256753 -0.030845
-0.120284 0.324483 -0.030312 -0.999277 -0.024692 0.022066
0.182878 0.082213 0.063777 0.82528 0.160401 0.539093
0.209583 -0.14002 0.024788 0.962852 -0.217564 0.156974
-0.415365 0.252438 -0.043708 -0.782898 0.610068 -0.104147
0.108568 -0.475489 -0.104284 -0.282335 0.043862 -0.957412
0.043449 -0.0216 0.134692 0.077497 -0.220281 0.967699
0.04229 -0.35943 -0.037519 -0.876795 -0.038993 -0.474656
-0.011329 0.67704 -0.036695 -0.958476 -0.145692 -0.227682
0.063593 -0.03808 0.13042 0.033917 -0.176254 0.983305
0.111465 -0.28969 0.082426 -0.054626 -0.074345 0.995533
0.112474 -0.266017 -0.099421 0.059413 -0.01082 -0.990307
0.100245 -0.577005 0.032021 -0.387601 -0.151759 0.908678
-0.069644 0.098747 -0.109543 -0.569049 0.299664 -0.764524
-0.106925 -0.0625 -0.083523 -0.768491 -0.184244 -0.612755
0.01522 0.272625 0.125065 -0.112672 0.11244 0.98648
-0.006869 -0.696632 -0.086203 0.519432 0.266467 -0.811625
0.042926 0.663944 0.091283 0.211344 -0.655477 0.710136
0.026896 -0.494669 -0.010448 0.9921 0.018894 -0.03684
-0.07436 -0.306343 0.106151 0.064656 -0.073447 0.995049
-0.105336 -0.789755 -0.097464 -0.868997 0.040795 -0.491889
0.118516 -0.283368 -0.098087 0.291658 -0.026489 -0.954472
0.143806 0.060316 0.100955 0.698943 0.213156 0.679376
-0.287759 0.361214 -0.083605 -0.645439 0.424343 -0.630854
0.089425 0.756729 -0.086759 0.818485 -0.144818 -0.552321
0.139464 -0.246793 0.08513 0.115812 -0.134982 0.983484
0.07449 -0.234408 0.080064 -0.50183 -0.106431 0.85524
0.130917 0.210608 0.095005 0.513216 0.05404 0.856517
0.129427 -0.869483 0.040663 0.011376 -0.999304 -0.033458
0.063409 -0.073662 -0.127849 -0.306048 -0.398382 -0.864251
-0.026002 -0.756781 -0.125007 0.404643 0.414323 -0.815025
0.183726 0.293495 0.007579 0.985457 -0.088713 0.141163
-0.030929 0.424218 -0.130086 0.000711 -0.038245 -0.999144
0.158728 -0.677244 0.024623 0.299107 -0.265465 0.915533
0.045191 -0.196715 -0.05851 -0.869185 -0.154231 -0.454678
-0.303559 0.330932 -0.091394 -0.334943 0.415439 -0.843588
-0.287503 0.297021 0.00412 0.198777 -0.290523 0.93352
-0.444184 0.167584 -0.052436 -0.049762 -0.381064 -0.838775
0.01031 0.538144 0.046409 0.19249 0.747685 0.631801
0.627479 0.06482 0.080868 0.861041 0.490175 0.114901
-0.229393 0.469099 -0.030339 -0.786972 0.611012 -0.07965
0.008743 -0.682099 -0.072907 0.565435 0.216461 -0.795105
0.051035 0.202116 0.128626 0.085426 0.021131 0.995956
0.027124 0.549675 0.031479 0.038169 0.572107 0.81875
