0.153075 -0.034351 -0.124126 0.70455 -0.108867 -0.700615
0.183646 -0.739783 -0.037938 0.607384 -0.196158 -0.76803
-0.110088 0.276089 -0.066429 -0.962934 -0.063628 -0.25057
0.026991 0.317373 0.120462 -0.002583 0.119605 0.991511
0.205164 0.052532 -0.0043 0.98199 0.156065 -0.085262
0.350111 0.361402 -0.058309 0.594179 0.543322 0.587732
-0.547555 0.085274 0.079753 -0.88084 0.401699 0.20987
0.151748 -0.686607 0.023592 0.312359 -0.394352 0.86288
0.070739 -0.529174 -0.074762 -0.718672 -0.070637 -0.691734
0.164652 -0.863458 0.086293 0.146352 -0.986176 0.000524
0.026602 -0.341834 0.027281 0.987668 -0.065104 0.135315
0.014333 -0.108517 -0.070066 0.425433 -0.600439 -0.669527
0.618528 0.085861 0.028303 0.869602 0.490936 -0.046759
-0.113289 0.227042 0.041887 -0.952951 0.178791 0.237134
0.017284 -0.77936 -0.048554 0.965601 -0.181285 0.163515
-0.128585 0.394215 -0.025174 -0.958686 -0.217164 0.003491
0.109873 0.226595 0.105712 0.428983 0.064189 0.900918
0.025357 -0.374965 -0.01146 0.975513 -0.032481 -0.205101
-0.128147 -0.667095 -0.05917 -0.998389 -0.008315 -0.036975
-0.095516 -0.34516 -0.068366 -0.64088 0.076512 -0.762531
-0.028769 -0.860101 0.093096 0.778055 -0.541776 0.125583
0.156569 0.301648 -0.092551 0.788126 -0.19391 -0.582497
0.076365 -0.34216 0.061586 -0.534727 -0.284271 0.792765
0.067974 0.857264 0.022351 0.618261 0.730421 0.288015
0.153464 -0.003468 -0.123222 0.720064 0.109513 -0.68476
-0.183801 0.509654 -0.057313 -0.643061 0.520706 -0.559704
0.522514 0.19563 0.01955 -0.120793 0.69342 0.675725
0.190658 -0.458075 0.035454 0.963578 -0.069341 0.257647
-0.135746 0.023677 0.049655 -0.939739 0.153886 0.296179
-0.249681 0.324835 -0.083664 0.59125 -0.49427 -0.636635
-0.088686 -0.522703 0.070532 -0.570166 -0.174678 0.783142
0.166023 0.06419 0.088978 0.496407 0.227798 0.81947
-0.08961 0.296726 -0.097886 -0.543226 -0.063092 -0.816336
0.080637 -0.577317 0.021316 -0.684338 -0.05154 0.727253
0.175563 -0.346664 -0.056641 0.709264 0.094444 -0.697709
0.061194 -0.757994 0.017514 -0.749097 -0.248091 0.413789
0.162749 -0.826029 -0.081091 0.829512 -0.53495 -0.095426
0.125062 -0.327723 -0.095259 0.419557 0.032131 -0.907159
0.180058 0.266042 -0.030938 0.949932 -0.00688 -0.311119
-0.131218 0.065694 -0.011801 -0.944814 0.299108 -0.100332
0.283639 0.412945 -0.141993 -0.023045 0.142629 -0.986902
-0.080329 0.381297 0.083939 -0.670969 -0.056089 0.739062
0.022452 0.700593 0.089705 -0.445748 -0.195338 0.861836
0.061375 0.755468 -0.110562 0.455984 -0.22327 -0.859943
-0.009343 0.660632 0.012248 -0.849594 -0.386644 0.348778
0.073204 -0.272938 0.073784 -0.533323 -0.16415 0.827331
0.078174 -0.777832 -0.064386 -0.839569 0.202065 -0.504116
-0.335854 0.291643 -0.092479 -0.208216 0.018037 -0.974906
0.078193 0.092982 0.127317 0.441714 -0.015313 0.896671
0.159092 -0.807083 0.03162 0.813639 0.278336 0.478296
-0.1282 -0.150989 0.078702 -0.887733 0.019233 0.45845
-0.109044 -0.84138 0.004716 -0.840766 0.53198 -0.072996
0.189261 -0.298323 0.064463 0.836353 -0.082353 0.528133
-0.222281 0.400804 -0.094787 -0.113049 0.173669 -0.977631
-0.097325 -0.81382 0.014286 -0.952117 0.205157 0.220447
0.108523 0.744312 -0.013736 0.97729 0.098634 0.075504
0.049356 0.618037 0.025985 0.27829 -0.189348 0.933517
-0.12375 0.374779 0.006739 -0.949892 -0.262637 0.166085
0.047782 -0.282073 0.043558 -0.858145 -0.04989 0.509315
0.104213 0.373848 -0.14532 0.121096 -0.037856 -0.99001
-0.014806 0.508939 0.066569 -0.014079 0.419722 0.907331
-0.009374 0.322904 0.113351 -0.110604 0.073943 0.991015
0.169586 -0.81851 -0.030035 0.785233 -0.617429 0.039205
-0.095789 0.054439 -0.096968 -0.728989 0.195196 -0.655973
0.136268 0.383496 -0.134931 0.491548 -0.16997 -0.848565
-0.11222 -0.844829 0.028655 -0.932421 0.275206 -0.01899
0.072472 0.637532 -0.053945 0.70206 0.264402 -0.659908
0.12808 -0.268469 0.08399 0.05301 -0.085501 0.994594
-0.043083 -0.860496 -0.013146 0.281458 -0.949352 -0.114401
-0.009526 -0.748303 -0.005388 0.282338 -0.748296 0.597813
0.083274 -0.826262 -0.014119 -0.443738 -0.886212 0.026975
0.0857 -0.416443 0.040204 -0.650841 -0.357818 0.668848
0.308576 0.360525 -0.137756 -0.176728 -0.29779 -0.937267
0.492362 0.171008 -0.029064 -0.629742 -0.775891 -0.034511
-0.070164 -0.749711 0.029181 -0.019693 -0.098839 0.988054
0.097733 -0.098572 -0.125151 -0.127089 -0.371718 -0.918073
-0.062821 -0.441224 0.081137 0.156171 -0.190891 0.969011
-0.109862 0.200909 0.057482 -0.856761 -0.021416 0.513092
-0.255334 0.335685 0.009946 0.029475 -0.372557 0.925034
0.17509 0.150423 0.054986 0.749596 0.088845 0.655784
-0.125244 -0.745716 -0.02734 -0.956133 -0.064954 0.265078
-0.277353 0.345596 0.008911 -0.312627 -0.044153 0.941634
0.075934 0.74369 -0.096836 0.643923 -0.325801 -0.690831
-0.38359 0.227891 0.011528 0.084119 0.030935 0.995837
0.182841 0.213764 -0.013593 0.997704 0.012135 -0.062898
-0.09435 -0.084265 -0.090003 -0.678341 -0.174213 -0.713309
0.274249 0.444331 -0.010792 0.323113 0.103152 0.936899
0.603169 0.068473 0.028985 -0.020143 -0.955024 -0.060564
0.012943 -0.599507 -0.053016 0.752232 0.072826 -0.654593
0.143284 -0.830763 0.142858 0.456122 0.881264 0.116565
-0.020731 0.750836 0.050592 -0.799813 0.145976 0.580819
-0.104077 -0.817951 -0.084397 -0.875719 -0.433253 -0.204132
-0.124317 0.196408 -0.012087 -0.891475 0.202403 -0.403877
-0.059683 0.150196 -0.096791 -0.319112 0.28548 -0.903481
-0.007647 0.668992 0.039375 -0.710359 -0.698411 0.085582
0.296396 0.377488 -0.142388 -0.062395 -0.293492 -0.950879
-0.002572 -0.760773 -0.102887 0.800427 0.242887 -0.543326
0.152731 -0.249654 0.083527 0.11235 -0.07614 0.990457
-0.02377 -0.500522 0.052314 0.441388 -0.258617 0.858932
0.19936 -0.477561 -0.005448 0.991903 0.045635 0.113373
-0.033834 -0.467174 0.06692 0.262333 -0.276344 0.924188
0.150197 0.130817 -0.089929 0.740252 0.171106 -0.646924
-0.067938 -0.669256 -0.109271 -0.068168 0.100333 -0.989636
-0.129519 -0.530498 -0.054053 -0.889004 0.04082 -0.454826
0.182195 0.234464 -0.019536 0.991659 0.007123 -0.118105
0.090589 -0.815461 0.052039 -0.845614 0.289804 0.424437
0.020607 -0.247651 -0.03925 0.929075 -0.060183 -0.364263
-0.570223 0.02744 0.030441 -0.10945 -0.977029 0.08753
0.095228 -0.180716 -0.103984 -0.256056 -0.177056 -0.949302
0.069292 0.273747 -0.137534 -0.21645 -0.062717 -0.973418
0.139874 0.575292 -0.083271 0.351837 0.801453 -0.480865
-0.08896 0.141713 0.079394 -0.673409 0.077627 0.734852
-0.096702 -0.849263 0.132243 -0.898977 0.070211 0.370452
-0.113293 -0.715608 -0.082324 -0.776339 -0.132351 -0.614911
0.160154 -0.750576 -0.073989 0.863971 0.133411 -0.480977
-0.002585 -0.735434 0.001346 0.635061 -0.374697 0.665979
-0.004733 0.151739 0.128811 -0.20883 0.011073 0.975494
-0.138018 -0.152885 0.051595 -0.972624 -0.028193 0.226293
-0.082745 -0.456112 -0.088698 -0.418597 0.154344 -0.892472
-0.041556 -0.086686 0.127755 -0.107069 -0.045689 0.992023
0.010944 0.410145 0.101594 0.159979 0.223646 0.961339
0.203762 -0.242481 0.030048 0.984051 0.025085 0.171985
0.052811 -0.520815 -0.005615 -0.832512 -0.0185 0.55111
0.108901 -0.183595 -0.106 -0.085407 -0.146674 -0.984897
0.108202 0.561338 -0.11263 0.188513 0.588276 -0.785399
0.461382 0.259699 -0.034659 0.202903 0.709603 0.654547
0.183054 -0.393644 0.062295 0.812768 -0.033486 0.581514
-0.0651 -0.362208 0.098329 0.139934 -0.16965 0.975479
0.052765 0.819084 0.069793 0.365269 0.537187 0.758261
0.009193 0.547024 0.034048 0.083253 0.707754 0.700038
-0.012477 0.738956 -0.093644 -0.727448 -0.328311 -0.600214
-0.173364 0.534346 -0.030011 -0.627063 0.766827 -0.13255
-0.057732 -0.808852 -0.145388 -0.398858 -0.07368 -0.910846
0.192365 0.110178 -0.029469 0.921045 0.1188 -0.362237
0.177466 0.009507 -0.089005 0.82861 0.050889 -0.5567
0.195627 0.097484 -0.003313 0.985869 0.025924 0.065349
0.131982 -0.25248 -0.094411 0.441681 -0.083088 -0.890526
-0.050085 -0.296802 -0.091408 -0.035195 -0.088176 -0.99279
0.025467 -0.020526 0.132002 -0.23314 -0.484362 0.814817
0.053978 0.745666 0.075109 0.648244 0.176149 0.707749
0.458004 0.262542 -0.0962 0.733682 0.239402 -0.633552
-0.037288 -0.474202 -0.093326 0.375791 0.115501 -0.917682
0.053166 -0.231975 -0.063466 -0.78051 -0.153596 -0.605472
-0.127206 -0.381111 -0.027378 -0.973561 0.053992 -0.211145
-0.012167 -0.062734 0.129221 0.113991 -0.112975 0.987017
-0.08912 -0.236305 -0.076778 -0.717228 -0.040881 -0.69551
0.49333 0.180497 0.019261 -0.389708 -0.004122 0.81447
0.021938 0.12503 -0.127435 -0.123546 0.421487 -0.898344
0.043359 -0.295755 0.027501 -0.985584 -0.023233 0.160425
-0.072504 -0.801959 0.051564 -0.425506 0.768693 0.462342
-0.038717 0.59141 -0.039584 -0.475459 0.871834 0.080526
-0.213289 0.493061 -0.025661 -0.753491 0.647363 -0.09236
0.087874 -0.242184 -0.091888 -0.448096 -0.02423 -0.893552
-0.138299 -0.495525 -0.015069 -0.983516 -0.174613 0.014994
0.15219 -0.864857 -0.080561 0.69178 -0.689586 -0.075636
-0.09384 0.179334 0.074952 -0.695998 -0.022633 0.717685
0.0083 -0.633086 0.015993 0.668562 0.007509 0.739345
-0.137448 -0.4244 0.006591 -0.996869 0.025818 0.062981
0.137501 -0.48282 -0.106033 0.211917 0.069135 -0.971907
0.175101 0.301432 0.038196 0.949014 0.013599 0.314345
-0.019758 0.55007 0.038456 0.041675 0.838562 0.533922
0.045408 -0.335871 0.030415 -0.927914 -0.105163 0.351384
0.156694 -0.500653 -0.099821 0.473612 -0.002825 -0.880303
-0.10915 -0.750578 -0.089064 -0.837097 0.041824 -0.545211
-0.12296 -0.488658 -0.058766 -0.795539 0.080439 -0.600512
-0.327234 0.297355 -0.09405 -0.142622 0.006802 -0.98936
0.082769 0.663998 0.000173 0.986722 -0.064722 0.147375
0.026286 -0.221219 -0.03241 0.1454 -0.073256 -0.901562
0.09421 -0.70888 0.035894 0.160747 -0.029435 0.985446
-0.039866 -0.568633 -0.098739 0.350924 -0.025528 -0.936008
0.48125 0.201416 -0.061582 -0.061163 -0.590837 -0.799257
0.298987 0.356864 -0.134193 -0.31352 -0.388628 -0.864099
0.121788 -0.165486 -0.108244 0.203623 -0.151805 -0.965383
0.000421 -0.273377 -0.06432 0.75666 -0.12724 -0.641231
0.177618 -0.422026 0.06514 0.598114 -0.077749 0.792881
-0.027596 -0.755238 -0.000406 0.594618 -0.035806 0.756558
0.176743 0.210003 0.044231 0.82312 0.060475 0.561963
-0.146993 0.518544 0.04579 -0.214672 0.475353 0.850624
0.183053 -0.403939 0.061532 0.816009 -0.056223 0.575124
0.041279 0.428483 0.093755 0.116334 0.323225 0.938454
0.029574 -0.127082 0.083617 0.777836 -0.341707 0.525592
-0.045315 -0.862361 0.004747 0.136035 -0.986971 -0.068217
-0.069694 -0.348515 0.101418 0.190001 -0.141232 0.971509
0.186623 -0.474852 0.043623 0.915407 -0.075051 0.395123
0.18287 0.274551 -0.014806 0.996931 -0.023736 -0.071456
0.12096 0.438388 0.080876 0.240709 0.197174 0.948099
0.172531 0.26158 -0.048843 0.898342 -0.016192 -0.436671
-0.021454 0.372789 -0.129172 -0.012021 -0.023014 -0.999581
0.117364 0.557482 -0.112585 0.219356 0.606155 -0.762908
-0.024734 0.540798 0.047634 -0.174379 0.613574 0.764984
-0.09615 0.059145 0.096196 -0.426261 0.233712 0.873371
0.636407 0.052597 0.037076 0.888188 0.457099 -0.0182
-0.070782 -0.862896 -0.103244 -0.067771 -0.996223 -0.036441
-0.107197 0.05275 -0.082315 -0.804088 0.184378 -0.561881
0.169437 -0.642591 0.024048 0.43859 0.048919 0.893881
0.15221 -0.322302 0.078475 0.221315 -0.050989 0.973407
0.157328 -0.860414 -0.035394 0.579814 -0.779841 0.159468
0.21227 -0.04024 0.024026 0.976519 0.025056 0.211784
0.157853 -0.501457 0.061838 0.05232 -0.198985 0.971305
-0.134024 0.032348 -0.031144 -0.955964 0.144218 -0.255204
0.303649 0.415116 -0.023375 0.588438 0.121981 0.798293
0.171926 -0.784504 0.018503 0.591819 -0.506581 0.59537
-0.118402 -0.534225 0.023484 -0.855093 -0.098735 0.508778
0.148144 0.467093 -0.143216 0.165698 0.071069 -0.983364
-0.276545 0.396402 -0.004575 -0.676863 0.554548 0.483369
-0.126882 -0.347767 -0.022306 -0.980254 0.070356 -0.17982
0.229312 0.414311 -0.012933 -0.243456 -0.661362 0.683955
-0.112379 -0.701236 0.00185 -0.849764 -0.391012 0.344305
0.134844 0.49185 0.053704 0.280939 0.553039 0.784219
-0.162391 0.544159 -0.006817 -0.644393 0.760094 0.076181
0.193451 -0.485558 0.020767 0.954082 0.039316 0.29515
-0.046605 -0.124595 0.124956 -0.101717 -0.068418 0.991391
-0.29804 0.368145 -0.042055 -0.739927 0.668758 -0.010611
-0.072719 0.249491 0.08658 -0.578099 0.064908 0.811726
-0.319213 0.273724 0.005734 -0.056682 0.010784 0.997382
0.16245 -0.391999 0.074298 0.208302 -0.022776 0.972691
-0.13336 -0.189965 -0.011671 -0.922482 -0.128519 -0.36007
-0.014989 -0.193995 0.113273 0.391303 -0.096354 0.914648
-0.042476 -0.304536 -0.090445 0.141093 -0.088228 -0.98107
0.162095 -0.685497 0.020675 0.322455 -0.355931 0.875701
0.066577 0.741971 0.072227 0.353806 0.244903 0.894637
0.070904 -0.573911 -0.069102 -0.695229 -0.12437 -0.707774
0.157344 -0.295331 0.07896 0.241427 -0.09539 0.965649
0.084504 0.682077 0.017267 0.885594 -0.420557 0.168959
0.196526 0.07877 0.028942 0.903614 0.387282 0.177554
-0.143449 -0.090042 0.02933 -0.991572 0.023676 0.123161
0.076609 -0.82281 -0.055071 -0.477161 -0.84694 -0.123953
0.243543 0.532761 -0.070559 0.680546 0.710294 -0.176312
-0.07486 -0.239363 -0.086835 -0.500804 -0.026989 -0.860652
0.176634 0.240695 -0.038432 0.9333 0.017006 -0.358104
0.138686 -0.219627 0.09045 0.052626 -0.17757 0.982611
0.045934 -0.459991 -0.045125 -0.929155 0.013771 -0.353255
-0.018275 0.619242 -0.029792 -0.940434 0.281554 -0.011447
0.059712 -0.380385 -0.064046 -0.771473 -0.030218 -0.635442
-0.198607 0.439686 -0.088895 -0.250591 0.339923 -0.90513
-0.108846 -0.461045 0.06829 -0.805478 -0.195126 0.559342
0.0094 0.12266 0.131223 -0.122352 0.041195 0.989374
0.046126 -0.208614 0.055142 -0.872734 -0.083095 0.473836
-0.115748 0.424186 -0.109194 -0.487882 -0.281408 -0.826152
0.402217 0.230775 -0.05444 -0.602925 -0.718224 0.345021
0.108448 -0.778064 -0.10267 -0.472406 0.434108 -0.766485
-0.236765 0.434528 -0.071452 -0.529059 0.544873 -0.649725
-0.227322 0.415332 0.029736 -0.525194 0.074497 0.844188
0.19 0.319326 -0.018556 0.993436 -0.109149 0.012706
-0.447848 0.216469 -0.027291 -0.742681 0.653167 -0.095283
0.085968 -0.111579 0.096194 -0.572177 -0.146182 0.806684
0.273793 0.412814 -0.141626 -0.050738 0.03654 -0.997383
0.172394 0.39737 0.050518 0.676487 -0.054036 0.73403
0.156314 -0.831252 0.097896 0.631766 0.763626 0.126167
-0.090547 0.548534 -0.085825 -0.386765 0.632648 -0.670523
-0.083183 -0.083164 -0.099891 -0.589286 -0.210539 -0.779305
0.492108 0.236645 -0.040032 0.682642 0.729759 0.035476
0.425313 0.210931 -0.061356 -0.493575 -0.836467 0.237073
0.346891 0.350928 -0.135621 0.247828 0.093591 -0.957677
-0.411777 0.255065 -0.012512 -0.72648 0.664208 0.169198
0.055194 0.765467 0.072178 0.538929 -0.240103 0.804362
0.15033 -0.389502 -0.085994 0.546366 0.174354 -0.819177
-0.12044 0.378518 0.031139 -0.957203 -0.209353 0.198777
-0.15793 0.503786 0.049817 -0.260683 0.346497 0.89792
-0.328347 0.239899 0.003495 0.291038 -0.36932 0.869766
0.022209 -0.728711 -0.057409 0.975388 -0.009101 -0.210124
0.02006 -0.117287 0.10017 0.66805 -0.326684 0.667853
0.000434 0.813474 0.061301 -0.578261 0.45912 0.674316
-0.084218 -0.203872 -0.081794 -0.591593 -0.027843 -0.805607
-0.110938 0.108929 0.06332 -0.773071 0.299548 0.558558
-0.270781 0.410946 -0.015426 -0.729358 0.647648 0.217741
0.001195 0.305062 -0.129318 0.143236 0.053158 -0.988173
0.057914 -0.645841 -0.045373 -0.826482 -0.169204 -0.536722
0.02146 0.056159 -0.148661 -0.214777 0.297698 -0.930014
0.07546 -0.756152 0.01675 0.112883 -0.638159 0.744338
0.161112 -0.25066 -0.077486 0.528077 -0.136044 -0.83815
-0.077686 -0.531136 0.06606 0.394957 -0.203432 0.895863
0.089952 -0.850155 -0.092483 -0.970639 0.049159 -0.233071
-0.114456 0.162087 -0.039394 -0.889754 0.113012 -0.441562
-0.148947 0.545626 -0.045481 -0.502251 0.754578 -0.422003
0.494357 0.227556 -0.0125 0.456736 0.548012 0.651412
-0.012679 -0.767032 -0.119036 0.644851 0.436347 -0.625752
0.088325 0.83129 -0.056669 0.884758 0.420319 -0.176387
-0.077335 -0.81168 -0.131099 -0.710299 -0.154006 -0.68653
-0.12786 0.187136 -0.003071 -0.987677 0.077363 -0.112341
-0.002333 -0.056645 0.1287 0.132212 -0.158414 0.978019
-0.033275 -0.216946 0.114643 0.16265 -0.191919 0.967105
0.072692 0.289324 0.115807 0.420317 0.15436 0.892975
0.177907 -0.636549 -0.07255 0.604876 -0.162912 -0.778948
0.087914 -0.833736 -0.020962 -0.955166 -0.20886 -0.002219
0.088463 -0.848657 -0.040596 -0.975052 -0.144576 0.113415
-0.293635 0.373466 -0.053192 -0.879249 0.448449 -0.116403
-0.08556 0.254557 -0.096037 -0.632998 -0.224118 -0.73965
-0.015294 0.393424 -0.129524 0.023569 -0.009224 -0.999657
-0.130963 -0.566032 -0.021188 -0.952443 -0.13017 0.272122
0.144968 -0.869063 -0.061861 0.237124 -0.958709 0.022947
0.08117 0.595264 -0.083455 0.161136 0.861048 -0.448179
-0.091765 0.111815 0.081338 -0.579499 0.400832 0.709188
-0.108541 0.093948 0.073191 -0.771441 0.202508 0.602485
-0.120826 -0.497777 0.02816 -0.81019 -0.241753 0.533923
0.191174 0.406147 0.027175 0.949922 -0.104133 0.288004
-0.015513 -0.367999 0.083032 0.414806 -0.149956 0.897315
0.003561 -0.701622 0.00156 0.851 -0.180648 0.492956
0.162239 -0.062279 -0.107901 0.709621 -0.116056 -0.693944
-0.126457 -0.654789 -0.029515 -0.979507 -0.059331 0.185996
0.083868 -0.182639 -0.09969 -0.380457 -0.247842 -0.890825
-0.105925 -0.571009 0.03937 -0.911943 -0.00551 0.409529
0.087916 -0.216485 -0.09376 -0.433315 -0.12438 -0.891278
0.086302 0.803739 -0.089182 0.774664 0.233622 -0.58425
0.213692 -0.126048 -0.010335 0.992323 -0.067721 -0.093905
-0.028498 0.759254 0.030632 -0.965523 0.016881 0.253178
-0.002376 -0.510076 -0.069057 0.792357 0.059147 -0.607168
0.027942 -0.274534 0.032824 0.990368 -0.035449 0.133268
0.406213 0.312515 -0.115075 0.576421 0.498444 -0.647513
-0.458157 0.136229 0.003925 0.55562 -0.823377 -0.04342
-0.058207 -0.208581 -0.092244 -0.135181 -0.06493 -0.985479
-0.011194 -0.106969 0.123957 0.257052 -0.185016 0.948197
-0.024067 0.576239 -0.094817 -0.198263 0.794595 -0.529822
0.017809 -0.527841 0.009113 0.865203 -0.106533 0.480621
0.185722 -0.608413 -0.069655 0.701994 -0.044186 -0.710323
-0.053801 0.430268 0.091059 -0.187075 0.228252 0.955035
-0.106866 -0.601178 -0.089852 -0.618049 0.055372 -0.78397
-0.202453 0.346126 -0.061197 0.553344 -0.755479 -0.34617
0.042977 -0.170375 -0.06468 -0.870667 -0.197569 -0.449386
-0.067005 0.425378 -0.126354 -0.241739 -0.155933 -0.957033
-0.113679 0.09726 -0.05786 -0.872902 0.179154 -0.453276
-0.082982 -0.508846 -0.095506 -0.341294 0.091552 -0.932187
0.001407 0.859654 -0.039866 -0.440134 0.846811 -0.287172
0.1808 -0.792988 -0.04276 0.923438 -0.36634 0.025516
0.177738 -0.204949 -0.0713 0.592493 -0.10484 -0.798377
-0.086313 -0.271097 -0.077288 -0.614166 -0.037345 -0.773187
-0.042316 -0.641358 -0.100792 0.436457 0.054065 -0.897371
-0.124519 0.501187 0.057599 -0.060985 0.309807 0.947231
-0.154701 0.547533 -0.035318 -0.506775 0.786297 -0.337674
-0.086811 0.574205 -0.041774 -0.342549 0.934356 -0.06991
0.049048 -0.528802 -0.011555 -0.829055 0.006236 0.558505
0.106475 -0.704125 -0.092093 -0.447023 0.090316 -0.885329
0.161491 -0.287815 -0.070575 0.580381 -0.096443 -0.808253
0.00891 -0.223514 -0.061019 0.765724 -0.028679 -0.641193
0.512349 0.196884 0.01114 -0.253602 0.838711 0.474035
0.197543 -0.717434 -0.018963 0.993116 -0.006053 0.048063
0.076262 -0.070765 0.11673 -0.016655 -0.413847 0.901239
-0.044695 -0.287901 0.103862 0.233188 -0.142119 0.961113
-0.025008 0.515142 0.063126 -0.130693 0.516875 0.844702
-0.08262 0.493635 0.061911 -0.259014 0.418612 0.869195
-0.08233 0.33792 0.078696 -0.718845 -0.020588 0.691072
0.105598 0.196253 0.110069 0.50582 0.031829 0.859702
0.214256 -0.124516 0.004886 0.997735 -0.057223 0.022101
-0.107502 -0.090981 0.10126 -0.680789 0.081015 0.727631
-0.026935 0.25253 0.112452 -0.277288 0.011763 0.960681
0.188579 -0.747234 0.002251 0.659281 0.232995 0.61604
-0.314014 0.237891 -0.015035 0.623225 -0.763237 0.163349
0.045677 0.782775 -0.119151 0.272203 0.054192 -0.957329
-0.106917 0.288405 0.037613 -0.986415 0.002985 0.163018
0.127822 -0.824217 -0.11605 0.239816 -0.071512 -0.955394
0.016409 -0.33028 0.059817 0.843468 -0.200523 0.494524
0.180986 -0.782479 -0.003557 0.899148 -0.381255 0.206693
-0.095557 -0.815881 0.024738 -0.906845 0.336852 0.245075
0.020273 -0.414344 0.014825 0.987129 -0.057703 0.147619
-0.134873 -0.209066 0.000512 -0.976014 -0.084272 -0.199691
0.02525 0.261966 0.127086 -0.018013 0.074778 0.996592
-0.367172 0.280115 -0.084372 -0.346155 0.325645 -0.879627
0.286465 0.337172 -0.060426 -0.503562 -0.757409 0.395671
0.1984 -0.378778 0.026438 0.953043 -0.025391 0.300506
0.185465 -0.237466 -0.06265 0.699126 -0.117705 -0.705026
0.014147 0.262693 0.12623 -0.140387 0.099684 0.981659
0.019282 -0.215065 0.073027 0.958379 -0.02862 0.280518
0.152217 -0.332295 0.077894 0.240139 -0.052761 0.969287
0.178174 0.489199 0.031408 0.537204 0.350043 0.763944
0.042331 0.610066 -0.078175 0.045651 0.709194 -0.668976
0.19013 0.32677 -0.007357 0.99075 -0.100431 0.088068
-0.025145 0.395446 -0.129595 -0.015808 -0.01557 -0.999634
-0.002644 0.008992 0.141674 -0.157718 0.201752 0.965366
0.16987 -0.018 0.092848 0.691286 0.093084 0.715637
0.171517 -0.103761 -0.090299 0.770276 -0.099693 -0.62977
0.135464 -0.008349 0.114307 0.413341 -0.200896 0.885195
0.083232 -0.031074 -0.150238 -0.039829 -0.351599 -0.934355
-0.059709 0.455172 0.083229 -0.171922 0.317302 0.932331
-0.114242 0.311769 0.008724 -0.975566 -0.066703 0.209043
-0.022503 0.847784 -0.00752 -0.614367 0.786219 0.050549
0.119546 -0.867713 0.01346 -0.051704 -0.993023 -0.096618
0.205819 -0.520144 -0.021957 0.995906 0.038973 -0.019853
0.518964 0.212973 -0.02893 0.481884 0.822039 0.30019
-0.135892 -0.530157 -0.016343 -0.985488 -0.065603 0.149716
0.080683 0.83809 -0.06378 0.679451 0.596784 -0.423728
0.10549 -0.821491 0.085605 -0.360939 0.868184 0.325777
-0.282467 0.263881 -0.028458 0.686356 -0.663708 0.289724
0.404197 0.226241 -0.1095 -0.617302 -0.654726 -0.424572
-0.072135 0.021301 -0.130686 -0.476978 -0.33638 -0.802794
0.393078 0.293995 -0.128683 0.170279 0.100946 -0.972173
0.174091 -0.860709 0.09352 0.754198 -0.523711 0.012183
0.195994 0.15896 -0.001763 0.834369 0.532627 -0.062818
-0.109198 -0.11109 -0.069207 -0.754405 -0.099019 -0.64884
0.143983 -0.150709 -0.102012 0.515895 -0.178219 -0.837053
0.177701 0.126488 -0.04958 0.852457 0.232215 -0.465637
0.18393 -0.004505 -0.079123 0.886485 0.07157 -0.456295
-0.149084 0.463905 -0.095964 -0.337474 0.060001 -0.939146
-0.138867 -0.015117 0.015648 -0.998294 0.051299 0.026481
0.256156 0.387379 -0.025444 -0.280695 -0.57717 0.764978
-0.037081 0.76067 -0.003307 -0.989272 -0.048499 0.134623
-0.240874 0.435318 0.007248 -0.735295 0.505686 0.450927
-0.084916 -0.47063 -0.089791 -0.451397 0.109457 -0.885011
0.282038 0.335821 -0.074623 -0.596589 -0.775495 0.198999
0.166849 -0.801663 -0.0932 0.842421 0.00534 -0.531312
0.079419 0.74815 0.062875 0.648852 0.133578 0.748751
-0.106902 -0.346233 0.096315 -0.589089 -0.096929 0.795155
0.236814 0.505789 -0.111946 0.493602 0.552429 -0.671507
0.090619 0.277484 -0.139651 0.047366 -0.061753 -0.995364
-0.073959 0.053961 -0.119682 -0.646213 0.236 -0.723227
0.174925 0.062403 -0.082882 0.818839 0.197528 -0.538341
0.103473 0.516217 -0.134639 -0.037984 0.353261 -0.93298
-0.104559 0.033384 0.098254 -0.497529 0.139955 0.845351
0.417466 0.294382 -0.119765 0.471558 0.458838 -0.751402
0.132985 -0.074712 0.114407 0.202665 -0.009308 0.978577
0.02491 -0.386036 -0.011959 0.972165 -0.047525 -0.214071
0.30185 0.459242 -0.101497 0.598962 0.649025 -0.468715
0.519641 0.151164 0.012019 -0.701442 -0.703372 0.100946
0.639031 0.023566 0.025692 -0.384012 -0.892877 -0.199351
0.373634 0.249463 -0.078363 -0.72866 -0.678831 0.084382
0.109302 -0.734079 0.028479 0.319506 0.14636 0.935138
0.042514 -0.065686 -0.12268 -0.401879 -0.432021 -0.807305
-0.111922 0.245458 0.026988 -0.976559 0.163873 0.133185
-0.102485 0.250927 -0.075721 -0.793711 -0.251417 -0.550196
0.17613 -0.066303 0.088858 0.691685 0.040688 0.721003
-0.374193 0.218744 -0.070926 0.16981 -0.479036 -0.858646
0.180678 0.378304 -0.10489 0.510188 -0.4784 -0.713416
-0.056555 -0.561862 -0.103192 0.08298 0.013693 -0.995163
0.199296 0.041932 0.052323 0.927656 0.138353 0.341887
0.195857 -0.299088 -0.032456 0.848745 -0.069783 -0.522792
0.203719 -0.52478 -0.035728 0.96051 0.051026 -0.26896
-0.138296 -0.008056 0.005708 -0.996375 0.083768 -0.012905
-0.016064 -0.236618 -0.082748 0.523456 -0.009237 -0.851861
-0.128147 -0.65086 -0.063549 -0.993159 -0.011381 -0.094628
0.360997 0.267632 -0.098781 -0.703438 -0.676158 -0.20873
-0.006869 -0.696632 -0.086203 0.519432 0.266467 -0.811625
0.080668 -0.608782 -0.074562 -0.677346 -0.053734 -0.733625
0.023191 -0.198424 -0.032437 0.797085 0.054346 -0.503291
-0.376738 0.240537 0.010675 0.053109 0.054783 0.997023
0.260025 0.453928 -0.132053 0.164669 0.492114 -0.85372
-0.125064 -0.12795 0.081882 -0.827533 0.030109 0.560224
0.092561 -0.033759 -0.149064 0.047994 -0.351059 -0.934738
0.070066 -0.263467 0.073661 -0.606104 -0.119147 0.785584
0.192373 -0.503541 -0.063563 0.852276 0.013753 -0.522716
-0.039217 -0.064371 -0.119963 -0.056712 -0.321851 -0.944699
0.116695 -0.607868 -0.09835 -0.264603 -0.097982 -0.958686
0.155243 -0.294652 -0.0745 0.583017 -0.038414 -0.811231
0.224334 0.452363 -0.133747 -0.030004 -0.000776 -0.997889
0.234118 0.442772 -0.134839 -0.118395 0.046967 -0.990204
-0.135868 -0.214762 0.009618 -0.991132 -0.060051 -0.112602
0.194147 -0.36822 0.040715 0.932171 -0.062014 0.356499
0.164879 -0.862549 0.1283 0.314922 -0.942808 0.060554
0.081744 -0.491092 -0.087906 -0.68252 -0.013303 -0.729773
0.159887 -0.462651 0.067723 0.101469 -0.121705 0.979778
0.17655 0.048747 -0.085157 0.819307 0.196127 -0.537873
0.062013 -0.209866 0.07406 -0.681164 -0.09123 0.726385
-0.015973 0.84548 -0.050998 -0.529165 0.788038 -0.312306
0.073397 0.806881 0.062535 0.774228 0.261813 0.57242
-0.240627 0.367557 -0.097823 0.076054 -0.063284 -0.994504
0.120684 -0.770342 0.030585 -0.102685 0.754856 0.642206
-0.204905 0.442886 0.03971 -0.457131 0.124857 0.869
0.212605 -0.091806 0.030334 0.970785 -0.006727 0.236643
-0.047035 0.214919 0.105009 -0.522179 0.04552 0.851422
-0.056002 -0.103367 -0.108147 -0.154804 -0.20449 -0.965567
0.161749 -0.78746 0.020919 0.520915 -0.490462 0.667892
-0.100312 -0.3932 0.094192 -0.33645 -0.203793 0.909362
-0.131392 0.029203 0.058089 -0.857574 0.179807 0.480166
-0.183498 0.418633 0.031557 0.135439 -0.403018 0.902437
0.191335 -0.028005 -0.067737 0.906257 0.005626 -0.422324
-0.173776 0.531896 0.006702 -0.642013 0.726618 0.242467
-0.135504 -0.058462 0.06032 -0.93777 0.028636 0.334496
0.165293 0.180138 -0.065357 0.823202 0.055517 -0.561337
0.132689 -0.198901 -0.102471 0.274611 -0.1365 -0.951026
-0.018694 -0.02182 0.132502 -0.058112 -0.205944 0.96929
0.082668 0.845625 -0.032552 0.809094 0.572777 -0.091547
-0.115284 -0.707025 -0.016367 -0.898985 -0.246374 0.308869
0.207538 0.001923 0.014603 0.983916 0.156856 0.028988
-0.091771 -0.417294 0.088909 -0.081484 -0.243909 0.964294
0.082312 0.128247 0.123405 0.409234 0.050325 0.908474
0.162192 -0.707439 -0.073312 0.72948 -0.021981 -0.682664
-0.014445 0.538095 0.050778 -0.061048 0.608751 0.789564
0.584522 0.065701 -0.02117 0.400165 0.473816 -0.684584
-0.045996 0.188029 -0.103978 -0.456095 -0.241777 -0.855994
-0.0456 0.347279 -0.126278 -0.27109 -0.017764 -0.96093
-0.183168 0.361724 -0.061775 0.628512 -0.720534 -0.292285
-0.079538 0.261678 0.080425 -0.600353 0.065898 0.796909
-0.067288 -0.8642 0.076068 -0.021705 -0.999688 -0.001253
-0.050187 -0.86321 -0.09253 0.020041 -0.999354 0.020966
0.591308 0.060157 0.031915 0.906449 -0.32622 0.261764
0.161762 -0.82839 -0.021344 0.957928 -0.271027 0.03086
0.047133 -0.321071 -0.051131 -0.850692 -0.016495 -0.525254
0.154788 -0.066523 -0.114252 0.679258 -0.143822 -0.719412
-0.124495 0.415986 -0.09861 -0.696595 -0.384981 -0.60301
-0.030079 0.713993 -0.004019 -0.897658 -0.422398 -0.099211
0.106407 -0.870229 -0.096332 -0.112759 -0.980606 -0.064103
-0.106507 -0.260413 -0.053629 -0.822324 -0.025956 -0.568357
0.061934 -0.390746 0.027017 -0.702733 -0.335021 0.627609
-0.03504 0.83697 -0.009426 -0.779917 0.613182 0.104391
0.085559 -0.750127 -0.066704 -0.864723 0.035426 -0.500165
-0.035294 -0.31379 -0.087672 0.345195 -0.090577 -0.928515
0.193281 -0.039652 -0.06247 0.905665 -0.027027 -0.423004
0.142311 0.205567 -0.090688 0.746216 -0.078741 -0.659903
-0.109112 -0.529347 0.040292 -0.832047 -0.049272 0.552402
-0.151561 0.487694 0.056348 -0.2452 0.1997 0.947506
0.241954 0.535198 -0.058418 0.705197 0.708529 -0.018165
-0.093807 -0.829172 -0.101024 -0.93566 -0.077383 -0.341475
-0.009079 -0.458404 0.055227 0.672128 -0.222876 0.705765
0.167608 -0.083156 -0.098613 0.771027 -0.107019 -0.627647
0.081519 -0.812649 -0.084086 -0.89869 0.063784 -0.426012
-0.566707 0.046851 0.022126 -0.883243 0.468162 -0.0195
0.065627 -0.014035 -0.153583 -0.173879 -0.251899 -0.950409
0.12477 0.096436 -0.123837 0.596259 0.287603 -0.748751
-0.123805 0.074712 -0.043935 -0.927999 0.119241 -0.351303
0.155206 0.558987 -0.008892 0.163964 0.756904 0.63255
-0.128117 -0.358629 0.026568 -0.997545 0.014493 0.067187
0.085185 0.557559 0.019158 0.008268 0.791734 0.593063
-0.059054 -0.198172 -0.093065 -0.287274 -0.107509 -0.951679
0.014304 -0.792535 -0.071859 0.909717 -0.381723 -0.084491
0.32795 0.313616 -0.051295 -0.517061 -0.575238 0.633185
-0.049218 0.540601 0.040527 -0.188548 0.634817 0.74872
0.37042 0.320591 -0.047455 0.296251 0.403919 0.865382
-0.09149 0.174841 -0.070935 -0.694447 0.081982 -0.714559
0.021873 0.247038 0.127698 -0.028127 0.033375 0.998973
0.060692 -0.212076 -0.076356 -0.723192 -0.174621 -0.667856
0.153357 -0.03846 0.106269 0.568742 -0.003761 0.821497
-0.303876 0.249508 -0.067887 0.387064 -0.842036 -0.36816
-0.10264 0.283184 -0.082388 -0.798765 -0.045923 -0.597699
0.059291 0.214947 0.127176 0.199807 0.06965 0.974002
0.119083 -0.50699 0.045435 -0.559959 -0.086673 0.823834
-0.015949 -0.298561 0.092092 0.405104 -0.17383 0.897226
0.253631 0.438249 -0.007162 0.327565 -0.189268 0.924822
-0.548536 0.087073 0.057219 -0.851924 0.522061 0.025837
0.031223 -0.26885 -0.025781 -0.596384 -0.243697 -0.762576
-0.100035 -0.641919 0.043084 -0.379913 -0.26441 0.868244
0.129538 0.176095 -0.100915 0.510548 0.045572 -0.857822
0.128967 -0.685666 -0.094197 0.137013 0.021314 -0.985004
-0.009093 -0.259962 -0.076789 0.641205 -0.081401 -0.761611
-0.172639 0.363714 -0.033828 0.672815 -0.737078 -0.029601
0.1852 -0.123229 0.083086 0.719672 0.029277 0.693375
0.017536 0.319208 0.119477 -0.158142 0.170631 0.970088
-0.073204 -0.038427 -0.120392 -0.482479 -0.247083 -0.833014
-0.015265 0.704126 -0.053761 -0.766644 -0.511112 -0.388346
-0.100648 -0.21593 -0.065169 -0.7626 -0.039639 -0.645332
0.05983 -0.243848 0.065839 -0.732229 -0.140601 0.666098
0.20466 -0.339725 0.017052 0.980352 -0.073285 0.175628
-0.090682 -0.106431 0.112995 -0.364782 0.03958 0.929977
-0.004615 0.622815 0.006335 -0.776865 -0.001235 0.628554
0.025455 -0.685564 -0.054751 0.964774 -0.011814 -0.260898
-0.357128 0.315222 -0.055675 -0.664797 0.739527 -0.077267
0.12399 -0.642435 0.034962 0.215339 -0.088299 0.968491
0.30311 0.337195 -0.126969 -0.498046 -0.481092 -0.719939
0.196554 -0.487292 0.01116 0.94835 0.043236 0.309598
0.128611 -0.349047 0.078761 -0.127205 -0.156843 0.969132
-0.002353 -0.215868 -0.072404 0.617669 0.025336 -0.783163
-0.041087 -0.340146 0.0964 0.257527 -0.100256 0.960748
0.020536 0.852637 0.047703 -0.221272 0.687981 0.687037
0.152669 0.096149 0.083251 0.388363 0.224604 0.881435
-0.119943 -0.024807 0.081142 -0.774253 0.067247 0.628303
0.168092 0.386815 -0.117758 0.417313 -0.408572 -0.808525
0.214469 -0.097409 0.012914 0.99914 -0.001519 0.033062
-0.108046 0.252341 0.038933 -0.955759 0.169627 0.235449
-0.000642 -0.142945 -0.072237 0.781651 -0.165766 -0.600524
0.120868 0.460794 0.074137 0.21527 0.338173 0.915834
0.04204 0.448712 -0.129242 -0.26214 0.037894 -0.959828
-0.072421 0.207716 0.091117 -0.561189 0.116801 0.819004
0.190601 0.337811 -0.049318 0.959263 -0.223554 -0.161975
0.074546 -0.13443 -0.107327 -0.473883 -0.215644 -0.852547
-0.010494 -0.687428 -0.086154 0.65349 0.210402 -0.727064
-0.01195 -0.816511 0.020167 0.962302 -0.069405 0.187652
-0.126713 -0.667837 -0.036114 -0.985538 -0.047788 0.15373
-0.030391 -0.54185 0.044021 0.367304 -0.214221 0.904807
0.008982 0.573695 -0.100267 -0.062623 0.533513 -0.843305
-0.040763 0.068999 -0.134199 -0.369413 0.252601 -0.891631
0.216287 0.404441 -0.101555 -0.823449 -0.489928 -0.1565
0.110805 -0.767856 -0.098039 -0.469921 0.385783 -0.789514
-0.065206 0.005481 0.127152 -0.287454 0.315609 0.902007
-0.091912 -0.820153 -0.109476 -0.837773 -0.274555 -0.471725
0.123469 -0.566572 0.041561 -0.229365 -0.162877 0.958995
-0.120173 0.48309 -0.10676 -0.436955 0.18589 -0.878691
-0.020918 0.701288 -0.026647 -0.942897 -0.291606 -0.138119
-0.335172 0.224147 -0.01032 0.491344 -0.851509 0.170517
-0.103884 0.069489 0.089285 -0.487386 0.287359 0.822273
-0.038446 0.017885 -0.140571 -0.226882 -0.48744 -0.842778
0.20331 -0.09628 -0.040536 0.881911 0.058199 -0.467166
0.108781 0.061317 0.114229 0.500775 0.112743 0.857611
0.194866 0.354884 -0.018189 0.970479 -0.12033 0.204588
0.134979 0.300193 0.085746 0.734479 0.047427 0.676959
0.206401 -0.197212 0.017796 0.992772 -0.03345 0.108566
-0.359705 0.207318 -0.032439 0.499605 -0.863728 -0.046272
0.045707 0.504145 -0.126819 -0.20725 0.06804 -0.97575
-0.033911 0.81025 -0.071565 -0.949604 0.080462 -0.294239
0.225187 0.395285 -0.110376 -0.744371 -0.542393 -0.386266
0.026559 -0.370439 -0.002581 0.996916 -0.021592 -0.0554
0.165026 0.497141 -0.133522 0.16082 0.295526 -0.941004
0.164054 0.372024 -0.113325 0.535909 -0.320146 -0.780975
-0.130511 -0.274841 0.012338 -0.984141 -0.164875 -0.051703
0.060061 -0.45707 -0.064189 -0.731309 0.036983 -0.681006
0.064598 0.635159 0.022309 0.619717 -0.28462 0.727362
0.504499 0.222123 -0.025636 0.743416 0.627487 0.205191
-0.069479 0.265765 0.087214 -0.515873 0.070257 0.853663
0.131057 0.134887 0.097952 0.581025 0.022295 0.813373
0.205847 -0.231098 -0.008317 0.998028 -0.060833 -0.014484
-0.139601 0.493776 -0.095805 -0.418414 0.236853 -0.876124
-0.280079 0.29022 -0.001857 0.366501 -0.531116 0.763847
-0.085504 -0.587646 0.05857 0.140096 -0.202484 0.96476
-0.041382 -0.170062 0.122812 0.043774 -0.056147 0.996583
-0.096396 -0.525087 0.061694 -0.860086 -0.049271 0.507326
0.077207 -0.455232 -0.082264 -0.705862 0.034613 -0.707462
-0.111794 0.217977 -0.03883 -0.900134 -0.150544 -0.406874
-0.059302 0.549271 -0.101118 -0.363196 0.517816 -0.774344
-0.455124 0.142556 0.026765 0.647981 -0.734543 0.18986
0.382248 0.286059 -0.038541 0.04414 0.278441 0.93125
-0.042049 -0.361201 -0.085555 0.258792 -0.148795 -0.950027
-0.011515 0.648225 -0.006869 -0.987165 -0.037786 0.130098
-0.328339 0.322464 -0.003769 -0.462533 0.420485 0.77542
0.137957 -0.420372 -0.097674 0.437721 0.115432 -0.888651
-0.041015 0.054246 0.124224 -0.495853 0.178408 0.849745
0.18363 0.081375 -0.06276 0.838401 0.156318 -0.521626
0.072796 -0.464559 0.010321 -0.584973 0.03936 0.806624
0.045066 -0.57167 -0.024944 -0.983395 -0.069975 0.122792
0.097706 0.734428 -0.053133 0.962667 -0.179869 -0.201919
-0.076332 0.048443 0.10897 -0.521069 0.065584 0.850471
-0.086957 0.399943 -0.115716 -0.386605 -0.183308 -0.90346
-0.530607 0.073625 0.076537 0.20592 -0.854616 0.463119
0.028354 -0.147845 -0.040526 -0.913691 -0.23623 -0.328961
0.088679 -0.835874 -0.040335 -0.998483 -0.045076 0.000311
0.047025 0.657662 -0.064655 0.189294 -0.102551 -0.975481
-0.136845 -0.194435 0.046195 -0.996671 -0.017682 0.079409
0.288704 0.422766 -0.016046 0.447279 0.204741 0.869553
0.020329 0.751964 0.083784 -0.870981 0.211095 0.433218
-0.076823 -0.861443 -0.039546 -0.048072 -0.998178 -0.025933
-0.292804 0.362641 -0.075331 -0.737358 0.498063 -0.44042
0.025369 0.02699 0.140218 0.050136 0.258412 0.964135
0.095 -0.534535 -0.096539 -0.585179 -0.065189 -0.808039
-0.035786 0.76634 -0.061555 -0.982879 -0.068095 -0.169511
-0.113037 -0.296631 0.094422 -0.744501 -0.039835 0.66617
-0.1341 -0.139745 0.065732 -0.90119 0.03083 0.419245
0.08887 -0.470707 -0.093923 -0.564515 0.039698 -0.824341
0.155021 -0.862805 0.01447 0.268159 -0.95974 -0.083285
-0.199811 0.344484 -0.023579 0.638372 -0.747234 0.180427
-0.033283 -0.08155 0.128415 -0.034896 -0.055022 0.997453
0.037994 0.761074 0.091093 0.32784 0.364044 0.822622
-0.126451 -0.537217 -0.062267 -0.876795 0.087988 -0.471941
0.025255 -0.184526 0.055347 0.959346 -0.058343 0.270346
-0.076024 -0.249179 -0.085837 -0.564411 -0.021814 -0.825169
0.007416 0.851566 -0.066114 -0.366745 0.77934 -0.507539
0.069922 -0.217449 0.080227 -0.558089 -0.111189 0.821098
0.200067 -0.078153 0.062039 0.864446 0.029513 0.50179
-0.225272 0.469956 -0.002318 -0.828716 0.479833 0.273915
-0.101405 0.336754 0.048256 -0.839882 -0.202657 0.50296
-0.088227 -0.56599 0.062038 -0.248692 -0.153055 0.912728
-0.128205 -0.329662 0.017538 -0.99915 -0.010291 0.033254
0.120968 -0.418839 -0.102863 0.078209 0.051801 -0.989084
0.264838 0.48205 -0.011398 0.564749 0.365364 0.733244
0.142256 -0.635604 -0.093804 0.294439 -0.109036 -0.942458
-0.003681 -0.54992 -0.073398 0.779704 -0.017461 -0.625838
0.525413 0.187143 0.023299 -0.109029 -0.243031 0.923295
0.016882 0.793066 0.08091 -0.212069 0.289179 0.930948
0.265341 0.475209 -0.116239 0.453091 0.553546 -0.69832
0.017126 -0.760964 -0.072489 0.96475 0.015288 -0.252792
-0.241876 0.407016 -0.088409 -0.308948 0.474602 -0.823577
0.037326 0.002414 0.143581 0.079024 -0.078132 0.982347
-0.006936 -0.691376 0.020804 0.645 -0.140416 0.739741
0.176021 0.35513 0.038688 0.842903 -0.104096 0.526792
0.462845 0.197187 -0.059757 0.343126 -0.731956 -0.550539
0.209169 -0.112078 0.038891 0.945059 -0.016032 0.326455
-0.124406 -0.553694 0.005992 -0.876619 -0.165471 0.44794
-0.030849 -0.693111 0.022463 -0.499065 0.039509 0.864403
-0.039085 -0.859459 -0.125159 0.145549 -0.927287 -0.331524
-0.095592 -0.622832 -0.099103 -0.464127 0.100198 -0.879558
-0.387833 0.259483 0.005711 -0.242518 0.385009 0.884471
-0.095681 -0.440251 -0.076577 -0.569023 0.249438 -0.782495
-0.393186 0.281291 -0.033903 -0.716487 0.691589 0.083037
-0.112022 0.252306 0.018212 -0.991578 0.093109 0.080162
-0.138804 -0.01781 -0.000593 -0.992894 0.091941 -0.04693
0.147022 0.393258 -0.130549 0.498351 -0.24818 -0.829772
0.043525 0.807227 -0.114053 0.141935 0.381278 -0.90763
0.029004 0.867082 0.004076 -0.382421 0.890275 0.239843
-0.127467 -0.64417 -0.03259 -0.988832 -0.089348 0.110469
0.131884 0.152933 0.097042 0.548847 0.026188 0.835422
0.177505 -0.05187 -0.089192 0.814267 -0.108065 -0.569972
-0.289702 0.282694 -0.087261 0.372552 -0.459181 -0.802942
-0.126039 -0.737222 -0.060028 -0.974743 -0.031782 -0.21369
-0.074763 -0.57009 0.056829 0.420882 -0.168688 0.890923
0.039553 -0.053779 -0.127546 -0.329022 -0.432695 -0.839217
-0.046229 -0.415402 -0.084537 0.145065 0.268733 -0.951371
0.067984 0.145251 0.128088 0.238096 0.034701 0.967858
-0.078496 -0.862389 -0.017169 -0.045676 -0.997044 -0.049624
0.136548 -0.869288 -0.094419 0.185246 -0.967915 -0.124098
-0.041321 -0.498859 0.059347 0.335145 -0.255904 0.905639
0.074617 0.501303 0.064567 0.110116 0.476293 0.870748
0.123373 -0.824425 0.116136 0.007295 0.996873 0.041451
-0.118232 0.302349 -0.031529 -0.965139 -0.250521 0.011001
0.156496 -0.652362 0.028495 0.197483 -0.009389 0.978304
-0.159534 0.448132 0.050611 -0.429117 -0.402372 0.80586
0.12099 0.29467 0.096273 0.507053 0.068975 0.856449
-0.061567 0.580135 -0.017687 -0.206229 0.882178 0.39092
-0.031206 -0.259736 -0.090277 0.320269 0.00094 -0.94716
0.07048 -0.76502 0.012068 0.352356 0.137792 0.906027
0.144745 0.56192 -0.009846 0.178169 0.756306 0.629111
-0.23241 0.396838 -0.09445 -0.084722 0.190439 -0.977735
0.233374 0.469084 0.007851 0.768857 0.003712 0.639338
0.049443 0.118837 0.131344 0.127832 0.127551 0.982249
-0.057185 -0.861096 -0.040008 0.085399 -0.995725 -0.006737
0.158076 -0.456046 -0.094408 0.487404 0.161281 -0.857648
0.193222 -0.385139 0.041174 0.945144 -0.03001 0.324842
0.145075 -0.82006 0.069782 0.380451 0.875624 0.29426
0.187156 -0.770125 -0.021292 0.954699 -0.288836 -0.033701
0.081009 0.73903 -0.089561 0.662254 -0.388179 -0.640725
0.412268 0.236454 -0.117251 0.042162 -0.556548 -0.820786
-0.124504 -0.328561 0.050311 -0.981982 -0.022903 0.186634
-3.2e-05 0.253928 0.122338 -0.372984 0.064475 0.925589
-0.103019 0.223929 -0.057015 -0.791596 -0.317953 -0.518581
-0.213011 0.347029 -0.001227 0.460254 -0.645131 0.603501
-0.097363 -0.792941 -0.109907 -0.797989 0.040954 -0.597553
0.075113 -0.646812 0.014233 -0.488135 0.396817 0.766072
-0.136606 0.030804 0.042451 -0.966048 0.16441 0.191743
0.052917 0.041931 -0.158186 -0.12617 0.250573 -0.956588
-0.029987 0.784869 0.022363 -0.912988 0.121004 0.389105
-0.022071 -0.846588 0.05003 0.985197 0.03575 0.062664
0.079627 -0.606253 0.015917 -0.748134 -0.148614 0.645917
-0.267794 0.337958 0.01007 -0.097836 -0.189376 0.974412
-0.184315 0.50784 0.029614 -0.652389 0.528285 0.542165
-0.244125 0.305965 -0.027017 0.740207 -0.654484 0.151131
0.548282 0.112258 0.003972 -0.948945 -0.3143 0.022893
0.173458 -0.456105 -0.082795 0.654324 0.16896 -0.736799
-0.02193 -0.202868 -0.0862 0.532719 -0.014321 -0.844212
0.59137 0.076558 0.057131 -0.697185 -0.597745 0.377964
0.068387 0.155773 0.127756 0.263787 0.031388 0.960765
-0.019966 0.50347 -0.125462 0.008812 0.234854 -0.970091
0.235559 0.378136 -0.068342 -0.696656 -0.713836 0.053588
0.199255 -0.458254 -0.002434 0.993346 -0.02228 0.106129
-0.002683 0.840328 0.041513 -0.616276 0.362643 0.690883
0.097914 -0.857404 -0.10897 -0.761842 -0.053561 -0.637556
0.055703 -0.297868 -0.063461 -0.831545 -0.013597 -0.555013
-0.120497 -0.772781 -0.0361 -0.992195 -0.094973 0.063102
-0.289532 0.288082 0.001226 0.37178 -0.417683 0.824669
-0.05069 -0.72928 0.023599 -0.430257 0.457213 0.7751
0.167292 -0.69554 0.012927 0.38649 -0.502484 0.772851
-0.143528 -0.057509 0.01982 -0.996944 0.042837 0.058422
-0.042156 0.059348 -0.135708 -0.315347 0.205813 -0.923246
-0.108096 0.086843 -0.070882 -0.801536 0.20713 -0.560368
0.147308 -0.738634 -0.090069 0.703929 0.178008 -0.679613
0.080199 0.427494 -0.142996 -0.254652 0.023792 -0.965261
0.025504 0.807923 0.078032 -0.201641 0.423679 0.880179
0.06387 -0.131553 0.077506 -0.67043 0.061978 0.738871
0.113589 0.035919 0.117559 0.405113 0.355417 0.831631
0.170983 -0.354074 -0.062294 0.676992 0.135127 -0.722711
-0.371285 0.300933 -0.025995 -0.629356 0.746326 0.207146
0.15917 -0.566656 0.042942 0.108153 -0.155259 0.978467
-0.060921 0.484914 -0.12785 -0.102165 0.201441 -0.973821
0.185567 0.565798 -0.040913 0.319193 0.931489 0.153784
0.020416 -0.712162 -0.063151 0.924934 0.008383 -0.377135
-0.011418 0.218537 0.122114 -0.429576 0.145395 0.890019
-0.054816 -0.537109 0.055596 0.373734 -0.17273 0.911215
0.164203 -0.12622 -0.093649 0.674631 -0.242592 -0.696365
0.099779 0.300883 0.104593 0.262474 0.087286 0.960786
0.018648 -0.206047 0.07701 0.95275 -0.031032 0.301368
-0.068117 -0.270553 0.10987 0.061306 -0.144277 0.987467
0.027529 -0.291964 0.033447 0.994605 -0.011846 0.10298
0.201647 -0.492815 -0.027683 0.986537 0.127101 -0.094864
0.277034 0.338939 -0.089082 -0.62714 -0.767013 -0.119777
0.052447 0.719979 -0.098162 0.306635 -0.577252 -0.755179
0.019145 0.350303 -0.126668 0.003819 -0.039996 -0.99776
-0.13728 -0.103918 0.05414 -0.967031 0.00174 0.253867
0.141553 -0.172149 0.099214 0.161685 -0.276968 0.946305
0.151799 0.075897 -0.107247 0.678567 0.240406 -0.69199
0.066277 0.303911 -0.138177 -0.297875 -0.06834 -0.95118
0.02628 -0.270827 0.045618 0.977668 -0.021364 0.206834
-0.001897 0.371207 -0.128649 0.065249 -0.019564 -0.997525
-0.02612 -0.85117 0.083951 0.9843 -0.04298 0.166114
-0.110481 0.240381 -0.055052 -0.928958 -0.164699 -0.30412
0.05856 -0.287608 -0.067571 -0.81529 0.002413 -0.578961
0.197645 -0.534265 0.007674 0.952498 -0.044616 0.301067
0.023409 0.051783 0.136461 0.10945 0.080205 0.990746
-0.231546 0.459375 -0.047733 -0.700252 0.620833 -0.351428
0.141198 0.049284 -0.125534 0.636644 0.291456 -0.713516
0.082409 -0.250777 0.081803 -0.366357 -0.116183 0.921057
0.125185 -0.815842 0.074935 0.110662 0.923261 0.361489
0.109563 -0.092245 -0.127685 0.037506 -0.285581 -0.957415
-0.110292 -0.624756 0.03234 -0.868623 -0.016739 0.494877
-0.076454 0.287864 -0.108904 -0.638375 -0.05169 -0.767886
0.16731 0.405876 -0.126938 0.282292 -0.399096 -0.869938
0.014105 -0.773079 -0.035359 0.888502 -0.129514 0.435754
0.205427 -0.320298 -0.004152 0.994208 -0.005354 -0.098772
0.167773 -0.035656 0.095564 0.655153 0.018676 0.75464
0.081919 -0.727647 -0.061454 -0.923346 -0.107977 -0.367197
0.44487 0.233087 -0.100615 0.6261 -0.297864 -0.718294
-0.417342 0.168561 -0.022816 0.636813 -0.763892 -0.100523
0.099057 0.52662 0.043516 0.284454 0.537482 0.792413
-0.084591 0.130979 0.084143 -0.669862 0.024042 0.741965
0.080862 -0.373253 -0.086686 -0.665457 -0.075012 -0.742333
-0.082565 0.152842 0.084535 -0.663312 -0.00012 0.747928
0.00304 -0.828255 -0.058027 0.84886 -0.510748 0.03142
0.201316 -0.353761 0.023314 0.95344 -0.134376 0.269411
0.088452 -0.308828 0.073778 -0.357415 -0.141729 0.922705
0.227068 0.411287 -0.126512 -0.56444 -0.388177 -0.724567
0.064823 0.194647 0.126981 0.244394 0.042065 0.962821
-0.079692 -0.093259 0.117573 -0.435138 -0.014681 0.89942
-0.006613 0.231025 0.1224 -0.371082 0.121495 0.92057
0.12994 0.164245 -0.101677 0.499802 0.129577 -0.856276
0.192989 -0.231253 0.061901 0.898806 -0.022084 0.435614
-0.025077 -0.794083 0.038862 0.688137 0.503369 0.516122
0.018236 0.063473 0.13644 0.161927 0.060991 0.984291
-0.413167 0.181501 -0.051642 0.408901 -0.637283 -0.626472
-0.093249 -0.046822 0.110019 -0.601623 -0.035707 0.797615
-0.001959 -0.303385 -0.061379 0.755633 -0.108534 -0.645876
0.147032 -0.023778 -0.131378 0.667377 -0.028864 -0.74338
0.083577 0.687247 0.049254 0.903462 -0.36304 0.219951
0.003977 -0.803523 -0.106894 0.936173 -0.097888 -0.333811
-0.120262 0.038405 -0.064326 -0.875035 0.142124 -0.462122
-0.560629 0.050934 0.074315 -0.467192 -0.567429 0.502944
-0.206312 0.49735 0.006821 -0.756871 0.589691 0.273561
0.196088 -0.183612 -0.056194 0.770471 0.016422 -0.634317
0.051368 -0.501207 -0.007676 -0.87636 -0.007482 0.481167
0.018994 -0.728666 -0.068076 0.930287 0.022187 -0.361007
0.123752 -0.365835 -0.098288 0.363574 0.090238 -0.924084
0.095845 -0.322752 -0.098108 -0.304522 0.010749 -0.947878
0.461794 0.250518 -0.026611 0.047342 0.621607 0.776172
0.13327 -0.399716 -0.098541 0.397474 0.096238 -0.91193
-0.048675 0.523934 -0.115894 -0.198389 0.439112 -0.875264
0.073224 -0.195781 0.084564 -0.555719 -0.063859 0.82863
-0.029619 -0.339758 0.092603 0.297203 -0.09662 0.946517
0.313187 0.42295 -0.038759 0.753264 0.24976 0.607093
-0.073649 -0.340913 -0.082686 -0.423516 -0.024236 -0.904002
0.213041 -0.032981 0.004686 0.99252 -0.000736 -0.107083
-0.005128 0.206583 -0.124905 -0.040176 -0.376573 -0.924263
0.008447 -0.802893 -0.094905 0.940519 -0.149246 -0.298644
0.178697 0.038437 -0.085321 0.828488 0.122912 -0.545926
0.012961 -0.62647 -0.057201 0.684031 0.120311 -0.719378
0.001659 0.520004 0.061099 0.069855 0.502826 0.861344
-0.105306 0.431863 0.064166 -0.300782 0.045944 0.94588
-0.097813 -0.849888 -0.056756 -0.920705 -0.38045 0.035026
-0.12574 0.129387 0.025586 -0.939119 0.126359 0.312511
-0.011612 -0.578124 -0.07969 0.685161 -0.063359 -0.725609
-0.030071 -0.303956 -0.08621 0.449624 -0.11371 -0.885863
0.079985 -0.303301 0.071168 -0.428673 -0.184197 0.882662
-0.072578 -0.584758 -0.103535 -0.089295 0.036861 -0.994031
0.278617 0.486006 -0.029151 0.672295 0.586696 0.44857
0.241136 0.406475 -0.016557 -0.018322 -0.52955 0.846169
0.022553 -0.435797 0.007933 0.963984 0.149216 0.215205
0.553469 0.16757 0.022471 0.696643 0.711083 0.073981
-0.020015 0.271466 -0.130919 -0.054523 -0.050983 -0.996473
-0.037486 -0.115384 -0.104879 0.166425 -0.179317 -0.968529
0.118796 -0.053774 0.11913 0.285336 -0.083608 0.953654
0.198712 -0.405354 0.022482 0.955745 -0.06552 0.286286
-0.098989 0.548335 0.025879 -0.016443 0.753836 0.65634
-0.072202 0.013092 0.121657 -0.352779 0.287832 0.888404
0.01031 0.538144 0.046409 0.19249 0.747685 0.631801
0.173791 0.501914 -0.130566 0.123953 0.314878 -0.940701
0.143513 -0.145749 0.106282 0.219881 -0.180248 0.957925
0.050884 -0.637527 -0.033113 -0.953587 -0.139419 -0.255911
0.631438 0.05776 0.086063 0.858148 0.497219 0.122881
0.191021 -0.416289 0.045383 0.933484 -0.037558 0.355101
-0.110693 -0.842343 0.018472 -0.864717 0.466179 -0.042257
0.161589 -0.622119 0.024655 0.380438 -0.097556 0.90552
0.138553 0.047734 0.109557 0.48967 0.260681 0.824251
-0.128254 0.170986 0.011905 -0.994913 -0.024579 0.081321
