-0.079237 0.403476 0.085898 -0.649478 0.01786 0.759542
0.179063 0.103108 -0.060942 0.795769 0.282374 -0.535238
-0.143437 -0.048333 0.006702 -0.999499 0.024978 -0.002214
-0.101698 -0.101845 -0.079761 -0.709023 -0.106408 -0.696755
-0.115034 -0.254497 0.095549 -0.792529 -0.032983 0.580373
-0.098783 0.515899 0.051271 0.011719 0.457912 0.888681
-0.129248 0.102499 -0.002635 -0.994405 -0.090348 -0.039265
-0.080865 0.145092 -0.086952 -0.578471 0.235818 -0.780777
0.107794 0.260276 -0.135778 0.340075 -0.091515 -0.932184
0.192678 0.404286 -0.117221 0.493126 -0.480175 -0.721692
-0.114345 -0.267119 0.095283 -0.717621 -0.061028 0.69337
-0.103659 -0.838257 -0.047264 -0.944513 -0.271723 -0.068862
0.001847 -0.438475 -0.055397 0.758098 0.040383 -0.650757
0.301251 0.465465 -0.093753 0.677076 0.654447 -0.336287
0.205664 -0.203612 -0.035328 0.98364 -0.020323 -0.167376
-0.114494 -0.367256 0.084883 -0.777045 -0.006068 0.626973
-0.046735 0.515197 -0.12042 -0.125196 0.324357 -0.937518
0.102103 0.549354 0.025479 0.391582 0.635262 0.664345
-0.125549 -0.640255 -0.074452 -0.89051 0.008962 -0.443032
-0.113502 -0.218385 0.098661 -0.681589 -0.054065 0.729236
0.007919 0.342935 0.112865 -0.05814 0.039698 0.997067
-0.12833 0.560553 -0.013451 -0.409483 0.889226 0.112015
0.145422 -0.572319 -0.10246 0.297198 -0.098351 -0.949071
-0.025184 0.703951 -0.008951 -0.847727 -0.511057 -0.093411
0.005196 -0.323468 0.074957 0.646849 -0.201144 0.735495
0.044778 0.776458 0.085944 0.474981 -0.238317 0.833935
-0.003718 0.722019 -0.089439 -0.540011 -0.551059 -0.632067
0.177046 0.405612 0.047217 0.635084 -0.059811 0.769937
-0.243334 0.30949 -0.017269 0.714836 -0.641908 0.273124
-0.261296 0.373958 -0.095965 -0.233768 0.188399 -0.951412
0.160361 0.169622 -0.072786 0.763166 0.067264 -0.64224
-0.000625 0.40489 0.104016 0.106082 0.137081 0.984431
-0.040384 0.828729 -0.01002 -0.936452 0.257896 0.180812
-0.03876 0.473525 0.081245 -0.154225 0.357832 0.920115
0.028007 0.79374 -0.119002 -0.09 0.247091 -0.961936
0.239826 0.519328 -0.009713 0.658672 0.521883 0.537277
0.592919 0.11739 0.007383 0.235163 0.832153 -0.430366
0.10332 -0.86737 -0.038531 -0.242636 -0.949111 0.186826
-0.052059 -0.558921 0.049927 0.370455 -0.173613 0.912014
0.20785 -0.126989 0.04174 0.943555 -0.068458 0.322037
0.042751 -0.261558 0.027349 -0.991479 -0.018016 0.128443
0.187116 0.327587 -0.051056 0.856976 -0.357078 -0.371543
0.104805 0.788397 -0.045207 0.993156 0.055023 -0.095722
-0.10824 -0.839376 0.042573 -0.73899 0.673232 0.021696
-0.083241 0.528194 0.044483 -0.055228 0.58349 0.809879
-0.037273 0.315636 -0.128505 -0.185775 0.033694 -0.981169
0.013079 -0.555178 -0.049726 0.83777 0.031428 -0.54446
0.028891 0.704718 -0.089464 -0.067671 -0.64142 -0.760741
-0.082817 -0.820976 -0.122987 -0.771511 -0.124237 -0.622438
-0.103985 -0.729046 -0.094467 -0.822876 0.00612 -0.566739
0.165293 0.180138 -0.065357 0.823202 0.055517 -0.561337
0.127966 -0.622255 -0.098063 0.00773 -0.118157 -0.989921
-0.06351 -0.007642 -0.129949 -0.25392 -0.078596 -0.962301
-0.127761 0.547946 0.023594 -0.156738 0.81965 0.545561
-0.094623 0.44301 -0.121087 -0.266843 -0.109923 -0.956986
0.437537 0.292454 -0.102974 0.663457 0.566107 -0.486097
-0.255793 0.386459 0.0178 -0.378741 0.138031 0.911422
-0.474794 0.140614 0.063241 0.760438 -0.207604 0.604783
-0.028288 -0.080209 -0.113082 0.112196 -0.374245 -0.918893
-0.050447 0.355808 -0.124898 -0.343045 -0.031346 -0.938744
-0.014807 -0.417318 -0.070674 0.667724 0.145968 -0.729731
0.093361 0.054919 0.121669 0.336383 0.13046 0.930734
-0.111972 0.384548 0.055815 -0.740843 -0.295086 0.601902
0.043916 0.752664 -0.117418 0.355801 -0.336708 -0.865786
0.132445 -0.020552 0.11571 0.388428 0.001243 0.921132
0.015033 -0.354181 0.05472 0.794366 -0.215074 0.566424
0.192773 -0.401962 0.041308 0.945482 -0.023335 0.323876
0.052075 0.106255 -0.139514 -0.055066 0.437456 -0.896605
-0.135598 -0.24049 0.028702 -0.998974 -0.042522 0.008596
0.203905 -0.355626 -0.023121 0.961963 0.079228 -0.256817
0.199296 0.041932 0.052323 0.927656 0.138353 0.341887
-0.126159 0.141153 0.019164 -0.982754 0.051906 0.174826
0.582772 0.05782 -0.028059 -0.170928 -0.062321 -0.867202
-0.04001 0.550775 0.033332 -0.201067 0.7017 0.683244
-0.060723 0.127572 0.102054 -0.566937 -0.117458 0.81446
0.113822 -0.594479 0.033299 -0.229011 -0.157266 0.959236
-0.085196 -0.340833 -0.075972 -0.558514 0.029905 -0.828224
0.097362 0.79988 0.012718 0.95996 0.118598 0.246079
-0.200899 0.48556 -0.059459 -0.641553 0.505568 -0.576266
0.543851 0.135844 0.037962 -0.719268 -0.106465 0.637183
0.040692 0.545759 -0.116262 -0.179124 0.42551 -0.885625
0.011704 0.249909 -0.127345 0.149445 -0.043313 -0.987722
-0.105127 0.380209 0.062011 -0.731775 -0.206671 0.648235
0.008743 -0.682099 -0.072907 0.565435 0.216461 -0.795105
0.097399 -0.401682 0.055422 -0.532855 -0.212568 0.817997
0.029245 -0.301729 -0.005129 0.989993 -0.091778 -0.088609
-0.080284 0.309172 -0.107209 -0.652064 -0.049316 -0.756101
0.16419 -0.839386 0.06683 0.79762 0.603085 0.008469
0.006124 -0.269711 0.087449 0.548973 -0.171636 0.814925
0.199101 0.393003 -0.028231 0.985849 -0.150742 0.022502
-0.011759 0.649873 -0.018807 -0.999301 -0.000299 -0.021478
0.356109 0.373391 -0.105892 0.739028 0.66818 -0.053997
-0.136676 -0.432675 -0.01631 -0.970716 0.117456 -0.205646
0.079379 -0.738479 -0.053467 -0.904107 -0.010854 -0.425936
0.036721 0.499738 -0.124789 -0.171228 0.029861 -0.98461
-0.07854 0.225676 0.083967 -0.595825 0.118869 0.794187
0.590984 0.122108 0.035866 0.727253 0.685714 0.010974
0.042551 -0.262781 -0.043704 -0.859387 0.012251 -0.509226
0.108326 -0.462426 0.041887 -0.677809 -0.051349 0.73337
0.025461 -0.445099 -0.004615 0.987118 0.119622 -0.036006
-0.045966 -0.357258 0.095533 0.258557 -0.184498 0.947444
0.193307 -0.277024 0.058457 0.86616 -0.055266 0.492809
-0.093719 -0.228891 -0.072241 -0.73007 -0.038213 -0.682264
-0.01137 0.344156 0.111296 -0.28986 0.071206 0.943326
-0.111946 0.280002 0.00361 -0.998009 -0.030885 0.04946
0.020337 -0.336135 -0.028331 0.908678 -0.019636 -0.416944
0.205399 -0.301157 -0.008406 0.991607 -0.009876 -0.123847
0.077971 -0.16776 -0.10098 -0.416556 -0.221521 -0.881414
0.417466 0.294382 -0.119765 0.471558 0.458838 -0.751402
0.058436 -0.166602 -0.087053 -0.64761 -0.186447 -0.738282
0.03297 0.723196 0.100036 -0.042675 -0.461441 0.865074
-0.315405 0.2971 -0.095592 -0.076086 -0.084678 -0.992276
-0.030666 0.726896 0.008092 -0.993442 0.037985 0.105436
0.027193 -0.656801 -0.02922 0.9966 -0.03226 0.041397
-0.034218 -0.806023 -0.149384 0.232162 -0.128177 -0.948483
0.582293 0.12972 0.050868 0.708805 0.699691 0.082819
-0.037288 -0.474202 -0.093326 0.375791 0.115501 -0.917682
0.2047 -0.235566 0.02316 0.99433 -0.025685 0.101768
0.163379 -0.007414 0.097425 0.631351 -0.143009 0.759752
0.019845 -0.743799 -0.034504 0.955472 -0.154655 0.244649
0.134601 -0.499755 0.056177 -0.44935 -0.139432 0.880833
0.115553 -0.804652 -0.118776 -0.21803 0.167168 -0.956494
-0.258016 0.409157 -0.078087 -0.465058 0.615891 -0.635904
-0.041229 -0.863779 0.038999 0.059397 -0.997482 -0.029528
0.153281 -0.76717 -0.092571 0.671411 0.315575 -0.668123
0.063616 0.359337 0.106544 0.196587 0.191142 0.961456
-0.078598 -0.132532 -0.094951 -0.552077 -0.097666 -0.827694
0.153075 -0.034351 -0.124126 0.70455 -0.108867 -0.700615
0.064321 0.847143 0.03949 0.540993 0.555921 0.630285
0.286501 0.446353 -0.020969 0.676114 0.173415 0.716065
0.104617 -0.406283 -0.099693 -0.345187 0.019551 -0.935868
-0.10376 -0.809326 -0.096282 -0.883868 -0.248847 -0.382261
0.04453 0.189078 -0.113794 -0.140965 0.085849 -0.975464
0.113382 0.377629 -0.143681 0.256314 -0.066588 -0.962615
0.013029 -0.391908 -0.040496 0.782179 0.038515 -0.62116
0.000853 0.6871 0.07162 -0.747654 -0.056095 0.6606
-0.505138 0.087904 0.050756 0.660358 -0.738534 -0.053814
-0.001915 -0.817411 -0.02022 0.96136 -0.079468 0.26155
0.028436 -0.241418 0.036908 0.982226 -0.014096 0.186431
0.221172 0.395036 -0.100302 -0.549597 -0.795695 -0.139447
-0.109424 0.25139 -0.063031 -0.930845 -0.107527 -0.345907
0.214192 -0.08664 0.018122 0.996475 0.008623 0.074193
-0.070691 -0.301654 -0.086429 -0.504181 -0.087668 -0.85557
-0.457059 0.193972 -0.032167 -0.747797 0.348089 -0.558755
0.038961 0.534556 0.046823 0.024273 0.779783 0.625573
0.086997 -0.852255 -0.051859 -0.970962 -0.035157 0.191078
-0.029961 -0.747751 -0.122657 0.378965 0.413783 -0.824695
-0.002598 0.139881 -0.117697 -0.122063 0.446227 -0.88523
-0.136742 -0.181897 0.051163 -0.994979 -0.045863 0.087697
-0.093655 -0.8633 0.084943 -0.027543 -0.999611 0.002776
0.02207 -0.524587 -0.02767 0.906221 -0.044149 -0.41527
0.13761 -0.012819 -0.138574 0.622943 0.054563 -0.779848
0.076311 0.434483 0.088979 0.082579 0.172627 0.981448
0.641193 0.033147 0.07814 0.898715 0.065376 0.306811
-0.076842 0.240402 0.083898 -0.617625 0.055242 0.784425
-0.354288 0.294415 -0.085551 -0.491451 0.328084 -0.803754
0.206317 -0.21256 0.010966 0.998044 -0.031481 0.052224
0.092278 0.422819 -0.145115 -0.120794 0.011454 -0.99238
-0.460851 0.157093 0.048135 0.457408 0.419776 0.776065
0.302484 0.320615 -0.069246 -0.655125 -0.700333 0.265036
-0.106231 -0.403056 0.087394 -0.608122 -0.221251 0.737088
-0.02937 -0.272427 -0.089259 0.371937 -0.051012 -0.923741
-0.116435 0.104353 -0.049771 -0.842556 0.13026 -0.517957
0.622336 0.074889 0.018689 0.858549 0.482554 -0.162398
0.350128 0.406666 -0.07951 0.853028 0.376451 0.320947
-0.021488 -0.842526 -0.035094 0.918738 -0.391358 -0.006844
0.368761 0.261606 -0.105023 -0.663657 -0.663057 -0.343075
-0.12786 0.187136 -0.003071 -0.987677 0.077363 -0.112341
-0.024293 0.199209 -0.118179 -0.260009 -0.412309 -0.872478
0.172931 -0.326673 -0.058483 0.729462 0.003974 -0.683873
-0.039186 0.122556 0.114116 -0.466235 0.025965 0.882916
-0.320041 0.258788 -0.082841 0.063163 -0.542186 -0.837451
0.503122 0.194458 -0.057605 0.188698 -0.409666 -0.89129
0.189392 0.107562 -0.039016 0.885523 0.259893 -0.378495
0.087667 -0.852673 -0.081469 -0.973432 0.044418 -0.169982
-0.069881 0.558333 0.015631 -0.085123 0.773336 0.628124
0.184035 -0.127447 -0.070695 0.734262 -0.058607 -0.67609
0.366953 0.292866 -0.040249 -0.276237 -0.03815 0.946878
0.065659 0.081731 -0.148877 -0.057802 0.323255 -0.942945
-0.120362 0.183453 0.035732 -0.888527 0.058974 0.4531
-0.023243 0.834799 -0.062667 -0.526624 0.743243 -0.41248
-0.059325 0.51483 -0.118489 -0.184972 0.424792 -0.883045
-0.118509 0.36664 0.026682 -0.939642 -0.253109 0.229251
0.132757 -0.571323 -0.105951 0.063473 -0.135944 -0.988558
-0.030391 -0.54185 0.044021 0.367304 -0.214221 0.904807
-0.042346 0.295302 0.102477 -0.546421 0.125141 0.828009
-0.288826 0.372435 -0.010144 -0.792219 0.450759 0.409122
-0.032337 0.400451 0.1039 -0.148876 0.162004 0.973258
-0.091869 -0.856921 -0.046506 -0.629303 -0.759892 0.08064
0.205265 -0.294826 0.020148 0.991138 -0.01287 0.116307
-0.10686 -0.561582 -0.087992 -0.591234 0.0693 -0.801674
0.21076 -0.022783 -0.00713 0.959021 0.047784 -0.27777
0.030347 0.350901 -0.127622 -0.135092 -0.051721 -0.988952
0.098888 0.766493 -0.068075 0.964278 -0.035439 -0.260918
0.039983 0.735761 0.105803 0.418256 0.124026 0.839287
0.339331 0.302661 -0.121932 -0.431579 -0.608456 -0.659603
0.059583 -0.769496 0.009583 -0.991814 0.04483 0.108627
0.536205 0.159181 -0.030384 0.581929 -0.206856 -0.783295
0.095883 0.738976 0.026763 0.962693 -0.12375 0.237766
-0.079832 -0.579242 0.057532 0.369465 -0.188144 0.897564
0.075329 -0.717317 -0.050663 -0.889171 -0.173864 -0.423079
0.19312 -0.44697 0.02867 0.96175 -0.099126 0.253962
0.121502 0.083891 -0.130176 0.554649 0.255915 -0.791266
0.157551 -0.864544 0.096394 0.285235 -0.955725 0.011864
0.076324 0.761347 0.063098 0.704222 0.034819 0.688453
0.182585 0.245143 0.015213 0.998002 -0.013531 0.060852
0.634202 0.056117 0.066368 0.893888 0.440182 0.052649
0.031996 0.517304 -0.122713 -0.074673 0.157425 -0.984554
0.07546 -0.673398 -0.061031 -0.788354 -0.084583 -0.609132
0.207781 -0.170414 -0.004386 0.999918 0.003633 0.002006
-0.02267 -0.679889 -0.094292 0.571302 0.223758 -0.789098
0.053795 0.771104 -0.116049 0.4075 -0.046669 -0.911087
-0.040431 -0.515364 0.054862 0.409776 -0.284203 0.866329
0.019676 -0.094715 0.111265 0.587242 -0.257112 0.766296
0.114975 -0.173334 0.101454 -0.135782 -0.329499 0.931383
0.063702 0.721998 -0.093806 0.44104 -0.54089 -0.716111
-0.482691 0.15742 -0.034075 -0.619248 0.478346 -0.620963
0.182357 0.464296 0.037428 0.492392 0.234232 0.837631
0.063623 0.131657 0.129071 0.151307 0.023719 0.987333
-0.407387 0.265002 -0.042214 -0.788872 0.609069 -0.058378
-0.106507 -0.260413 -0.053629 -0.822324 -0.025956 -0.568357
-0.026414 -0.725786 -0.110179 0.418495 0.358997 -0.832473
0.003636 0.717457 0.074174 -0.541745 0.11606 0.829474
0.056476 -0.333705 -0.063716 -0.798627 -0.048776 -0.599662
-0.043522 0.428536 -0.129928 -0.065852 -0.077701 -0.994441
-0.009526 -0.748303 -0.005388 0.282338 -0.748296 0.597813
0.348574 0.296172 -0.122643 -0.464255 -0.580878 -0.665646
0.421375 0.274035 -0.12524 0.370131 0.122608 -0.920276
0.171787 -0.5901 0.033181 0.557206 -0.312326 0.766582
0.294446 0.438398 -0.02535 0.591562 0.384675 0.692418
-0.097641 -0.057425 0.107127 -0.571501 0.020925 0.81902
-0.003653 -0.720929 0.006126 0.779756 -0.12337 0.612867
-0.188597 0.398943 0.02532 0.219774 -0.319082 0.921774
0.33378 0.427901 -0.076754 0.816548 0.54846 0.167668
-0.251212 0.358434 0.017543 0.042069 -0.195711 0.976304
0.144953 0.071274 0.095911 0.741587 0.210319 0.635031
-0.104401 -0.708145 -0.094208 -0.71911 -0.009487 -0.693586
0.137468 0.066956 0.104438 0.456222 0.225131 0.82952
0.155206 0.558987 -0.008892 0.163964 0.756904 0.63255
-0.050853 -0.53493 -0.101496 0.194074 0.060756 -0.978919
0.187837 -0.217173 -0.06253 0.630232 -0.036345 -0.774672
-0.00225 -0.409039 -0.058211 0.640156 0.093827 -0.758404
-0.456328 0.138723 0.014681 0.612213 -0.783258 0.100367
0.182717 -0.700121 0.00155 0.39629 -0.529069 0.745661
0.146414 0.30097 0.07183 0.777545 0.041963 0.626947
0.148409 0.569935 -0.086321 0.420774 0.689345 -0.588375
-0.113251 -0.317299 -0.045335 -0.861317 0.05252 -0.490157
0.007747 0.816843 -0.106376 -0.317246 0.579746 -0.747358
-0.096702 -0.849263 0.132243 -0.898977 0.070211 0.370452
-0.348262 0.213817 -0.013616 0.622944 -0.761866 0.158567
0.048825 -0.605632 -0.040124 -0.895927 -0.09788 -0.427244
0.486168 0.177183 -0.041006 -0.465524 -0.841063 -0.198807
0.009719 -0.792942 -0.094235 0.950802 -0.023118 -0.297042
-0.023871 0.156008 0.121039 -0.3706 -0.003163 0.928649
0.142256 -0.635604 -0.093804 0.294439 -0.109036 -0.942458
-0.164064 0.514665 -0.072509 -0.516754 0.50956 -0.6871
0.070115 -0.538408 0.010993 -0.646481 -0.01877 0.76265
-0.102693 0.42214 0.065351 -0.429403 0.079717 0.895046
-0.031174 -0.28292 -0.089237 0.36281 -0.077165 -0.928407
0.325411 0.438176 -0.102214 0.614285 0.699179 -0.363673
-0.030583 0.000796 0.138268 -0.170198 0.380313 0.906959
-0.091781 -0.74391 0.010075 -0.604697 0.494231 0.623093
0.234343 0.47694 -0.128698 0.204966 0.29333 -0.93345
-0.124027 -0.298885 0.07009 -0.9701 -0.120437 0.209483
0.055116 0.177452 0.128744 0.091402 0.031624 0.995243
0.020759 -0.606788 0.001274 0.748013 0.023228 0.660138
0.055194 0.419611 -0.135608 -0.300284 0.041219 -0.952901
0.010373 -0.395083 0.050201 0.851821 -0.184969 0.489377
0.005786 -0.089622 0.121186 0.386471 -0.155987 0.908371
0.054621 0.262898 -0.131233 -0.36624 -0.09593 -0.925329
0.167493 -0.781704 -0.086558 0.735331 0.336341 -0.587318
0.154028 0.516631 -0.128507 0.141262 0.361217 -0.920757
0.170867 0.422823 -0.132936 0.254849 -0.361516 -0.896516
0.31005 0.408651 -0.140944 0.225829 0.376624 -0.897168
-0.068189 -0.752711 -0.126497 -0.274161 0.18261 -0.939572
-0.105805 -0.83657 0.032598 -0.768378 0.639336 0.021084
-0.141909 -0.165705 0.030205 -0.974435 -0.13506 0.170888
0.02142 0.114821 -0.132364 -0.157921 0.421946 -0.89261
0.202325 -0.265712 0.038669 0.956576 -0.048755 0.28711
0.021504 0.847645 -0.078584 -0.166639 0.803599 -0.569007
-0.099311 -0.285609 -0.062597 -0.745105 -0.004891 -0.66687
-0.052626 0.175666 -0.097265 -0.488494 -0.196185 -0.844687
0.037395 0.394384 0.102987 0.09616 0.403896 0.853609
0.042814 -0.400801 -0.021115 -0.994339 -0.096524 0.009708
0.1189 -0.352533 0.076921 -0.234431 -0.197063 0.951729
0.102423 0.43817 0.084701 0.189829 0.241255 0.951523
-0.019217 0.035742 -0.145926 -0.170572 0.13094 -0.974656
0.611077 0.093885 0.025558 0.771675 0.633424 -0.055648
-0.058192 -0.725489 0.017651 -0.34397 0.463935 0.814205
-0.000653 -0.632924 -0.069901 0.615382 0.061179 -0.785715
0.153681 0.155074 -0.081672 0.737831 0.049539 -0.672886
-0.0651 -0.362208 0.098329 0.139934 -0.16965 0.975479
0.355386 0.286084 -0.119688 -0.527867 -0.541468 -0.651203
-0.068352 0.26199 -0.11198 -0.524245 -0.15577 -0.836958
-0.03005 0.494679 -0.127421 0.004183 0.185405 -0.981809
0.104433 0.417147 0.089089 0.182141 0.174405 0.965505
0.022978 -0.204384 0.061769 0.946303 -0.035837 0.321066
0.425313 0.210931 -0.061356 -0.493575 -0.836467 0.237073
-0.024645 0.838909 -0.052232 -0.563301 0.763016 -0.314495
0.105283 -0.870053 0.079577 -0.093029 -0.989658 -0.002473
0.379461 0.33621 -0.062509 0.550762 0.603429 0.576628
0.098069 -0.546926 -0.097516 -0.565237 -0.102064 -0.817946
0.198112 0.460927 -0.134584 0.091022 -0.024283 -0.995232
0.201249 -0.583256 -0.03162 0.991052 -0.067038 -0.110088
-0.201399 0.392861 -0.096903 0.000813 -0.082321 -0.995409
0.033088 -0.290875 -0.016003 -0.984544 -0.133281 -0.108451
0.075307 -0.184454 0.086179 -0.51656 -0.021111 0.855448
0.029269 -0.218456 0.037081 0.975547 -0.033587 0.216615
-0.07003 -0.125852 0.120366 -0.25176 -0.003489 0.967515
-0.055345 -0.815514 0.07282 -0.037551 0.896715 0.433602
-0.103924 0.479802 -0.115605 -0.443408 0.198374 -0.872664
-0.052068 -0.573677 -0.102562 0.195918 -0.006592 -0.978127
-0.026828 -0.568205 -0.093094 0.480662 -0.041175 -0.873771
0.015705 0.658316 0.055077 -0.279103 -0.953611 0.112156
-0.247685 0.343135 0.012553 0.116824 -0.372055 0.916424
-0.149316 0.532892 0.033826 -0.304713 0.690384 0.652839
0.189003 0.050276 -0.063189 0.880118 0.152043 -0.448912
0.205068 -0.356551 0.0056 0.987458 -0.050171 0.134833
0.024848 0.43768 0.094584 0.170617 0.179464 0.96804
0.056695 0.408088 0.097486 0.094425 0.198652 0.974857
-0.139601 0.493776 -0.095805 -0.418414 0.236853 -0.876124
0.174441 0.550008 -0.004243 0.221665 0.727351 0.649244
0.009151 0.261183 -0.12824 0.13536 -0.047687 -0.98961
-0.069644 0.098747 -0.109543 -0.569049 0.299664 -0.764524
-0.016924 0.016897 -0.14421 -0.189055 -0.313063 -0.92918
-0.184148 0.497644 -0.066257 -0.603607 0.463558 -0.647815
-0.040064 -0.189343 0.120925 0.107262 -0.122268 0.986522
0.082521 0.298713 -0.141377 -0.094369 -0.108839 -0.985951
0.029381 0.53527 0.04636 0.052105 0.794015 0.604861
0.604974 0.099082 0.071316 0.57255 0.68563 0.291023
0.068611 -0.083112 -0.125324 -0.272965 -0.437402 -0.856302
0.049849 0.455796 -0.131796 -0.417141 0.078857 -0.902794
-0.022163 -0.329666 0.09126 0.392322 -0.113257 0.911933
0.029558 0.749189 0.097217 -0.31895 0.453026 0.810062
-0.36187 0.217137 0.005804 0.329965 -0.372216 0.865398
-0.171529 0.365123 -0.024018 0.665782 -0.731152 0.142942
-0.546921 0.071069 0.088936 0.087694 -0.269423 0.929608
-0.010837 0.403816 0.104858 0.01663 0.122867 0.991561
-0.183801 0.509654 -0.057313 -0.643061 0.520706 -0.559704
0.161448 -0.855453 -0.002757 0.763339 -0.571579 -0.164904
0.154555 0.024046 -0.118597 0.746545 0.063484 -0.646662
0.086688 -0.337727 0.068406 -0.427073 -0.222343 0.876303
-0.4037 0.178507 0.008202 0.562404 -0.818828 0.108604
-0.004856 -0.53552 -0.074785 0.79121 0.032944 -0.610533
-0.493414 0.137855 -0.023795 -0.321167 -0.585746 -0.66001
0.161758 -0.831256 -0.001176 0.975369 0.016511 0.020836
-0.086098 -0.74961 -0.117193 -0.577848 -0.010815 -0.815322
0.205943 -0.344097 0.001183 0.998926 -0.012502 0.021317
0.175462 -0.214651 0.08382 0.471159 -0.186328 0.857868
-0.106649 -0.400774 -0.057471 -0.723603 -0.052129 -0.683517
0.17929 -0.647083 -0.068992 0.60763 -0.210703 -0.765516
-0.094283 -0.681514 0.028646 -0.164714 -0.397129 0.900184
-0.132632 -0.391533 0.016899 -0.903518 0.391986 0.157809
0.087771 -0.843941 -0.030974 -0.991391 -0.11441 0.042744
0.005091 0.273743 0.122936 -0.277218 0.116776 0.952381
-0.137353 -0.468725 0.002706 -0.980924 -0.031872 0.190541
0.148364 -0.403376 -0.089932 0.527134 0.097428 -0.843615
0.233374 0.469084 0.007851 0.768857 0.003712 0.639338
0.304521 0.381613 -0.020949 0.387528 -0.09295 0.913021
-0.024403 0.764067 0.040104 -0.860014 0.141246 0.489777
0.157319 -0.835309 0.121019 0.638617 0.75421 0.131952
0.196939 -0.313684 0.044573 0.90173 -0.065934 0.424236
0.071288 -0.425477 -0.075335 -0.705932 0.009781 -0.708034
0.126423 -0.503352 0.050809 -0.53014 -0.122739 0.83849
0.099944 -0.295053 -0.098967 -0.182285 0.014394 -0.979883
0.304822 0.46541 -0.079636 0.74865 0.657668 -0.071254
0.11874 0.081698 0.105277 0.34909 0.085302 0.926953
0.164842 -0.842414 0.116827 0.773466 0.627381 0.073846
0.197847 0.479403 -0.134219 0.112089 0.107568 -0.986634
-0.328892 0.296135 0.002635 -0.222356 0.11795 0.967095
0.144672 0.172183 0.084872 0.710597 0.026712 0.703082
-0.118107 -0.758037 -0.007154 -0.826818 -0.319592 0.435915
-0.402425 0.271279 -0.033155 -0.747413 0.657757 0.085757
0.038373 0.670506 -0.067886 0.050565 -0.285627 -0.95459
0.537876 0.13035 -0.000267 -0.751517 -0.659485 -0.003121
-0.397531 0.250002 0.007528 -0.238922 0.343846 0.905527
-0.136175 -0.429834 0.016928 -0.986504 -0.012746 0.161321
-0.105925 -0.571009 0.03937 -0.911943 -0.00551 0.409529
-0.084218 -0.203872 -0.081794 -0.591593 -0.027843 -0.805607
0.020539 -0.211498 -0.041958 0.930152 -0.009889 -0.361412
-0.123417 0.485172 0.060891 0.038722 0.122536 0.991274
-0.118505 0.493529 -0.105158 -0.398477 0.228931 -0.887937
0.067462 0.861281 -0.029529 0.450448 0.867181 -0.137915
0.083091 -0.060434 -0.138253 -0.121796 -0.370864 -0.920012
-0.055386 -0.496834 0.065536 0.343578 -0.21939 0.912863
-0.001928 0.571113 -0.101203 -0.048606 0.537693 -0.841726
0.14161 0.581883 -0.052926 0.244742 0.965147 0.027406
0.103147 -0.024489 -0.151286 0.164399 -0.233091 -0.95698
0.189948 0.560586 -0.069465 0.395789 0.845547 -0.32667
-0.014799 -0.648473 -0.082513 0.651953 0.05033 -0.756547
0.196688 -0.626695 -0.001024 0.968585 -0.089519 0.228121
-0.11981 0.22356 -0.013886 -0.990015 0.113334 -0.069557
0.219842 0.394718 -0.088719 -0.73358 -0.676031 -0.056132
-0.380476 0.235811 -0.077109 -0.154154 -0.304069 -0.938354
0.144456 0.468405 0.063327 0.407076 0.362881 0.835946
0.167537 -0.615641 -0.083878 0.610152 -0.149817 -0.777299
0.199053 -0.62294 -0.031058 0.999721 -0.021117 -0.004374
-0.10165 -0.045424 0.104314 -0.630474 0.011908 0.77593
-0.014767 -0.822189 0.028748 0.77352 -0.555009 0.231836
-0.096206 -0.565993 0.056353 -0.735217 -0.054654 0.65916
-0.010533 0.330499 -0.129343 0.045808 0.043037 -0.997568
-0.079329 -0.310278 -0.080012 -0.572739 -0.037934 -0.818548
-0.001148 -0.293152 -0.062352 0.756522 -0.123305 -0.642233
-0.355184 0.235932 -0.076332 0.213457 -0.461771 -0.858178
0.210113 -0.097863 0.037393 0.93894 -0.021898 0.343172
0.037199 -0.158669 0.045402 0.018879 -0.499178 0.758647
0.149961 -0.794199 -0.107917 0.509094 0.244145 -0.821211
-0.02577 -0.025819 -0.135435 -0.097758 -0.22194 -0.969503
0.214383 -0.109195 0.01345 0.998441 -0.010499 0.049132
0.137042 0.469394 -0.144319 0.102226 0.076203 -0.991558
0.313921 0.307342 -0.088141 -0.703115 -0.71056 0.001091
0.025467 -0.020526 0.132002 -0.23314 -0.484362 0.814817
-0.399563 0.180414 -0.022259 0.487029 -0.867398 -0.089083
0.191997 -0.523142 0.02484 0.919807 -0.042997 0.388642
-0.073278 0.232343 -0.098853 -0.672976 -0.289862 -0.679356
-0.50095 0.093051 0.042829 0.527892 -0.808911 -0.226018
-0.004363 0.856724 0.016116 -0.51889 0.829921 0.202589
-0.089085 -0.830726 0.108493 -0.46617 0.860522 0.139525
0.125579 -0.305496 0.081749 -0.012809 -0.0644 0.997756
-0.016625 -0.773338 0.002145 0.684631 0.552177 0.471868
0.071051 -0.227629 -0.083312 -0.616442 -0.085379 -0.782063
0.179719 -0.778958 0.007154 0.873231 -0.377129 0.307343
0.003941 -0.781679 -0.020247 0.807131 -0.134305 0.570579
0.173612 0.451073 -0.137763 0.189637 -0.061136 -0.979496
-0.120893 -0.247521 0.087224 -0.883367 -0.034404 0.467045
-0.0419 -0.733944 0.027373 0.068651 -0.261488 0.930398
-0.007416 0.495099 -0.126285 0.121277 0.14204 -0.982075
-0.102972 -0.079662 -0.08267 -0.723327 -0.188703 -0.663054
-0.518393 0.09678 0.024239 0.111562 -0.382191 -0.895564
-0.076298 -0.020994 -0.122443 -0.563243 -0.15517 -0.811208
-0.117317 -0.355997 0.081744 -0.850187 -0.055106 0.521559
0.068121 0.41403 -0.139823 -0.377053 0.072157 -0.92196
-0.131448 -0.481807 0.016903 -0.844555 -0.223785 0.485506
-0.084484 -0.672532 0.033075 0.167328 -0.352658 0.915656
-0.144396 -0.112125 0.015767 -0.999906 -0.00056 0.012094
0.048132 0.716105 0.091302 0.577934 -0.127985 0.799263
0.152081 0.365537 0.068909 0.669388 -0.072325 0.739213
0.533556 0.136519 0.017373 -0.77722 -0.584325 0.173292
0.099129 0.451126 -0.146245 -0.108852 0.026312 -0.993322
-0.072767 0.566912 0.003374 -0.119898 0.827052 0.547535
-0.09659 0.371755 0.067618 -0.664915 -0.18691 0.723054
-0.014338 0.1102 0.127689 -0.350658 0.212861 0.910124
0.59136 0.121303 0.020362 0.744753 0.66471 -0.051214
-0.11441 -0.306292 -0.041825 -0.864637 0.055405 -0.498499
0.022838 -0.718142 -0.055552 0.972654 -0.023894 -0.224976
0.590628 0.10478 0.002582 0.544434 0.195539 -0.814417
0.020198 0.826216 0.065914 -0.330212 0.525616 0.778671
-0.237841 0.327192 -0.002368 0.513569 -0.611059 0.59872
0.121118 -0.459321 0.052848 -0.598272 -0.095679 0.795047
0.074815 0.16317 0.12462 0.492972 0.038799 0.868203
-0.252054 0.417731 -0.074301 -0.530459 0.609347 -0.58619
-0.468891 0.148786 0.058653 0.637874 0.073652 0.752327
0.3733 0.261619 -0.052447 -0.722431 -0.541384 0.424964
0.138989 0.100939 0.094551 0.657292 0.162178 0.733969
-0.110481 0.240381 -0.055052 -0.928958 -0.164699 -0.30412
0.108568 -0.475489 -0.104284 -0.282335 0.043862 -0.957412
0.175895 0.328504 -0.075372 0.814093 -0.335101 -0.473915
0.285626 0.344319 -0.116714 -0.612208 -0.559466 -0.558149
-0.128095 -0.208258 -0.018472 -0.907679 -0.100161 -0.406732
0.15284 -0.451626 0.069274 -0.08698 -0.123105 0.981656
-0.086403 0.556067 -0.080464 -0.41782 0.654561 -0.629883
-0.477266 0.176383 0.004849 -0.683476 0.728568 0.032126
0.185822 -0.736016 -0.004812 0.091381 0.494522 0.850316
0.07546 -0.756152 0.01675 0.112883 -0.638159 0.744338
-0.001022 -0.047132 0.130595 0.130633 -0.30045 0.944428
-0.051203 0.395186 0.09913 -0.317433 0.130869 0.937839
0.181033 -0.335321 -0.049611 0.734975 0.052472 -0.6759
-0.007495 -0.501156 -0.074742 0.744613 0.073637 -0.66315
-0.284853 0.393938 -0.01497 -0.815995 0.384844 0.354582
0.090223 -0.848593 0.128788 -0.917486 0.341662 0.180926
0.155353 0.039563 0.100435 0.457005 0.308872 0.831856
-0.315306 0.240024 -0.060148 0.425723 -0.834058 -0.335051
-0.213519 0.358339 0.008216 0.250413 -0.548169 0.797141
0.05983 -0.243848 0.065839 -0.732229 -0.140601 0.666098
0.093421 0.577591 -0.003956 0.476965 0.557177 0.67706
0.198205 -0.006712 0.057048 0.877291 -0.067104 0.464782
0.129721 0.399048 -0.140575 0.363949 -0.174862 -0.914421
0.20622 -0.159318 -0.033228 0.983256 -0.007012 -0.170624
0.026841 -0.506214 -0.01573 0.987105 0.007032 -0.154422
-0.028653 -0.066663 -0.119106 0.02345 -0.369878 -0.928549
-0.119769 -0.341945 0.078116 -0.953035 -0.013212 0.30164
0.065047 -0.696747 -0.042027 -0.790184 -0.2003 -0.578711
0.188774 -0.328283 0.060298 0.871851 -0.094887 0.477113
-0.006452 0.109493 -0.12969 -0.159975 0.344242 -0.925026
0.205728 0.411316 -0.105129 0.613151 -0.698014 -0.323688
-0.120195 -0.190252 -0.037762 -0.850454 -0.101697 -0.515844
-0.008859 0.007626 -0.143172 -0.169995 -0.193267 -0.966006
0.44487 0.233087 -0.100615 0.6261 -0.297864 -0.718294
0.182572 -0.354178 0.066311 0.828498 -0.064243 0.554675
0.165903 -0.68166 -0.071062 0.725001 -0.110283 -0.678531
0.346543 0.319597 -0.133341 -0.108137 -0.241163 -0.962793
0.176081 -0.803972 -0.038772 0.961438 -0.266699 0.028729
0.174499 0.512733 -0.126999 0.142625 0.416601 -0.894983
0.164449 0.212844 0.058262 0.73954 0.065503 0.669724
-0.080145 0.481898 -0.124051 -0.325937 0.229242 -0.915816
0.067936 -0.611563 0.001332 -0.590992 -0.179403 0.782965
0.010531 -0.527283 0.01788 0.703992 -0.170323 0.689182
0.025974 -0.486396 -0.016683 0.96114 0.051424 -0.253037
-0.007303 -0.5615 -0.077345 0.753515 -0.058442 -0.654251
-0.063091 -0.864092 0.052997 -0.014152 -0.999856 -0.007688
0.133735 -0.869794 0.055196 0.020396 -0.999401 -0.018794
0.19949 -0.269688 0.047007 0.935852 -0.053632 0.347885
-0.060494 -0.863744 0.115795 0.002323 -0.999413 0.024495
0.173435 0.464474 0.043186 0.576308 0.190771 0.793533
0.058566 0.753658 0.072053 0.434446 0.140991 0.865627
0.079601 -0.792459 -0.07322 -0.841597 0.22424 -0.489729
0.095144 0.780379 0.027117 0.914894 0.154173 0.367194
-0.213841 0.489424 -0.035068 -0.732789 0.612347 -0.281409
-0.024504 -0.12477 0.124881 0.14515 -0.064559 0.985524
-0.110131 -0.851903 0.00487 -0.791623 -0.555199 -0.117213
0.158906 0.116982 0.07666 0.575583 0.176429 0.797391
0.014248 -0.754974 -0.027689 0.7246 -0.384421 0.570871
-0.160983 0.480838 0.055034 -0.244082 0.108333 0.962233
0.156314 -0.831252 0.097896 0.631766 0.763626 0.126167
-0.031368 0.745997 0.013282 -0.942777 -0.173365 0.281877
-0.255489 0.414471 0.005812 -0.663762 0.51421 0.542059
0.119684 -0.187131 0.098034 0.01774 -0.145716 0.988124
-0.054936 -0.48116 -0.097314 0.044565 0.111714 -0.992554
0.055788 0.782931 -0.115332 0.391996 0.025152 -0.9186
-0.120497 -0.772781 -0.0361 -0.992195 -0.094973 0.063102
-0.411087 0.258103 -0.035748 -0.813682 0.580643 -0.006256
-0.009916 -0.779161 -0.003332 0.782482 0.274261 0.546635
0.263886 0.404298 -0.139948 -0.227783 -0.103608 -0.966714
-0.372496 0.258893 -0.084531 -0.139062 -0.134337 -0.977503
-0.443614 0.211721 0.006192 -0.595346 0.495891 0.625699
0.140226 -0.637223 0.030553 0.273585 0.022309 0.955916
0.088093 -0.863584 0.094362 -0.588652 -0.8069 -0.012287
-0.040763 0.001167 0.136126 -0.268685 0.398462 0.874251
-0.186915 0.410496 -0.096345 0.076795 0.046208 -0.994443
0.121362 -0.863524 -0.116382 0.151681 -0.638394 -0.733743
0.134258 -0.592811 -0.102442 0.089594 -0.158006 -0.978929
0.044054 0.869667 -0.023893 0.1217 0.969578 -0.176618
0.421213 0.210616 -0.087495 -0.648862 -0.757994 -0.026923
-0.047008 -0.843481 0.142288 0.822288 0.303571 0.47426
-0.091841 -0.862054 0.124725 -0.26415 -0.949922 0.123774
0.10354 -0.566808 -0.098171 -0.511148 -0.14704 -0.846135
0.16731 0.405876 -0.126938 0.282292 -0.399096 -0.869938
0.100347 0.282043 -0.139034 0.176955 -0.037069 -0.98282
0.060619 0.377284 0.104112 0.129112 0.172178 0.975933
0.363309 0.363967 -0.083194 0.66064 0.710914 0.235978
0.042237 -0.208161 -0.047617 -0.95063 -0.053401 -0.30366
-0.083001 -0.820608 0.067298 -0.381827 0.867806 0.29706
0.049356 0.618037 0.025985 0.27829 -0.189348 0.933517
0.085916 0.320307 -0.143799 -0.036556 -0.068656 -0.996952
0.07447 -0.021157 -0.15301 -0.100453 -0.287786 -0.950449
0.055686 0.812917 -0.108678 0.274983 0.482382 -0.830143
0.061996 -0.059179 0.121856 0.031328 -0.426008 0.903216
-0.05375 -0.275699 -0.093011 -0.103086 -0.061968 -0.991227
0.202146 0.40263 -0.095885 0.900263 -0.398274 -0.155587
0.204611 -0.510947 -0.027475 0.977346 0.101321 -0.159216
0.118635 -0.271656 0.083909 -0.000337 -0.107499 0.993714
0.009369 0.186692 -0.116971 0.139442 -0.133335 -0.980208
0.15869 -0.014693 -0.118866 0.730521 0.052201 -0.680823
0.005975 0.72689 0.073103 -0.504873 0.148891 0.846187
0.085051 -0.825522 0.007001 -0.496873 -0.863364 0.061796
0.071065 0.021216 0.137163 0.219206 0.145584 0.962846
0.320022 0.447686 -0.069642 0.743009 0.641738 0.177656
0.15158 -0.818514 0.053126 0.692857 0.642189 0.297787
0.175328 -0.071285 -0.0897 0.812629 -0.073958 -0.577823
-0.005902 0.119916 -0.126257 -0.142438 0.361706 -0.920466
0.47764 0.184168 -0.002076 -0.590328 -0.782757 0.191363
0.131555 -0.000334 0.120349 0.380716 -0.226666 0.89613
-0.457225 0.150662 -0.031822 0.347429 -0.828386 -0.435885
0.109437 -0.229247 -0.09997 -0.184717 -0.064355 -0.980533
0.1984 -0.378778 0.026438 0.953043 -0.025391 0.300506
-0.080599 -0.274047 0.109655 -0.03083 -0.101156 0.99287
0.213605 0.50268 -0.125399 0.240963 0.390089 -0.887876
0.037598 0.789833 -0.120221 0.07533 0.123998 -0.985752
0.056219 0.734039 -0.105399 0.3927 -0.405867 -0.824595
0.139249 -0.031437 0.113221 0.353574 -0.024185 0.935045
0.267476 0.347422 -0.09156 -0.688712 -0.703936 -0.161925
-0.089595 -0.44823 0.082257 -0.075057 -0.140071 0.985289
-0.034541 -0.263381 0.10589 0.178009 -0.18132 0.967159
0.073968 -0.660397 -0.061492 -0.744898 -0.11111 -0.657604
-0.011715 -0.601574 0.024452 0.280521 -0.128029 0.949929
-0.094125 -0.826066 0.055994 -0.736444 0.666088 0.113395
-0.108846 -0.461045 0.06829 -0.805478 -0.195126 0.559342
0.181953 -0.516878 -0.078653 0.742753 -0.009102 -0.669075
0.105162 0.790083 -0.024198 0.996575 0.053809 -0.000296
0.023399 -0.394903 -0.015398 0.947863 -0.105824 -0.29917
0.193461 0.360317 -0.007549 0.980821 -0.099942 0.166904
0.188964 -0.038341 -0.072351 0.865328 -0.036836 -0.496961
0.174826 0.055275 0.082426 0.731568 0.255844 0.630226
0.12989 0.103092 0.101116 0.521359 0.108737 0.845898
-0.09105 0.10995 -0.086602 -0.697385 0.217862 -0.682479
-0.24528 0.303553 -0.048345 0.779054 -0.616491 -0.108399
0.160919 -0.536933 -0.096182 0.547473 -0.03264 -0.835378
-0.098104 -0.861275 0.008675 -0.332213 -0.922745 -0.086238
0.13324 -0.869923 0.065144 0.01703 -0.999753 -0.008954
0.019469 0.001664 0.143894 0.015039 0.145962 0.988915
0.020607 -0.247651 -0.03925 0.929075 -0.060183 -0.364263
-0.097555 0.30571 -0.090896 -0.724475 -0.115998 -0.678404
-0.106902 -0.346233 0.096315 -0.589089 -0.096929 0.795155
0.187064 0.421969 0.039574 0.678428 -0.051705 0.732336
0.109587 0.003325 -0.150781 0.379039 0.070328 -0.92155
0.054452 0.843274 0.051935 0.49513 0.565955 0.658356
0.013853 0.840095 -0.085058 -0.243036 0.72217 -0.64601
-0.289532 0.288082 0.001226 0.37178 -0.417683 0.824669
-0.020112 -0.801956 0.036225 0.924365 0.274787 0.263993
0.200352 -0.599676 -0.022907 0.994916 -0.099561 0.007074
0.314934 0.395247 -0.143504 0.181238 0.088788 -0.971613
0.072785 0.692803 -0.061099 0.653129 -0.51732 -0.550915
0.027383 0.291023 -0.127455 -0.021286 0.000268 -0.998384
0.137623 -0.826568 0.118059 0.271141 0.95804 0.063528
0.048319 -0.573597 -0.015738 -0.895595 -0.103972 0.431887
0.208849 -0.148736 -0.014527 0.966844 -0.247671 -0.045672
-0.040284 0.74663 -0.020028 -0.993273 0.02061 0.057494
0.061495 0.785628 0.079582 0.515254 0.14138 0.801787
-0.108096 0.086843 -0.070882 -0.801536 0.20713 -0.560368
0.098951 -0.768314 0.021214 -0.249396 0.804134 0.537685
0.461498 0.265816 -0.042178 0.520737 0.69374 0.462526
0.10766 -0.340281 0.075989 -0.266107 -0.174759 0.94726
0.16849 -0.858195 0.026333 0.809825 -0.491255 -0.218998
0.053795 -0.705478 0.014922 -0.975837 0.069851 0.197778
-0.037894 -0.350402 0.094389 0.320494 -0.137094 0.936701
-0.223497 0.476273 -0.027036 -0.850436 0.518803 -0.060108
-0.103134 0.048434 -0.090267 -0.797945 0.208029 -0.563033
0.22041 0.545267 -0.079899 0.437937 0.788673 -0.426812
-0.054053 -0.478083 0.070265 0.35309 -0.295193 0.887707
-0.013562 0.768854 -0.103155 -0.781527 -0.145689 -0.588562
0.01813 0.552313 -0.111233 -0.053969 0.453683 -0.887953
0.128257 -0.159289 0.105666 0.102943 -0.281906 0.95263
-0.035447 -0.334072 -0.085927 0.480231 -0.083281 -0.872813
0.001157 0.5432 -0.114761 0.007791 0.386267 -0.922252
-0.136068 -0.230406 0.028298 -0.999014 -0.041648 -0.000731
-0.418938 0.166194 0.003819 0.674087 -0.73834 0.005229
0.489134 0.194083 -0.058471 -0.107403 -0.461129 -0.878424
-0.046075 -0.398792 0.086925 0.218673 -0.192813 0.956481
-0.221219 0.383469 0.023874 -0.01014 -0.538619 0.835418
0.091268 0.795039 -0.083108 0.861493 0.117771 -0.492385
0.15988 0.369558 0.06199 0.69064 -0.062982 0.719955
-0.130207 -0.036734 -0.05019 -0.922869 -0.030928 -0.383795
0.121974 0.142307 -0.110229 0.454388 0.227465 -0.860084
0.044099 -0.473301 -0.036429 -0.991553 -0.000816 -0.10254
-0.1294 0.033431 -0.044321 -0.936586 0.117408 -0.329216
-0.109168 0.189785 0.057549 -0.826821 -0.053421 0.559761
-0.411568 0.243215 -0.063436 -0.643173 0.113023 -0.755197
0.001195 0.305062 -0.129318 0.143236 0.053158 -0.988173
0.083688 0.114127 0.123506 0.426605 0.064564 0.900385
0.62861 0.048276 0.015195 -0.850807 -0.383643 -0.330941
0.190961 -0.489834 0.030524 0.959686 0.017557 0.280316
-0.130043 -0.105424 0.071991 -0.858124 -0.002486 0.512796
-0.12955 -0.282679 0.022 -0.991439 -0.126797 0.002941
0.064783 -0.449723 -0.068963 -0.741717 0.024802 -0.670249
0.186946 -0.34728 0.059951 0.860764 -0.077665 0.502816
-0.00976 -0.803055 -0.134167 0.709128 -0.122904 -0.692435
-0.206946 0.451561 0.036085 -0.554694 0.270568 0.786184
-0.084214 -0.227724 0.111938 -0.189475 -0.047682 0.980596
0.062195 0.184965 0.127796 0.145963 0.029326 0.988732
0.016315 -0.305459 -0.038586 0.865499 -0.043413 -0.496933
-0.005581 0.396261 -0.129158 0.05308 6.2e-05 -0.998552
-0.129367 0.542747 -0.068341 -0.377782 0.722394 -0.578383
-0.080909 -0.029012 -0.117445 -0.58515 -0.181876 -0.790181
0.022182 0.649429 -0.062984 -0.360809 -0.026197 -0.928202
-0.109238 -0.470446 0.06375 -0.778875 -0.295463 0.552326
-0.146515 0.40572 0.017555 0.51546 -0.732655 0.440078
-0.078555 -0.361347 -0.079929 -0.444812 -0.019547 -0.895322
0.437698 0.201197 -0.089517 -0.449096 -0.880301 -0.015118
0.206674 -0.197809 -0.027075 0.995474 -0.025188 -0.087346
0.196601 0.405521 0.006971 0.932315 -0.196553 0.301707
0.11628 -0.32896 0.079546 -0.140452 -0.087835 0.985293
0.072306 -0.416143 0.025507 -0.701276 -0.353543 0.618969
0.0967 0.811616 -0.06016 0.918076 0.347377 -0.184173
0.068242 0.534577 0.045791 0.069437 0.617979 0.776887
0.068015 -0.794063 -0.048904 -0.925106 0.035605 -0.370492
-0.268762 0.275155 -0.052842 0.746039 -0.660803 -0.072212
0.154106 -0.485241 0.064961 -0.089045 -0.163765 0.977515
0.075068 0.057622 -0.154552 0.057332 0.247084 -0.965051
0.083274 -0.824261 -0.071547 -0.57946 -0.804097 -0.115957
0.042023 -0.311991 0.014755 -0.971093 -0.023565 0.237122
0.166932 0.10544 0.074637 0.696827 0.21122 0.682892
-0.021454 -0.127023 -0.09577 0.499273 -0.214745 -0.837075
0.168295 0.172645 0.059591 0.731268 0.086785 0.676085
-0.297178 0.269707 -0.083957 0.386842 -0.543842 -0.742794
0.152556 0.062939 0.093295 0.346973 0.330247 0.87373
0.014048 0.661177 0.073322 -0.34637 -0.90614 0.216492
0.22449 0.475745 -0.131117 0.191854 0.241976 -0.950222
0.16653 -0.842828 0.075573 0.791163 0.611573 0.002182
0.083356 -0.859584 0.086993 -0.905541 -0.399392 -0.043575
-0.131831 0.056512 -0.023729 -0.955075 0.185387 -0.229095
-0.028277 0.238324 -0.127766 -0.129082 -0.129772 -0.982122
-0.024292 -0.834288 0.040916 0.975483 0.089622 0.082832
-0.129259 0.074182 0.003355 -0.978035 0.175066 0.008372
-0.127457 -0.429955 -0.036727 -0.826321 0.24583 -0.506597
0.187797 -0.721214 -0.040496 0.700885 -0.189593 -0.683911
0.045967 -0.334758 -0.048128 -0.861 -0.055679 -0.505455
0.201909 -0.066822 -0.039507 0.929276 0.034359 -0.367062
0.100053 -0.154329 -0.111174 -0.092232 -0.228391 -0.967672
-0.112041 0.212399 0.052518 -0.921233 0.076686 0.375652
0.061597 -0.780231 0.025109 -0.781874 -0.136704 0.491585
-0.469578 0.126464 0.01724 0.738216 -0.673043 0.018006
0.020611 0.01641 0.142142 0.009961 0.120467 0.992327
0.200207 0.553799 -0.021455 0.387633 0.782629 0.483662
0.08297 -0.709461 0.0366 -0.062363 0.037232 0.995517
0.007601 -0.752408 -0.088014 0.776956 0.078292 -0.624571
0.051726 -0.183863 -0.074528 -0.818563 -0.180159 -0.543849
-0.047035 0.214919 0.105009 -0.522179 0.04552 0.851422
0.540023 0.150502 -0.026525 0.462275 -0.117365 -0.871876
-0.367172 0.280115 -0.084372 -0.346155 0.325645 -0.879627
-0.040653 -0.760051 0.013249 0.523815 0.563164 0.621507
-0.025671 -0.056758 -0.122729 -0.010373 -0.403846 -0.913568
0.118779 -0.70529 0.026252 0.366685 -0.292636 0.881545
-0.042006 -0.845302 -0.138519 0.330364 -0.372329 -0.857346
0.210457 -0.051931 -0.009061 0.983169 0.022648 -0.172659
-0.1045 0.007969 -0.096983 -0.844032 0.009891 -0.536199
0.080904 0.471609 -0.141115 -0.358265 0.200358 -0.910418
0.1148 -0.13134 0.112803 -0.199513 -0.106851 0.947715
0.006014 0.067537 -0.14339 -0.142872 0.206548 -0.967727
-0.094902 0.315094 -0.095083 -0.680282 -0.110524 -0.724333
-0.100174 -0.783206 -0.104573 -0.793145 0.100893 -0.600501
-0.096036 -0.039435 -0.102563 -0.668438 -0.166729 -0.724544
-0.145699 0.393302 -0.01537 0.750259 -0.651602 0.109254
0.174869 -0.810518 -0.031785 0.931437 -0.353348 0.04644
0.173638 -0.316618 -0.057773 0.728537 -0.016063 -0.684575
0.073126 -0.781263 0.03079 -0.545828 0.136302 0.814191
0.124561 -0.380604 0.072642 -0.269341 -0.189608 0.943714
0.124209 -0.869917 0.056795 -0.00043 -0.999856 -0.016214
0.202919 -0.045049 -0.037289 0.935763 -0.022431 -0.351677
0.051962 -0.310481 0.045421 -0.777042 -0.102057 0.619752
-7.6e-05 -0.641327 0.021179 0.46609 -0.000886 0.884007
-0.107066 -0.702004 0.011351 -0.721891 -0.410374 0.55403
0.030678 0.865344 0.014655 -0.201718 0.95902 0.190661
-0.298707 0.278298 0.002268 0.46095 -0.19598 0.859759
0.186397 -0.573963 0.026707 0.726916 -0.185001 0.659601
0.165061 0.539296 0.01023 0.19597 0.659343 0.722419
-0.064418 -0.403188 -0.081565 -0.188789 0.028245 -0.978464
0.198638 -0.498694 0.006348 0.962712 0.046804 0.264902
0.012659 -0.293684 0.075623 0.796711 -0.127444 0.590203
0.105302 -0.419795 -0.100575 -0.351394 0.043341 -0.932091
-0.043695 0.576698 -0.087572 -0.394284 0.661283 -0.635537
-0.126216 -0.189821 -0.027317 -0.869494 -0.129727 -0.473758
0.119913 -0.779698 -0.108463 -0.174544 0.45193 -0.869523
-0.328843 0.280342 -0.092012 -0.081095 -0.231956 -0.968912
-0.036463 -0.859062 -0.068718 0.560532 -0.805027 0.191219
-0.050851 -0.084159 0.1263 -0.251048 -0.062104 0.962313
0.329324 0.313956 -0.125554 -0.393409 -0.540689 -0.741292
-0.074571 -0.638228 -0.10647 -0.083825 0.079209 -0.991648
-0.105567 -0.561353 0.041195 -0.878948 -0.060147 0.472188
0.321261 0.433059 -0.115087 0.539239 0.663257 -0.518712
0.008438 -0.235446 -0.060549 0.768614 -0.07742 -0.634594
0.155148 0.241738 0.066934 0.777352 0.063568 0.62578
-0.127952 0.151012 0.004834 -0.996619 0.021156 0.059255
-0.136925 0.557877 -0.007265 -0.3135 0.935677 0.110421
-0.101464 -0.719864 -0.097887 -0.776094 0.022642 -0.630069
0.052339 -0.17131 -0.079625 -0.77278 -0.17752 -0.606757
-0.430248 0.220019 0.010006 -0.375008 0.397715 0.83288
0.119666 -0.869486 0.041222 -0.009846 -0.999436 -0.031202
0.130578 -0.634081 0.03332 0.299407 -0.146825 0.941907
0.146332 0.311263 0.071235 0.774297 0.047137 0.630873
-0.045602 -0.478486 -0.095677 0.173257 0.10765 -0.977838
-0.094308 0.145068 -0.075093 -0.6962 0.203699 -0.688254
-0.06455 -0.785712 0.03952 -0.320158 0.714907 0.611714
-0.000884 0.331623 -0.128378 0.120605 0.033068 -0.991945
0.185216 -0.514789 0.039032 0.844537 -0.083903 0.528735
-0.033283 -0.08155 0.128415 -0.034896 -0.055022 0.997453
0.135809 -0.628873 -0.096582 0.182527 -0.114371 -0.973458
0.043709 -0.436227 -0.022002 -0.994797 -0.020093 0.075988
-0.114587 0.238633 -0.027165 -0.961523 0.246785 -0.094153
0.085706 0.26138 -0.138753 -0.029717 -0.088217 -0.995531
-0.40545 0.214956 0.014982 0.1587 0.186415 0.963585
-0.019832 0.341037 0.107817 -0.430694 0.127924 0.888258
0.038315 -0.269058 -0.036564 -0.860294 -0.003463 -0.508085
0.193199 -0.457023 0.025344 0.965324 -0.076436 0.24923
-0.044771 -0.454442 -0.092754 0.211483 0.149896 -0.963419
0.168734 -0.064643 -0.100046 0.780216 -0.08055 -0.62028
-0.336811 0.223774 -0.046184 0.500871 -0.842456 -0.182266
0.188633 -0.641698 -0.062145 0.741131 -0.158453 -0.651924
0.02054 -0.285086 -0.031607 0.949531 -0.065777 -0.305314
0.088088 -0.837734 0.008056 -0.99473 0.01109 -0.002273
0.120211 -0.714101 0.022391 0.416781 -0.257891 0.865807
-0.221951 0.427127 -0.085614 -0.374469 0.446251 -0.811627
-0.025146 0.558939 -0.106054 -0.135755 0.498436 -0.855559
0.117636 0.202535 -0.111141 0.52995 -0.30768 -0.789818
0.350911 0.279795 -0.063752 -0.669694 -0.679259 0.298021
0.126156 0.364404 0.08813 0.393367 0.050836 0.916661
0.025855 -0.183542 -0.031212 -0.650162 0.034635 -0.751626
0.164751 -0.775205 0.027086 0.446219 -0.023672 0.86896
0.06674 -0.633417 -0.059172 -0.705471 -0.158749 -0.690159
0.433127 0.212409 -0.109438 0.305832 -0.211462 -0.832395
0.13956 -0.603071 0.037418 -0.153681 -0.119698 0.977809
-0.1286 -0.371219 -0.00453 -0.999762 0.008286 -0.00936
-0.047149 0.088731 -0.125627 -0.451429 0.308791 -0.835617
0.047091 0.156603 0.130363 0.121419 0.039586 0.991801
-0.11125 0.135451 0.056128 -0.808901 0.076129 0.581267
-0.067302 0.189303 -0.091353 -0.577916 -0.155499 -0.800124
-0.005724 -0.797396 -0.009104 0.867851 0.011109 0.492957
0.001651 -0.657766 0.018178 0.623314 -0.110554 0.773331
-0.156249 0.540004 0.018418 -0.460991 0.773996 0.431509
-0.072498 0.360675 -0.116284 -0.42691 -0.106374 -0.897421
-0.046998 0.197528 -0.106501 -0.51555 -0.303356 -0.800404
0.135254 0.515337 0.038754 0.375498 0.613993 0.693534
-0.059341 -0.244379 0.112523 0.040532 -0.111884 0.99223
0.118661 -0.120993 0.114384 -0.014504 -0.065722 0.992659
0.027822 0.756666 -0.119866 -0.045186 -0.201208 -0.974792
-0.02587 0.594477 -0.073042 -0.510077 0.711634 -0.479061
-0.002772 0.486274 -0.126743 0.157583 0.120729 -0.978828
-0.40854 0.176131 -0.026328 0.525047 -0.838356 -0.122923
0.015281 0.860007 -0.054789 -0.281055 0.873171 -0.394605
0.617714 0.052753 0.062083 -0.767922 -0.639283 -0.008965
-0.110234 -0.670782 0.024007 -0.770591 -0.243084 0.582489
-0.119144 0.084664 -0.05228 -0.863816 0.171114 -0.465667
0.101282 -0.360239 0.068284 -0.419153 -0.300692 0.856486
-0.081166 -0.857638 0.150648 -0.37993 -0.681944 0.542709
-0.049742 0.247402 0.101193 -0.628827 0.056583 0.774927
0.038988 0.679549 -0.072017 0.084052 -0.439263 -0.894326
-0.020206 0.796996 0.04027 -0.910527 0.186292 0.367778
0.058709 0.483179 0.074989 0.070559 0.448095 0.891025
0.150405 -0.638505 0.028203 0.18161 0.119546 0.975449
0.201133 0.126344 -0.002059 0.934048 -0.243754 -0.194788
0.228379 0.494918 0.012457 0.50042 0.12186 0.85246
-0.000482 0.274349 -0.130098 0.134136 -0.037243 -0.990095
0.206894 0.007023 -0.004235 0.996531 0.031937 -0.05945
-0.15793 0.503786 0.049817 -0.260683 0.346497 0.89792
-0.255966 0.316069 -0.083596 0.595628 -0.424602 -0.679287
0.108448 -0.778064 -0.10267 -0.472406 0.434108 -0.766485
0.189753 -0.563291 -0.067232 0.78379 -0.019953 -0.619199
0.003075 -0.223312 0.097696 0.621638 -0.109163 0.773605
0.196512 -0.564373 -0.057266 0.88295 -0.011641 -0.459138
-0.037999 0.812603 -0.0503 -0.958246 -0.21594 -0.170354
-0.109907 -0.167922 0.102944 -0.670803 -0.018929 0.741247
0.341718 0.370328 -0.056802 0.640529 0.47709 0.593567
0.124263 -0.647372 -0.095368 -0.05492 -0.092587 -0.992743
-0.040196 0.74585 -0.02975 -0.991682 -0.018482 -0.088411
-0.282587 0.310591 -0.096226 0.227461 -0.142386 -0.961053
0.003977 -0.803523 -0.106894 0.936173 -0.097888 -0.333811
0.001366 -0.354234 -0.052362 0.720102 -0.071135 -0.690015
-0.023207 0.590746 -0.00943 -0.610586 0.566463 0.550797
0.001831 -0.195469 0.102776 0.615997 -0.10081 0.781229
-0.137333 -0.171822 0.049248 -0.990528 -0.048485 0.126409
-0.113605 0.314644 -0.068873 -0.910667 -0.161752 -0.377348
-0.074258 -0.863119 -0.000792 -0.013808 -0.999137 -0.03664
0.226475 0.513032 0.007996 0.412041 0.486507 0.768999
0.241534 0.49678 -0.115796 0.469243 0.533194 -0.703433
0.120868 0.460794 0.074137 0.21527 0.338173 0.915834
-0.14282 -0.080815 0.03226 -0.984572 0.017665 0.169745
0.152731 -0.249654 0.083527 0.11235 -0.07614 0.990457
0.136515 -0.293224 0.08225 0.057085 -0.056873 0.996425
0.084743 0.148328 -0.121539 0.145032 0.227483 -0.962589
-0.434508 0.229007 -0.005916 -0.804454 0.524186 0.202505
0.066616 0.410202 0.095814 0.132704 0.240991 0.959355
0.471466 0.258396 -0.077674 0.792886 0.549163 -0.25386
0.001703 -0.655972 -0.070967 0.556578 0.141532 -0.818631
0.382248 0.286059 -0.038541 0.04414 0.278441 0.93125
-0.267689 0.277331 -0.034268 0.721279 -0.677269 0.136585
-0.258255 0.403422 0.011245 -0.617133 0.366974 0.687899
-0.128712 -0.467885 0.028539 -0.884063 -0.203017 0.420397
0.099735 0.74345 -0.049045 0.969436 -0.155396 -0.189001
-0.105871 0.280091 0.044266 -0.98304 -0.004485 0.180219
-0.079396 0.56271 -0.078869 -0.461805 0.65501 -0.597489
-0.097766 0.211204 0.071698 -0.6435 0.057232 0.763145
0.264706 0.419531 -0.140863 -0.084704 0.038978 -0.994451
0.119173 -0.362069 0.074774 -0.259131 -0.210336 0.941996
