0.1926 -0.018951 -0.063317 0.917956 0.041025 -0.394149
0.506792 0.206171 -0.061884 0.163263 -0.411588 -0.896333
0.154654 -0.816187 -0.106623 0.651931 -0.181164 -0.729185
0.097754 -0.107805 -0.121872 -0.151435 -0.287748 -0.94356
0.279895 0.352415 -0.041904 -0.224617 -0.794323 0.562893
-0.102972 -0.079662 -0.08267 -0.723327 -0.188703 -0.663054
-0.007211 -0.677431 -0.080935 0.552186 0.203726 -0.80728
0.400977 0.226017 -0.100367 -0.549359 -0.813586 -0.167101
-0.114119 -0.410409 0.077318 -0.743593 -0.20672 0.635114
0.013479 0.360454 -0.127295 0.039585 -0.036876 -0.998417
0.024508 -0.631036 -0.046236 0.887409 0.096388 -0.443074
0.386787 0.268196 -0.037985 -0.262594 -0.15488 0.94467
0.003775 -0.438735 0.044779 0.77841 -0.136966 0.612255
-0.069796 -0.703366 0.016169 0.252777 -0.329017 0.909755
-0.113298 -0.542239 -0.079531 -0.685894 0.122395 -0.716957
0.107991 -0.870529 -0.083186 -0.038242 -0.995499 0.002172
-0.068974 -0.258139 -0.089831 -0.386127 -0.016136 -0.920467
-0.136428 -0.521528 -0.032018 -0.996077 -0.003946 -0.068175
0.144985 -0.780454 -0.104201 0.394181 0.417584 -0.816876
-0.128085 0.38924 -0.004644 -0.993259 -0.098448 0.038343
0.259129 0.365092 -0.042713 -0.647501 -0.595964 0.470692
0.021485 0.241365 -0.125541 0.077075 0.01737 -0.996268
-0.137943 -0.065182 -0.026831 -0.963388 0.005479 -0.267388
0.153281 -0.76717 -0.092571 0.671411 0.315575 -0.668123
0.011533 0.337765 -0.126836 0.088329 0.003916 -0.995823
-0.010931 0.197809 -0.12036 -0.117662 -0.35725 -0.923403
0.341613 0.404792 -0.061212 0.783901 0.291673 0.489134
-0.39352 0.260748 -0.075604 -0.639291 0.109285 -0.743094
0.275958 0.454993 -0.12677 0.316648 0.560074 -0.764029
0.074544 0.360278 0.104538 0.21983 0.154612 0.962478
0.363311 0.363865 -0.114339 0.700094 0.611707 -0.329353
-0.075807 0.127716 0.091852 -0.647944 -0.014014 0.7613
-0.073409 -0.863872 0.04934 -0.03452 -0.999325 -0.010206
-0.094433 -0.457064 -0.08168 -0.559128 0.148124 -0.815623
0.34777 0.385491 -0.116369 0.94692 0.135696 -0.152564
-0.423649 0.211257 -0.054589 -0.528132 0.06194 -0.846837
0.641904 0.02255 0.051211 0.290368 -0.86191 -0.004194
0.010109 -0.810988 -0.064381 0.955831 -0.254452 0.113989
0.100795 -0.869409 0.111168 -0.197104 -0.975034 0.04769
0.210956 -0.016664 0.025883 0.93124 0.173958 0.315915
-0.102891 0.324062 -0.088967 -0.726763 -0.146047 -0.668906
0.195908 0.00191 -0.052537 0.962506 0.098927 -0.244964
0.20758 -0.149997 0.022825 0.983335 -0.162516 0.071427
0.13194 -0.696771 -0.094129 0.20485 0.018659 -0.977748
-0.100389 -0.710196 0.012789 -0.49521 -0.528825 0.682381
0.059291 0.214947 0.127176 0.199807 0.06965 0.974002
0.037189 0.27067 -0.127282 -0.120172 -0.074542 -0.988995
0.088596 -0.835876 -0.051236 -0.999104 0.018507 -0.000412
-0.131804 0.019434 -0.041774 -0.897866 0.047354 -0.431859
0.170577 0.168518 -0.057747 0.88749 0.045864 -0.442375
-0.024593 0.730829 0.044973 -0.911815 -0.071409 0.387212
0.081028 0.456143 0.083194 0.105489 0.269323 0.957243
0.164958 -0.092232 -0.100261 0.749982 -0.125803 -0.649029
0.133792 -0.226974 -0.097196 0.37462 -0.123575 -0.916683
0.085706 0.26138 -0.138753 -0.029717 -0.088217 -0.995531
-0.002585 -0.735434 0.001346 0.635061 -0.374697 0.665979
0.226575 0.548853 -0.062138 0.512266 0.834032 -0.199829
-0.134395 -0.482893 -0.039186 -0.922706 0.041106 -0.382459
0.086664 -0.843815 0.026485 -0.99873 -0.026666 -0.024126
-0.362419 0.309724 -0.035286 -0.625658 0.766392 0.136194
-0.115748 0.424186 -0.109194 -0.487882 -0.281408 -0.826152
-0.075989 0.145799 0.090515 -0.653908 0.061015 0.753885
0.10109 0.065601 0.118253 0.431878 0.131936 0.890891
-0.447848 0.216469 -0.027291 -0.742681 0.653167 -0.095283
-0.263547 0.421725 -0.038534 -0.79064 0.611696 -0.012245
-0.27118 0.290588 -0.006501 0.48518 -0.577936 0.653414
0.301779 0.371434 -0.022697 0.421452 -0.425709 0.779812
0.182723 0.194301 0.029426 0.979804 0.098141 0.166123
-0.128197 -0.643927 -0.043077 -0.996766 -0.053571 0.050284
0.202686 0.493969 -0.130375 0.14727 0.269389 -0.951235
-0.039103 0.7481 -0.009768 -0.957511 0.068635 0.239143
-0.13479 0.01564 -0.032742 -0.965427 -0.00373 -0.25048
-0.060921 0.484914 -0.12785 -0.102165 0.201441 -0.973821
0.095212 0.736773 -0.065981 0.896581 -0.292358 -0.325467
-0.028812 -0.853678 -0.074009 0.69995 -0.672489 0.227391
0.192679 -0.264592 -0.047785 0.778221 -0.237155 -0.581292
0.197228 -0.237811 0.052369 0.923374 0.04103 0.379519
0.087959 -0.843026 -0.016757 -0.973435 -0.224234 -0.002972
-0.546431 0.062787 0.027877 0.591031 -0.781199 -0.198686
0.010797 0.516639 0.062097 0.140315 0.533923 0.833173
0.181688 -0.373024 -0.058245 0.638077 0.240657 -0.731038
0.155134 -0.229139 -0.08448 0.522688 -0.129174 -0.842501
0.477418 0.252056 -0.070646 0.793424 0.5832 -0.167728
0.016882 0.793066 0.08091 -0.212069 0.289179 0.930948
-0.174683 0.469699 0.047601 -0.438406 -0.078902 0.892154
0.00997 -0.538637 -0.054709 0.86749 0.041653 -0.495666
0.194294 -0.286334 0.055364 0.906289 -0.064454 0.416849
0.07409 -0.785064 -0.059495 -0.874488 0.159725 -0.457028
-0.053595 -0.612768 -0.103491 0.190258 0.054333 -0.980032
0.082392 0.843602 0.009493 0.871628 0.475475 0.107559
0.074139 -0.383135 0.043553 -0.647329 -0.301464 0.700002
-0.025548 -0.515616 0.049502 0.398714 -0.226458 0.886374
0.174091 -0.860709 0.09352 0.754198 -0.523711 0.012183
-0.041556 -0.086686 0.127755 -0.107069 -0.045689 0.992023
0.008732 -0.644024 0.014644 0.688278 -0.126726 0.712289
0.149969 0.126719 0.081871 0.657656 0.034042 0.751759
0.030921 0.122231 -0.130172 -0.137899 0.441952 -0.885804
-0.084201 -0.176965 -0.083437 -0.607579 -0.095846 -0.787966
0.638785 0.038391 0.088263 0.959385 0.116743 0.193504
0.297648 0.328972 -0.06006 -0.509197 -0.702323 0.497196
-0.060225 -0.632249 0.035074 0.379478 -0.231728 0.89562
0.020828 -0.402507 -0.021335 0.96849 -0.093375 -0.225165
-0.240627 0.367557 -0.097823 0.076054 -0.063284 -0.994504
-0.533298 0.068855 0.043087 0.454833 -0.858888 -0.185983
-0.142001 -0.068459 -0.013787 -0.968083 0.020162 -0.242904
0.111465 -0.28969 0.082426 -0.054626 -0.074345 0.995533
0.178515 -0.436523 0.063772 0.551999 -0.042163 0.830262
-0.090621 0.090713 -0.093211 -0.717015 0.186699 -0.671332
-0.0317 0.020905 0.133576 -0.314321 0.216777 0.923251
0.12131 0.106453 -0.122389 0.526677 0.341037 -0.776637
-0.033499 0.409706 0.101477 -0.236868 0.309638 0.92013
-0.124495 0.415986 -0.09861 -0.696595 -0.384981 -0.60301
-0.121694 -0.456745 -0.054841 -0.771402 0.13561 -0.621447
0.008349 0.403768 -0.128231 0.032793 0.011353 -0.999364
-0.146227 0.438273 0.052149 -0.502133 -0.381112 0.774563
-0.038907 -0.293821 -0.091203 0.211894 -0.085219 -0.973038
-0.243334 0.30949 -0.017269 0.714836 -0.641908 0.273124
-0.121639 0.160914 0.031798 -0.938361 -0.050011 0.338017
0.019806 -0.537088 -0.033258 0.956195 0.025325 -0.286293
0.003141 -0.092778 -0.091975 0.658098 -0.396813 -0.632126
0.238761 0.452755 -0.13394 0.00919 0.14794 -0.987683
-0.225382 0.458645 -0.058301 -0.587593 0.643249 -0.488981
-0.015218 0.729289 0.060348 -0.73869 0.003252 0.672665
-0.319213 0.273724 0.005734 -0.056682 0.010784 0.997382
0.282144 0.361156 -0.128669 -0.38413 -0.614258 -0.685962
-0.074068 -0.012577 0.123259 -0.420822 -0.429745 0.7828
0.148364 -0.403376 -0.089932 0.527134 0.097428 -0.843615
0.119913 -0.779698 -0.108463 -0.174544 0.45193 -0.869523
0.593625 0.11014 0.066743 0.178484 0.578356 0.789678
0.198913 0.40509 -0.003333 0.958356 -0.205548 0.195025
0.153892 -0.738771 -0.082164 0.776985 0.087874 -0.621655
-0.015823 -0.455021 -0.076518 0.715357 0.088233 -0.692899
0.159467 -0.823805 0.034449 0.967884 0.109377 0.145366
-0.13522 0.41626 0.047545 -0.521835 -0.712304 0.455675
-0.107004 0.340122 -0.088277 -0.714373 -0.20146 -0.667786
-0.04622 0.062647 0.120233 -0.462601 0.145598 0.873459
0.028205 -0.318156 0.019935 0.998107 -0.033715 0.04479
-0.01097 0.251426 0.118565 -0.412914 0.060526 0.90708
-0.054826 -0.011773 -0.131567 -0.249956 -0.082099 -0.964735
-0.278078 0.406263 -0.04331 -0.694661 0.718329 -0.016211
-0.007859 -0.624683 -0.075545 0.667048 0.016909 -0.744819
0.09704 0.183134 0.114171 0.399529 0.040285 0.915756
0.036721 0.499738 -0.124789 -0.171228 0.029861 -0.98461
-0.03377 0.771078 -0.072941 -0.947476 -0.065737 -0.294433
0.015289 -0.087331 0.116394 0.570504 -0.255374 0.7803
-0.060111 0.441792 0.08782 -0.18043 0.254061 0.948608
0.11242 0.392445 0.090623 0.28559 0.112734 0.95149
-0.260109 0.295224 -0.07131 0.60686 -0.61337 -0.497924
0.190944 0.34983 0.001275 0.972041 -0.055094 0.225484
0.573016 0.144577 0.02312 0.822775 0.567941 0.019734
0.135684 -0.868141 -0.037014 0.05404 -0.99395 0.0848
-0.084218 -0.203872 -0.081794 -0.591593 -0.027843 -0.805607
-0.130933 0.54801 -0.060301 -0.357775 0.779828 -0.509409
-0.084405 -0.836042 0.141662 -0.461568 0.804851 0.369895
0.286501 0.446353 -0.020969 0.676114 0.173415 0.716065
0.016558 -0.760277 -0.035692 0.909813 -0.231864 0.316667
0.063102 0.848911 -0.067781 0.424874 0.759127 -0.49227
-0.278836 0.401954 -0.015695 -0.672771 0.682873 0.280955
0.177694 -0.242189 -0.068769 0.599679 -0.123732 -0.789685
0.134246 0.48741 -0.141769 0.139551 0.304303 -0.939756
0.135684 -0.842239 0.180538 0.11889 0.632644 0.733311
0.610405 0.063994 0.084241 -0.772822 -0.545327 0.288422
0.047133 -0.321071 -0.051131 -0.850692 -0.016495 -0.525254
0.155021 -0.862805 0.01447 0.268159 -0.95974 -0.083285
-0.038479 0.758902 -0.038923 -0.991877 -0.059621 -0.105454
0.101972 -0.795086 0.051786 -0.293341 0.476778 0.82558
0.148928 0.574175 -0.077347 0.338281 0.868598 -0.355536
-0.00484 0.801597 -0.107862 -0.470822 0.291062 -0.830198
0.086173 0.254377 0.112986 0.399254 0.065544 0.91447
0.161148 0.022672 -0.111743 0.71862 0.047298 -0.693781
-0.06956 0.581496 -0.026676 -0.183521 0.953616 0.194616
-0.061213 0.33182 0.093086 -0.619673 -0.061174 0.781884
-0.124629 0.367966 -0.046409 -0.936707 -0.349896 -0.00253
0.033365 0.240814 0.127826 0.020802 0.033613 0.999013
-0.008124 0.442852 -0.129362 0.10155 -0.006782 -0.994772
0.053229 -0.684633 0.006997 -0.976395 -0.000411 0.210536
0.06774 0.855884 -0.048931 0.50277 0.8063 -0.301878
-0.087948 0.161596 0.080003 -0.678081 -0.025103 0.734394
0.146914 -0.524536 -0.104138 0.367073 -0.009885 -0.929336
-0.024057 0.794982 -0.094485 -0.775329 0.02983 -0.621612
0.054094 0.304197 -0.133909 -0.378483 -0.033747 -0.924752
-0.097647 -0.834217 0.085238 -0.664476 0.734962 0.123628
0.199285 -0.07284 -0.046934 0.930421 0.022949 -0.365445
0.020536 0.852637 0.047703 -0.221272 0.687981 0.687037
-0.114281 0.370977 0.043294 -0.857267 -0.310712 0.405461
-0.126745 -0.679842 -0.070022 -0.961536 -0.036959 -0.270346
-0.042156 0.059348 -0.135708 -0.315347 0.205813 -0.923246
-0.041382 -0.170062 0.122812 0.043774 -0.056147 0.996583
0.190306 0.357271 -0.074453 0.819676 -0.436207 -0.369359
0.156694 -0.500653 -0.099821 0.473612 -0.002825 -0.880303
-0.053708 -0.86119 0.140567 0.271829 -0.90821 0.256396
-0.028852 -0.014499 0.135367 -0.07127 -0.617632 0.773354
-0.504807 0.137338 0.074217 -0.482877 0.657073 0.400318
-0.004834 -0.336845 0.080145 0.632676 -0.070632 0.769092
0.199132 0.537824 -0.101207 0.287727 0.696402 -0.655586
-0.036197 0.470697 -0.130873 0.028584 0.114576 -0.992761
0.04346 -0.283821 0.030485 -0.986469 -0.01767 0.161774
0.163868 0.134768 0.068788 0.676485 0.15948 0.718273
-0.335595 0.233041 0.0029 0.376383 -0.419907 0.819743
0.167 0.04662 -0.100175 0.776523 0.22769 -0.587251
0.029574 -0.127082 0.083617 0.777836 -0.341707 0.525592
-0.013477 0.010702 0.139029 -0.206118 0.194023 0.958295
-0.090666 0.445257 0.07208 -0.615293 0.118817 0.778917
0.088627 0.616763 -0.048328 0.729393 0.598187 -0.319888
0.171497 0.069472 0.081636 0.734288 0.21044 0.645032
0.11058 -0.01213 0.124441 0.391953 -0.147339 0.888649
-0.121996 0.361361 -0.062128 -0.977801 -0.179824 -0.088075
0.195433 -0.431277 0.027267 0.957156 -0.080905 0.277112
-0.032409 -0.20552 0.117184 0.231829 -0.235536 0.943757
0.03356 0.514888 0.059719 0.091477 0.502284 0.859369
-0.088934 0.435675 0.074492 -0.621665 0.11372 0.774831
-0.103044 -0.307841 -0.058362 -0.760623 0.024339 -0.648065
-0.022316 0.025444 -0.145995 -0.163002 -0.13883 -0.968373
0.161993 0.142358 -0.072666 0.75355 0.10308 -0.649036
-0.115899 -0.420439 0.071305 -0.756409 -0.252207 0.602878
-0.07759 0.2163 0.086468 -0.572822 0.138552 0.807765
0.02643 0.070934 -0.145581 -0.146345 0.223231 -0.963367
0.029245 -0.301729 -0.005129 0.989993 -0.091778 -0.088609
0.194979 0.044558 0.060597 0.82309 0.17826 0.537412
0.177076 0.28327 -0.041427 0.933453 -0.140752 -0.32939
0.030678 0.865344 0.014655 -0.201718 0.95902 0.190661
-0.033438 0.760632 0.014769 -0.945825 -0.114804 0.296412
0.185722 -0.608413 -0.069655 0.701994 -0.044186 -0.710323
-0.271588 0.272033 -0.042205 0.725619 -0.685068 0.048994
-0.216512 0.453054 -0.072338 -0.485253 0.567269 -0.664728
-0.127442 -0.513631 0.011772 -0.863878 -0.139193 0.483437
0.111206 -0.356003 -0.100864 0.068741 0.046998 -0.991108
0.153893 -0.652071 -0.08509 0.533874 -0.155492 -0.830966
0.046638 0.852464 0.04682 0.317498 0.692857 0.646394
0.188422 0.061907 -0.0602 0.869185 0.153302 -0.468016
-0.023914 0.160831 -0.105907 -0.332831 -0.104645 -0.926744
0.132004 0.473502 0.065916 0.258777 0.429557 0.863439
-0.018856 -0.832695 -0.117537 0.49329 -0.857499 -0.122782
-0.011832 0.576041 -0.097215 -0.114005 0.556649 -0.822526
-0.110038 -0.797249 -0.088463 -0.916377 -0.081728 -0.386765
0.172424 0.395175 -0.119781 0.333859 -0.448492 -0.827332
0.001237 -0.75101 -0.095371 0.75293 0.129773 -0.644648
0.018103 -0.667557 -0.005571 0.870716 -0.225524 0.435729
0.180349 0.302518 -0.045941 0.885705 -0.288304 -0.362876
0.027677 0.569866 -0.104223 -0.074751 0.413079 -0.907464
0.187769 -0.358617 0.057211 0.865923 -0.048466 0.49695
0.153601 0.432861 -0.139329 0.257617 -0.219709 -0.940001
0.199896 -0.426683 0.008112 0.981428 -0.105393 0.159193
0.03033 -0.142832 -0.053842 -0.897663 -0.329135 -0.288103
0.01169 0.174286 -0.116452 -0.01872 0.026042 -0.996379
-0.112051 -0.614284 -0.086957 -0.61959 0.09368 -0.779187
0.401304 0.244969 -0.036993 -0.423426 -0.336415 0.828322
-0.162829 0.522231 -0.066722 -0.517775 0.594865 -0.614388
0.313241 0.339631 -0.133073 -0.320111 -0.340776 -0.882977
-0.226042 0.346522 -0.085324 0.405493 -0.605241 -0.684021
0.189602 -0.015187 0.071464 0.770997 0.11831 0.623967
-0.134964 -0.472986 0.012343 -0.929726 -0.101107 0.332172
-0.059127 -0.86415 0.093231 -0.000176 -0.999888 0.012969
-0.041335 -0.030408 -0.132299 -0.169743 -0.214441 -0.961055
-0.132541 -0.069125 -0.042484 -0.858915 -0.03285 -0.51073
0.193515 -0.594133 0.014587 0.788727 -0.055115 0.606087
0.030685 0.365614 -0.12826 -0.144954 -0.03909 -0.988363
-0.128756 0.397252 -0.036497 -0.926162 -0.354195 -0.004036
0.05017 0.565997 -0.107876 -0.106495 0.485006 -0.866575
0.075329 -0.717317 -0.050663 -0.889171 -0.173864 -0.423079
0.125886 0.283812 -0.12724 0.600384 -0.048577 -0.798089
-0.023645 0.808504 -0.092837 -0.734044 0.254246 -0.612172
-0.518739 0.111537 0.091455 0.020514 0.173048 0.856934
0.390817 0.291519 -0.041179 0.169031 0.29634 0.939784
-0.324442 0.242339 -0.070708 0.19486 -0.731615 -0.649701
-0.004761 0.671849 0.05657 -0.85548 -0.398295 0.326721
0.255646 0.479367 -0.119538 0.414807 0.506415 -0.755602
-0.069851 -0.318077 0.105108 0.099048 -0.081767 0.991612
-0.562646 0.061117 0.014206 -0.884333 0.438756 -0.126113
-0.05498 0.160357 0.103358 -0.519343 0.09738 0.848802
0.053357 -0.673061 0.009291 -0.916856 0.000191 0.36065
0.212805 -0.018714 0.005972 0.987684 0.105059 -0.0878
-0.034413 -0.087725 -0.111233 0.098819 -0.28233 -0.95314
0.193298 -0.256683 0.061146 0.824067 -0.019366 0.563359
0.10469 -0.375518 -0.100843 -0.215913 -0.014605 -0.969431
-0.024293 0.199209 -0.118179 -0.260009 -0.412309 -0.872478
0.356134 0.306346 -0.041735 -0.108835 -0.065726 0.970075
-0.134581 -0.411583 -0.014745 -0.958384 0.083125 -0.269854
0.072573 -0.369121 -0.079665 -0.633098 -0.079089 -0.769494
-0.445675 0.192816 -0.043515 -0.587062 0.252682 -0.766057
0.125599 -0.868049 -0.033659 -0.002797 -0.995004 0.097981
0.023321 -0.29185 0.053602 0.908156 -0.037904 0.416302
0.097618 0.813452 -0.033054 0.952213 0.299886 -0.01947
-0.328202 0.326206 -0.081416 -0.422003 0.651542 -0.626612
-0.140849 -0.121022 -0.014316 -0.935595 -0.083222 -0.339784
-0.065466 -0.216115 -0.090702 -0.245064 -0.006589 -0.966141
0.074708 -0.822101 0.004944 -0.541965 -0.798826 0.130369
-0.125445 -0.020156 -0.062302 -0.871919 -0.003771 -0.488872
0.14091 0.569206 -0.018024 0.185505 0.784369 0.591747
-0.022687 -0.829547 -0.135316 0.615416 -0.601131 -0.496488
-0.072092 -0.069918 0.121348 -0.351272 -0.045804 0.933096
-0.045004 0.333637 0.100069 -0.305509 -0.148795 0.936475
0.044483 -0.045945 -0.133702 -0.33013 -0.437063 -0.835694
0.167427 -0.56088 0.042365 0.279155 -0.197664 0.934588
0.205943 -0.344097 0.001183 0.998926 -0.012502 0.021317
-0.127457 -0.429955 -0.036727 -0.826321 0.24583 -0.506597
0.023803 -0.036111 -0.133003 -0.098384 -0.479077 -0.871087
0.161544 0.481958 -0.137784 0.17403 0.192785 -0.964369
0.040624 0.347475 0.113733 0.086041 0.167633 0.981741
0.14258 -0.869501 0.060948 0.133303 -0.985454 -0.018196
-0.040064 -0.189343 0.120925 0.107262 -0.122268 0.986522
-0.123332 -0.603033 0.001209 -0.921819 0.083871 0.37804
0.191621 0.122694 -0.024981 0.857168 0.202766 -0.472762
-0.395557 0.200628 0.015895 0.2806 0.078207 0.938296
0.007573 -0.015165 0.13636 0.037602 -0.570678 0.813735
0.218899 0.414499 -0.022263 -0.456785 -0.729634 0.50131
-0.146993 0.518544 0.04579 -0.214672 0.475353 0.850624
0.02026 0.467135 0.08709 0.086405 0.446509 0.88627
0.088612 0.384132 0.097437 0.152989 0.115057 0.981366
-0.116114 0.138241 0.047152 -0.882496 0.054877 0.466778
-0.327447 0.233311 -0.058761 0.361449 -0.825883 -0.422456
0.006775 0.650138 -0.056326 -0.585231 0.036651 -0.801987
0.187625 -0.151716 -0.065124 0.686984 -0.054505 -0.724439
0.096622 0.501329 0.059793 0.227681 0.478568 0.847294
0.256794 0.486218 -0.006871 0.598023 0.291471 0.743868
0.124561 -0.380604 0.072642 -0.269341 -0.189608 0.943714
0.10095 0.80023 -0.001106 0.915101 0.323745 0.228527
0.063574 -0.696002 0.029398 -0.569491 0.289345 0.7594
0.11708 -0.670697 -0.093891 -0.165344 0.004554 -0.983032
0.168956 -0.280285 -0.066264 0.605121 -0.1638 -0.778704
-0.388117 0.187832 -0.019246 0.624434 -0.778609 -0.013629
0.042894 0.316805 -0.129252 -0.302872 0.00552 -0.947474
-0.033283 -0.08155 0.128415 -0.034896 -0.055022 0.997453
-0.535266 0.102251 0.070283 -0.736792 0.66833 0.096375
0.08553 -0.826235 -0.06062 -0.554372 -0.829709 -0.057649
0.038315 -0.269058 -0.036564 -0.860294 -0.003463 -0.508085
-0.434508 0.229007 -0.005916 -0.804454 0.524186 0.202505
0.301568 0.326708 -0.114906 -0.604211 -0.641996 -0.462283
-0.060494 -0.863744 0.115795 0.002323 -0.999413 0.024495
-0.131561 -0.004031 -0.045861 -0.935002 0.05729 -0.348609
0.084904 0.649101 -0.017095 0.990873 -0.046884 0.060758
0.052388 0.685129 -0.071817 0.316272 -0.478342 -0.812686
0.480166 0.201952 0.002757 0.160713 0.623492 0.691607
-0.233048 0.463285 -0.018971 -0.774584 0.612583 0.133613
0.303515 0.420063 -0.137055 0.26998 0.451509 -0.848166
-0.487871 0.105388 0.023909 0.773202 -0.609939 -0.159881
-0.096019 0.572737 -0.038978 -0.377908 0.902429 -0.122304
0.114488 -0.843654 -0.117072 -0.423112 0.021785 -0.905572
0.192171 -0.356828 0.047556 0.92286 -0.054619 0.380726
-0.136674 -0.505412 -0.01286 -0.99231 -0.09029 0.06061
0.199006 0.558414 -0.066864 0.206036 0.963355 -0.157273
-0.140371 -0.079474 0.042123 -0.950806 0.016251 0.308787
-0.094538 0.570204 -0.011989 -0.383315 0.797567 0.459575
0.519531 0.170551 -0.042648 0.275642 -0.371169 -0.879914
-0.105871 -0.837664 0.053397 -0.716424 0.694813 0.060034
-0.017914 -0.274702 0.098021 0.366525 -0.220961 0.902918
0.198002 -0.508317 0.008974 0.954743 -0.008462 0.296756
-0.107502 -0.090981 0.10126 -0.680789 0.081015 0.727631
-0.095607 -0.155348 0.112764 -0.319119 -0.048524 0.940897
0.602782 0.078308 0.005336 0.408092 -0.335459 -0.834305
0.277834 0.489986 -0.088743 0.644534 0.62359 -0.440864
-0.074979 -0.763268 -0.125366 -0.518779 0.188751 -0.829208
0.088679 -0.835874 -0.040335 -0.998483 -0.045076 0.000311
-0.010533 0.330499 -0.129343 0.045808 0.043037 -0.997568
0.057811 -0.199073 0.071461 -0.679138 -0.108736 0.725665
-0.08193 -0.863353 0.026991 -0.037977 -0.999269 -0.003383
0.177228 -0.162003 0.089562 0.533031 -0.044812 0.843901
-0.041048 0.46295 0.08442 -0.187845 0.438603 0.869035
-0.013416 0.569268 0.014302 -0.304845 0.600087 0.735726
0.015652 -0.435824 0.027406 0.846112 -0.055691 0.529084
0.044 -0.509228 -0.029605 -0.996795 -0.009305 0.018902
-0.012212 0.088178 0.128479 -0.371187 -0.03958 0.925679
0.304521 0.381613 -0.020949 0.387528 -0.09295 0.913021
0.124064 -0.238146 0.088448 0.084804 -0.155875 0.984045
0.12932 0.560798 -0.1064 0.244391 0.659806 -0.710362
-0.119767 0.086666 0.052112 -0.941725 0.122569 0.309067
0.188564 -0.524614 -0.070808 0.800858 0.002113 -0.597438
0.063409 -0.073662 -0.127849 -0.306048 -0.398382 -0.864251
-0.023253 -0.117849 -0.09915 0.452875 -0.268982 -0.849731
0.009037 -0.670292 0.008147 0.780793 -0.230987 0.578782
0.090676 0.092172 0.120703 0.432564 -0.124939 0.890244
0.52252 0.214984 -0.038457 0.519883 0.782047 0.34174
0.153804 -0.849327 -0.094378 0.868018 -0.067118 -0.487117
0.519709 0.156398 0.020481 -0.491706 -0.372153 0.760029
0.087911 -0.497563 -0.093169 -0.593661 -0.022831 -0.803209
-0.137483 -0.437912 0.007236 -0.9917 0.013523 0.125888
-0.025184 0.703951 -0.008951 -0.847727 -0.511057 -0.093411
-0.128874 0.111948 -0.014258 -0.980258 -0.030804 -0.189711
-0.084214 -0.227724 0.111938 -0.189475 -0.047682 0.980596
0.147842 -0.06317 -0.121416 0.629927 -0.197778 -0.750806
0.194251 -0.045658 0.067923 0.797459 0.031728 0.602121
0.025855 -0.183542 -0.031212 -0.650162 0.034635 -0.751626
-0.001271 -0.118564 0.117611 0.527916 -0.19827 0.821781
-0.053111 0.238253 0.099175 -0.577661 0.059291 0.813397
0.27338 0.380357 -0.023419 -0.359764 -0.241381 0.901101
-0.135589 -0.058153 -0.035909 -0.945329 -0.008269 -0.319907
0.158316 -0.370593 -0.076328 0.597353 0.196345 -0.776982
-0.114442 -0.623852 -0.086352 -0.611174 0.101061 -0.784996
-0.55321 0.052441 0.046769 0.825041 -0.56237 -0.014871
0.153734 -0.280578 0.081159 0.173387 -0.082847 0.980579
-0.09435 0.240489 -0.081116 -0.688559 -0.368678 -0.621854
-0.016412 -0.037637 -0.132459 -0.073565 -0.350065 -0.933547
-0.134682 0.52495 0.044361 -0.136209 0.576176 0.805194
-0.067374 -0.410065 0.089063 0.132075 -0.169598 0.976344
-0.295359 0.26938 -0.003013 0.724107 -0.249526 0.629699
-0.147052 0.398201 -0.063123 0.588413 -0.761234 -0.262885
0.058439 -0.188038 0.073613 -0.657862 -0.092586 0.746862
-0.069542 0.471722 0.075323 -0.232766 0.351023 0.906369
0.066311 0.853385 0.031568 0.519651 0.665352 0.535584
-0.082458 0.431372 0.080216 -0.586402 0.128621 0.799272
0.127917 0.304694 0.090794 0.607778 0.074507 0.790148
0.080206 -0.506531 0.019952 -0.63287 0.041185 0.773135
-0.307007 0.350542 -0.011635 -0.610564 0.619412 0.48771
-0.129174 -0.62602 -0.054908 -0.998942 -0.015903 -0.039828
0.046377 -0.536567 -0.039889 -0.902495 -0.027424 -0.423306
0.033557 -0.227112 0.021813 0.866866 -0.151864 0.472105
-0.037288 -0.474202 -0.093326 0.375791 0.115501 -0.917682
-0.268488 0.280074 -0.024682 0.664401 -0.672937 0.320582
0.154239 -0.551559 -0.099587 0.520317 -0.03835 -0.853035
0.042751 -0.261558 0.027349 -0.991479 -0.018016 0.128443
-0.126596 0.088775 0.028951 -0.974885 0.038763 0.208693
0.204987 -0.24194 -0.016122 0.997516 -0.046677 -0.052007
-0.108501 -0.482505 -0.074349 -0.688946 0.114719 -0.715615
0.154787 0.552454 -0.001342 0.144127 0.736306 0.660902
-0.08011 -0.777353 -0.125939 -0.599466 0.256406 -0.755857
-0.113429 0.289389 -0.016542 -0.980756 -0.187934 0.043613
0.120374 -0.199716 0.096301 0.051126 -0.186516 0.980401
0.087936 -0.856777 0.053996 -0.816391 -0.565516 -0.115528
0.054889 -0.664559 -0.033696 -0.87259 -0.149538 -0.463281
0.093201 0.774041 -0.082507 0.843597 0.029756 -0.535917
0.20466 -0.339725 0.017052 0.980352 -0.073285 0.175628
0.116583 0.127547 -0.116987 0.497063 0.325243 -0.803721
0.026064 -0.651682 -0.046074 0.965939 0.054223 -0.2438
-0.129894 -0.279549 0.031822 -0.985211 -0.166289 0.02704
0.069541 -0.812559 -0.055337 -0.951992 -0.091083 -0.283808
-0.071035 -0.056532 0.122094 -0.364707 -0.03724 0.929517
0.145422 -0.572319 -0.10246 0.297198 -0.098351 -0.949071
0.2117 -0.128828 0.025902 0.965191 -0.155903 0.202832
-0.491133 0.09862 0.049717 0.76132 -0.619262 0.040781
-0.111858 -0.846701 0.065512 -0.923276 0.191153 0.06928
-0.5199 0.123407 0.054962 -0.744453 0.667047 0.01162
0.016393 -0.176437 0.087228 0.879156 -0.065202 0.467774
0.14032 -0.693493 -0.090259 0.445977 -0.001692 -0.895009
0.207491 -0.154236 -0.022406 0.990977 -0.095058 -0.073243
0.014897 -0.706203 -0.016331 0.801627 -0.139927 0.57948
0.538711 0.131633 0.025917 -0.698034 -0.671215 0.208936
-0.113648 0.294589 -0.056481 -0.974135 -0.156952 -0.153087
-0.012735 0.553101 0.029556 0.148845 0.807607 0.560457
-0.031945 0.261399 -0.129 -0.153333 -0.049461 -0.985589
-0.226576 0.32524 -0.0527 0.675305 -0.721201 -0.147287
-0.106018 0.481394 0.061767 -0.0875 0.155787 0.981371
0.132757 -0.571323 -0.105951 0.063473 -0.135944 -0.988558
0.165039 -0.597111 -0.088806 0.565942 -0.120126 -0.814622
-0.051699 -0.171923 0.1226 -0.077296 -0.012228 0.995086
-0.051352 0.589292 -0.036239 -0.319125 0.926817 0.160801
-0.127755 -0.30218 0.035062 -0.995928 -0.058842 0.065556
-0.013366 -0.564725 0.030295 0.494533 -0.163736 0.851796
-0.128681 -0.573277 -0.015208 -0.969988 -0.083693 0.227768
0.200004 -0.393119 -0.037124 0.930971 -0.04389 -0.360812
0.124704 -0.842821 0.179914 -0.177981 0.42785 0.882407
0.201218 -0.160406 0.046349 0.942477 -0.160305 0.289729
0.015984 0.494885 -0.123121 0.032452 0.051755 -0.997208
0.171179 -0.460121 0.064704 0.400066 -0.109466 0.908078
0.026397 0.159437 0.131298 -0.018279 0.049308 0.998293
0.163664 0.43441 -0.137415 0.188411 -0.19639 -0.962069
0.632778 0.038164 0.107831 0.1092 -0.238766 0.938053
0.043525 0.807227 -0.114053 0.141935 0.381278 -0.90763
0.042514 -0.065686 -0.12268 -0.401879 -0.432021 -0.807305
-0.120362 0.183453 0.035732 -0.888527 0.058974 0.4531
0.187474 0.304892 -0.017708 0.942063 -0.322029 -0.093371
-0.186915 0.410496 -0.096345 0.076795 0.046208 -0.994443
0.01211 -0.132 -0.0575 0.783223 -0.203672 -0.586198
-0.093249 -0.046822 0.110019 -0.601623 -0.035707 0.797615
-0.025287 -0.856206 -0.113501 0.793303 -0.483777 -0.198657
0.196758 -0.456494 0.011444 0.972964 -0.059435 0.220424
0.046209 -0.168737 0.059364 -0.890006 -0.039613 0.450057
0.327548 0.327785 -0.132328 -0.254996 -0.326675 -0.906222
-0.049462 0.437928 -0.130352 -0.087892 -0.108227 -0.990068
-0.127268 0.398053 -0.07808 -0.971743 -0.152906 -0.179376
0.147022 0.393258 -0.130549 0.498351 -0.24818 -0.829772
0.101361 0.116883 -0.128806 0.315825 0.370033 -0.873227
-0.011385 -0.831892 -0.054696 0.179404 -0.971893 0.004878
-0.099411 -0.827775 -0.0823 -0.927181 -0.270557 -0.253984
-0.032987 0.833224 -0.049539 -0.719919 0.622978 -0.291588
-0.033454 0.829427 0.004926 -0.857221 0.146706 0.460714
0.3683 0.257683 -0.071836 -0.729487 -0.645921 0.222735
-0.02216 -0.647162 -0.088709 0.611593 0.028842 -0.789934
-0.068933 0.00908 -0.129513 -0.400206 -0.089797 -0.906644
-0.128147 -0.65086 -0.063549 -0.993159 -0.011381 -0.094628
-0.119492 0.565332 -0.027184 -0.320147 0.929268 -0.073634
-0.103718 -0.747676 -0.097568 -0.908292 0.045332 -0.386026
0.060721 0.072938 -0.151087 -0.083773 0.240639 -0.965844
0.297112 0.324293 -0.076328 -0.671638 -0.733908 0.082195
-0.114563 0.125259 0.052392 -0.83928 0.107849 0.531182
-0.128328 0.118139 0.020485 -0.972992 0.073414 0.213974
0.022416 0.784111 -0.12003 -0.102263 0.112217 -0.987148
-0.142814 0.42929 0.05046 -0.638119 -0.350895 0.682093
-0.009916 -0.779161 -0.003332 0.782482 0.274261 0.546635
-0.299392 0.339612 -0.088807 -0.408066 0.438908 -0.798074
-0.209153 0.375379 -0.094447 0.17275 -0.253706 -0.950716
0.176457 0.109645 0.063034 0.75125 0.168411 0.638118
0.130076 0.336423 0.087199 0.496064 0.033933 0.866818
-0.291399 0.379803 -0.045708 -0.957278 0.207067 -0.010096
0.083274 -0.826262 -0.014119 -0.443738 -0.886212 0.026975
0.003065 -0.827484 -0.048417 0.901248 -0.424613 0.064981
0.183251 0.20263 0.013472 0.998123 0.046004 0.023788
-0.017106 -0.730782 -0.106762 0.539889 0.346673 -0.765505
-0.287759 0.361214 -0.083605 -0.645439 0.424343 -0.630854
-0.021232 0.003142 0.139461 -0.199448 0.335934 0.914512
0.073688 -0.140217 0.085941 -0.595639 0.032011 0.802553
0.148294 -0.027179 0.109322 0.562472 0.018213 0.822952
0.156824 -0.319936 -0.073397 0.621773 0.01004 -0.783097
-0.144221 -0.117988 0.005738 -0.998719 -0.008437 -0.042069
0.089182 -0.835681 0.051979 -0.981134 0.185421 0.022579
-0.066024 -0.663902 0.029472 0.293937 -0.255678 0.920713
-0.047167 -0.859713 -0.040334 0.203954 -0.978026 0.029588
0.094588 -0.351983 0.067699 -0.409855 -0.297238 0.862041
0.113499 -0.446052 -0.10387 -0.151762 0.042753 -0.983236
-0.103019 0.223929 -0.057015 -0.791596 -0.317953 -0.518581
0.204029 0.503752 -0.126966 0.169242 0.393449 -0.899882
0.348007 0.390688 -0.1047 0.942326 -0.324692 0.047177
0.046246 -0.354262 -0.04596 -0.899151 -0.042731 -0.420694
-0.033674 0.578135 -0.090367 -0.243583 0.662335 -0.707589
-0.237841 0.327192 -0.002368 0.513569 -0.611059 0.59872
0.10422 0.762593 -0.008009 0.989372 9.4e-05 0.090753
0.18169 -0.396209 -0.064417 0.704646 0.106758 -0.700221
0.180578 -0.725325 -0.045598 0.725507 -0.23573 -0.646371
0.085014 0.016148 -0.158246 0.145864 -0.129081 -0.980084
0.175203 -0.573338 0.036087 0.53483 -0.227819 0.811999
0.204584 0.541752 -0.094099 0.273889 0.748913 -0.603198
-0.005876 -0.2275 0.103548 0.510262 -0.143375 0.84455
0.107448 0.205605 0.108414 0.515913 0.043844 0.854658
0.017814 -0.539447 0.006763 0.895699 -0.084451 0.433197
-0.101406 -0.434051 -0.070494 -0.652431 0.272452 -0.706709
-0.061942 0.341996 0.093095 -0.642515 -0.081722 0.759769
0.277528 0.497071 -0.078732 0.688007 0.663955 -0.287139
-0.09459 0.409125 -0.114707 -0.339991 -0.205423 -0.917421
0.084992 -0.822536 0.032593 -0.756779 -0.598319 0.202382
0.050852 0.327337 -0.132952 -0.46155 -0.029859 -0.886383
-0.005138 0.54657 0.039382 0.32101 0.745111 0.580379
-0.109168 0.189785 0.057549 -0.826821 -0.053421 0.559761
0.140316 -0.539884 0.049987 -0.237217 -0.191195 0.952095
-0.045315 -0.862361 0.004747 0.136035 -0.986971 -0.068217
0.206688 -0.21362 0.001122 0.999089 -0.033141 0.026172
-0.066936 -0.026967 -0.126319 -0.37485 -0.198251 -0.901483
-0.098472 -0.762729 -0.103595 -0.719933 -0.008912 -0.690892
0.035471 0.56102 0.026271 0.104318 0.154351 0.974822
-0.139952 -0.164656 -0.002729 -0.936816 -0.156532 -0.311614
0.079142 -0.281895 -0.088995 -0.552852 0.039512 -0.832084
0.476103 0.254089 -0.045875 0.713226 0.69522 0.081456
-0.06948 -0.577178 0.052592 0.406918 -0.229036 0.883777
0.162963 -0.737568 0.004273 0.291293 0.781626 0.550788
0.081744 -0.491092 -0.087906 -0.68252 -0.013303 -0.729773
-0.127646 -0.348265 0.026338 -0.996166 0.0352 0.076631
0.043449 -0.0216 0.134692 0.077497 -0.220281 0.967699
0.123373 -0.824425 0.116136 0.007295 0.996873 0.041451
0.103567 0.563152 0.010596 0.321282 0.712981 0.60627
0.193222 -0.341308 -0.037578 0.752471 0.183232 -0.628313
0.088913 0.685624 -0.005474 0.976179 -0.181779 0.03233
-0.125394 -0.118546 -0.04774 -0.817821 -0.100582 -0.563457
0.578174 0.137074 0.029196 0.746176 0.664736 0.02984
0.190717 -0.541569 -0.066829 0.814771 -0.028456 -0.578745
0.033658 0.314084 -0.127477 -0.138159 0.031322 -0.988289
-0.125567 0.371491 -0.012883 -0.953533 -0.288785 0.066445
-0.038446 0.017885 -0.140571 -0.226882 -0.48744 -0.842778
0.059535 -0.617201 -0.054202 -0.77028 -0.0597 -0.634587
-0.044477 0.22438 0.106002 -0.522101 0.048589 0.850888
0.199681 -0.411619 -0.034143 0.96466 -0.060693 -0.251709
-0.120147 0.134127 0.038762 -0.926894 0.074876 0.366937
0.009221 -0.053074 -0.122708 0.082312 -0.604158 -0.792394
0.440687 0.269989 -0.038787 0.193093 0.559076 0.804639
0.253631 0.438249 -0.007162 0.327565 -0.189268 0.924822
-0.014147 -0.678093 0.025133 0.190378 -0.0418 0.97299
0.083513 -0.852809 0.071858 -0.978952 -0.013544 -0.069445
0.119685 -0.733407 -0.099111 -0.124038 0.087402 -0.979366
-0.027347 0.34653 0.10516 -0.159092 -0.033276 0.983591
0.162034 -0.854778 0.15776 0.866242 0.179744 0.342381
-0.027321 0.770006 -0.086093 -0.84297 -0.114377 -0.52375
0.053784 -0.369178 -0.056785 -0.8081 -0.026975 -0.588133
0.001036 -0.83009 -0.080233 0.582817 -0.757178 -0.052895
-0.085042 0.215007 -0.076747 -0.772647 -0.181756 -0.601218
0.355057 0.341003 -0.049531 0.428405 0.334167 0.837784
-0.12827 -0.327463 -0.00148 -0.999686 -0.006319 -0.019664
0.192277 -0.249227 -0.052806 0.766577 -0.145258 -0.624526
-0.536623 0.066672 0.05509 0.365146 -0.928537 0.02393
0.198525 0.122511 0.017453 0.949571 -0.182903 0.250091
-0.003575 0.169608 -0.115158 -0.145353 -0.161434 -0.970678
0.230936 0.485156 0.010844 0.62688 0.042097 0.767839
-0.071023 -0.678321 -0.110034 -0.164399 0.121291 -0.976543
-0.087968 0.061281 -0.103978 -0.713477 0.14314 -0.68535
0.151623 -0.86316 0.158451 0.228875 -0.957778 0.157033
0.077169 0.608833 -0.070366 0.325364 0.675894 -0.660619
0.175938 -0.80242 -0.025719 0.954015 -0.266757 0.101204
0.278617 0.486006 -0.029151 0.672295 0.586696 0.44857
-0.058207 -0.208581 -0.092244 -0.135181 -0.06493 -0.985479
0.111503 -0.548665 0.039303 -0.431065 -0.047375 0.900343
-0.270449 0.413677 -0.037477 -0.745779 0.665636 0.009317
0.137834 -0.869715 0.095388 0.033559 -0.999046 0.01461
0.171983 -0.674413 -0.066377 0.683244 -0.20884 -0.699012
0.046134 -0.351032 0.025414 -0.891148 -0.175335 0.406481
0.183588 -0.506835 -0.076751 0.767097 -0.000132 -0.641451
-0.125064 -0.12795 0.081882 -0.827533 0.030109 0.560224
0.01463 -0.736038 -0.076755 0.811794 0.026523 -0.581136
0.183015 -0.325328 0.069179 0.76348 -0.057653 0.642183
-0.066533 0.534261 -0.10662 -0.275116 0.450819 -0.848502
0.564662 0.125064 -0.012057 0.553997 0.187518 -0.809468
0.057289 -0.682799 0.016548 -0.840559 0.137146 0.520244
0.08891 -0.083758 -0.129397 -0.138744 -0.392042 -0.90851
-0.056547 0.386627 0.098266 -0.346904 0.072288 0.934263
-0.092084 -0.208376 0.111066 -0.194697 -0.046828 0.979693
-0.00207 -0.719582 -0.091197 0.61408 0.235947 -0.752302
-0.032292 -0.863383 0.061203 0.284422 -0.954134 0.002068
-0.43177 0.169373 -0.049957 0.352439 -0.654468 -0.655481
0.025853 -0.259897 -0.027232 0.23046 -0.1878 -0.811251
0.060723 -0.668588 -0.042804 -0.824521 -0.188329 -0.527179
0.079109 0.152685 0.122802 0.415981 0.055813 0.906918
-0.038993 0.765304 -0.014745 -0.980196 -0.108341 0.155286
0.054377 -0.099118 0.086252 0.453608 -0.666218 0.587009
0.587012 0.046614 0.018263 0.102758 -0.897293 0.029802
-0.12852 -0.307826 0.012206 -0.999809 -0.017136 0.004097
0.104331 0.771608 -0.002998 0.984245 -0.04351 0.155444
-0.041015 0.054246 0.124224 -0.495853 0.178408 0.849745
0.197269 0.03715 -0.047516 0.952356 0.062928 -0.296462
0.180011 0.13844 -0.040284 0.847901 0.091908 -0.517895
-0.082809 -0.284742 -0.079167 -0.622282 -0.052699 -0.780798
0.041994 0.083757 -0.144938 -0.14033 0.224561 -0.964171
0.103756 0.141122 -0.119029 0.345397 0.275201 -0.894871
0.122408 0.452769 -0.146604 0.070534 0.025502 -0.996777
-0.036705 -0.620605 0.028219 0.340233 -0.150257 0.927518
0.160622 -0.844451 -0.075919 0.977399 -0.032001 -0.205425
0.182253 -0.715639 -0.007984 0.061987 -0.344914 0.917946
0.132445 -0.020552 0.11571 0.388428 0.001243 0.921132
-0.301074 0.340922 0.000647 -0.411469 0.366672 0.83165
-0.104196 -0.519321 0.048237 -0.825981 -0.051186 0.56039
0.113662 -0.868238 0.021111 -0.076862 -0.990133 -0.11178
0.024828 -0.537256 -0.017104 0.982184 -0.078288 -0.081397
-0.11031 -0.426988 0.075548 -0.725799 -0.236821 0.644944
0.196584 -0.72458 -0.026868 0.978547 -0.072184 -0.17062
0.207514 -0.156752 -0.000944 0.997202 -0.070254 0.005246
0.084602 -0.560881 -0.084852 -0.580784 -0.070413 -0.801148
0.199709 -0.578775 -0.004307 0.981315 -0.05257 0.18384
-0.024331 0.78237 -0.093172 -0.801959 -0.084847 -0.588942
0.161491 -0.287815 -0.070575 0.580381 -0.096443 -0.808253
0.041857 -0.377491 -0.007229 -0.977685 -0.111694 0.175691
0.006014 0.067537 -0.14339 -0.142872 0.206548 -0.967727
-0.499449 0.105443 0.019865 -0.037509 -0.781551 -0.615663
0.196581 -0.213422 0.051805 0.939993 -0.009471 0.339933
0.308092 0.313285 -0.094802 -0.701321 -0.709917 -0.05187
0.042781 0.842993 0.057928 0.213148 0.606033 0.757013
-0.302141 0.254303 -0.004621 0.656174 -0.519427 0.519096
-0.118119 0.343126 0.006969 -0.976638 -0.142031 0.16103
0.095976 -0.55352 0.032118 -0.467025 -0.019015 0.882772
0.139583 -0.616655 -0.097238 0.237505 -0.13887 -0.959977
0.074113 -0.794254 -0.062445 -0.910978 0.10736 -0.395847
0.199194 0.389878 -0.052353 0.993627 -0.109211 0.01721
-0.171529 0.365123 -0.024018 0.665782 -0.731152 0.142942
0.017457 -0.767327 -0.043384 0.971855 -0.10212 0.198686
-0.263363 0.339203 -0.09586 0.159742 -0.159903 -0.972905
0.16587 -0.663362 -0.074522 0.604505 -0.188434 -0.773198
-0.120231 -0.441478 -0.051958 -0.75324 0.24799 -0.608444
0.206373 -0.048476 -0.025451 0.97224 0.005555 -0.231114
-0.118319 0.318333 -0.058409 -0.952667 -0.168896 -0.239084
-0.093553 0.032624 0.103708 -0.419492 0.258944 0.869983
0.388358 0.338558 -0.109357 0.712372 0.649094 -0.265471
0.178355 0.140378 0.052434 0.755269 0.103008 0.647141
0.176412 0.435138 0.046799 0.528111 0.106876 0.842196
0.023494 -0.724898 -0.045397 0.985316 -0.061947 0.145931
-0.11469 -0.70548 -0.08329 -0.747319 -0.113111 -0.654063
0.056695 0.408088 0.097486 0.094425 0.198652 0.974857
0.047869 0.340072 0.113795 0.149905 0.169299 0.973555
-0.089815 -0.831552 -0.109961 -0.893952 -0.066121 -0.441834
-0.086403 0.556067 -0.080464 -0.41782 0.654561 -0.629883
0.081577 0.695794 -0.049204 0.848215 -0.377756 -0.362813
0.42608 0.240009 -0.029579 -0.365163 -0.540657 0.698662
-0.016924 0.016897 -0.14421 -0.189055 -0.313063 -0.92918
0.150766 -0.625312 0.028272 0.346767 -0.184477 0.914283
0.068163 0.766941 0.06947 0.3693 -0.376372 0.825559
0.200652 -0.242756 0.042917 0.957075 0.040175 0.285144
-0.102454 -0.168266 0.109441 -0.650553 -0.020315 0.757743
0.002264 -0.259097 0.091882 0.54874 -0.197624 0.809418
-0.063491 -0.681987 0.022232 0.239718 -0.359928 0.90134
-0.060628 0.131145 -0.10328 -0.381557 0.277379 -0.880658
0.190563 -0.487806 -0.066643 0.842704 0.009257 -0.537961
0.164033 0.397095 -0.124181 0.382341 -0.403311 -0.831098
-0.032742 -0.642703 -0.095457 0.490047 0.03539 -0.870771
-0.083387 -0.243596 -0.081207 -0.594168 -0.041074 -0.802398
0.132004 -0.73205 0.017537 0.416422 0.355224 0.819598
-0.038017 0.166083 -0.101439 -0.361449 -0.21607 -0.899546
0.097775 -0.49753 0.031726 -0.570204 -0.013903 0.821158
0.085051 -0.825522 0.007001 -0.496873 -0.863364 0.061796
0.183188 -0.538711 0.0379 0.789337 -0.119994 0.601046
-0.07098 -0.24513 0.112397 -0.053482 -0.068943 0.996024
-0.183757 0.522573 0.006975 -0.702615 0.681471 0.203335
0.012784 -0.213051 -0.055931 0.803666 0.008507 -0.594063
0.019102 -0.759073 -0.049424 0.990312 -0.111461 0.059362
-0.01441 -0.082146 0.127859 0.123182 -0.07233 0.989024
0.173892 -0.813854 -0.055943 0.867301 -0.476296 -0.010696
0.198418 -0.662001 -0.031888 0.995289 -0.0371 -0.080794
0.240489 0.436404 -0.00061 0.651634 -0.210013 0.720062
0.193329 0.068252 -0.047598 0.915286 0.124026 -0.38283
0.045993 -0.037361 -0.138319 -0.304233 -0.415154 -0.857133
0.087913 0.62728 -0.025569 0.962681 0.20773 0.103434
0.100117 0.261641 0.107186 0.357214 0.071592 0.930179
-0.042808 0.354736 0.104643 -0.218802 -0.106188 0.964958
-0.095531 -0.863045 0.032924 -0.12134 -0.982001 -0.019476
0.057764 0.556742 0.024071 0.203677 0.499828 0.840517
0.147619 -0.154241 0.103647 0.283244 -0.24661 0.925696
0.324274 0.345469 -0.038317 0.143502 -0.106482 0.975905
0.194414 0.108158 0.022567 0.941586 -0.228123 0.241451
-0.121148 -0.724796 -0.023902 -0.788392 0.18569 0.580936
0.102798 0.736351 -0.003265 0.80158 -0.348796 0.484595
-0.006514 -0.794573 -0.130073 0.818448 0.123137 -0.549675
0.047037 0.009071 0.142629 0.078018 0.118251 0.988683
-0.111995 0.543079 -0.07829 -0.397059 0.663316 -0.633431
0.004499 0.201912 -0.122448 0.064263 -0.416651 -0.905447
-0.064797 -0.253272 0.111882 0.025455 -0.095977 0.994751
0.491814 0.236322 -0.030042 0.663206 0.742428 0.083751
0.067846 -0.663553 0.017168 -0.408042 0.341304 0.845291
-0.143821 -0.060835 0.00663 -0.999305 0.030966 -0.013013
0.001852 0.794605 0.073735 -0.5164 0.362195 0.771307
0.12003 0.060654 -0.137369 0.508785 0.214301 -0.832723
0.119173 -0.362069 0.074774 -0.259131 -0.210336 0.941996
0.094671 0.795836 0.022152 0.911955 0.125675 0.387923
-0.025416 0.703626 0.006533 -0.882099 -0.469549 0.013358
-0.058268 0.420919 -0.127563 -0.184125 -0.112229 -0.975321
-0.093144 0.433511 -0.120155 -0.24939 -0.152624 -0.95621
-0.229412 0.321577 -0.030967 0.703073 -0.708351 0.053653
-0.108794 -0.736873 -0.087077 -0.842953 0.128346 -0.522022
0.081919 -0.727647 -0.061454 -0.923346 -0.107977 -0.367197
-0.041998 0.28452 -0.12749 -0.323757 -0.025456 -0.942035
0.178711 0.239056 0.035192 0.926609 0.005067 0.373441
-0.123093 -0.272133 -0.026194 -0.851225 0.009699 -0.522685
0.028891 0.704718 -0.089464 -0.067671 -0.64142 -0.760741
-0.046152 -0.629137 0.029999 0.375165 -0.25094 0.890927
0.046024 -0.047715 0.128094 0.053712 -0.391125 0.914882
-0.126144 -0.324246 0.039144 -0.992542 -0.031696 0.116957
0.195407 0.020875 -0.05316 0.921244 -0.030734 -0.386711
0.150544 0.344701 -0.113231 0.649309 -0.238114 -0.721634
0.143851 -0.549874 0.048056 -0.10387 -0.208523 0.968441
0.05498 0.191864 -0.115784 -0.239947 -0.030902 -0.960734
-0.015513 -0.367999 0.083032 0.414806 -0.149956 0.897315
0.19036 0.086004 -0.049599 0.87749 0.169726 -0.442029
0.036626 0.169208 -0.118192 -0.065472 0.165382 -0.978925
0.150324 0.189672 -0.082481 0.742875 0.06049 -0.666096
-0.001697 0.019745 -0.148719 -0.183692 -0.431189 -0.876213
-0.119653 -0.372054 0.076257 -0.938603 -0.01786 0.339778
0.005338 0.242694 -0.127873 0.128099 -0.034277 -0.991132
0.129997 -0.867905 0.015024 0.051531 -0.993209 -0.095855
0.070445 0.831494 0.047417 0.636177 0.561846 0.525314
0.173481 -0.227268 0.081782 0.404153 -0.210484 0.887439
0.068504 0.286226 -0.137861 -0.238292 -0.048605 -0.968953
-0.126469 -0.41681 0.051556 -0.924235 -0.058792 0.375468
0.336554 0.341705 -0.041635 0.298774 0.077873 0.946509
0.455052 0.230459 -0.015482 -0.225581 0.360067 0.902379
-0.01526 -0.693983 -0.092594 0.609352 0.22055 -0.761479
-0.101464 -0.719864 -0.097887 -0.776094 0.022642 -0.630069
-0.122484 -0.663596 -0.017865 -0.964962 -0.092085 0.242882
0.141395 -0.274048 0.082918 0.057953 -0.058227 0.996462
0.12808 -0.268469 0.08399 0.05301 -0.085501 0.994594
-0.282859 0.374028 -0.001189 -0.808825 0.25422 0.521565
-0.027003 0.737391 -0.066216 -0.873929 -0.356149 -0.324711
0.104048 -0.464299 -0.102372 -0.331455 0.047772 -0.939476
-0.018403 -0.265343 0.100779 0.446333 -0.257718 0.856424
0.197231 -0.446758 0.013024 0.975705 -0.086426 0.198034
-0.070691 -0.301654 -0.086429 -0.504181 -0.087668 -0.85557
0.242601 0.508527 -0.004683 0.639321 0.375254 0.670334
0.0477 -0.491493 -0.014165 -0.948792 0.000772 0.302022
-0.259922 0.362562 0.018299 -0.175689 -0.121238 0.964327
-0.037647 0.341876 -0.128049 -0.142898 -0.005233 -0.988752
0.019949 0.280649 -0.127573 0.082425 -0.019892 -0.995375
-0.089627 -0.860629 -0.094867 -0.222731 -0.971686 -0.062657
0.057529 -0.740668 0.003395 -0.973523 -0.208392 -0.074136
-0.120051 0.563684 -0.007149 -0.393944 0.871954 0.2612
0.220067 0.549748 -0.034766 0.454183 0.865314 0.190922
-0.118729 0.172822 0.039986 -0.878773 0.011188 0.476424
-0.071128 0.346897 -0.115453 -0.488262 -0.081048 -0.868826
-0.072512 -0.136668 0.119796 -0.299255 0.043353 0.952632
0.069642 -0.814072 0.001146 -0.933245 -0.243704 0.249018
0.632328 0.038784 0.013421 -0.88588 -0.352773 -0.269979
-0.09001 -0.34582 0.103494 -0.090817 -0.096785 0.98833
0.462334 0.207855 -0.071259 0.46068 -0.636976 -0.598625
0.118331 -0.348707 -0.09937 0.27837 0.063951 -0.956539
-0.495306 0.142882 0.073758 -0.052006 0.659566 0.7002
-0.124504 -0.328561 0.050311 -0.981982 -0.022903 0.186634
-0.050203 -0.063437 -0.11888 -0.166082 -0.311495 -0.934501
0.165763 0.403999 0.056219 0.647295 0.018336 0.761229
-0.081835 -0.863434 0.103367 -0.029135 -0.999511 0.006899
0.089199 0.429125 0.088862 0.094604 0.182612 0.978552
-0.128453 0.39752 0.002657 -0.948928 -0.288382 0.085143
-0.106507 -0.260413 -0.053629 -0.822324 -0.025956 -0.568357
0.133262 -0.826319 0.141038 0.235313 0.965877 0.087421
0.143251 -0.664615 0.029554 0.142839 -0.158438 0.976863
-0.412861 0.171809 0.012615 0.681454 -0.726342 0.076297
-0.124406 -0.553694 0.005992 -0.876619 -0.165471 0.44794
-0.007148 -0.632244 0.023018 0.149437 0.150328 0.975111
-0.327857 0.340089 -0.043277 -0.685884 0.726783 -0.014695
0.28793 0.482726 -0.044435 0.760623 0.564434 0.320258
-0.125176 -0.681222 -0.033125 -0.941532 -0.115023 0.308799
-0.270171 0.368225 0.013942 -0.578837 0.057118 0.810511
0.182091 -0.193129 -0.069032 0.613893 -0.016414 -0.788685
0.073993 0.362976 -0.143098 -0.262425 -0.01361 -0.96224
-0.143753 -0.151347 0.010504 -0.996763 -0.05242 -0.050415
-0.016553 -0.161183 0.11872 0.426071 -0.143317 0.890748
0.204603 -0.19497 0.029388 0.967319 -0.032596 0.246784
0.082334 0.666885 -0.029262 0.979515 0.01882 -0.191321
-0.237519 0.456416 -0.031525 -0.836687 0.544867 -0.044314
0.162749 -0.826029 -0.081091 0.829512 -0.53495 -0.095426
0.131352 -0.129681 0.11127 0.133265 -0.089012 0.986712
0.022772 0.577485 0.026686 -0.122364 0.040289 0.991053
0.02013 -0.252102 0.066273 0.948628 -0.023108 0.315218
-0.238011 0.454612 -0.021114 -0.847928 0.524065 0.069921
-0.021265 -0.703689 -0.099846 0.587735 0.214411 -0.779779
0.029001 -0.301396 0.016016 0.998371 -0.043241 0.03225
0.052688 -0.700655 0.006622 -0.99301 0.01986 0.11055
0.17206 -0.656542 -0.071767 0.58643 -0.222459 -0.77873
-0.096043 -0.480377 -0.084055 -0.581181 0.125694 -0.802744
-0.038107 0.589498 -0.071578 -0.339909 0.881934 -0.290908
0.196601 0.405521 0.006971 0.932315 -0.196553 0.301707
0.319092 0.360275 -0.139226 -0.039367 -0.219616 -0.973417
0.07148 0.751016 0.068499 0.416352 0.125829 0.89404
0.000988 0.058063 0.136798 -0.226382 0.081709 0.967152
0.13327 -0.399716 -0.098541 0.397474 0.096238 -0.91193
-0.126882 -0.347767 -0.022306 -0.980254 0.070356 -0.17982
0.546604 0.194526 -0.02836 0.967461 -0.232494 0.069082
0.130003 0.110669 -0.115054 0.564697 0.300896 -0.766308
0.082769 0.663998 0.000173 0.986722 -0.064722 0.147375
-0.083001 -0.820608 0.067298 -0.381827 0.867806 0.29706
-0.302331 0.347597 -0.080814 -0.545829 0.578028 -0.602239
0.08242 0.618742 -0.007017 0.93447 0.066192 0.343273
0.170607 -0.20921 -0.076212 0.616166 -0.091818 -0.781927
0.031725 0.772611 0.088637 -0.108714 0.089412 0.983323
0.16625 -0.115222 -0.094455 0.729902 -0.153307 -0.664729
-0.152807 0.550416 -0.024476 -0.441653 0.890331 -0.094634
-0.002772 0.486274 -0.126743 0.157583 0.120729 -0.978828
-0.045072 -0.049899 -0.124346 -0.15987 -0.417133 -0.89251
-0.103821 -0.146599 0.109367 -0.674919 0.007032 0.737362
0.053479 -0.561466 -0.005014 -0.828815 -0.009827 0.55755
0.182738 0.279385 0.00854 0.994849 -0.018377 0.094147
-0.006676 -0.035484 -0.133849 -0.026209 -0.330292 -0.943115
0.075374 -0.655588 0.018592 -0.61168 0.31995 0.723089
-0.06465 0.072366 0.109781 -0.318992 0.303065 0.895301
-0.10031 -0.022145 -0.10089 -0.730872 -0.108046 -0.672968
-0.035704 -0.785466 -0.144988 0.148016 0.467484 -0.864349
0.126554 -0.580144 0.039424 -0.217462 -0.234326 0.947118
0.182195 0.234464 -0.019536 0.991659 0.007123 -0.118105
-0.119914 0.521524 -0.09259 -0.373355 0.535739 -0.756594
-0.034483 0.583514 -0.010472 -0.360591 0.742205 0.558784
-0.136284 -0.125727 0.058112 -0.954307 0.014191 0.294852
0.169852 0.106126 -0.073247 0.7895 0.26341 -0.553857
0.187928 -0.18059 -0.064263 0.636926 0.018891 -0.770187
-0.123255 -0.044647 0.080079 -0.767097 0.06397 0.637988
0.011497 0.056591 -0.146321 -0.179671 0.246214 -0.951819
-0.506251 0.143109 0.037551 -0.783188 0.621724 0.00578
0.094872 -0.482294 0.029658 -0.615177 0.014114 0.788028
0.078331 0.771151 0.06228 0.679686 -0.286676 0.671333
0.205945 0.024878 -0.016043 0.991 0.03763 -0.123226
-0.099683 -0.052042 -0.095297 -0.69035 -0.233666 -0.683771
-0.058184 -0.864255 0.08164 0.000203 -0.999972 0.003031
0.132599 -0.035649 -0.140365 0.456903 -0.211834 -0.862496
-0.125113 -0.524204 0.013864 -0.845021 -0.123701 0.519629
