0.193298 -0.256683 0.061146 0.824067 -0.019366 0.563359
0.088913 0.685624 -0.005474 0.976179 -0.181779 0.03233
-0.52369 0.117479 0.084257 -0.683053 0.696967 0.115224
0.010797 0.516639 0.062097 0.140315 0.533923 0.833173
-0.350293 0.318742 -0.030164 -0.671219 0.721374 0.167974
0.141873 -0.613099 0.035749 0.158772 -0.233258 0.949477
0.035016 -0.327625 -0.01589 -0.997087 -0.041421 -0.062004
0.199585 0.393188 -0.086612 0.956447 -0.271901 -0.08888
0.145905 -0.650931 0.03062 0.198749 0.01632 0.976162
0.056992 0.690474 0.084151 0.49817 -0.001463 0.861454
-0.129185 0.074394 -0.007432 -0.981981 0.157894 -0.022854
0.135254 0.515337 0.038754 0.375498 0.613993 0.693534
0.321261 0.433059 -0.115087 0.539239 0.663257 -0.518712
-0.011057 0.755865 0.062108 -0.759384 0.039968 0.648539
-0.13861 -0.062006 0.046459 -0.967729 0.042516 0.248163
0.007352 0.020121 0.141367 -0.095566 0.166525 0.98097
0.070115 -0.538408 0.010993 -0.646481 -0.01877 0.76265
0.027942 -0.274534 0.032824 0.990368 -0.035449 0.133268
0.159061 -0.066948 0.102844 0.544661 0.036301 0.836778
0.182156 0.050418 0.075644 0.775173 0.253534 0.578383
0.023636 -0.446635 0.009147 0.920135 0.064788 0.382589
0.135495 -0.265266 -0.091245 0.468469 -0.086527 -0.877626
0.178609 -0.386459 0.06744 0.606967 -0.051667 0.790316
-0.028288 -0.080209 -0.113082 0.112196 -0.374245 -0.918893
-0.315886 0.284726 0.005911 -0.083155 0.043873 0.994785
0.239061 0.379465 -0.114022 -0.698372 -0.575665 -0.408451
-0.026935 0.25253 0.112452 -0.277288 0.011763 0.960681
0.057278 0.576209 0.020057 0.377563 0.031803 0.923588
0.501465 0.216314 -0.009313 0.313104 0.560303 0.742111
-0.175381 0.523236 0.021511 -0.648927 0.600471 0.403511
0.165535 -0.311471 -0.06596 0.67832 -0.00893 -0.734249
-0.035265 -0.58833 0.03326 0.398014 -0.287831 0.870146
0.030921 0.122231 -0.130172 -0.137899 0.441952 -0.885804
0.207059 0.006222 0.025756 0.99775 0.016506 0.057592
-0.193011 0.360724 -0.074179 0.561342 -0.662548 -0.493498
0.169689 -0.533953 -0.089747 0.672269 -0.03788 -0.739226
-0.112769 -0.689758 -0.087497 -0.658583 -0.10934 -0.74381
0.196935 -0.640289 -0.050514 0.925075 -0.079075 -0.345282
0.262056 0.395395 -0.019123 -0.172599 -0.449069 0.87417
0.316334 0.449395 -0.060769 0.791065 0.531879 0.285842
0.213857 -0.116295 -0.012751 0.990043 0.001064 -0.131225
-0.092431 -0.610307 0.052405 -0.125964 -0.233167 0.954333
0.051083 -0.598877 -0.015098 -0.885886 -0.052009 0.460466
0.040219 0.145665 -0.120349 -0.149071 0.308584 -0.933403
-0.004506 -0.054788 -0.122874 0.082602 -0.517994 -0.850967
-0.033066 0.076666 -0.13419 -0.250136 0.275646 -0.925589
0.610394 0.085226 0.084968 0.00689 0.486454 0.82993
0.022966 -0.736328 -0.045584 0.991029 -0.083065 0.079693
-0.445675 0.192816 -0.043515 -0.587062 0.252682 -0.766057
-0.059683 0.150196 -0.096791 -0.319112 0.28548 -0.903481
0.102882 0.74946 -0.041434 0.945613 -0.204182 -0.2466
0.046377 -0.536567 -0.039889 -0.902495 -0.027424 -0.423306
0.119897 -0.606816 0.033682 -0.17556 0.125823 0.967551
-0.003425 -0.469085 0.046755 0.718076 -0.142679 0.681092
0.0795 0.814228 -0.091774 0.661518 0.407598 -0.62567
-0.102891 0.324062 -0.088967 -0.726763 -0.146047 -0.668906
-0.119026 -0.635042 -0.083143 -0.724093 0.050687 -0.683075
0.197785 0.3939 -0.097876 0.893431 -0.362028 -0.259275
0.104463 0.250576 -0.135851 0.28521 -0.126285 -0.943245
0.046739 -0.431329 -0.00753 -0.846098 -0.115582 0.510526
-0.10038 -0.574056 -0.092629 -0.523389 0.041246 -0.851077
0.082086 -0.776642 0.028296 -0.143423 0.860248 0.483541
0.294085 0.327211 -0.099116 -0.686741 -0.717234 -0.11015
-0.486404 0.148465 -0.036447 -0.549058 -0.147414 -0.807118
-0.154407 0.525308 0.038365 -0.261067 0.438865 0.841644
0.043793 -0.200041 0.048998 -0.962952 -0.04894 0.248466
-0.128197 -0.643927 -0.043077 -0.996766 -0.053571 0.050284
-0.084813 -0.728067 0.009121 -0.436681 -0.182402 0.846775
0.348619 0.329241 -0.135302 0.033178 -0.13572 -0.986137
0.146549 -0.162636 -0.098776 0.539201 -0.09342 -0.836657
-0.057529 -0.841055 -0.141743 -0.179873 -0.270837 -0.935584
0.057289 -0.682799 0.016548 -0.840559 0.137146 0.520244
-0.089552 -0.712047 -0.108329 -0.623849 0.181906 -0.759318
0.110094 0.464985 0.075095 0.228171 0.371085 0.899429
-0.114308 -0.218635 -0.042351 -0.881141 -0.051658 -0.469899
-0.133955 -0.026859 0.057654 -0.929527 0.10147 0.34688
-0.004856 -0.667683 -0.077303 0.520397 0.160328 -0.8376
0.006572 -0.367633 0.063494 0.794043 -0.163087 0.584898
-0.067444 -0.863468 0.125498 -0.003986 -0.999068 0.038397
0.188667 -0.765014 -0.010446 0.948896 -0.297697 0.077874
0.048045 0.543928 0.035247 0.065149 0.746156 0.659021
0.053186 -0.09191 0.095215 0.316251 -0.760326 0.561309
-0.122095 -0.136612 -0.047934 -0.822066 -0.14761 -0.549691
0.050147 0.24549 0.126249 0.183092 0.068017 0.977494
-0.059749 -0.601258 -0.10368 0.113059 0.034968 -0.991702
-0.015644 -0.809007 0.029019 0.871188 0.348319 0.345685
0.418739 0.301604 -0.056641 0.447726 0.658497 0.598729
-0.128488 -0.293781 0.030111 -0.997254 -0.060286 0.038275
0.196085 -0.572613 0.011389 0.926483 -0.004364 0.369997
-0.029301 -0.668198 0.024088 -0.206486 -0.022208 0.972996
-0.12391 0.060521 -0.049247 -0.917792 0.121647 -0.376833
0.192989 -0.231253 0.061901 0.898806 -0.022084 0.435614
0.050172 0.486359 -0.12877 -0.200423 0.078647 -0.975848
-0.485935 0.109418 0.049127 0.877693 -0.432768 0.184335
0.24544 0.385459 -0.032461 -0.424618 -0.695561 0.576751
-0.11286 -0.354416 -0.05119 -0.768806 0.114186 -0.627551
0.148251 -0.58617 0.041733 -0.004964 -0.122932 0.992005
0.072112 -0.413357 -0.076104 -0.702145 -0.013106 -0.711854
0.15129 0.236588 -0.086151 0.819815 -0.114227 -0.560458
-0.358805 0.207981 -0.012873 0.527108 -0.844026 0.085757
0.055382 0.827564 0.063273 0.392713 0.540802 0.741916
-0.087365 0.30657 -0.101234 -0.659445 -0.071481 -0.748215
-0.066081 0.286203 0.088237 -0.395413 -0.000926 0.908206
0.007416 0.851566 -0.066114 -0.366745 0.77934 -0.507539
0.162809 -0.611398 0.027875 0.427623 -0.375781 0.820811
-0.053232 -0.785655 0.043885 -0.141218 0.737564 0.656909
0.197887 0.05917 -0.038337 0.959562 0.077922 -0.269251
0.410253 0.226346 -0.050205 -0.627463 -0.67152 0.391812
-0.116622 0.338582 -0.074727 -0.878083 -0.207602 -0.427669
-0.256815 0.347073 -0.096135 0.146999 -0.172193 -0.972188
-0.072774 -0.506771 0.070698 0.365537 -0.227252 0.902365
0.138553 0.047734 0.109557 0.48967 0.260681 0.824251
0.00897 0.684933 0.081383 -0.63466 0.022662 0.767883
-0.189437 0.512329 -0.046052 -0.69801 0.582867 -0.414431
-0.105964 -0.839647 -0.017861 -0.975599 -0.004191 -0.125752
-0.180591 0.399534 -0.094928 0.244147 -0.167255 -0.953109
0.267562 0.509318 -0.068725 0.703738 0.705298 -0.078577
0.555011 0.103424 0.03623 -0.844597 -0.438493 0.301747
-0.097679 0.195003 -0.060874 -0.776097 0.113769 -0.619959
0.036857 0.440613 0.091544 0.159497 0.184007 0.968588
-0.003341 0.029856 -0.150126 -0.200581 0.037913 -0.969627
-0.570956 0.038927 -0.001246 -0.967718 0.24039 -0.053614
0.186163 -0.246849 -0.060193 0.718236 -0.124762 -0.684218
0.120451 -0.402363 0.066815 -0.316071 -0.201869 0.926188
-0.065622 0.547422 0.029691 -0.153926 0.667411 0.722556
-0.015265 0.704126 -0.053761 -0.766644 -0.511112 -0.388346
0.204286 -0.409171 -0.015951 0.981297 -0.143417 -0.124376
-0.34788 0.213222 -0.033203 0.621904 -0.779201 -0.056969
0.045191 -0.196715 -0.05851 -0.869185 -0.154231 -0.454678
0.145422 -0.572319 -0.10246 0.297198 -0.098351 -0.949071
0.131501 0.254314 -0.118354 0.688033 -0.208096 -0.694451
-0.492593 0.157104 0.045392 -0.653615 0.729532 0.189752
-0.136011 0.557766 -0.028627 -0.367304 0.917158 -0.115508
0.076764 0.655234 -0.043043 0.788633 0.088305 -0.607637
-0.298277 0.361063 -0.067496 -0.691841 0.654012 -0.3044
-0.522824 0.073201 0.082324 0.246238 -0.920654 0.177263
0.042514 -0.065686 -0.12268 -0.401879 -0.432021 -0.807305
0.146341 -0.702603 0.017441 0.33633 -0.464637 0.818172
0.170222 -0.016024 -0.104447 0.792048 0.053687 -0.607135
0.113305 -0.425285 -0.102881 -0.130229 0.042419 -0.985484
0.022934 -0.568144 -0.031972 0.873031 0.155744 -0.459091
0.189105 -0.514308 -0.069759 0.832883 0.011772 -0.553253
0.200014 -0.450206 -0.022514 0.999873 0.007102 -0.008945
0.002145 0.029446 0.138855 -0.136224 0.151811 0.978373
-0.1256 -0.665208 -0.073805 -0.909857 -0.013929 -0.403139
0.170891 0.569563 -0.063767 0.533193 0.812815 -0.212254
-0.117125 -0.643622 0.019335 -0.89618 -0.060291 0.439133
-0.010719 0.041249 0.134987 -0.252009 0.10562 0.959306
-0.016464 -0.423379 0.070963 0.554337 -0.210474 0.803559
0.126357 -0.869945 0.075982 -0.007282 -0.999928 0.006864
0.121289 0.525396 0.034931 0.281034 0.625776 0.725621
0.037811 -0.081452 0.111916 0.078242 -0.55046 0.828148
0.150678 -0.408734 0.073492 -0.122566 -0.086074 0.986124
0.185232 0.159597 0.038514 0.856492 0.172454 0.48529
-0.136041 0.48023 0.061576 -0.120854 0.111141 0.981966
-0.046154 0.257675 0.103434 -0.613832 0.046559 0.786473
-0.083827 0.462192 -0.125405 -0.357854 0.037601 -0.931841
0.328727 0.389615 -0.139077 0.414871 0.024392 -0.908868
0.10109 0.065601 0.118253 0.431878 0.131936 0.890891
0.096931 -0.82585 0.083403 -0.610508 0.740871 0.224672
-0.100679 -0.83064 0.038787 -0.763098 0.639318 0.081403
-0.125445 -0.020156 -0.062302 -0.871919 -0.003771 -0.488872
-0.038095 -0.632631 -0.098315 0.461734 0.025466 -0.886476
-0.024403 0.764067 0.040104 -0.860014 0.141246 0.489777
-0.067168 -0.861621 -0.036951 0.023424 -0.998936 -0.033716
-0.047747 0.209418 -0.111042 -0.557123 -0.318886 -0.766407
-0.20051 0.353429 -0.072894 0.528534 -0.690635 -0.490498
0.153949 0.337372 -0.107828 0.671521 -0.255316 -0.695399
0.07385 0.585182 0.00936 0.637004 0.105959 0.759491
-0.30545 0.254434 -0.076072 0.29698 -0.753167 -0.568147
0.185214 -0.027178 -0.078931 0.884041 -0.008069 -0.466826
-0.13318 -0.050309 0.065025 -0.869005 0.034723 0.489524
0.095139 -0.42964 0.041739 -0.616014 -0.379112 0.690345
-0.04503 0.238265 -0.122198 -0.541378 -0.15333 -0.826074
-0.23603 0.314588 -0.047954 0.748451 -0.656605 -0.084785
-0.036932 -0.661947 -0.099745 0.757951 0.159794 -0.595509
0.03025 -0.195813 0.033359 0.972508 -0.031707 0.229916
0.148404 -0.345615 0.078275 0.18756 -0.034839 0.981427
0.020594 -0.682127 -0.063032 0.710762 0.123378 -0.688495
-0.029979 0.711872 0.009059 -0.937331 -0.323001 0.037727
0.032914 0.444015 -0.127874 -0.125943 0.009717 -0.99123
0.091712 -0.853602 0.020378 -0.806335 -0.566029 -0.132492
-0.037552 0.821386 -0.002617 -0.913638 -0.140957 0.353752
0.113139 -0.679929 0.032256 0.198616 -0.01517 0.97793
0.207462 -0.017613 -0.017789 0.974074 0.055402 -0.21828
-0.320782 0.34707 -0.043843 -0.689305 0.722987 -0.028736
-0.006854 0.728269 0.067331 -0.561631 0.01022 0.825888
0.145103 -0.835204 0.161527 0.465257 0.844239 0.255001
0.104048 -0.464299 -0.102372 -0.331455 0.047772 -0.939476
-0.069902 -0.379831 0.095547 0.164827 -0.228638 0.95914
-0.144345 -0.100697 0.017306 -0.999563 0.007488 0.022245
-0.083819 -0.369047 0.099777 0.050485 -0.209933 0.974562
0.196329 -0.139283 0.065734 0.882821 -0.065273 0.46436
0.049894 0.433883 0.091636 0.072599 0.241967 0.966076
-0.020823 -0.346619 0.08886 0.381557 -0.092341 0.916965
0.085873 -0.3954 -0.089565 -0.62047 -0.040329 -0.7829
-0.092988 0.248426 -0.086367 -0.694452 -0.310671 -0.648472
-0.121277 0.215742 -0.002815 -0.970176 0.221103 -0.037209
0.052841 -0.14956 0.069469 -0.745075 0.038116 0.654059
-0.105612 0.147903 0.061488 -0.768978 0.061867 0.636184
0.05257 0.302964 0.119824 0.17515 0.127938 0.975086
0.194702 -0.06882 -0.057333 0.871675 -0.008659 -0.489088
-0.005007 0.662187 0.021082 -0.704553 -0.591428 0.389318
-0.147066 0.534934 -0.064758 -0.466513 0.690026 -0.551986
0.187959 -0.625408 -0.065826 0.71691 -0.093781 -0.689921
0.079213 -0.238079 -0.087788 -0.5067 -0.045699 -0.860394
0.038988 0.679549 -0.072017 0.084052 -0.439263 -0.894326
-0.110352 -0.570696 0.030394 -0.89503 -0.060577 0.441699
-0.125731 -0.231535 -0.019904 -0.899133 -0.036539 -0.434123
-0.053972 0.053134 0.116501 -0.515258 0.215774 0.825622
0.164567 0.434058 0.053838 0.6272 0.109669 0.769984
0.012813 0.863451 0.005532 -0.08452 0.996039 0.023342
-0.094425 -0.391343 -0.068852 -0.55843 -0.116483 -0.819264
0.147308 -0.738634 -0.090069 0.703929 0.178008 -0.679613
-0.103478 -0.860482 0.023718 -0.564604 -0.807482 -0.05555
-0.131203 -0.387646 -0.010075 -0.955069 0.271439 -0.092998
-0.091816 -0.037136 0.111106 -0.570108 0.013768 0.820591
0.190555 -0.748288 -0.027143 0.886419 -0.253649 -0.360053
0.091409 -0.860114 -0.04039 -0.811073 -0.512877 0.237795
0.295543 0.459976 -0.034557 0.740453 0.328911 0.582393
0.133802 0.251732 0.089668 0.663747 0.041743 0.746169
0.141916 0.159384 -0.093545 0.66463 0.085676 -0.741755
0.168892 0.182064 0.05762 0.761713 0.085319 0.641502
0.245386 0.371959 -0.112337 -0.613729 -0.716061 -0.313244
-0.058433 -0.863119 -0.087396 0.001288 -0.999588 0.025578
0.196189 -0.663346 -0.041865 0.914569 -0.20752 -0.335662
-0.12381 -0.564336 -0.071493 -0.753382 0.094211 -0.650075
0.1228 -0.677661 0.030521 0.115599 -0.07931 0.989173
0.427119 0.301101 -0.104856 0.599956 0.672556 -0.425937
0.066993 0.196219 -0.119716 -0.200212 -0.220843 -0.949649
0.501108 0.164726 -0.025417 -0.592547 -0.803578 -0.051217
-0.099411 -0.827775 -0.0823 -0.927181 -0.270557 -0.253984
0.054384 -0.043804 -0.138259 -0.294502 -0.345367 -0.887682
0.199492 -0.541279 0.000974 0.938568 -0.037279 0.342962
0.181815 -0.136795 -0.072075 0.715662 -0.071453 -0.694733
0.183726 0.293495 0.007579 0.985457 -0.088713 0.141163
-0.008262 -0.805517 0.000126 0.929604 0.137887 0.341007
0.084089 0.660631 -0.021025 0.986181 0.064095 -0.104407
-0.129226 -0.161846 0.077134 -0.873242 0.018912 0.48674
-0.061708 -0.376713 -0.084412 -0.15682 -0.125398 -0.977515
0.203628 0.042296 0.037018 0.954503 0.188506 0.229068
0.096983 0.762277 0.028814 0.976177 0.033728 0.20544
-0.131602 0.06636 0.00876 -0.894719 0.428214 0.030377
0.093789 0.01569 0.13098 0.194277 0.250298 0.948447
-0.09149 0.174841 -0.070935 -0.694447 0.081982 -0.714559
0.040707 0.69463 -0.081144 0.128348 -0.618356 -0.774575
0.017046 0.064961 -0.145431 -0.155591 0.209322 -0.965287
0.064105 0.583521 0.016721 0.529724 0.056389 0.843908
-0.130043 -0.105424 0.071991 -0.858124 -0.002486 0.512796
0.085037 -0.849902 0.103783 -0.884214 0.445548 0.07567
0.162549 0.334341 -0.097871 0.701037 -0.3143 -0.63964
0.0238 -0.458807 -0.01837 0.905881 0.08262 -0.409439
-0.550583 0.06289 0.016098 0.857011 -0.412228 -0.302917
0.14174 -0.078542 0.112175 0.338395 0.034084 0.930034
0.040715 0.468444 0.083441 0.135682 0.346437 0.928043
0.450813 0.277365 -0.09876 0.719251 0.360274 -0.587505
-0.056752 -0.396689 0.089457 0.164515 -0.151044 0.974658
-0.11864 -0.095826 -0.060328 -0.772412 -0.118441 -0.623186
0.189984 -0.36904 0.051484 0.912574 -0.043839 0.404344
0.188646 0.369609 0.017526 0.922191 -0.172926 0.345001
-0.122707 -0.643899 -0.003352 -0.977352 -0.139379 0.154788
-0.045164 0.554078 -0.103898 -0.275171 0.486224 -0.827997
-0.273804 0.355419 0.0114 -0.469286 -0.051819 0.875406
-0.112743 0.280677 -0.021709 -0.997223 -0.069866 0.021182
-0.136374 -0.030124 0.048208 -0.984648 0.069194 0.153357
-0.077238 0.163002 0.08937 -0.638427 -0.009557 0.769603
0.148344 -0.869011 0.070676 0.29687 -0.95454 -0.016795
0.033762 -0.062016 -0.120324 -0.404792 -0.477471 -0.779058
0.192993 -0.106066 0.073038 0.782504 -0.01808 0.62053
-0.260109 0.295224 -0.07131 0.60686 -0.61337 -0.497924
0.191559 -0.577906 0.018792 0.818537 -0.087176 0.564907
0.38608 0.325454 -0.122526 0.540334 0.406208 -0.736052
0.059731 0.071218 0.130187 -0.008158 0.062956 0.995453
0.031562 0.038652 -0.155154 -0.192364 0.226279 -0.954612
-0.136655 -0.029467 -0.030409 -0.981246 0.059055 -0.181416
-0.005224 -0.28622 0.090083 0.402572 -0.157027 0.901215
0.027295 -0.604301 -0.015392 0.992691 0.008128 0.116553
-0.076882 -0.142581 -0.094549 -0.463854 -0.127165 -0.875078
0.020039 -0.285587 0.061983 0.934309 -0.050103 0.352162
0.180349 0.302518 -0.045941 0.885705 -0.288304 -0.362876
0.02006 -0.117287 0.10017 0.66805 -0.326684 0.667853
0.048593 -0.142343 0.064346 -0.626696 0.01438 0.77564
0.08891 -0.083758 -0.129397 -0.138744 -0.392042 -0.90851
-0.071621 0.170203 0.093887 -0.63155 0.002607 0.774598
0.184252 0.020218 0.083372 0.758351 0.152921 0.630328
0.163379 -0.007414 0.097425 0.631351 -0.143009 0.759752
0.020081 -0.183541 0.073372 0.965238 -0.076808 0.246592
-0.035136 -0.861192 -0.0818 0.305117 -0.933631 0.14402
0.198019 -0.248754 -0.044199 0.88107 -0.142311 -0.447249
-0.114504 0.232086 0.0286 -0.966649 0.217451 0.131086
0.065677 -0.642641 0.008796 -0.239173 0.379812 0.890493
0.001407 0.859654 -0.039866 -0.440134 0.846811 -0.287172
-0.082458 0.431372 0.080216 -0.586402 0.128621 0.799272
0.061963 -0.558327 -0.062062 -0.726608 -0.061855 -0.682839
-0.037486 -0.115384 -0.104879 0.166425 -0.179317 -0.968529
0.200605 0.53395 0.001605 0.253395 0.63743 0.727264
-0.136606 0.030804 0.042451 -0.966048 0.16441 0.191743
0.111764 0.522179 0.041756 0.357823 0.590104 0.722554
0.183072 -0.485947 0.04974 0.864128 -0.092106 0.489503
0.109873 0.226595 0.105712 0.428983 0.064189 0.900918
0.185571 0.302377 0.003123 0.976883 -0.119651 0.173896
0.191662 -0.604719 -0.06305 0.792952 -0.026735 -0.607841
-0.221951 0.427127 -0.085614 -0.374469 0.446251 -0.811627
-0.089429 0.563315 0.006477 -0.1077 0.857832 0.497492
-3.2e-05 0.253928 0.122338 -0.372984 0.064475 0.925589
0.012659 -0.293684 0.075623 0.796711 -0.127444 0.590203
-0.449447 0.211838 -0.00418 -0.733794 0.620364 0.260545
0.05887 -0.363535 0.036615 -0.688973 -0.355939 0.625159
-0.105778 -0.541943 -0.086259 -0.625979 0.110131 -0.771327
0.09134 0.006698 -0.155867 0.278848 -0.057277 -0.957566
-0.086313 -0.271097 -0.077288 -0.614166 -0.037345 -0.773187
-0.108922 -0.123072 -0.06788 -0.766904 -0.083405 -0.636252
0.045322 0.42942 -0.130809 -0.35064 0.046411 -0.932391
-0.011715 -0.047449 -0.127862 0.004091 -0.499783 -0.865438
-0.497645 0.095001 0.056408 0.436411 -0.865069 0.133567
0.197047 0.153778 0.016412 0.899309 0.35084 0.239095
-0.121567 0.433528 -0.108638 -0.49249 -0.209586 -0.844203
-0.029178 -0.055041 0.130511 -0.068572 -0.092864 0.992974
0.346471 0.306099 -0.127978 -0.296667 -0.428191 -0.844414
0.132985 -0.074712 0.114407 0.202665 -0.009308 0.978577
-0.095232 -0.5017 0.067513 -0.866771 -0.158005 0.471512
0.150401 0.1568 0.079774 0.706535 0.040966 0.706444
0.08153 -0.639535 0.01523 -0.593305 0.330533 0.725285
0.201249 -0.583256 -0.03162 0.991052 -0.067038 -0.110088
0.026777 -0.249544 0.045915 0.979607 -0.015364 0.200096
0.137661 -0.056339 -0.130617 0.531105 -0.2463 -0.807649
-0.009567 -0.599913 -0.07684 0.683205 -0.008619 -0.729995
0.227649 0.386015 -0.074967 -0.715768 -0.698185 0.011425
-0.201096 0.506662 -0.007466 -0.762688 0.641995 0.076476
-0.050358 0.045127 0.120837 -0.459567 0.191019 0.866489
0.177126 -0.44787 0.063726 0.523048 -0.074808 0.842078
-0.066936 -0.026967 -0.126319 -0.37485 -0.198251 -0.901483
-0.407592 0.256614 -0.061585 -0.8114 0.441188 -0.371047
0.080199 0.427494 -0.142996 -0.254652 0.023792 -0.965261
0.193451 -0.485558 0.020767 0.954082 0.039316 0.29515
0.16354 -0.232655 -0.078972 0.539848 -0.127457 -0.831602
0.140059 0.405255 -0.137271 0.380212 -0.180047 -0.907134
0.175529 -0.798193 -0.014923 0.920643 -0.338717 0.180614
0.230185 0.544019 -0.037553 0.608401 0.754657 0.241703
-0.096761 0.541643 -0.088597 -0.384073 0.594793 -0.705321
0.122569 0.071655 -0.132947 0.549369 0.244976 -0.798572
0.024273 -0.121494 -0.053986 -0.508026 -0.535546 -0.497178
-0.135456 -0.422945 -0.015956 -0.962014 0.124125 -0.240647
0.023877 0.765692 -0.121196 -0.072494 -0.050631 -0.995851
0.073976 0.625784 -0.057483 0.589237 0.462365 -0.650006
0.106272 -0.734403 -0.094501 -0.462811 -0.029812 -0.884893
0.129851 0.566858 -0.010829 0.267255 0.753588 0.600206
0.205736 -0.220999 -0.030443 0.994222 -0.048771 -0.092538
-0.212118 0.494441 -0.011088 -0.744052 0.664302 0.06054
0.146644 -0.644095 -0.090638 0.425144 -0.144569 -0.893127
-0.107666 0.307551 -0.078614 -0.810751 -0.118455 -0.572849
0.106612 -0.864877 -0.027721 -0.345482 -0.900821 0.242288
-0.039085 -0.859459 -0.125159 0.145549 -0.927287 -0.331524
-0.03623 0.395262 -0.129165 -0.082151 -0.024456 -0.995746
-0.335172 0.224147 -0.01032 0.491344 -0.851509 0.170517
0.186397 -0.573963 0.026707 0.726916 -0.185001 0.659601
0.104518 -0.754708 0.021732 -0.186322 -0.497264 0.811674
-0.057332 0.24893 0.095362 -0.557232 0.089644 0.825166
0.132999 -0.393565 0.072225 -0.22586 -0.186321 0.955783
0.021873 0.247038 0.127698 -0.028127 0.033375 0.998973
0.019732 0.509139 0.065125 0.092515 0.497087 0.861453
-0.260456 0.286906 -0.059995 0.738148 -0.579775 -0.342214
-0.10579 0.567864 -0.034064 -0.387862 0.900535 -0.108995
-0.009079 -0.458404 0.055227 0.672128 -0.222876 0.705765
0.002186 -0.546973 0.021556 0.732117 -0.158046 0.662431
-0.069644 0.098747 -0.109543 -0.569049 0.299664 -0.764524
0.489134 0.194083 -0.058471 -0.107403 -0.461129 -0.878424
0.110937 -0.627818 -0.093939 -0.444754 -0.086763 -0.889952
-0.07797 0.580544 -0.041046 -0.453337 0.880568 -0.095781
0.181656 -0.429586 -0.068262 0.736852 0.154311 -0.657843
-0.002333 -0.056645 0.1287 0.132212 -0.158414 0.978019
-0.018348 0.780436 0.051109 -0.910007 0.046982 0.404286
-0.138675 -0.083531 -0.023888 -0.952526 -0.010231 -0.304114
0.053546 -0.57526 -0.04913 -0.821647 -0.048422 -0.567439
-0.086396 -0.543025 0.06695 -0.057733 -0.195331 0.973456
0.171494 0.036538 -0.096892 0.790373 0.125181 -0.597883
-0.006514 -0.794573 -0.130073 0.818448 0.123137 -0.549675
0.409425 0.319206 -0.07487 0.649137 0.724805 0.207001
-0.098044 -0.14079 -0.077211 -0.691257 -0.128011 -0.710844
0.294163 0.469875 -0.040587 0.791505 0.435081 0.422577
-0.385114 0.202779 -0.062625 0.080252 -0.688594 -0.696371
0.420735 0.274742 -0.038844 0.056223 0.456851 0.886543
0.088823 -0.539187 0.02787 -0.561758 0.037607 0.825152
0.206132 0.007018 -0.01441 0.991368 0.027412 -0.122058
-0.113089 0.290092 -0.006068 -0.98783 -0.139713 0.058605
0.027363 0.072981 0.134489 0.106162 0.108081 0.98742
0.032415 -0.016401 -0.143992 -0.189853 -0.335548 -0.921998
0.085185 0.557559 0.019158 0.008268 0.791734 0.593063
-0.07759 0.2163 0.086468 -0.572822 0.138552 0.807765
-0.305155 0.361752 -0.038184 -0.67958 0.73144 0.036318
-0.120051 0.563684 -0.007149 -0.393944 0.871954 0.2612
-0.037671 0.145687 -0.10535 -0.238646 0.392009 -0.885012
0.1189 -0.352533 0.076921 -0.234431 -0.197063 0.951729
0.120315 -0.480048 0.049991 -0.579509 -0.110978 0.80719
-0.097803 -0.801458 0.010279 -0.854465 -0.132458 0.464736
0.024053 -0.693895 -0.029964 0.917365 -0.160746 0.360419
0.084029 -0.146932 0.092521 -0.600893 -0.016914 0.798293
-0.077552 0.008544 -0.123847 -0.573574 -0.040004 -0.817585
-0.250827 0.409706 0.013742 -0.610177 0.401156 0.680223
-0.129248 0.102499 -0.002635 -0.994405 -0.090348 -0.039265
0.271056 0.350309 -0.049554 -0.413246 -0.798461 0.414163
-0.012458 -0.081784 -0.108855 0.296472 -0.48989 -0.81824
0.090337 0.787359 0.038072 0.970058 0.126215 0.202605
0.204138 -0.009831 -0.031559 0.947171 0.064636 -0.313357
0.097706 0.734428 -0.053133 0.962667 -0.179869 -0.201919
-0.4818 0.112912 0.028302 0.834287 -0.543549 0.002107
0.18202 -0.449645 -0.073002 0.729289 0.150999 -0.666491
0.087908 -0.805666 0.043819 -0.754894 0.112341 0.637767
0.198112 0.460927 -0.134584 0.091022 -0.024283 -0.995232
-0.03463 -0.155611 0.122998 0.017438 -0.053324 0.99692
-0.090776 -0.8633 0.075636 -0.023772 -0.999707 0.002345
0.410466 0.301191 -0.119959 0.482697 0.462662 -0.742451
0.586083 0.086839 0.058209 -0.277549 -0.50875 0.775068
-0.034951 0.80695 0.002187 -0.97601 0.004784 0.202835
-0.009807 -0.141833 -0.082415 0.654297 -0.196414 -0.729384
0.207188 -0.157506 0.016663 0.995591 -0.068123 0.05532
0.187064 0.421969 0.039574 0.678428 -0.051705 0.732336
0.261526 0.357924 -0.106993 -0.582023 -0.732337 -0.347837
-0.112379 -0.701236 0.00185 -0.849764 -0.391012 0.344305
-0.092341 -0.694417 -0.103221 -0.538417 0.082042 -0.836719
0.018532 0.658842 0.064811 -0.219017 -0.965863 0.12905
0.000288 -0.74194 -0.005278 0.546352 -0.490832 0.676771
-0.489428 0.163331 0.004755 -0.776628 0.629589 -0.019252
0.18175 -0.789071 -0.027217 0.934112 -0.347666 0.075034
0.127285 0.39594 0.084959 0.427837 0.103187 0.897286
0.315686 0.339067 -0.04057 -0.217127 -0.401102 0.885434
-0.083001 -0.820608 0.067298 -0.381827 0.867806 0.29706
0.141898 -0.515903 0.056377 -0.332167 -0.222341 0.913191
0.07217 0.656041 0.024144 0.796864 -0.335415 0.494313
-0.121996 0.361361 -0.062128 -0.977801 -0.179824 -0.088075
-0.111412 -0.592291 -0.085858 -0.655028 0.025847 -0.75515
-0.072269 -0.438254 0.083057 0.119383 -0.199916 0.972272
0.162545 -0.83436 -0.042017 0.978052 0.035506 -0.023564
0.336722 0.403223 -0.052633 0.740318 0.128949 0.591608
-0.315405 0.2971 -0.095592 -0.076086 -0.084678 -0.992276
-0.036756 -0.58254 -0.097177 0.388275 -0.026696 -0.920606
0.097073 0.71434 0.016317 0.840971 -0.369334 0.220763
-0.403843 0.180724 -0.035912 0.478446 -0.83021 -0.271651
-0.028317 -0.35336 0.090676 0.303922 -0.120908 0.944291
0.140226 -0.637223 0.030553 0.273585 0.022309 0.955916
-0.026954 -0.624619 0.023811 0.419297 -0.1234 0.898842
0.00777 -0.436017 -0.048134 0.787312 0.018137 -0.616069
-0.002696 -0.419521 -0.059696 0.716533 0.050353 -0.694326
0.157525 -0.207873 0.090847 0.162598 -0.172518 0.97049
0.158906 0.116982 0.07666 0.575583 0.176429 0.797391
0.047136 0.6492 0.042262 0.305399 -0.622326 0.715085
0.04423 -0.533546 -0.030732 -0.995262 -0.011927 -0.082385
0.012148 0.736723 -0.109017 -0.30934 -0.471919 -0.82172
0.006538 0.288792 0.12168 -0.195434 0.100868 0.974394
0.137649 0.395096 -0.136584 0.412494 -0.166587 -0.894784
-0.132467 -0.151375 0.069887 -0.87221 0.039702 0.486772
0.08887 -0.470707 -0.093923 -0.564515 0.039698 -0.824341
0.198329 -0.660426 -0.021808 0.99283 0.007472 0.098864
-0.076334 -0.828844 -0.130847 -0.78723 -0.011028 -0.615573
0.204091 -0.501744 -0.023103 0.978478 0.178118 -0.0912
0.053307 -0.680965 -0.025201 -0.951135 -0.076868 -0.279925
-0.288125 0.262603 -0.01994 0.737554 -0.554103 0.383343
-0.079237 0.403476 0.085898 -0.649478 0.01786 0.759542
0.299735 0.472238 -0.059628 0.831019 0.529887 0.161633
0.000173 0.475595 0.083522 -0.006109 0.434793 0.899874
-0.015949 -0.298561 0.092092 0.405104 -0.17383 0.897226
0.063137 0.830554 0.054656 0.504717 0.609614 0.611008
0.199255 -0.458254 -0.002434 0.993346 -0.02228 0.106129
-0.238011 0.454612 -0.021114 -0.847928 0.524065 0.069921
0.023756 0.562822 0.02669 -0.015908 0.10788 0.993543
-0.089562 -0.01443 -0.113398 -0.642202 -0.115646 -0.757432
-0.102323 -0.539463 0.050107 -0.842052 -0.06152 0.535799
-0.137054 -0.06787 0.054283 -0.977577 0.014888 0.209706
0.014248 -0.754974 -0.027689 0.7246 -0.384421 0.570871
0.113008 -0.754425 -0.09632 -0.436281 -0.007431 -0.894155
0.10334 -0.618099 0.033679 -0.363794 0.144665 0.908359
0.297347 0.423424 -0.021154 0.507972 0.23659 0.827309
0.244971 0.521503 -0.019056 0.640692 0.612612 0.459246
-0.072891 0.155036 0.092799 -0.646458 0.001648 0.762736
0.33785 0.414298 -0.063093 0.765936 0.484135 0.422031
0.186412 -0.767125 -0.032284 0.943847 -0.078205 -0.281234
-0.001458 0.320816 -0.128886 0.12347 0.047708 -0.990927
0.199625 -0.443756 -0.031941 0.997356 0.010965 -0.066294
0.090718 -0.169137 -0.105093 -0.266881 -0.228759 -0.935126
0.174571 -0.791707 -0.080528 0.895897 0.063168 -0.434535
0.011827 0.846071 -0.076698 -0.282664 0.797305 -0.530299
0.122044 -0.294529 -0.096195 0.368161 -0.018702 -0.92637
0.100874 0.46093 -0.146004 -0.089177 0.077175 -0.992945
-0.060367 0.563447 0.010878 -0.120429 0.791229 0.59843
0.161461 -0.447208 0.069589 0.174216 -0.11602 0.970686
0.264838 0.48205 -0.011398 0.564749 0.365364 0.733244
-0.018131 0.693231 -0.032095 -0.898507 -0.336425 -0.231563
-0.049019 -0.814501 -0.147735 -0.177363 -0.087138 -0.976706
-0.05544 0.580064 -0.075484 -0.40722 0.794461 -0.442521
-0.099311 -0.285609 -0.062597 -0.745105 -0.004891 -0.66687
-0.049729 -0.003236 -0.133956 -0.29953 -0.089613 -0.949069
-0.109211 -0.115975 0.102006 -0.685244 0.042684 0.726704
-0.010185 0.637497 -0.036494 -0.898134 0.190017 -0.364231
0.206926 -0.068249 0.046869 0.930663 0.072916 0.358381
0.074603 0.732459 -0.092481 0.632445 -0.39963 -0.660089
0.032937 0.861153 0.039645 0.009632 0.895501 0.429162
-0.068777 0.31605 0.086559 -0.592749 0.018267 0.803382
0.020991 0.476823 0.082298 0.058218 0.411982 0.909038
0.19315 -0.095851 0.073168 0.746162 0.002897 0.665735
-0.268897 0.415002 -0.048027 -0.731524 0.676406 -0.078337
-0.026619 0.183204 -0.111129 -0.316026 -0.251455 -0.914476
0.455063 0.203507 -0.014245 -0.748425 -0.140078 0.614241
-0.093931 -0.470787 -0.084143 -0.555001 0.113419 -0.824007
0.041584 0.055441 0.134455 0.129311 0.074313 0.988322
-0.01097 0.251426 0.118565 -0.412914 0.060526 0.90708
0.099917 -0.621682 -0.088803 -0.549828 -0.073683 -0.830287
0.061378 -0.036095 -0.143958 -0.258308 -0.392324 -0.88279
0.153681 0.155074 -0.081672 0.737831 0.049539 -0.672886
-0.112105 -0.553692 0.031006 -0.882434 -0.105679 0.458206
0.190222 0.170556 -0.011288 0.962567 0.209458 -0.147897
0.164733 -0.142734 0.098342 0.478137 -0.124653 0.868563
0.018239 0.585883 0.024282 -0.318529 0.10577 0.937138
0.142861 -0.456452 -0.101676 0.334015 0.138053 -0.932288
-0.07003 -0.125852 0.120366 -0.25176 -0.003489 0.967515
-0.11526 -0.777022 -0.014273 -0.869037 -0.041652 0.490772
0.071921 0.693581 0.072903 0.672191 -0.041769 0.73457
0.190601 0.337811 -0.049318 0.959263 -0.223554 -0.161975
-0.438075 0.22727 -0.015618 -0.715923 0.69448 0.07088
-0.060336 -0.426201 0.083943 0.184373 -0.23963 0.953003
-0.034328 -0.126 0.125234 0.011221 -0.090735 0.995149
0.04675 -0.316882 0.036799 -0.890362 -0.059558 0.448488
0.160919 -0.536933 -0.096182 0.547473 -0.03264 -0.835378
0.146134 -0.210492 0.091768 0.076371 -0.22258 0.96887
-0.106902 -0.346233 0.096315 -0.589089 -0.096929 0.795155
0.153521 0.555425 -0.102056 0.247146 0.654843 -0.712483
-0.226576 0.32524 -0.0527 0.675305 -0.721201 -0.147287
-0.056436 0.122915 -0.107937 -0.459005 0.321454 -0.82803
-0.315986 0.342058 -0.072801 -0.580201 0.676196 -0.444867
-0.063203 -0.799862 0.05312 -0.175243 0.821198 0.530506
0.205007 0.000526 -0.024382 0.969388 0.095924 -0.214542
0.267325 0.38458 -0.138482 -0.385024 -0.256122 -0.884509
-0.135796 0.047216 0.02309 -0.993637 0.093489 0.061174
0.179214 -0.593691 0.026114 0.555434 -0.330273 0.762931
-0.115901 -0.492881 -0.068326 -0.748174 0.097749 -0.655672
-0.402888 0.231859 0.012262 -0.027539 0.218297 0.972616
0.103181 0.791101 -0.054439 0.947179 0.153802 -0.266405
0.063774 -0.601667 -0.059145 -0.6962 -0.025363 -0.717385
-0.136093 -0.149561 0.06095 -0.960632 0.010432 0.276191
-0.085123 -0.416304 -0.07434 -0.504166 0.185993 -0.837901
0.204891 0.410469 -0.026502 0.828261 -0.517008 0.13539
0.392542 0.247544 -0.117321 -0.593317 -0.542525 -0.591146
0.100443 0.720682 0.007598 0.977351 -0.004817 0.199099
-0.291288 0.37024 -0.069066 -0.854723 0.41723 -0.293211
0.020835 -0.65783 -0.006869 0.871304 -0.188496 0.452473
-0.080909 -0.029012 -0.117445 -0.58515 -0.181876 -0.790181
0.053795 0.771104 -0.116049 0.4075 -0.046669 -0.911087
-0.010131 -0.659795 -0.079757 0.633523 0.106626 -0.766088
0.120968 -0.418839 -0.102863 0.078209 0.051801 -0.989084
-0.017115 0.153846 -0.108119 -0.341015 0.089084 -0.920227
-0.103217 0.112312 -0.072141 -0.808597 0.123659 -0.572392
-0.120195 -0.190252 -0.037762 -0.850454 -0.101697 -0.515844
0.109248 -0.816479 0.074672 -0.18919 0.896222 0.394937
0.373634 0.249463 -0.078363 -0.72866 -0.678831 0.084382
-0.546431 0.062787 0.027877 0.591031 -0.781199 -0.198686
-0.058843 -0.757618 0.019406 0.247536 0.122648 0.939685
-0.051851 -0.142172 0.122945 -0.065909 -0.118265 0.990331
0.024068 -0.236598 -0.030064 0.422184 -0.084907 -0.886368
0.124831 -0.588478 -0.10245 -0.110382 -0.133024 -0.98348
0.02579 0.159362 -0.117682 -0.101903 -0.049248 -0.99285
0.356109 0.373391 -0.105892 0.739028 0.66818 -0.053997
0.196041 -0.4494 -0.052871 0.888154 0.102644 -0.432368
0.086978 0.700388 0.052326 0.891911 -0.253838 0.363311
-0.137483 -0.437912 0.007236 -0.9917 0.013523 0.125888
-0.115157 0.549007 -0.06912 -0.373189 0.767161 -0.51974
0.174937 0.33563 -0.081928 0.784681 -0.338802 -0.518172
0.029381 0.53527 0.04636 0.052105 0.794015 0.604861
-0.108954 -0.63554 0.033472 -0.837982 -0.056941 0.542433
0.064943 -0.300406 0.061305 -0.71163 -0.11168 0.693448
0.015094 -0.775188 -0.080912 0.906545 0.049572 -0.410958
0.124704 -0.842821 0.179914 -0.177981 0.42785 0.882407
0.212605 -0.091806 0.030334 0.970785 -0.006727 0.236643
0.086173 0.254377 0.112986 0.399254 0.065544 0.91447
0.059296 -0.755886 0.003555 -0.996734 -0.044976 0.016953
-0.135491 -0.017616 0.049456 -0.972403 0.072751 0.211495
-0.040419 0.331641 -0.127566 -0.205055 0.008783 -0.976846
-0.001778 0.124358 0.129435 -0.186172 0.014079 0.981135
-0.403319 0.263779 -0.011529 -0.689517 0.673461 0.264513
-0.003577 0.554769 -0.110179 0.021291 0.495508 -0.867627
-0.106843 0.18163 -0.050819 -0.847322 0.124383 -0.515719
0.150152 -0.570843 0.042736 0.008467 -0.119952 0.99242
-0.250755 0.395524 0.018521 -0.437254 0.141094 0.884021
0.148048 0.274902 -0.099531 0.837482 -0.100981 -0.537026
-0.100767 0.120183 0.070876 -0.704889 0.156184 0.6858
-0.415655 0.221333 0.014097 -0.148543 0.247613 0.953629
-0.012021 -0.393385 -0.063705 0.636652 0.103695 -0.763801
0.183053 -0.403939 0.061532 0.816009 -0.056223 0.575124
-0.097102 0.572632 -0.028414 -0.381884 0.904063 0.011649
-0.145606 0.551629 -0.033816 -0.434878 0.868552 -0.211291
0.145196 0.025008 -0.12754 0.767791 0.078772 -0.60124
0.196607 0.420383 -0.125112 0.385566 -0.496743 -0.776132
0.254359 0.46256 -0.128973 0.218239 0.396005 -0.89031
0.079789 -0.358367 0.057437 -0.50789 -0.328182 0.796294
0.07704 -0.68454 0.030811 -0.424005 0.282744 0.859809
0.119786 -0.416552 0.06355 -0.372063 -0.198646 0.904752
0.150849 0.57707 -0.041747 0.537276 0.797358 0.204207
0.057818 -0.228584 0.067186 -0.702448 -0.133977 0.698447
-0.012167 -0.062734 0.129221 0.113991 -0.112975 0.987017
-0.121189 -0.363661 0.071696 -0.957037 -0.018797 0.283593
-0.037521 0.772707 -0.007739 -0.986049 0.07837 0.143107
-0.002355 -0.414813 0.060996 0.76436 -0.203144 0.611746
0.051879 0.802176 -0.114311 0.276503 0.285333 -0.915255
0.120932 -0.579261 -0.103343 -0.195879 -0.148731 -0.967093
0.153241 -0.171053 -0.093471 0.622771 -0.036444 -0.781458
-0.074653 -0.268693 -0.086142 -0.577143 -0.035893 -0.814207
0.11122 -0.742981 -0.096253 -0.404313 -0.062517 -0.907761
-0.261296 0.373958 -0.095965 -0.233768 0.188399 -0.951412
-0.025899 -0.108007 0.126571 0.109499 -0.116884 0.986393
0.031562 -0.089787 0.107612 0.25131 -0.411289 0.8733
-0.284842 0.335129 -0.095386 -0.175317 0.16605 -0.966634
-0.116587 0.363853 -0.085224 -0.8064 -0.192536 -0.555455
-0.09333 0.195916 0.076013 -0.672915 -0.003888 0.739479
0.411458 0.218676 -0.098161 -0.590713 -0.80335 -0.066807
-0.136676 -0.432675 -0.01631 -0.970716 0.117456 -0.205646
-0.273735 0.308976 -0.092698 0.398039 -0.267693 -0.87235
0.199055 -0.015569 -0.047381 0.954548 0.042524 -0.29363
0.197228 -0.237811 0.052369 0.923374 0.04103 0.379519
0.044001 -0.451802 -0.035168 -0.990537 -0.003881 -0.111804
-0.113966 -0.561954 0.024343 -0.886584 -0.117521 0.447229
-0.015318 0.295922 -0.131334 0.020356 0.034311 -0.999053
0.171775 0.21637 0.050107 0.761823 0.058346 0.644953
0.156749 0.007125 0.107675 0.520913 -0.032808 0.8483
0.203217 -0.321807 0.026059 0.959086 -0.047339 0.277774
-0.086957 0.399943 -0.115716 -0.386605 -0.183308 -0.90346
0.543851 0.135844 0.037962 -0.719268 -0.106465 0.637183
-0.125875 -0.308228 0.051491 -0.982733 -0.116061 0.140375
0.148404 0.00511 -0.126814 0.677191 0.120987 -0.725704
0.162749 -0.826029 -0.081091 0.829512 -0.53495 -0.095426
-0.012477 0.738956 -0.093644 -0.727448 -0.328311 -0.600214
0.182993 0.193847 -0.019914 0.975685 0.122903 -0.164777
-0.012568 0.67227 0.004888 -0.899617 -0.424288 0.049259
-0.050085 -0.296802 -0.091408 -0.035195 -0.088176 -0.99279
-0.07137 -0.672773 0.028221 0.289587 -0.329043 0.898701
0.198638 -0.498694 0.006348 0.962712 0.046804 0.264902
0.084904 0.649101 -0.017095 0.990873 -0.046884 0.060758
0.205227 -0.258616 0.017758 0.998701 0.016653 0.044483
-0.411568 0.243215 -0.063436 -0.643173 0.113023 -0.755197
-0.109329 -0.854396 0.018437 -0.722344 -0.687753 -0.071147
-0.013953 -0.548986 0.034045 0.505173 -0.191723 0.841432
0.155314 -0.398788 0.074531 -0.003572 -0.068594 0.996516
-0.113841 -0.440464 -0.059221 -0.725615 0.249435 -0.640408
-0.095199 0.127532 0.0749 -0.670396 0.049497 0.74013
0.006814 -0.127064 -0.06636 0.778751 -0.198655 -0.593576
0.032927 0.468093 -0.126942 -0.135216 0.065683 -0.988498
-0.105314 0.497752 -0.110373 -0.404849 0.28683 -0.86573
-0.554246 0.060339 0.085981 0.191314 -0.489365 0.762522
0.039256 0.04546 -0.154508 -0.16153 0.290475 -0.942169
0.051522 -0.655565 -0.003194 -0.990359 -0.000939 0.120252
0.17291 0.189786 0.05155 0.799141 0.079952 0.595311
0.059898 -0.083124 0.105296 0.134743 -0.705171 0.695184
-0.371134 0.277411 0.002874 -0.262057 0.384699 0.883951
-0.250361 0.38873 -0.094348 -0.118553 0.155149 -0.979208
0.080814 -0.421319 -0.084492 -0.698178 -0.006825 -0.715891
0.031467 0.24383 -0.125534 -0.045511 0.007761 -0.998582
0.142422 0.581764 -0.062537 0.255351 0.95446 -0.091948
0.067536 0.547743 0.029264 -0.107701 0.679032 0.711563
-0.025287 -0.856206 -0.113501 0.793303 -0.483777 -0.198657
-0.041714 -0.864034 0.063119 0.05064 -0.998572 -0.002296
0.16731 0.405876 -0.126938 0.282292 -0.399096 -0.869938
0.624143 0.048852 0.026374 -0.803425 -0.530671 -0.245944
0.159471 0.38007 -0.119397 0.478695 -0.305494 -0.822055
0.014223 0.52667 -0.120529 -0.007869 0.217974 -0.974871
-0.140748 0.4597 0.060301 -0.20148 -0.111504 0.972534
-0.178023 0.520236 -0.052917 -0.629152 0.619118 -0.46873
0.092742 -0.713163 -0.081802 -0.747963 0.015415 -0.661732
0.139067 0.127086 0.091659 0.666568 0.02203 0.745087
0.060494 -0.793647 -0.013546 -0.962688 -0.231429 0.004449
-0.035347 -0.515002 -0.096589 0.333193 0.050823 -0.938711
0.340063 0.41859 -0.075382 0.777015 0.569497 0.250784
0.207596 0.429884 -0.12761 0.030218 -0.425754 -0.894297
0.008438 -0.235446 -0.060549 0.768614 -0.07742 -0.634594
0.134174 -0.809743 0.059782 0.386711 0.726271 0.562489
0.066271 -0.272402 -0.077542 -0.779259 0.014118 -0.626468
0.206569 0.031864 0.023344 0.997983 0.041647 0.046085
0.093807 -0.437779 0.03568 -0.636407 -0.366309 0.678604
-0.084081 -0.862879 0.000333 -0.063509 -0.997158 -0.035316
0.213605 0.50268 -0.125399 0.240963 0.390089 -0.887876
0.054195 0.387312 -0.136174 -0.304242 0.007856 -0.952255
0.03356 0.514888 0.059719 0.091477 0.502284 0.859369
0.029483 -0.135615 0.078529 0.821399 -0.33404 0.461287
0.010305 -0.255438 0.086415 0.780896 -0.103152 0.61277
0.079719 0.787796 -0.099184 0.687536 0.079661 -0.721334
0.346543 0.319597 -0.133341 -0.108137 -0.241163 -0.962793
0.131234 0.585648 -0.050901 0.552474 0.810211 0.163113
0.165293 0.180138 -0.065357 0.823202 0.055517 -0.561337
-0.012649 0.473233 0.084321 -0.061815 0.454527 0.886606
-0.081148 0.568367 -0.001386 -0.16336 0.854743 0.489534
-4.4e-05 0.31789 0.115121 -0.225263 0.163535 0.958903
0.137807 -0.604553 -0.099488 0.191907 -0.153963 -0.965926
0.120606 -0.664149 0.032387 0.099772 -0.141846 0.984436
0.091188 -0.071402 0.117274 -0.077537 -0.580531 0.808897
-0.437562 0.177347 -0.053379 -0.151061 0.055582 -0.950098
0.075044 0.79359 0.065316 0.794512 0.219466 0.564627
-0.113679 0.09726 -0.05786 -0.872902 0.179154 -0.453276
0.021173 -0.542793 -0.004104 0.937628 -0.095831 0.330691
0.074587 -0.822788 -0.044996 -0.436799 -0.890412 -0.063564
0.091168 0.80711 -0.078417 0.87499 0.238993 -0.417001
0.051939 0.782846 0.084191 0.297949 -0.000752 0.937088
-0.094902 0.315094 -0.095083 -0.680282 -0.110524 -0.724333
-0.039217 -0.064371 -0.119963 -0.056712 -0.321851 -0.944699
0.118113 0.589862 -0.049063 0.322636 0.941308 0.082639
0.192365 0.110178 -0.029469 0.921045 0.1188 -0.362237
0.17771 -0.178467 -0.072485 0.647589 -0.005829 -0.760492
-0.014835 0.681438 -0.024184 -0.814798 -0.48208 -0.315938
0.08575 0.675001 -0.008028 0.915345 -0.395687 0.018687
-0.491357 0.101543 0.064265 0.904426 -0.27372 0.277575
-0.12842 -0.29338 -0.003518 -0.996922 -0.016818 -0.069349
-0.256647 0.306575 -0.078077 0.655274 -0.437996 -0.615395
0.165297 -0.501067 -0.094867 0.605283 -0.010402 -0.793785
-0.121508 0.203253 0.026931 -0.94004 0.193802 0.277511
-0.427581 0.160943 0.008213 0.510968 -0.856055 0.058489
-0.464611 0.185316 -0.029323 -0.679322 0.514651 -0.504162
0.049354 0.732617 0.091158 0.855596 0.144142 0.492137
0.097733 -0.098572 -0.125151 -0.127089 -0.371718 -0.918073
0.375799 0.247751 -0.088306 -0.705165 -0.691532 -0.135856
0.443205 0.198854 -0.063796 -0.519583 -0.847453 0.054828
0.204952 -0.557535 -0.019631 0.988899 -0.071199 0.082674
0.010531 -0.527283 0.01788 0.703992 -0.170323 0.689182
0.180013 0.195682 0.039814 0.925597 0.051149 0.36922
0.170724 0.083746 0.07785 0.714835 0.213081 0.665971
0.023866 -0.104628 -0.071968 -0.492291 -0.606715 -0.561117
-0.013887 -0.47975 0.052879 0.589015 -0.257232 0.76535
-0.129273 0.012411 -0.048286 -0.937241 0.04456 -0.344884
-0.206946 0.451561 0.036085 -0.554694 0.270568 0.786184
0.046125 -0.452307 -0.012962 -0.902983 -0.075739 0.405577
-0.040042 -0.273102 -0.092588 0.176028 -0.051986 -0.981746
-0.024595 -0.836866 0.053998 0.956867 0.281628 0.05477
0.575677 0.068956 0.019574 -0.860026 -0.506353 0.05851
-0.036199 -0.237529 0.111411 0.122732 -0.191924 0.973621
0.149314 0.577072 -0.068128 0.526156 0.787485 -0.308013
0.151333 -0.044672 -0.123574 0.685834 -0.201926 -0.698293
-0.139883 -0.159491 0.04168 -0.95093 -0.14427 0.268033
-0.041321 -0.498859 0.059347 0.335145 -0.255904 0.905639
0.076555 -0.801605 0.025643 -0.880569 -0.169385 0.441714
0.15444 0.561795 -0.094287 0.369604 0.704616 -0.605141
0.587234 0.093634 -0.001597 0.527182 0.185 -0.826451
0.323551 0.360792 -0.038289 0.47338 0.055887 0.874154
0.076359 0.006277 0.137849 0.250692 0.051496 0.961261
-0.126212 0.447481 0.061382 -0.06934 -0.017847 0.994713
-0.407387 0.265002 -0.042214 -0.788872 0.609069 -0.058378
0.10273 -0.091129 0.109446 -0.498674 -0.194692 0.842698
0.083232 -0.031074 -0.150238 -0.039829 -0.351599 -0.934355
0.186302 0.441183 -0.134757 0.157859 -0.143008 -0.97595
-0.266994 0.38641 0.011531 -0.534844 0.287741 0.791107
-0.189922 0.450922 -0.087072 -0.277771 0.351934 -0.893765
0.026509 -0.368497 0.010496 0.995206 -0.048662 0.06921
-0.110346 0.121549 -0.058667 -0.850355 0.070229 -0.518524
0.167793 0.567033 -0.074899 0.351093 0.86857 -0.337436
-0.127863 -0.339399 0.022069 -0.99773 -0.004499 0.063366
0.213041 -0.032981 0.004686 0.99252 -0.000736 -0.107083
-0.045702 0.202803 0.106162 -0.483429 0.01937 0.874736
0.206734 -0.187094 0.017214 0.993931 -0.013084 0.104696
0.596196 0.070867 -0.000477 0.913261 -0.115104 -0.364047
0.121698 -0.013377 -0.146718 0.414071 0.009482 -0.907548
0.009219 0.32557 0.115764 -0.240303 0.24534 0.937456
0.022117 -0.520897 0.001362 0.868362 -0.171903 0.463673
-0.14282 -0.080815 0.03226 -0.984572 0.017665 0.169745
-0.02612 -0.85117 0.083951 0.9843 -0.04298 0.166114
0.199631 -0.359937 -0.034719 0.894672 0.166967 -0.412743
-0.104096 -0.207567 -0.061246 -0.82763 -0.050123 -0.558783
-0.059054 -0.198172 -0.093065 -0.287274 -0.107509 -0.951679
-0.003469 -0.161391 0.110783 0.594999 -0.119552 0.793224
-0.031368 0.745997 0.013282 -0.942777 -0.173365 0.281877
0.05761 0.31627 -0.135641 -0.38005 -0.031488 -0.924377
-0.200104 0.382787 0.021093 0.161637 -0.496691 0.851802
-0.143753 -0.151347 0.010504 -0.996763 -0.05242 -0.050415
0.072131 0.124426 0.127688 0.274958 0.039644 0.956847
-0.434746 0.231416 -0.02475 -0.738302 0.674065 -4e-05
0.127917 0.304694 0.090794 0.607778 0.074507 0.790148
0.128499 -0.192219 0.096831 0.083933 -0.152054 0.984722
0.23124 0.431383 -0.134003 -0.250903 -0.099781 -0.961886
0.172245 -0.809819 -0.01124 0.937239 -0.263228 0.176056
-0.083217 -0.739411 0.01375 -0.50209 0.588883 0.630568
0.531288 0.137411 -0.007154 -0.752228 -0.65858 -0.018173
0.017482 0.681558 0.086653 -0.437993 0.146335 0.878858
-0.552719 0.055999 0.077469 0.836471 -0.501678 0.188528
0.097863 -0.848545 0.151625 -0.883066 0.28386 0.368931
-0.095088 0.214985 -0.063825 -0.784618 -0.185255 -0.581735
-0.06948 -0.577178 0.052592 0.406918 -0.229036 0.883777
0.020611 0.01641 0.142142 0.009961 0.120467 0.992327
0.165962 0.078307 0.084669 0.682749 0.262117 0.676805
-0.095367 0.542102 0.032653 -0.020845 0.712329 0.7009
0.018275 0.419108 0.098363 0.133386 0.182971 0.97341
-0.405637 0.224352 -0.065407 -0.419287 -0.145146 -0.895582
-0.144193 -0.081493 0.011774 -0.999838 0.009944 0.005869
0.001195 0.305062 -0.129318 0.143236 0.053158 -0.988173
0.152535 -0.609453 0.034113 0.339335 -0.384539 0.853574
0.503241 0.164873 0.008468 -0.601053 -0.776953 0.184006
-0.232986 0.338483 -0.082323 0.449928 -0.595163 -0.663427
0.100134 -0.081621 0.112131 -0.244794 -0.442764 0.850925
-0.218978 0.486651 -0.021107 -0.752334 0.653833 -0.035214
-0.127473 0.081223 -0.027507 -0.983208 0.073553 -0.156712
0.380847 0.242619 -0.070901 -0.727909 -0.67032 0.142588
0.119033 0.239313 -0.125366 0.606508 -0.281798 -0.739988
0.14878 -0.229904 0.087679 0.113111 -0.230592 0.966199
-0.247729 0.313666 -0.073175 0.672017 -0.502794 -0.54225
0.188027 0.076991 0.056862 0.855027 0.19705 0.478941
0.2062 -0.024958 -0.025566 0.972042 0.023135 -0.231221
0.15375 -0.866208 0.081865 0.407584 -0.909546 0.001059
0.181814 0.239085 0.022795 0.989926 -0.013276 0.139153
0.028703 0.868301 -0.02417 -0.250642 0.948864 -0.174697
-0.543454 0.094306 0.052015 -0.718427 0.694268 -0.023752
0.495366 0.170235 -0.039586 -0.454162 -0.853373 -0.217615
0.048244 -0.236707 -0.055314 -0.814407 -0.146123 -0.561135
0.440289 0.251429 -0.027118 -0.06752 0.460965 0.879519
-0.143944 -0.078593 0.021703 -0.998016 0.006981 0.058911
-0.076284 -0.184911 -0.08788 -0.52054 -0.097952 -0.845042
0.186975 0.103394 0.050731 0.877915 0.144912 0.448846
0.067915 -0.772318 -0.042391 -0.894017 0.164011 -0.414789
0.141395 -0.274048 0.082918 0.057953 -0.058227 0.996462
-0.014445 0.538095 0.050778 -0.061048 0.608751 0.789564
-0.135239 -0.220512 0.054072 -0.988233 -0.052523 0.14111
-0.030379 -0.194298 -0.089923 0.351064 -0.041358 -0.934539
0.035905 0.814606 -0.111504 0.06193 0.541937 -0.832514
-0.010189 -0.487684 0.047618 0.600301 -0.248558 0.759018
0.206927 -0.103332 0.045828 0.93456 -0.026734 0.354706
-0.137656 -0.479342 0.000252 -0.963658 -0.047791 0.259105
0.25449 0.407374 -0.13806 -0.26823 -0.158066 -0.948862
-0.231065 0.327332 -0.009357 0.600692 -0.662895 0.443969
-0.258166 0.430263 -0.039714 -0.742596 0.664472 -0.072253
-0.051203 0.395186 0.09913 -0.317433 0.130869 0.937839
0.131916 -0.42759 0.066269 -0.350811 -0.083786 0.931167
0.079688 -0.739075 0.031026 -0.034636 -0.548513 0.835267
-0.041286 0.005847 -0.136826 -0.18609 -0.124006 -0.973282
-0.028436 -0.326955 -0.082617 0.53 -0.092768 -0.840845
-0.461362 0.138642 -0.010758 0.361243 -0.850341 -0.380699
-0.002772 -0.52018 -0.070606 0.792799 0.061386 -0.606235
-0.109214 -0.136525 -0.065661 -0.764687 -0.117015 -0.633254
-0.108022 0.158555 -0.053144 -0.839609 0.136222 -0.525598
0.171065 0.348577 -0.09501 0.710629 -0.347768 -0.610739
0.173638 -0.316618 -0.057773 0.728537 -0.016063 -0.684575
-0.001789 -0.70672 -0.086435 0.531376 0.275107 -0.800726
-0.001984 0.198404 0.128432 -0.16954 0.069822 0.978631
-0.128636 0.12158 -0.015121 -0.98209 0.030212 -0.181981
-0.135695 -0.040053 0.056618 -0.95779 0.082287 0.261709
0.141056 0.561142 -0.101262 0.297929 0.679368 -0.670346
0.180982 0.208287 0.034465 0.972524 0.059604 0.219198
0.127961 -0.119695 0.112126 0.148286 -0.063295 0.985909
-0.109462 0.401751 -0.10527 -0.578615 -0.258456 -0.773472
-0.209713 0.472207 0.025887 -0.679824 0.280748 0.6757
0.252714 0.44267 -0.136411 -0.049709 0.226239 -0.968926
0.166728 -0.822426 -0.060276 0.76886 -0.638793 -0.027259
-0.328339 0.322464 -0.003769 -0.462533 0.420485 0.77542
-0.354739 0.314352 -0.067555 -0.681167 0.67393 -0.276168
0.112035 0.454866 0.078686 0.268658 0.383373 0.881138
0.265207 0.434376 -0.00972 0.041332 -0.046164 0.996239
-0.128234 0.098237 -0.016209 -0.992031 0.005991 -0.118154
-0.129187 0.405053 -0.070868 -0.881419 -0.376027 -0.24551
-0.037412 0.778912 -0.046432 -0.989907 0.078346 -0.116556
0.017017 0.514493 -0.122581 0.003215 0.114303 -0.992762
0.023278 0.143121 -0.11896 -0.123668 0.430806 -0.893386
0.011562 -0.457066 0.031445 0.801295 -0.060591 0.595057
-0.031031 0.081968 0.121785 -0.242572 0.084395 0.960054
