-0.058474 -0.11245 0.122724 -0.214846 -0.028987 0.975822
-0.035129 0.801236 -0.064915 -0.987596 -0.004116 -0.147566
0.100327 -0.832884 0.133493 -0.722759 0.668273 0.131009
0.073688 -0.140217 0.085941 -0.595639 0.032011 0.802553
0.341382 0.281955 -0.090991 -0.626258 -0.76076 -0.129543
0.182947 -0.782087 -0.051952 0.988511 0.003759 -0.104747
0.008883 -0.379764 0.057443 0.832313 -0.113344 0.541248
-0.295359 0.26938 -0.003013 0.724107 -0.249526 0.629699
0.009059 0.660783 0.061547 -0.368392 -0.919016 0.12716
0.112976 0.444794 0.081395 0.19801 0.206355 0.957549
0.037003 0.626507 0.030556 0.032192 -0.450037 0.886621
0.098754 -0.088479 -0.128628 -0.060624 -0.348267 -0.933326
0.043921 -0.426032 -0.016347 -0.987461 -0.031803 0.148042
-0.402425 0.271279 -0.033155 -0.747413 0.657757 0.085757
-0.009149 -0.123412 0.12096 0.357746 -0.112131 0.925063
-0.363138 0.292508 -0.081149 -0.477253 0.409655 -0.775933
-0.030975 0.031058 -0.144737 -0.148432 0.076653 -0.985114
-0.089507 -0.828816 0.091637 -0.553859 0.823882 0.114079
0.137778 0.031733 -0.133079 0.651211 0.110494 -0.75019
0.199007 -0.436321 0.008302 0.986373 -0.089127 0.137288
0.139067 0.127086 0.091659 0.666568 0.02203 0.745087
-0.011174 0.658727 -0.028251 -0.975772 -0.028039 -0.189541
0.110957 -0.526511 0.039582 -0.520071 -0.017752 0.852238
0.003977 -0.803523 -0.106894 0.936173 -0.097888 -0.333811
-0.411777 0.172681 -0.014827 0.611915 -0.788194 -0.034506
0.062937 0.350036 0.109016 0.303487 0.254521 0.917891
0.013318 -0.764041 -0.081515 0.838242 0.113425 -0.531397
-0.04503 0.238265 -0.122198 -0.541378 -0.15333 -0.826074
0.140057 0.308839 0.079166 0.732184 0.051739 0.679116
0.181174 0.250225 0.026909 0.974951 0.014994 0.211808
0.004403 -0.53039 -0.061892 0.807695 0.044879 -0.587842
0.190961 -0.489834 0.030524 0.959686 0.017557 0.280316
0.327479 0.432285 -0.065258 0.796839 0.471942 0.369665
0.028707 -0.308457 0.00893 0.998625 -0.047452 0.016142
0.180624 -0.582128 -0.077113 0.751672 -0.049348 -0.656729
0.277891 0.494059 -0.041098 0.73411 0.591054 0.330227
-0.092662 0.077968 -0.094901 -0.750719 0.221844 -0.620881
-0.435549 0.204261 0.014328 -0.275894 0.357578 0.890804
-0.142382 0.417653 0.038565 -0.411379 -0.799844 0.413292
0.14241 -0.20166 0.094132 0.02968 -0.151152 0.982693
0.108768 0.406236 0.089817 0.203315 0.127159 0.970726
-0.054675 0.48311 0.073401 -0.178491 0.413453 0.892735
-0.0252 -0.384773 -0.073894 0.548377 -0.025593 -0.830854
0.177048 0.146057 -0.045485 0.888638 0.017607 -0.456603
-0.101594 0.564277 0.0019 -0.105493 0.905201 0.39934
0.614869 0.056432 0.078699 -0.780643 -0.615541 0.064349
0.093308 -0.855562 0.146383 -0.888905 0.228136 0.391043
-0.228147 0.435404 -0.076954 -0.470628 0.502585 -0.725185
-0.025529 -0.669969 -0.093473 0.533422 0.174754 -0.826602
-0.121508 0.203253 0.026931 -0.94004 0.193802 0.277511
0.083625 -0.40645 0.042654 -0.665513 -0.319839 0.673475
0.110671 -0.573546 -0.100753 -0.445071 -0.158523 -0.880971
-0.10444 0.449189 -0.118625 -0.375653 -0.03747 -0.923613
-0.046998 0.197528 -0.106501 -0.51555 -0.303356 -0.800404
0.102699 0.421233 -0.146077 -0.033516 -0.016431 -0.99901
0.18776 0.311165 -0.002132 0.97127 -0.157104 0.171723
-0.134351 -0.093201 -0.036617 -0.897094 -0.055999 -0.429623
0.075261 -0.357382 -0.083295 -0.660805 -0.071997 -0.745255
-0.138299 -0.495525 -0.015069 -0.983516 -0.174613 0.014994
0.553862 0.129343 0.046135 -0.569592 -0.024543 0.809701
0.110724 -0.133294 -0.117342 0.023704 -0.284855 -0.955896
0.454491 0.282632 -0.076098 0.732749 0.678582 0.001589
0.046224 -0.598881 -0.033534 -0.985628 -0.035188 -0.114923
0.126273 -0.77181 -0.105229 -0.042749 0.382815 -0.916925
0.019331 -0.238004 -0.043394 0.91306 -0.049646 -0.400428
-0.10296 -0.826479 -0.069468 -0.963569 -0.185525 -0.14011
-0.123332 -0.603033 0.001209 -0.921819 0.083871 0.37804
-0.104633 -0.359238 -0.061214 -0.736335 0.07611 -0.672084
0.522263 0.147529 0.001646 -0.727121 -0.684897 0.043467
-0.126666 -0.703331 -0.063496 -0.964779 -0.074123 -0.243364
0.156314 -0.831252 0.097896 0.631766 0.763626 0.126167
-0.213121 0.406335 -0.095037 -0.143317 0.165345 -0.975466
0.177505 -0.05187 -0.089192 0.814267 -0.108065 -0.569972
0.096987 0.75706 -0.072798 0.941508 -0.106538 -0.301899
-0.018923 0.6825 0.013427 -0.938199 -0.323944 0.025813
-0.120749 -0.533795 -0.069553 -0.789591 0.109417 -0.603743
0.091134 0.741311 0.044487 0.964979 -0.032197 0.255171
0.014683 0.80722 -0.113195 -0.183426 0.335973 -0.917177
-0.335172 0.224147 -0.01032 0.491344 -0.851509 0.170517
-0.384976 0.288005 -0.062145 -0.69587 0.682325 -0.221958
-0.092431 -0.610307 0.052405 -0.125964 -0.233167 0.954333
0.104643 -0.868131 0.129265 -0.137054 -0.976731 0.138806
-0.005374 -0.709017 0.012348 0.771478 -0.259598 0.577329
-0.026246 0.016182 -0.142031 -0.181714 -0.384751 -0.90178
-0.012411 0.688922 0.05272 -0.801479 -0.302884 0.510329
-0.570687 0.039094 0.058861 -0.978971 0.195955 0.051404
0.209676 -0.078751 -0.020172 0.935158 0.099768 -0.338341
-0.136947 -0.103231 -0.028383 -0.937735 -0.054575 -0.342829
0.148294 -0.027179 0.109322 0.562472 0.018213 0.822952
0.128494 0.316169 -0.127288 0.581346 -0.080983 -0.808849
0.117173 -0.227905 0.090765 0.037746 -0.169037 0.984875
0.520525 0.167177 0.020706 -0.296205 0.214673 0.916179
-0.124317 0.196408 -0.012087 -0.891475 0.202403 -0.403877
-0.025077 -0.794083 0.038862 0.688137 0.503369 0.516122
0.086498 -0.318724 0.071963 -0.375727 -0.1253 0.918124
-0.098534 -0.561501 -0.09314 -0.513216 0.056473 -0.856297
0.278617 0.486006 -0.029151 0.672295 0.586696 0.44857
0.036054 -0.342819 -0.014491 -0.99397 -0.086644 0.009142
-0.255489 0.414471 0.005812 -0.663762 0.51421 0.542059
-0.097363 -0.792941 -0.109907 -0.797989 0.040954 -0.597553
0.182723 0.194301 0.029426 0.979804 0.098141 0.166123
0.1414 0.102552 -0.108701 0.672582 0.297916 -0.677125
-0.005111 -0.39337 0.070708 0.684109 -0.19265 0.701503
-0.106393 0.260141 -0.072255 -0.897115 -0.116651 -0.422942
0.458043 0.241724 -0.093828 0.60329 -0.254047 -0.752066
-0.072498 0.360675 -0.116284 -0.42691 -0.106374 -0.897421
-0.044699 -0.379431 0.090223 0.177215 -0.157684 0.971038
0.006695 -0.571781 0.011966 0.657999 -0.089764 0.745783
0.067015 -0.093518 0.089131 -0.101313 -0.732691 0.640563
0.077302 0.68181 0.062111 0.846608 -0.397755 0.349352
-0.562238 0.037852 0.008006 0.903763 -0.419808 -0.019179
0.164879 -0.862549 0.1283 0.314922 -0.942808 0.060554
0.088627 0.616763 -0.048328 0.729393 0.598187 -0.319888
0.113225 0.532674 -0.128005 0.068971 0.328365 -0.938725
0.459119 0.276367 -0.063801 0.709127 0.685619 0.150021
0.031705 -0.21975 0.027716 0.916205 -0.079899 0.385387
-0.097803 -0.801458 0.010279 -0.854465 -0.132458 0.464736
0.130011 0.044345 0.113382 0.075182 0.275057 0.95092
-0.129821 -0.604912 -0.047131 -0.998818 -0.043611 -0.016881
-0.096808 -0.822827 0.032215 -0.859151 0.468024 0.187304
0.441276 0.222791 -0.026566 -0.859821 -0.2426 0.434024
-0.117398 0.19168 0.041181 -0.88745 0.030609 0.4583
-0.213658 0.361385 -0.089529 0.345168 -0.493161 -0.795162
0.209257 0.46232 0.021863 0.509826 0.027054 0.856774
-0.122382 0.106553 0.04118 -0.934194 0.094971 0.342803
-0.042482 0.019409 0.130091 -0.301998 0.178802 0.936114
0.14488 -0.005467 0.110899 0.495538 -0.198073 0.843032
0.045447 0.85936 0.038891 0.300834 0.78544 0.540055
-0.126667 -0.532589 0.008771 -0.892089 -0.126361 0.430179
0.198654 -0.166559 0.053486 0.959569 -0.086051 0.266567
-0.004368 0.087301 -0.136374 -0.133133 0.207579 -0.969061
0.008699 -0.328655 -0.046741 0.755242 -0.044029 -0.653914
0.068519 0.216702 0.12432 0.342404 0.09699 0.934502
0.234286 0.381392 -0.105776 -0.715573 -0.660682 -0.211677
-0.012928 -0.257063 0.100492 0.444643 -0.210731 0.870501
0.151368 0.578958 -0.053284 0.585379 0.795535 0.031991
-0.027474 0.279697 -0.130511 -0.129709 -0.037016 -0.990167
-0.085997 -0.14791 0.115175 -0.295324 0.013711 0.95523
0.090952 0.78313 -0.085605 0.863867 0.047598 -0.501116
-0.124362 -0.593272 -0.002927 -0.943694 0.023131 0.329561
0.417858 0.216627 -0.058025 -0.546444 -0.800906 0.230881
-0.043961 0.315867 0.099386 -0.398262 0.020363 0.913601
0.138477 0.373309 -0.131504 0.594772 -0.165578 -0.786531
0.188669 0.165717 0.027851 0.92609 0.212073 0.30588
0.067597 -0.519789 -0.072422 -0.736738 -0.071994 -0.671583
-0.328202 0.326206 -0.081416 -0.422003 0.651542 -0.626612
-0.074328 -0.234912 0.112851 -0.103076 -0.086357 0.99045
-0.112379 -0.701236 0.00185 -0.849764 -0.391012 0.344305
-0.532059 0.106217 0.044093 -0.821632 0.54907 -0.130416
0.017956 -0.196741 -0.047215 0.881653 0.048905 -0.468626
0.450813 0.277365 -0.09876 0.719251 0.360274 -0.587505
-0.014807 -0.417318 -0.070674 0.667724 0.145968 -0.729731
0.435508 0.243427 -0.024236 -0.23033 0.270466 0.897959
-0.184006 0.427445 -0.094316 -0.048147 0.172299 -0.983377
-0.140009 -0.108433 0.046008 -0.945343 0.001551 0.325917
0.071944 0.816894 -0.09744 0.518221 0.507077 -0.681933
-0.072719 0.249491 0.08658 -0.578099 0.064908 0.811726
-0.120302 -0.78449 -0.04121 -0.995683 -0.070517 0.026627
0.166923 0.202421 -0.060801 0.872951 0.022356 -0.487062
-0.010077 0.653124 0.002605 -0.921393 -0.188397 0.305087
0.05136 -0.078619 0.111202 0.132065 -0.5923 0.792814
0.026855 0.381302 0.106211 0.056747 0.181229 0.981408
0.337843 0.361478 -0.136908 0.280504 0.056796 -0.945767
0.154106 -0.485241 0.064961 -0.089045 -0.163765 0.977515
0.016392 0.039257 0.138223 0.063376 0.110397 0.991735
-0.128669 0.396111 -0.014559 -0.936353 -0.311247 0.008005
-0.082458 0.431372 0.080216 -0.586402 0.128621 0.799272
0.021601 0.398444 -0.128123 -0.035037 0.001285 -0.999041
0.055237 0.745107 -0.110622 0.406493 -0.299854 -0.861179
0.175412 0.415372 0.048933 0.593998 0.00252 0.803283
-0.018868 -0.46403 -0.080884 0.664609 0.103327 -0.732802
-0.184148 0.497644 -0.066257 -0.603607 0.463558 -0.647815
0.185908 -0.534409 -0.073636 0.750518 -0.030293 -0.659917
-0.079651 0.355185 0.082874 -0.742199 -0.057441 0.666186
0.198832 -0.619475 -0.015472 0.997966 -0.038455 0.0486
0.08687 0.724228 -0.072076 0.740728 -0.443829 -0.497856
0.143166 -0.127895 -0.10892 0.498928 -0.273104 -0.822177
-0.117916 0.233851 -0.015882 -0.930971 0.357567 -0.028127
0.084483 -0.826193 -0.004146 -0.480199 -0.870062 0.049371
-0.129187 0.405053 -0.070868 -0.881419 -0.376027 -0.24551
0.01321 0.326761 -0.126966 0.102572 0.033593 -0.994138
0.081009 0.73903 -0.089561 0.662254 -0.388179 -0.640725
0.129939 -0.052821 0.11525 0.317169 -0.044783 0.946353
0.025467 -0.614768 -0.007091 0.946887 -0.013563 0.313612
0.045934 -0.459991 -0.045125 -0.929155 0.013771 -0.353255
0.148798 0.149442 -0.087888 0.720119 0.09758 -0.686538
-0.129294 -0.605741 -0.029289 -0.996723 -0.026564 0.074554
0.199393 -0.525842 0.00307 0.944396 -0.026382 0.326384
0.248968 0.481396 -0.000943 0.493925 0.091364 0.860484
-0.035265 -0.58833 0.03326 0.398014 -0.287831 0.870146
-0.156249 0.540004 0.018418 -0.460991 0.773996 0.431509
0.075761 -0.494751 0.015565 -0.644061 0.048689 0.763393
-0.042545 0.295032 -0.127504 -0.315573 -0.009702 -0.944475
0.162779 -0.588026 -0.091553 0.553846 -0.106512 -0.825101
0.067785 -0.747227 0.027496 0.026025 -0.540076 0.791382
0.107567 -0.825932 0.106362 -0.280568 0.946991 0.131807
-0.033656 0.532665 0.050259 -0.202551 0.535179 0.818599
0.176457 0.109645 0.063034 0.75125 0.168411 0.638118
0.01734 -0.738635 -0.023837 0.920063 -0.120725 0.367861
-0.044697 0.344086 0.102329 -0.158261 -0.107982 0.980707
0.184848 -0.561409 0.031425 0.715712 -0.139353 0.683484
-0.103582 -0.626992 -0.095084 -0.550349 0.075971 -0.829956
0.310384 0.434154 -0.038394 0.788629 0.251125 0.556752
0.068504 0.286226 -0.137861 -0.238292 -0.048605 -0.968953
0.013834 -0.651477 0.007362 0.767235 -0.143544 0.623796
-0.118617 -0.455861 0.053251 -0.832462 -0.236736 0.500653
0.05211 0.250443 -0.129476 -0.289056 -0.070131 -0.954136
-0.381982 0.196433 0.009002 0.581659 -0.538483 0.598017
0.003164 -0.417371 0.052669 0.783725 -0.227623 0.576883
0.14612 -0.741441 0.018591 0.307268 0.769038 0.559658
0.200398 -0.396616 0.018412 0.944764 -0.049628 0.323096
0.174651 -0.054203 0.089752 0.686771 0.022572 0.72652
0.104331 0.771608 -0.002998 0.984245 -0.04351 0.155444
0.056635 0.429381 -0.135583 -0.311155 0.031831 -0.9493
0.199549 -0.347318 -0.030118 0.87542 0.164547 -0.45401
0.097775 -0.49753 0.031726 -0.570204 -0.013903 0.821158
0.437031 0.263979 -0.117363 0.59755 -0.001949 -0.794563
-0.130602 -0.393539 0.028212 -0.954623 0.216226 0.196219
0.126043 0.201475 -0.104756 0.558481 -0.20588 -0.801815
0.177466 0.009507 -0.089005 0.82861 0.050889 -0.5567
0.156694 -0.500653 -0.099821 0.473612 -0.002825 -0.880303
0.040583 -0.349025 0.001788 -0.939226 -0.126025 0.306938
0.280959 0.372771 -0.137881 -0.215509 -0.508817 -0.828454
0.056677 0.865179 -0.026219 0.307478 0.934109 -0.156242
-0.025146 0.558939 -0.106054 -0.135755 0.498436 -0.855559
0.144985 -0.780454 -0.104201 0.394181 0.417584 -0.816876
-0.336114 0.245781 0.007008 0.191452 -0.129668 0.968183
0.602881 0.10508 0.023467 0.898925 0.409387 -0.102156
-0.008028 -0.15368 0.115058 0.530754 -0.13429 0.836433
0.184072 -0.025023 0.07946 0.7411 0.060762 0.668123
0.483978 0.179624 0.005501 -0.689339 -0.666678 0.260032
0.279737 0.461315 -0.119505 0.412902 0.605173 -0.6799
0.203944 -0.078624 -0.036462 0.93367 0.067392 -0.351058
0.070945 -0.013263 0.134495 0.139177 -0.333998 0.931791
0.24127 0.382258 -0.041198 -0.557338 -0.733069 0.389621
-0.012751 -0.297195 -0.074109 0.680869 -0.131121 -0.720464
0.377809 0.349362 -0.081804 0.667199 0.688791 0.268322
0.123558 -0.869162 0.03082 0.00032 -0.998543 -0.052054
-0.019456 -0.514704 -0.087472 0.638685 0.05413 -0.764898
0.174376 0.099604 0.068172 0.726645 0.24659 0.640999
-0.154484 0.386235 -0.006643 0.636002 -0.693045 0.335017
-0.237842 0.449773 -0.003604 -0.753434 0.587432 0.29429
0.148251 -0.58617 0.041733 -0.004964 -0.122932 0.992005
-0.135765 -0.439444 0.018166 -0.97853 -0.023122 0.197303
0.023355 -0.554046 -0.025443 0.90089 0.163549 -0.400135
-0.080329 0.381297 0.083939 -0.670969 -0.056089 0.739062
-0.09256 -0.259583 -0.071106 -0.729581 -0.054275 -0.681558
-0.172639 0.363714 -0.033828 0.672815 -0.737078 -0.029601
0.075754 -0.514493 0.016565 -0.653179 0.015932 0.756944
-0.032118 0.337522 0.104329 -0.208106 -0.00049 0.97439
0.128499 0.428917 -0.144781 0.144202 -0.088599 -0.98542
0.12849 -0.031721 0.117214 0.410682 -0.057293 0.909957
0.366219 0.284874 -0.125365 -0.323721 -0.383562 -0.864013
0.182285 -0.160503 -0.069073 0.667403 -0.06591 -0.741391
0.182357 0.464296 0.037428 0.492392 0.234232 0.837631
-0.111995 0.543079 -0.07829 -0.397059 0.663316 -0.633431
0.041953 0.490991 -0.126656 -0.210711 0.083022 -0.97384
-0.035114 0.11281 0.117435 -0.486476 0.1671 0.854997
-0.033206 0.777216 0.017045 -0.949644 0.070652 0.299765
0.368061 0.256714 -0.092534 -0.7797 -0.595331 -0.181676
-0.041229 -0.863779 0.038999 0.059397 -0.997482 -0.029528
-0.011352 0.434104 0.097538 -0.045435 0.188409 0.980554
0.438863 0.261688 -0.032952 0.06423 0.550119 0.830258
0.104579 0.359977 0.096493 0.28645 0.09015 0.95176
0.064904 -0.141395 0.079024 -0.64204 0.049847 0.764727
0.00064 -0.809706 -0.114691 0.873495 -0.170934 -0.437075
-0.014534 -0.130347 -0.089799 0.605021 -0.231683 -0.761525
-0.194558 0.417248 0.033582 0.231613 -0.366616 0.900001
-0.096763 0.364876 -0.103277 -0.50021 -0.22467 -0.835384
0.348007 0.390688 -0.1047 0.942326 -0.324692 0.047177
-0.475985 0.139307 -0.022372 0.235202 -0.891249 -0.386635
-0.015949 -0.298561 0.092092 0.405104 -0.17383 0.897226
-0.128552 0.086516 0.00945 -0.99925 0.000794 0.03281
0.087281 0.450873 -0.144603 -0.175674 0.0176 -0.983996
-0.028084 0.593921 -0.020066 -0.647224 0.651682 0.393415
0.177618 -0.422026 0.06514 0.598114 -0.077749 0.792881
-0.056942 -0.045585 -0.123597 -0.224139 -0.338065 -0.913366
0.081519 -0.812649 -0.084086 -0.89869 0.063784 -0.426012
-0.087042 -0.8633 0.093151 -0.021798 -0.999733 0.00086
-0.112701 -0.458155 -0.065658 -0.720963 0.151745 -0.676034
0.097531 -0.806394 -0.107425 -0.771927 0.112641 -0.623749
-0.076719 0.203659 -0.085554 -0.760818 -0.076364 -0.644282
0.198723 -0.290793 -0.028513 0.878404 -0.089055 -0.469362
0.167379 -0.844164 0.040553 0.839198 0.54199 -0.022975
0.080026 0.23541 -0.134966 -0.097198 -0.191129 -0.975693
-0.129639 0.517299 0.04957 -0.099497 0.474258 0.872944
-0.010467 0.811162 0.052549 -0.805197 0.336637 0.47929
-0.02267 -0.679889 -0.094292 0.571302 0.223758 -0.789098
-0.075035 -0.359308 0.100407 0.165671 -0.19731 0.966105
-0.018131 0.693231 -0.032095 -0.898507 -0.336425 -0.231563
-0.113315 -0.513139 0.034634 -0.852168 -0.117915 0.507889
-0.038207 0.591487 -0.060476 -0.435217 0.873933 -0.17235
0.109536 -0.104652 -0.123652 0.024966 -0.312455 -0.948183
0.575696 0.135319 0.001012 0.662454 0.422978 -0.557683
0.018103 -0.667557 -0.005571 0.870716 -0.225524 0.435729
-0.135188 -0.185674 0.06314 -0.965349 -0.048518 0.247572
-0.067444 -0.863468 0.125498 -0.003986 -0.999068 0.038397
0.023866 -0.104628 -0.071968 -0.492291 -0.606715 -0.561117
-0.3178 0.234974 -0.049485 0.607403 -0.773328 -0.165438
-0.216585 0.484433 0.001486 -0.784903 0.545804 0.291823
0.17572 0.367015 0.041821 0.81213 -0.140142 0.565734
0.440057 0.289518 -0.058028 0.406079 0.803944 0.415553
0.202121 0.040859 -0.026691 0.972156 0.083348 -0.218719
-0.006378 0.068111 -0.141307 -0.162293 0.229573 -0.959531
0.065165 -0.632484 0.003567 -0.211689 0.471715 0.851673
0.150197 0.130817 -0.089929 0.740252 0.171106 -0.646924
0.048382 0.394275 0.101926 0.12465 0.316092 0.939563
-0.015271 0.554758 -0.109599 -0.092716 0.499117 -0.861313
0.552227 0.100818 -0.0048 -0.879761 -0.465601 -0.005143
0.120408 0.041815 -0.142553 0.484265 0.20781 -0.849226
0.088226 -0.062693 0.120451 -0.034597 -0.313944 0.948199
0.044001 -0.451802 -0.035168 -0.990537 -0.003881 -0.111804
0.170607 -0.20921 -0.076212 0.616166 -0.091818 -0.781927
0.008974 -0.277406 -0.05265 0.756636 -0.122566 -0.641392
0.536205 0.159181 -0.030384 0.581929 -0.206856 -0.783295
0.042023 -0.311991 0.014755 -0.971093 -0.023565 0.237122
0.090486 -0.829546 0.062101 -0.97084 0.201011 0.116451
-0.092408 -0.139377 0.113813 -0.252514 0.015102 0.967345
-0.129226 -0.161846 0.077134 -0.873242 0.018912 0.48674
-0.136591 0.029838 -0.020327 -0.977355 0.113062 -0.17409
0.309514 0.333212 -0.046866 -0.383223 -0.532929 0.753017
0.199212 -0.612267 -0.038231 0.998285 -0.036114 -0.042465
-0.11441 -0.306292 -0.041825 -0.864637 0.055405 -0.498499
0.164468 0.123227 0.071714 0.602877 0.212497 0.768013
0.186464 0.492303 0.026865 0.321173 0.252301 0.91097
0.182826 0.321003 0.016626 0.909254 -0.099772 0.403301
0.169859 -0.848551 0.111012 0.781221 0.61306 0.095102
-0.138263 -0.157447 -0.010582 -0.937409 -0.12044 -0.325783
-0.081185 -0.826807 0.098573 -0.235821 0.961079 0.116881
0.092684 -0.392919 0.054397 -0.521749 -0.218568 0.824495
-0.063492 0.537712 0.039454 -0.172156 0.613798 0.769928
-0.107132 -0.840018 -0.006224 -0.961578 0.19156 -0.10791
0.097911 -0.542884 0.033047 -0.468776 0.009661 0.881984
0.199625 -0.443756 -0.031941 0.997356 0.010965 -0.066294
-0.152695 0.432436 0.044567 -0.506551 -0.492244 0.703801
-0.096994 -0.833249 -0.091322 -0.95388 -0.145145 -0.259203
-0.090816 -0.471046 0.079325 -0.238843 -0.155097 0.946168
-0.08961 0.296726 -0.097886 -0.543226 -0.063092 -0.816336
0.100443 0.720682 0.007598 0.977351 -0.004817 0.199099
-0.013176 0.612387 -0.010164 -0.884035 0.237851 0.396733
-0.101151 -0.072406 0.105621 -0.608846 0.041632 0.792154
0.558337 0.162107 0.029476 0.720857 0.688801 0.073255
0.05063 0.211156 -0.122223 -0.111384 -0.402728 -0.906053
-0.052836 0.130946 0.107073 -0.520995 -0.0304 0.852536
-0.073924 -0.815757 0.06348 -0.386588 0.749169 0.502037
0.000448 -0.301008 0.083764 0.488165 -0.216272 0.844219
-0.025008 0.515142 0.063126 -0.130693 0.516875 0.844702
0.138259 0.026056 0.113792 0.396146 0.14871 0.904797
0.564036 0.08654 0.001599 -0.789209 -0.613154 0.013055
-0.25603 0.422039 -0.065473 -0.612688 0.626733 -0.479189
0.156089 -0.260268 0.082327 0.158392 -0.076586 0.984349
0.090226 0.340676 -0.144672 -0.006929 -0.045353 -0.997793
-0.025202 0.754249 0.0421 -0.894934 0.131459 0.420538
0.321616 0.373253 -0.037204 0.657871 -0.132281 0.728071
0.3833 0.239578 -0.083289 -0.649323 -0.756205 -0.047912
0.148888 0.147277 0.081724 0.696927 0.042416 0.715869
0.182878 0.082213 0.063777 0.82528 0.160401 0.539093
0.055707 -0.1924 -0.076897 -0.746109 -0.22091 -0.62749
0.194147 -0.36822 0.040715 0.932171 -0.062014 0.356499
0.608113 0.096235 0.015804 0.774649 0.617007 -0.118426
-0.021117 -0.474853 -0.084556 0.691329 0.096119 -0.716107
-0.02736 0.446686 0.092137 -0.190837 0.30972 0.930756
0.18772 0.185609 0.000524 0.93932 0.339544 -0.026842
-0.103889 0.240466 0.058697 -0.852976 0.172167 0.477046
-0.016086 -0.004532 -0.139799 -0.178963 -0.14126 -0.973061
0.070445 0.831494 0.047417 0.636177 0.561846 0.525314
-0.047076 0.441257 0.089999 -0.155761 0.213384 0.964354
-0.125597 0.127628 -0.02671 -0.93599 0.023932 -0.344249
0.038194 -0.35341 -0.027737 -0.974716 -0.062994 -0.19982
0.170216 -0.207593 0.087904 0.366802 -0.168557 0.911217
0.095845 -0.322752 -0.098108 -0.304522 0.010749 -0.947878
-0.084218 -0.203872 -0.081794 -0.591593 -0.027843 -0.805607
-0.096305 -0.285492 0.106765 -0.258062 -0.055118 0.957617
-0.121996 0.361361 -0.062128 -0.977801 -0.179824 -0.088075
0.183188 -0.538711 0.0379 0.789337 -0.119994 0.601046
0.103782 -0.634875 -0.090218 -0.477617 -0.059705 -0.875414
-0.128191 -0.55083 -0.060673 -0.91675 0.070196 -0.391021
-0.011759 0.649873 -0.018807 -0.999301 -0.000299 -0.021478
0.148883 0.549469 -0.109712 0.251197 0.653315 -0.713781
0.182808 0.338439 -0.070668 0.831843 -0.359116 -0.422085
0.077982 0.589108 -0.090765 0.087737 0.71172 -0.648085
-0.222618 0.374714 0.018881 0.097695 -0.418803 0.900676
0.045018 0.105492 0.134867 0.106123 0.092836 0.980614
0.138553 0.047734 0.109557 0.48967 0.260681 0.824251
-0.015005 -0.828615 0.010349 0.640142 -0.735841 0.20945
-0.128373 0.171263 -0.001979 -0.996783 -0.002173 -0.061017
0.153464 -0.003468 -0.123222 0.720064 0.109513 -0.68476
-0.235231 0.456638 -0.010297 -0.80731 0.546289 0.216327
-0.127054 -0.600942 -0.012004 -0.979287 0.034547 0.194373
0.079985 -0.303301 0.071168 -0.428673 -0.184197 0.882662
0.057818 -0.228584 0.067186 -0.702448 -0.133977 0.698447
0.044961 -0.42825 -0.041181 -0.950278 -0.024595 -0.283578
-0.111164 -0.644922 0.029092 -0.858874 -0.06878 0.506864
-0.318238 0.29603 0.004994 -0.152892 0.072565 0.984939
0.080067 0.333079 -0.143558 -0.139386 -0.046262 -0.988027
-0.022607 -0.702542 0.027511 0.001418 0.096033 0.983369
-0.070262 0.087538 -0.112684 -0.558419 0.255979 -0.789009
-0.091518 -0.362279 0.10079 -0.116586 -0.200582 0.969132
-0.024194 -0.8545 0.06378 0.927374 -0.291868 0.050448
0.001195 0.305062 -0.129318 0.143236 0.053158 -0.988173
0.141424 0.242753 -0.102837 0.786135 -0.154494 -0.597991
0.095198 0.263731 -0.138467 0.078996 -0.071963 -0.993023
-0.011612 -0.578124 -0.07969 0.685161 -0.063359 -0.725609
0.175462 -0.214651 0.08382 0.471159 -0.186328 0.857868
-0.047871 -0.80773 0.061759 0.304105 0.575355 0.748876
-0.019785 -0.835084 -0.028897 0.77086 -0.572513 0.013474
0.052038 -0.054972 0.12419 0.054423 -0.481619 0.874236
-0.423649 0.211257 -0.054589 -0.528132 0.06194 -0.846837
0.035477 -0.278308 -0.031757 -0.888293 -0.079008 -0.449346
-0.562646 0.061117 0.014206 -0.884333 0.438756 -0.126113
0.11147 0.457279 -0.146685 -0.014502 0.057827 -0.997706
0.112327 0.590307 -0.037537 0.390197 0.865915 0.304519
0.05238 0.864348 -0.036119 0.168096 0.969405 -0.166427
0.194057 0.396438 -0.108965 0.605445 -0.559009 -0.561379
-0.119577 0.329125 -0.01623 -0.993598 -0.036516 0.104323
-0.020359 -0.182432 0.117052 0.465801 -0.11775 0.876798
-0.122701 0.436167 0.061012 -0.10718 -0.085752 0.988684
0.573225 0.141225 0.037478 0.800627 0.581675 0.137815
0.12808 -0.268469 0.08399 0.05301 -0.085501 0.994594
0.010944 0.410145 0.101594 0.159979 0.223646 0.961339
-0.016133 -0.832163 -0.020181 0.417296 -0.884108 0.031148
-0.146244 0.511245 -0.085468 -0.434865 0.441382 -0.783985
-0.02203 -0.848132 -0.094879 0.984622 -0.127215 0.032227
-0.017914 -0.274702 0.098021 0.366525 -0.220961 0.902918
-0.123962 -0.306196 -0.026945 -0.878655 0.049973 -0.470131
-0.040335 0.570381 -0.095131 -0.314796 0.58649 -0.742532
-0.135649 -0.463206 0.012736 -0.962168 -0.077835 0.254039
-0.043105 -0.444214 -0.090552 0.194042 0.182829 -0.961645
0.198383 -0.684531 -0.022317 0.997691 -0.028485 -0.011843
-0.114129 -0.050942 -0.07717 -0.800854 -0.124462 -0.585158
-0.128382 0.440219 -0.106211 -0.496937 -0.15764 -0.850585
-0.482078 0.160274 0.05003 -0.205514 0.803951 0.509682
0.574529 0.117958 0.058827 -0.345254 0.299066 0.88137
-0.059676 -0.295389 -0.09026 -0.207885 -0.087226 -0.971926
0.084694 -0.012767 0.131664 0.222308 -0.276543 0.927137
0.195525 -0.495788 0.015546 0.937457 0.05652 0.342406
-0.117325 -0.248249 -0.034615 -0.85056 -0.018852 -0.525497
0.198848 -0.636864 -0.026393 0.9994 -0.014777 0.024393
0.026234 -0.626976 -0.010941 0.966962 -0.028009 0.238523
-0.076736 -0.153567 -0.092699 -0.55801 -0.146278 -0.81679
0.047893 -0.237023 0.051258 -0.858038 -0.096604 0.504014
0.395044 0.279853 -0.038575 0.094987 0.221411 0.969617
-0.069249 0.31251 -0.115069 -0.53336 -0.010261 -0.845588
0.341339 0.378624 -0.065437 0.742945 0.498062 0.424624
0.097907 -0.524266 0.032432 -0.505852 0.044742 0.861173
-0.070367 0.105124 0.100559 -0.492551 0.383293 0.780735
0.143513 -0.145749 0.106282 0.219881 -0.180248 0.957925
0.153405 0.289864 -0.093513 0.855429 -0.126211 -0.501834
0.030347 0.350901 -0.127622 -0.135092 -0.051721 -0.988952
0.080542 0.71499 0.065522 0.758373 -0.003598 0.647824
0.175938 -0.80242 -0.025719 0.954015 -0.266757 0.101204
-0.11217 0.253827 -0.029868 -0.998126 0.048498 -0.012729
0.141777 0.252945 0.08161 0.727554 0.052697 0.683899
-0.357128 0.315222 -0.055675 -0.664797 0.739527 -0.077267
0.184901 0.370655 0.026942 0.894746 -0.168138 0.412775
-0.068117 -0.65149 -0.107842 0.009585 0.069817 -0.995571
0.190758 -0.754396 -0.01969 0.949199 -0.257004 -0.139607
0.194979 0.044558 0.060597 0.82309 0.17826 0.537412
-0.069536 0.300974 -0.114627 -0.546721 -0.030833 -0.836533
-0.105701 0.549739 -0.075071 -0.442977 0.680288 -0.582868
-0.050673 0.300536 -0.124102 -0.4568 -0.016447 -0.888912
0.04025 -0.182871 -0.052776 -0.905148 -0.205258 -0.371431
-0.014689 0.677391 0.032428 -0.761641 -0.613174 0.190898
-0.056174 -0.662486 0.026782 0.240637 -0.226926 0.943232
0.131555 -0.000334 0.120349 0.380716 -0.226666 0.89613
-0.398102 0.181015 -0.003586 0.561205 -0.824734 0.059373
0.533556 0.136519 0.017373 -0.77722 -0.584325 0.173292
0.065226 0.174532 -0.119202 -0.024573 0.110309 -0.991475
0.475786 0.183336 -0.034329 -0.569289 -0.819706 -0.041337
0.152574 0.227796 -0.082315 0.801468 -0.11861 -0.58588
0.392542 0.247544 -0.117321 -0.593317 -0.542525 -0.591146
0.01594 0.074342 0.136362 0.202724 0.058439 0.977369
0.045419 -0.580082 -0.03061 -0.992881 -0.048395 -0.051889
0.193209 0.533006 -0.108614 0.239351 0.650956 -0.719675
0.238761 0.452755 -0.13394 0.00919 0.14794 -0.987683
0.476103 0.254089 -0.045875 0.713226 0.69522 0.081456
-0.112266 -0.337538 -0.04918 -0.796748 0.077413 -0.598255
0.162034 -0.854778 0.15776 0.866242 0.179744 0.342381
-0.113884 -0.397172 0.081718 -0.724941 -0.223121 0.645477
-0.105792 0.24926 0.050203 -0.945037 0.138171 0.289645
-0.288949 0.393504 -0.064044 -0.900213 0.151071 -0.39104
0.001796 0.641831 0.01848 -0.737092 -0.237148 0.632517
0.099643 0.59289 -0.079994 0.352047 0.736793 -0.566989
-0.028769 -0.860101 0.093096 0.778055 -0.541776 0.125583
-0.082052 -0.831787 -0.122964 -0.825573 -0.024934 -0.561849
-0.095531 -0.863045 0.032924 -0.12134 -0.982001 -0.019476
-0.08057 -0.568105 -0.101425 -0.246737 0.047587 -0.967269
0.007197 0.092069 -0.136916 -0.154881 0.218278 -0.963317
-0.065363 -0.187029 -0.092567 -0.336576 -0.116784 -0.932864
0.160171 -0.431693 -0.08722 0.540358 0.207879 -0.813779
0.087569 -0.859455 0.065884 -0.779278 -0.599353 -0.176779
0.297347 0.423424 -0.021154 0.507972 0.23659 0.827309
0.121974 0.142307 -0.110229 0.454388 0.227465 -0.860084
-0.120841 0.166922 -0.02625 -0.889093 0.055945 -0.451241
-0.005061 -0.098244 -0.096293 0.538709 -0.383973 -0.748902
0.138799 0.168376 -0.095132 0.606904 0.074976 -0.789703
0.14174 -0.078542 0.112175 0.338395 0.034084 0.930034
0.156835 0.09206 -0.096087 0.724333 0.219676 -0.653476
0.198845 -0.447032 0.002858 0.990137 -0.042637 0.12694
0.000695 0.794406 -0.112624 -0.367486 0.202627 -0.906088
0.184252 0.020218 0.083372 0.758351 0.152921 0.630328
-0.067536 -0.51773 -0.099894 -0.145609 0.109443 -0.982137
0.090718 -0.169137 -0.105093 -0.266881 -0.228759 -0.935126
0.084504 0.682077 0.017267 0.885594 -0.420557 0.168959
0.156143 -0.729582 -0.079155 0.712795 0.015487 -0.700289
-0.004333 -0.08964 0.124962 0.392694 -0.125862 0.91052
-0.039103 0.7481 -0.009768 -0.957511 0.068635 0.239143
-0.124554 0.083264 -0.039337 -0.940154 0.109741 -0.321779
-0.007258 0.597004 0.0063 -0.695653 0.209803 0.684062
0.242601 0.508527 -0.004683 0.639321 0.375254 0.670334
0.32036 0.44854 -0.084583 0.713071 0.697194 -0.056847
0.064734 -0.23407 0.072988 -0.686906 -0.129741 0.715019
-0.214686 0.481045 0.011506 -0.787698 0.473255 0.387239
0.307955 0.450491 -0.106254 0.576577 0.649089 -0.495911
0.104036 0.493817 0.062217 0.31674 0.529476 0.783422
-0.036399 -0.16455 -0.093422 0.371199 -0.116746 -0.92093
0.159033 -0.823144 -0.099433 0.714507 -0.339025 -0.598891
-0.080599 -0.274047 0.109655 -0.03083 -0.101156 0.99287
0.073455 -0.272271 -0.084692 -0.604158 0.031488 -0.793151
-0.382521 0.192103 -0.011438 0.472119 -0.880106 0.040914
0.12048 0.247781 0.099293 0.527057 0.057294 0.847683
0.040039 0.021345 -0.157352 -0.162101 -0.330566 -0.920733
-0.142635 -0.15461 0.033025 -0.980497 -0.080126 0.165129
0.00028 -0.110973 -0.083139 0.733515 -0.350509 -0.581391
0.207617 -0.170174 0.006256 0.999096 0.002681 0.039415
-0.014336 -0.162691 -0.082046 0.589245 -0.088914 -0.802269
-0.085826 -0.395002 0.094654 0.064316 -0.201428 0.977217
-0.086884 -0.694169 0.024519 0.040074 -0.415511 0.905395
0.104047 0.42796 0.087184 0.217675 0.242524 0.944385
0.134316 -0.761249 -0.102247 0.242517 0.167211 -0.948432
0.043686 -0.339745 0.020895 -0.976069 -0.077811 0.197547
-0.004228 0.609351 0.006858 -0.712206 0.046558 0.699877
-0.109925 0.280246 0.020307 -0.978569 -0.010173 0.201764
0.175256 0.338525 0.037586 0.879777 -0.05004 0.471763
-0.087518 -0.602468 -0.101115 -0.459953 0.051205 -0.886343
0.015984 0.494885 -0.123121 0.032452 0.051755 -0.997208
0.102038 -0.42858 0.04838 -0.587029 -0.377007 0.716033
0.086016 0.483856 -0.139821 -0.285981 0.294484 -0.911387
0.198427 -0.612336 -0.048352 0.978485 -0.017215 -0.182785
-0.131711 -0.423658 0.035506 -0.935994 -0.036056 0.34958
0.005568 0.744238 -0.109958 -0.496821 -0.367943 -0.783149
-0.089909 -0.000821 0.11633 -0.552897 0.109174 0.815949
-0.0127 0.622052 -0.013596 -0.945379 0.147527 0.280605
-0.471371 0.13694 -0.014183 0.291309 -0.863309 -0.410848
-0.122412 -0.613405 0.005634 -0.915495 0.052415 0.396466
0.02357 0.516959 0.059736 0.128171 0.504089 0.854018
0.105129 0.75426 -0.030003 0.989261 0.076703 -0.086271
0.140059 0.405255 -0.137271 0.380212 -0.180047 -0.907134
-0.248749 0.354768 -0.096413 0.126448 -0.201318 -0.969702
-0.12803 -0.667559 -0.047616 -0.997768 -0.016026 0.061821
0.192203 -0.318101 0.05444 0.912856 -0.060663 0.403543
0.008982 0.573695 -0.100267 -0.062623 0.533513 -0.843305
0.026367 -0.341726 -0.012432 0.967245 -0.061433 -0.228841
0.199055 -0.015569 -0.047381 0.954548 0.042524 -0.29363
-0.102634 -0.171495 -0.066226 -0.761172 -0.082926 -0.642656
0.059417 0.861839 0.024649 0.335867 0.900256 0.240314
0.192132 -0.356635 -0.044642 0.690038 0.267726 -0.667351
-0.229506 0.393232 0.026584 -0.259339 -0.2468 0.931263
0.065147 -0.70992 -0.03625 -0.801212 -0.283559 -0.526349
0.196041 -0.4494 -0.052871 0.888154 0.102644 -0.432368
-0.081724 0.541852 -0.096423 -0.353713 0.555487 -0.751369
-0.02132 -0.2686 -0.085532 0.624586 -0.060697 -0.778354
0.072785 0.692803 -0.061099 0.653129 -0.51732 -0.550915
0.138386 -0.189006 -0.100753 0.449535 -0.084731 -0.889109
0.406445 0.290697 -0.126274 0.269093 0.231225 -0.932693
-0.070481 -0.854941 -0.131071 -0.391943 -0.61816 -0.668313
0.160516 -0.154213 -0.089566 0.633464 -0.122715 -0.763712
-0.111448 -0.436889 0.071117 -0.774161 -0.159764 0.611422
-0.291399 0.379803 -0.045708 -0.957278 0.207067 -0.010096
0.174826 0.055275 0.082426 0.731568 0.255844 0.630226
-0.112051 -0.614284 -0.086957 -0.61959 0.09368 -0.779187
0.574912 0.069783 0.007358 -0.866243 -0.496415 0.011525
0.158906 0.116982 0.07666 0.575583 0.176429 0.797391
0.171406 -0.791056 0.010529 0.672908 -0.572835 0.431001
0.375799 0.247751 -0.088306 -0.705165 -0.691532 -0.135856
0.154555 0.024046 -0.118597 0.746545 0.063484 -0.646662
0.05189 -0.190775 0.066277 -0.787878 -0.09592 0.605826
-0.09459 0.409125 -0.114707 -0.339991 -0.205423 -0.917421
0.177016 0.259265 0.036905 0.894973 0.126033 0.41797
0.174037 0.275396 -0.047538 0.923794 -0.113057 -0.364218
0.063141 0.250253 0.122464 0.251008 0.060843 0.966014
-0.12088 -0.42981 -0.046068 -0.752726 0.2807 -0.595301
0.083834 0.101108 0.124548 0.458304 0.00751 0.887809
-0.021293 -0.841462 -0.01421 0.940475 -0.327524 -0.010167
-0.046508 -0.172643 -0.095496 0.172131 -0.060431 -0.982894
-0.469487 0.156827 0.05237 0.359842 0.606355 0.705065
-0.113936 0.238052 0.019905 -0.974545 0.208326 0.070512
0.097825 0.312297 -0.141863 0.210923 -0.097604 -0.968013
0.127041 -0.406842 -0.100926 0.267788 0.070662 -0.958144
-0.007647 0.668992 0.039375 -0.710359 -0.698411 0.085582
0.081512 -0.271177 0.078512 -0.448076 -0.170899 0.874887
0.165293 0.180138 -0.065357 0.823202 0.055517 -0.561337
0.02989 -0.207342 0.034792 0.976522 -0.002182 0.215315
0.054621 0.262898 -0.131233 -0.36624 -0.09593 -0.925329
-0.128153 -0.624594 -0.06549 -0.975868 0.003149 -0.196469
0.15284 -0.451626 0.069274 -0.08698 -0.123105 0.981656
-0.004441 0.406861 -0.129042 0.063731 0.003419 -0.997924
0.12477 0.096436 -0.123837 0.596259 0.287603 -0.748751
-0.049666 -0.369542 0.093463 0.301475 -0.278624 0.911673
0.198179 0.07008 0.03493 0.952187 0.232672 0.187377
-0.179558 0.35783 -0.037629 0.633728 -0.764969 -0.097588
-0.033888 -0.493694 -0.094284 0.3981 0.107191 -0.905863
0.28941 0.36399 -0.134319 -0.295336 -0.52586 -0.794227
-0.019071 -0.834076 -0.006383 0.749903 -0.58865 0.035568
0.092678 0.517315 -0.133228 -0.104942 0.393243 -0.911609
0.18926 -0.66715 0.008878 0.852903 -0.066762 0.5027
0.090619 0.277484 -0.139651 0.047366 -0.061753 -0.995364
-0.045004 0.333637 0.100069 -0.305509 -0.148795 0.936475
0.199132 0.537824 -0.101207 0.287727 0.696402 -0.655586
-0.037795 0.584233 -0.082008 -0.360687 0.723518 -0.584268
0.216352 0.445915 -0.132765 -0.084379 -0.180613 -0.979352
-0.126722 -0.36547 -0.028719 -0.97453 0.042314 -0.212576
0.536972 0.1579 0.030467 -0.526668 0.160462 0.822485
-0.010629 -0.831767 -0.083977 0.160615 -0.978628 -0.021352
0.03026 -0.05221 0.12287 -0.347823 -0.384531 0.849462
-0.037941 -0.863011 0.101095 0.204793 -0.968176 0.065625
0.305243 0.394284 -0.144737 0.069682 0.033472 -0.992731
-0.112416 -0.126493 0.099486 -0.692277 0.041219 0.719895
0.042126 -0.237027 0.02479 -0.988502 -0.035529 0.144789
-0.183638 0.458008 0.044933 -0.119678 -0.042035 0.988522
0.158316 -0.370593 -0.076328 0.597353 0.196345 -0.776982
-0.129504 0.469839 0.061902 0.009196 -0.035882 0.997914
0.125011 -0.86969 0.094582 -0.014384 -0.999744 0.017478
0.349493 0.276253 -0.093924 -0.637555 -0.746351 -0.189957
0.125168 -0.261633 -0.096193 0.372685 -0.070789 -0.924972
0.03014 0.663198 0.090484 -0.103763 -0.735562 0.629908
-0.0628 0.027908 -0.135364 -0.387159 0.063581 -0.900566
0.08603 -0.017109 -0.154456 0.036277 -0.23446 -0.971165
0.067574 -0.405035 -0.071746 -0.728674 -0.025091 -0.683925
-0.451189 0.142337 -0.002934 0.523205 -0.837692 -0.055466
-0.107392 -0.375969 0.09198 -0.673519 -0.074979 0.734424
0.078331 0.771151 0.06228 0.679686 -0.286676 0.671333
0.131572 -0.097013 -0.122461 0.306546 -0.216037 -0.924851
-0.280772 0.355724 -0.092062 -0.510336 0.247403 -0.818989
0.089205 -0.253537 -0.092925 -0.450763 0.043185 -0.891391
-0.196742 0.489143 0.030745 -0.691753 0.295254 0.658068
0.148592 -0.364879 -0.082418 0.590159 0.12203 -0.797683
0.203336 -0.251756 0.034693 0.976016 0.042939 0.210479
0.042331 0.610066 -0.078175 0.045651 0.709194 -0.668976
0.382627 0.337769 -0.117073 0.654913 0.519507 -0.548602
0.034219 0.492507 0.073019 0.083474 0.508359 0.856843
-0.183855 0.485651 -0.074413 -0.510115 0.415508 -0.750583
0.090188 0.559997 -0.11564 0.011627 0.592998 -0.803747
-0.110938 0.108929 0.06332 -0.773071 0.299548 0.558558
-0.140524 0.546538 -0.054065 -0.504788 0.726094 -0.466403
0.241136 0.406475 -0.016557 -0.018322 -0.52955 0.846169
0.401554 0.240667 -0.118598 -0.32932 -0.52965 -0.765733
-0.060723 0.127572 0.102054 -0.566937 -0.117458 0.81446
-0.388862 0.250382 -0.078369 -0.374242 -0.155343 -0.912622
0.154052 -0.826133 0.075745 0.505983 0.847483 0.148557
0.100245 -0.577005 0.032021 -0.387601 -0.151759 0.908678
0.285769 0.380066 -0.142248 -0.142841 -0.296273 -0.937906
-0.039866 -0.568633 -0.098739 0.350924 -0.025528 -0.936008
-0.131447 0.054032 0.040508 -0.911099 0.309346 0.271422
0.033147 0.333988 -0.127146 -0.162679 -0.018705 -0.985019
0.044706 -0.519024 -0.035885 -0.976905 -0.035274 -0.184927
-0.001511 0.58755 0.013273 -0.590384 0.217154 0.776723
0.021284 0.539397 -0.116793 -0.064004 0.394372 -0.916473
-0.277736 0.401763 -0.067289 -0.498997 0.785156 -0.346684
0.018309 0.132957 -0.122909 -0.133427 0.45187 -0.881835
0.083655 0.752468 -0.093137 0.682216 -0.237526 -0.689903
-0.104096 -0.207567 -0.061246 -0.82763 -0.050123 -0.558783
0.144672 0.172183 0.084872 0.710597 0.026712 0.703082
0.54339 0.176319 -0.026706 0.824431 -0.016387 -0.46159
0.168646 -0.730106 -0.062168 0.843406 -0.125642 -0.521691
-0.048484 -0.468636 -0.095005 0.124463 0.110884 -0.98524
-0.125064 -0.12795 0.081882 -0.827533 0.030109 0.560224
0.008111 -0.278493 0.08404 0.692933 -0.153862 0.702827
-0.106018 -0.1859 -0.0602 -0.800925 -0.05954 -0.595139
0.635742 0.027273 0.085301 0.188044 -0.603824 0.332527
-0.138807 0.003924 0.008536 -0.980381 -0.174953 -0.037665
-0.118935 0.516634 0.050921 -0.04819 0.475784 0.877579
0.05498 0.191864 -0.115784 -0.239947 -0.030902 -0.960734
0.020666 0.620048 -0.070114 -0.19214 0.517392 -0.830605
0.037612 0.577988 0.026274 0.132396 -0.005173 0.990064
-0.042507 0.135737 -0.109189 -0.323693 0.452389 -0.829904
-0.111993 0.250778 -0.044228 -0.997552 0.041769 -0.049628
0.087276 0.838082 0.002866 0.838635 0.521006 0.090335
-0.028852 -0.014499 0.135367 -0.07127 -0.617632 0.773354
0.051083 -0.598877 -0.015098 -0.885886 -0.052009 0.460466
0.089473 -0.402319 0.049762 -0.590262 -0.272058 0.759256
0.371311 0.273306 -0.121313 -0.455973 -0.501482 -0.724332
-0.144349 -0.126949 0.017596 -0.999676 -0.002378 0.017087
0.086971 0.549134 0.032376 0.074103 0.784915 0.600054
-0.092033 -0.839774 0.133073 -0.687214 0.681305 0.247009
-0.136486 -0.419444 0.014816 -0.990576 0.03054 0.12906
0.205736 -0.220999 -0.030443 0.994222 -0.048771 -0.092538
0.145195 0.325499 0.071915 0.772649 0.00327 0.634185
0.087104 0.065978 0.122832 0.440786 0.102175 0.889831
0.139038 0.11152 0.092822 0.670022 0.089609 0.736176
-0.115276 0.428834 0.062197 -0.267216 -0.002889 0.962236
0.082974 0.28582 -0.140207 -0.065812 -0.066209 -0.993628
-0.050447 0.355808 -0.124898 -0.343045 -0.031346 -0.938744
-0.385542 0.19015 -0.030203 0.506423 -0.853594 -0.064076
0.44652 0.28626 -0.097086 0.690431 0.543384 -0.467972
0.329036 0.437902 -0.081517 0.794773 0.590356 0.110691
-0.0651 -0.362208 0.098329 0.139934 -0.16965 0.975479
0.391946 0.324871 -0.060778 0.481473 0.636674 0.598978
0.053357 -0.673061 0.009291 -0.916856 0.000191 0.36065
0.125579 -0.305496 0.081749 -0.012809 -0.0644 0.997756
-0.009093 -0.259962 -0.076789 0.641205 -0.081401 -0.761611
-0.101967 -0.853056 0.119865 -0.918517 -0.066679 0.36564
-0.000684 0.686139 -0.059154 -0.6934 -0.426199 -0.579793
0.13792 -0.869718 -0.069016 0.05594 -0.997987 0.012035
0.066152 0.098722 0.130778 0.192534 -0.031903 0.973751
0.059094 0.34059 0.111961 0.211915 0.180894 0.959091
0.143766 0.037167 0.108983 0.591452 0.23111 0.770693
-0.102043 0.308032 0.046473 -0.871718 0.180283 0.453661
0.171462 -0.43409 -0.079167 0.649837 0.17413 -0.739226
0.089019 -0.138288 0.095905 -0.536632 -0.029895 0.843106
-0.015935 0.119525 -0.124396 -0.201687 0.409396 -0.889649
0.049637 -0.226908 0.056647 -0.843489 -0.138273 0.51615
0.136859 -0.861764 0.173757 0.062356 -0.966272 0.247895
-0.040419 0.331641 -0.127566 -0.205055 0.008783 -0.976846
0.04453 0.189078 -0.113794 -0.140965 0.085849 -0.975464
0.103349 -0.746172 0.027851 -0.049415 -0.406603 0.878405
0.199374 -0.553491 -0.04947 0.952419 -0.018191 -0.299675
0.057232 -0.027636 0.131523 0.053844 -0.167295 0.982927
0.315877 0.438604 -0.04867 0.818736 0.32556 0.469479
0.031793 0.637674 0.035972 -0.143334 -0.489822 0.856093
-0.063203 -0.799862 0.05312 -0.175243 0.821198 0.530506
0.209169 -0.112078 0.038891 0.945059 -0.016032 0.326455
0.205519 -0.384259 -1.1e-05 0.996188 0.009109 0.086494
-0.130043 -0.105424 0.071991 -0.858124 -0.002486 0.512796
-0.004963 0.689671 0.063474 -0.784343 -0.222115 0.571996
-0.08011 -0.777353 -0.125939 -0.599466 0.256406 -0.755857
0.078659 -0.413431 0.034301 -0.69582 -0.326546 0.639641
0.042169 0.348383 -0.13001 -0.339128 -0.067957 -0.932919
-0.134055 -0.433474 -0.026449 -0.919873 0.168421 -0.347935
0.152887 0.494874 -0.136139 0.154501 0.268319 -0.950276
-0.000927 0.551066 0.031047 0.074277 0.777192 0.62269
0.503456 0.162783 -0.0128 -0.606773 -0.794679 0.005082
0.20802 -0.04192 -0.017451 0.972778 0.0094 -0.230953
0.008769 -0.465865 -0.049737 0.821349 0.066438 -0.564749
0.016706 -0.420067 -0.034061 0.888504 -0.024468 -0.444102
0.102103 0.549354 0.025479 0.391582 0.635262 0.664345
-0.00792 0.579608 0.011466 -0.537529 0.309699 0.782818
-0.116306 0.008725 0.092115 -0.785922 0.090153 0.61076
0.053255 -0.545837 -0.051213 -0.865464 -0.043912 -0.488153
-0.037325 0.590582 -0.028997 -0.395492 0.883628 0.197664
0.100624 0.792354 0.006095 0.916076 0.193807 0.346153
-0.371685 0.303057 -0.046736 -0.688433 0.725076 -0.011166
-0.111511 0.174184 -0.043551 -0.886566 0.075443 -0.45589
0.101424 0.2181 -0.128035 0.326929 -0.364562 -0.870626
0.196343 -0.196297 -0.055978 0.771711 -0.028374 -0.632629
0.025504 0.807923 0.078032 -0.201641 0.423679 0.880179
-0.132313 -0.403666 0.028714 -0.962525 0.138218 0.229997
0.178234 0.204728 -0.036075 0.924477 0.020022 -0.380368
-0.113429 0.289389 -0.016542 -0.980756 -0.187934 0.043613
-0.12476 -0.140589 0.08354 -0.83228 0.08102 0.548192
-0.107177 0.171493 -0.052024 -0.852333 0.080517 -0.51667
0.205068 -0.356551 0.0056 0.987458 -0.050171 0.134833
-0.135981 -0.540436 -0.023482 -0.990284 -0.088851 0.099607
0.08603 -0.653652 -0.07544 -0.693596 -0.056791 -0.717899
0.037326 0.002414 0.143581 0.079024 -0.078132 0.982347
0.154454 -0.187197 -0.091622 0.610346 -0.057198 -0.789904
-0.12692 -0.087628 -0.049565 -0.830525 -0.089357 -0.548843
0.167507 -0.820752 -0.02035 0.810535 -0.583139 0.048311
-0.120288 0.344382 -0.062965 -0.994024 -0.059925 -0.087826
-0.076239 0.303604 0.081802 -0.58392 0.005615 0.811393
0.020193 -0.707726 -0.026809 0.909149 -0.128524 0.393489
0.097795 0.737694 0.016617 0.979449 -0.104175 0.171907
0.460508 0.275279 -0.073247 0.741908 0.667596 -0.022682
0.157407 0.425523 0.063269 0.720169 0.075477 0.689028
0.100795 -0.869409 0.111168 -0.197104 -0.975034 0.04769
0.10216 0.737895 -0.035874 0.903503 -0.203616 -0.369462
0.130283 -0.86883 -0.045301 0.012348 -0.997769 0.065132
0.151849 -0.37636 -0.082153 0.560375 0.172856 -0.809789
0.097552 0.519038 0.049595 0.241632 0.54416 0.803275
0.089465 0.836223 -0.014424 0.933512 0.349941 0.0086
-0.128082 -0.228033 0.07548 -0.916418 -0.066631 0.392477
0.086145 -0.289535 0.076886 -0.390437 -0.215584 0.89491
0.025748 0.041695 0.137163 0.102364 0.114614 0.987571
0.051543 -0.637185 -0.003788 -0.934898 0.135331 0.322751
-0.010837 0.403816 0.104858 0.01663 0.122867 0.991561
0.127592 0.009017 0.121557 0.348464 0.128524 0.927355
0.132445 -0.020552 0.11571 0.388428 0.001243 0.921132
-0.025364 0.31635 0.110868 -0.432613 0.142804 0.878122
0.19266 0.339087 -0.026334 0.973538 -0.222445 -0.000303
-0.128147 -0.3393 -0.00417 -0.999251 0.007196 -0.029696
0.061571 -0.229975 -0.073558 -0.730775 -0.117183 -0.672031
0.153631 -0.097493 -0.109447 0.639026 -0.13599 -0.756932
0.08891 -0.083758 -0.129397 -0.138744 -0.392042 -0.90851
0.20423 -0.344649 -0.017898 0.958116 0.090788 -0.251929
-0.10273 0.102347 -0.07531 -0.789491 0.162619 -0.588893
-0.086403 0.556067 -0.080464 -0.41782 0.654561 -0.629883
-0.025337 0.285623 0.112741 -0.296885 0.009933 0.952476
0.035273 0.102392 0.136131 0.019955 0.024584 0.996004
-0.348262 0.213817 -0.013616 0.622944 -0.761866 0.158567
-0.016202 -0.671527 -0.087078 0.637868 0.172492 -0.750015
0.206894 0.007023 -0.004235 0.996531 0.031937 -0.05945
0.12994 0.164245 -0.101677 0.499802 0.129577 -0.856276
0.105905 -0.712453 0.030991 0.534606 -0.188638 0.822989
-0.482828 0.170292 -0.012325 -0.722811 0.680828 -0.105288
-0.042027 -0.222986 -0.091688 0.126328 0.008242 -0.991018
-0.139449 -0.025353 0.017585 -0.982571 0.164888 0.064183
0.035343 -0.319041 -0.021568 -0.992146 -0.016567 -0.119747
0.175921 -0.733056 -0.049397 0.833521 -0.185153 -0.52027
-0.459709 0.14404 -0.021442 0.316445 -0.851463 -0.414254
-0.104401 -0.708145 -0.094208 -0.71911 -0.009487 -0.693586
-0.003145 -0.254072 -0.071494 0.721746 -0.069082 -0.687399
0.036857 0.440613 0.091544 0.159497 0.184007 0.968588
-0.215625 0.399706 0.031175 -0.155387 -0.323993 0.929235
0.182465 -0.33626 0.06859 0.793375 -0.058433 0.604828
0.587409 0.124624 0.010492 0.771041 0.584533 -0.176825
0.171926 -0.784504 0.018503 0.591819 -0.506581 0.59537
0.131873 0.062833 -0.129412 0.595361 0.174274 -0.783793
-0.010309 0.058831 -0.142826 -0.162217 0.209969 -0.964042
-0.312321 0.312374 -0.09535 -0.194589 0.184571 -0.962951
0.059257 0.224749 0.126332 0.259128 0.108117 0.953685
0.187516 -0.553263 -0.070755 0.733078 -0.030456 -0.679183
-0.045774 0.513895 0.059923 -0.168845 0.512752 0.84151
-0.044473 -0.775704 -0.139786 -0.025612 0.439699 -0.894017
-0.018998 -0.053436 0.131105 0.030957 -0.141156 0.987284
0.01813 0.552313 -0.111233 -0.053969 0.453683 -0.887953
-0.107748 0.330433 0.032893 -0.904859 -0.151345 0.39689
-0.019907 -0.615009 -0.086423 0.666959 0.00679 -0.744006
-0.027734 0.223534 -0.125521 -0.200184 -0.199726 -0.958956
0.087519 -0.758797 -0.071434 -0.80943 0.133608 -0.570913
0.054435 0.051146 -0.155378 -0.134108 0.31399 -0.938248
0.146212 -0.770373 -0.098973 0.488226 0.303282 -0.814052
-0.149084 0.463905 -0.095964 -0.337474 0.060001 -0.939146
0.181712 0.229294 0.022541 0.991483 0.014142 0.125807
0.108615 0.388097 -0.145114 0.140303 -0.030676 -0.98915
0.113435 -0.462433 -0.104709 -0.176939 0.063564 -0.979554
0.188964 -0.13659 0.079729 0.794429 0.015593 0.598505
0.204584 0.541752 -0.094099 0.273889 0.748913 -0.603198
-0.128873 0.09282 0.000158 -0.999592 -0.026463 -0.000916
0.077595 -0.767281 -0.05819 -0.847133 0.224677 -0.480699
0.014304 -0.792535 -0.071859 0.909717 -0.381723 -0.084491
0.130578 -0.634081 0.03332 0.299407 -0.146825 0.941907
0.037589 0.808129 0.079033 0.035603 0.353196 0.93207
0.089952 -0.850155 -0.092483 -0.970639 0.049159 -0.233071
-0.121114 0.194351 0.032313 -0.92675 0.098595 0.359315
0.162756 0.251808 -0.068078 0.873091 -0.013214 -0.486039
0.19046 -0.445208 0.039911 0.955277 -0.090511 0.279172
0.196384 -0.68223 -0.009171 0.959526 0.025089 0.274326
0.009389 -0.499128 -0.051411 0.844473 0.032224 -0.534144
0.123551 0.503756 -0.137419 0.044835 0.256795 -0.96486
0.395659 0.236121 -0.108806 -0.758069 -0.510996 -0.39605
-0.108403 0.134273 -0.059882 -0.833443 0.119141 -0.539168
0.018707 -0.295449 -0.034463 0.924951 -0.053067 -0.369356
-0.048951 0.263087 -0.122906 -0.502699 -0.091259 -0.859514
0.069583 -0.784124 -0.049953 -0.897064 0.123756 -0.421731
-0.105336 -0.789755 -0.097464 -0.868997 0.040795 -0.491889
-0.053573 -0.580106 0.045611 0.378611 -0.29069 0.878042
0.139923 -0.441573 0.067052 -0.353747 -0.143285 0.922519
-0.052409 0.476294 -0.129894 -0.057278 0.12937 -0.989728
-0.134325 -0.488143 0.008476 -0.903515 -0.163397 0.384633
-0.049736 -0.678743 0.020955 0.080472 -0.285075 0.953188
-0.426288 0.165886 -0.038496 0.528264 -0.79295 -0.301751
0.039008 -0.105078 0.095582 0.482706 -0.589514 0.643932
