0.147454 -0.015519 0.108982 0.538712 0.103011 0.835647
0.119942 -0.454353 -0.104961 -0.045403 0.071541 -0.993954
-0.132972 -0.259902 0.047511 -0.948297 -0.235551 0.208326
0.413177 0.217922 -0.067911 -0.643429 -0.756584 0.111054
0.098069 -0.546926 -0.097516 -0.565237 -0.102064 -0.817946
-0.569588 0.043089 0.012309 -0.846239 0.529147 -0.046753
0.076369 -0.405617 -0.080376 -0.685495 -0.014597 -0.727882
0.14625 -0.864066 -0.01809 0.312705 -0.941494 0.055614
-0.162682 0.543356 -0.030695 -0.619773 0.765098 -0.16921
-0.067536 -0.51773 -0.099894 -0.145609 0.109443 -0.982137
0.018864 -0.630812 0.003695 0.802151 -0.045824 0.593067
0.024559 0.784095 0.085606 -0.124128 0.433447 0.889946
-0.123309 0.098729 -0.035807 -0.927834 0.132457 -0.347581
-0.025162 0.502999 0.06893 -0.101001 0.450962 0.885882
0.368877 0.339224 -0.056684 0.515357 0.548866 0.655245
0.53834 0.181437 -0.039692 0.525892 -0.598184 -0.592101
0.135824 0.365306 0.082365 0.574376 0.029168 0.816216
0.544617 0.145855 0.037334 -0.583871 0.098275 0.792509
0.041994 0.083757 -0.144938 -0.14033 0.224561 -0.964171
0.319249 0.41302 -0.13552 0.330826 0.513845 -0.789519
0.079719 0.787796 -0.099184 0.687536 0.079661 -0.721334
-0.058843 -0.757618 0.019406 0.247536 0.122648 0.939685
0.051522 -0.655565 -0.003194 -0.990359 -0.000939 0.120252
-0.122668 -0.761625 -0.034591 -0.951295 -0.281799 0.097284
-0.109183 0.351809 0.041149 -0.861093 -0.245019 0.445466
0.01374 -0.040184 0.129622 0.337927 -0.225649 0.911684
0.051421 -0.160462 -0.081468 -0.769483 -0.186796 -0.610099
0.096705 -0.302328 0.07799 -0.407453 -0.214829 0.886787
-0.243334 0.30949 -0.017269 0.714836 -0.641908 0.273124
0.019194 0.863678 0.013428 -0.091472 0.994067 0.047933
0.126156 0.364404 0.08813 0.393367 0.050836 0.916661
-0.116068 -0.152231 -0.052462 -0.793521 -0.153967 -0.588384
0.164449 0.212844 0.058262 0.73954 0.065503 0.669724
0.146527 -0.865648 -0.093139 0.561048 -0.763754 -0.301465
0.105579 -0.558219 0.036154 -0.39928 -0.068242 0.914137
0.007155 -0.555985 0.014002 0.685176 -0.144327 0.712752
-0.008012 -0.582294 0.025917 0.502359 -0.123428 0.854446
-0.041048 0.46295 0.08442 -0.187845 0.438603 0.869035
0.098412 -0.473167 -0.100169 -0.519897 0.034897 -0.853121
0.157319 -0.835309 0.121019 0.638617 0.75421 0.131952
0.269433 0.50415 -0.081083 0.652373 0.654634 -0.378383
-0.025145 0.395446 -0.129595 -0.015808 -0.01557 -0.999634
-0.067075 -0.563872 -0.103194 -0.054272 0.031265 -0.997209
-0.068117 -0.270553 0.10987 0.061306 -0.144277 0.987467
0.023834 -0.140591 0.085094 0.869784 -0.187419 0.449108
-0.105805 -0.83657 0.032598 -0.768378 0.639336 0.021084
-0.233048 0.463285 -0.018971 -0.774584 0.612583 0.133613
-0.092516 0.159401 -0.072835 -0.733983 0.181159 -0.636847
0.18169 -0.396209 -0.064417 0.704646 0.106758 -0.700221
-0.077081 -0.711476 0.015459 0.270998 -0.380991 0.882509
-0.20336 0.366799 0.011383 0.159964 -0.558054 0.813566
0.212805 -0.018714 0.005972 0.987684 0.105059 -0.0878
0.076004 0.848588 0.024149 0.710321 0.613974 0.334688
0.140549 0.499712 0.046765 0.356638 0.525082 0.772473
-0.142001 -0.068459 -0.013787 -0.968083 0.020162 -0.242904
0.073172 0.722188 -0.086836 0.574853 -0.494224 -0.646859
0.100624 0.792354 0.006095 0.916076 0.193807 0.346153
0.204951 -0.523248 -0.01254 0.973892 0.004512 0.208806
0.110354 -0.829571 0.154878 -0.593584 0.74069 0.264793
-0.115933 -0.646369 -0.087318 -0.669558 0.04498 -0.739892
0.266824 0.469314 -0.009059 0.655024 0.064359 0.7499
-0.129639 0.517299 0.04957 -0.099497 0.474258 0.872944
0.103073 -0.07091 -0.13573 0.044858 -0.315058 -0.946985
-0.050529 -0.861955 -0.068597 0.073227 -0.993525 0.074199
0.095316 -0.341922 -0.098064 -0.343062 0.007164 -0.934817
0.183026 -0.768857 0.00735 0.898125 -0.184585 0.384492
-0.064278 0.579363 -0.066695 -0.450662 0.811748 -0.346835
-0.207537 0.498665 -0.003595 -0.757529 0.64051 0.115414
0.128165 -0.247163 0.086632 0.111664 -0.153732 0.981534
0.293895 0.480394 -0.076648 0.69479 0.672288 -0.245474
-0.077027 -0.861911 -0.065368 -0.043771 -0.997748 0.048327
0.545133 0.185053 -0.015359 0.972936 0.170234 0.036483
0.613906 0.066547 0.095059 -0.840149 -0.002708 0.482971
-0.537432 0.067444 0.067838 0.396749 -0.905238 0.12006
0.033365 0.240814 0.127826 0.020802 0.033613 0.999013
-0.109097 -0.654386 0.030527 -0.770796 -0.144705 0.617755
-0.083505 -0.861387 0.140539 -0.188732 -0.955897 0.20988
-0.556381 0.06979 0.012132 -0.901511 0.407346 -0.102231
0.575677 0.068956 0.019574 -0.860026 -0.506353 0.05851
0.073447 0.324531 0.110815 0.321523 0.126654 0.937387
0.066173 -0.364491 0.044015 -0.572815 -0.302602 0.737401
-0.339242 0.3201 -0.010057 -0.600223 0.52408 0.597216
-0.407592 0.256614 -0.061585 -0.8114 0.441188 -0.371047
0.008982 0.573695 -0.100267 -0.062623 0.533513 -0.843305
-0.126025 0.046346 -0.048992 -0.914092 0.144791 -0.377307
0.104331 0.771608 -0.002998 0.984245 -0.04351 0.155444
-0.493865 0.149757 0.064157 -0.264578 0.824804 0.475805
-0.146993 0.518544 0.04579 -0.214672 0.475353 0.850624
0.027101 0.527288 -0.120692 -0.037056 0.185466 -0.981521
-0.085997 -0.14791 0.115175 -0.295324 0.013711 0.95523
0.156122 0.445456 -0.141429 0.237041 -0.135164 -0.961909
0.133569 0.281345 -0.120617 0.712485 -0.055822 -0.697622
0.020081 -0.183541 0.073372 0.965238 -0.076808 0.246592
-0.073218 0.360314 0.088941 -0.579084 -0.050936 0.811801
0.1876 0.171153 -0.021862 0.899221 0.210067 -0.381098
0.038113 -0.003777 -0.149096 -0.260592 -0.220915 -0.935756
0.135124 -0.706113 -0.093094 0.429323 0.029471 -0.902009
-0.137943 0.004953 -0.007495 -0.990299 -0.086053 -0.088596
0.124683 0.316573 0.091723 0.5519 0.080743 0.829865
0.098725 -0.137404 -0.115173 -0.151293 -0.247013 -0.953195
-0.102024 0.08828 -0.080822 -0.778161 0.17539 -0.6015
-0.041702 -0.781696 0.040084 0.122793 0.742658 0.647691
0.1189 -0.352533 0.076921 -0.234431 -0.197063 0.951729
0.047024 0.068965 -0.15023 -0.184328 0.260513 -0.946907
0.018722 -0.765951 -0.061098 0.996374 -0.034388 -0.064585
0.140693 -0.787612 -0.110067 0.329534 0.426622 -0.841036
0.088644 -0.503503 0.026057 -0.558006 0.035692 0.828801
-0.084916 -0.47063 -0.089791 -0.451397 0.109457 -0.885011
0.021362 -0.677702 -0.017639 0.864802 -0.209097 0.45617
0.102429 0.801927 -0.038305 0.89375 0.425311 -0.065524
0.080163 0.330428 0.106969 0.360871 0.118401 0.921824
0.097775 -0.49753 0.031726 -0.570204 -0.013903 0.821158
-0.058744 0.003458 -0.131744 -0.271297 -0.08574 -0.958491
-0.128191 -0.55083 -0.060673 -0.91675 0.070196 -0.391021
0.11995 0.192491 -0.106388 0.487874 -0.146277 -0.858218
-0.057983 -0.163955 0.121845 -0.145875 0.008066 0.988517
0.122107 -0.197702 -0.104308 0.099177 -0.144008 -0.982287
-0.136486 -0.419444 0.014816 -0.990576 0.03054 0.12906
-0.072643 0.524313 0.048323 -0.112519 0.564919 0.816741
0.205697 -0.105626 -0.036562 0.915772 0.070463 -0.39408
0.026064 -0.651682 -0.046074 0.965939 0.054223 -0.2438
-0.26098 0.285336 -0.030665 0.70635 -0.673087 0.214892
-0.02377 -0.500522 0.052314 0.441388 -0.258617 0.858932
0.522939 0.189846 -0.050337 0.149106 -0.493265 -0.851541
-0.045031 -0.458488 0.072945 0.209484 -0.239716 0.947942
-0.043274 0.177408 -0.102645 -0.468587 -0.278295 -0.834053
0.023191 -0.198424 -0.032437 0.797085 0.054346 -0.503291
-0.034509 -0.852206 -0.131614 0.525631 -0.515642 -0.649101
0.086039 0.623912 -0.041867 0.725513 0.546814 -0.409024
0.59854 0.08444 0.077186 -0.816926 -0.073681 0.550905
0.105507 -0.869832 0.057198 -0.130965 -0.982711 -0.022548
0.131873 0.062833 -0.129412 0.595361 0.174274 -0.783793
0.313921 0.307342 -0.088141 -0.703115 -0.71056 0.001091
0.144071 -0.715635 0.011562 0.399689 -0.240855 0.873367
-0.018028 0.071468 -0.137849 -0.184916 0.229166 -0.955006
0.075754 -0.514493 0.016565 -0.653179 0.015932 0.756944
-0.268762 0.275155 -0.052842 0.746039 -0.660803 -0.072212
0.097437 0.164056 -0.115261 0.258063 0.160069 -0.952557
0.008052 -0.317504 -0.048101 0.761922 -0.039064 -0.646408
0.162545 -0.83436 -0.042017 0.978052 0.035506 -0.023564
0.187156 -0.770125 -0.021292 0.954699 -0.288836 -0.033701
-0.024067 0.576239 -0.094817 -0.198263 0.794595 -0.529822
0.008663 0.556298 0.027286 -0.073739 0.429575 0.891661
0.040844 0.480971 -0.127222 -0.181594 0.070442 -0.980739
-0.067302 0.189303 -0.091353 -0.577916 -0.155499 -0.800124
-0.099107 -0.022469 0.105018 -0.616902 0.024309 0.780425
0.20111 -0.331886 0.030899 0.935691 -0.055112 0.348041
-0.011715 -0.601574 0.024452 0.280521 -0.128029 0.949929
0.181812 -0.622562 0.017854 0.277926 -0.010106 0.955596
-0.45596 0.204423 -0.007487 -0.796325 0.593185 0.107943
-0.34323 0.266839 0.006253 0.015736 0.179261 0.983563
-0.134621 0.402237 -0.059319 -0.161454 -0.919304 -0.187908
-0.121734 -0.342906 0.068761 -0.981334 0.028327 0.189237
0.101254 -0.712611 -0.090492 -0.570536 0.086348 -0.81472
-0.153779 0.513706 -0.079501 -0.467923 0.484805 -0.735947
0.610405 0.063994 0.084241 -0.772822 -0.545327 0.288422
-0.143821 -0.060835 0.00663 -0.999305 0.030966 -0.013013
-0.046152 -0.629137 0.029999 0.375165 -0.25094 0.890927
0.165015 0.510728 -0.128872 0.139772 0.350379 -0.924411
-0.003618 0.649213 0.012431 -0.837001 -0.220926 0.496581
0.048183 -0.260793 -0.052124 -0.823734 -0.005764 -0.566781
0.117201 -0.333361 -0.099069 0.274997 0.039462 -0.960629
-0.120826 -0.497777 0.02816 -0.81019 -0.241753 0.533923
0.074617 0.501303 0.064567 0.110116 0.476293 0.870748
-0.081542 0.532005 -0.10281 -0.335062 0.403663 -0.847081
0.018197 0.669141 -0.064439 -0.393321 -0.295728 -0.861571
0.203628 0.042296 0.037018 0.954503 0.188506 0.229068
0.124416 0.211583 -0.109193 0.621696 -0.301782 -0.721886
0.055716 0.360716 -0.136276 -0.335613 -0.027401 -0.941491
0.128631 0.534995 0.024259 0.256941 0.629734 0.732618
-0.140371 -0.079474 0.042123 -0.950806 0.016251 0.308787
0.094591 0.756951 0.038579 0.926867 -0.015757 0.370187
-0.040763 0.001167 0.136126 -0.268685 0.398462 0.874251
0.177393 -0.02506 0.086485 0.691848 0.057534 0.719448
0.11291 -0.413044 -0.102253 -0.121425 0.040036 -0.987674
-0.508613 0.135489 0.004708 -0.921754 0.312291 -0.182153
-0.108986 -0.099337 -0.071629 -0.768149 -0.119024 -0.628771
0.171529 -0.719919 -0.06015 0.815828 -0.08649 -0.571205
0.037811 -0.081452 0.111916 0.078242 -0.55046 0.828148
0.174091 -0.860709 0.09352 0.754198 -0.523711 0.012183
-0.115908 -0.205859 -0.041595 -0.851762 -0.098907 -0.513364
-0.059015 -0.657192 -0.10743 0.148262 0.096139 -0.981673
0.198205 -0.006712 0.057048 0.877291 -0.067104 0.464782
0.100457 0.582587 -0.09437 0.14696 0.760152 -0.632665
0.564036 0.08654 0.001599 -0.789209 -0.613154 0.013055
-0.122451 0.002355 0.083806 -0.799879 -0.144246 0.558149
0.060528 -0.728559 -0.018774 -0.878 -0.173417 -0.435973
0.004088 -0.37596 -0.048702 0.659228 0.049632 -0.750037
0.185043 0.565901 -0.061189 0.31038 0.931797 -0.140378
0.108901 -0.183595 -0.106 -0.085407 -0.146674 -0.984897
-0.032451 -0.136191 0.124367 -0.004558 -0.06992 0.997327
0.05291 0.274958 -0.131912 -0.375469 -0.075008 -0.922721
0.153804 -0.849327 -0.094378 0.868018 -0.067118 -0.487117
0.498542 0.227663 -0.06908 0.432649 0.346283 -0.753776
-0.084497 -0.632935 -0.104789 -0.235438 0.069771 -0.96799
0.026778 -0.579786 -0.01528 0.990837 0.032118 0.124341
0.172729 -0.764199 -0.058895 0.808138 0.406023 -0.419963
0.203217 -0.321807 0.026059 0.959086 -0.047339 0.277774
-0.01236 0.313376 0.113646 -0.11639 0.078011 0.989747
-0.093931 -0.470787 -0.084143 -0.555001 0.113419 -0.824007
-0.480074 0.130503 -0.008291 0.311481 -0.790769 -0.521938
0.301187 0.441288 -0.031859 0.75752 0.391847 0.489262
0.47764 0.184168 -0.002076 -0.590328 -0.782757 0.191363
-0.095877 -0.858565 -0.08773 -0.811514 -0.530325 -0.129523
0.602698 0.070154 0.075549 -0.736934 -0.585415 0.283218
0.08492 -0.448049 -0.089108 -0.639335 0.055434 -0.766321
-0.005062 0.753635 -0.107092 -0.609115 -0.297471 -0.732316
-0.078333 -0.295703 0.107216 0.036058 -0.091854 0.995003
0.208227 0.501481 0.016768 0.262118 0.267077 0.925708
0.044054 0.869667 -0.023893 0.1217 0.969578 -0.176618
0.110529 0.045923 0.116599 0.431163 0.207351 0.874904
0.039364 0.830552 0.06676 0.112405 0.49718 0.859202
-0.009875 -0.639967 -0.077687 0.661974 0.038138 -0.748322
-0.098893 -0.850722 -0.029736 -0.731901 -0.660651 -0.162816
0.134973 0.202146 -0.097835 0.672668 -0.134597 -0.725433
0.050172 0.486359 -0.12877 -0.200423 0.078647 -0.975848
-0.335018 0.327148 -0.074544 -0.494295 0.738286 -0.45159
0.192641 0.070872 0.049911 0.863043 0.26363 0.426289
0.203897 0.140669 0.002281 0.913854 0.376414 -0.068931
0.196754 -0.397623 0.029687 0.942555 -0.036666 0.331636
-0.145518 0.485643 -0.094875 -0.290499 0.119864 -0.94119
0.542443 0.201202 0.000833 0.84999 0.34757 0.346949
0.00655 -0.563747 -0.059921 0.793983 -0.013254 -0.607474
-0.124923 0.015369 -0.059661 -0.893396 0.034078 -0.447903
0.046377 -0.536567 -0.039889 -0.902495 -0.027424 -0.423306
0.14043 -0.406358 -0.094815 0.510147 0.069662 -0.856997
-0.102634 -0.171495 -0.066226 -0.761172 -0.082926 -0.642656
0.611503 0.093237 0.065321 0.761017 0.646631 0.05025
-0.072504 -0.801959 0.051564 -0.425506 0.768693 0.462342
-0.111862 -0.05022 0.094309 -0.72397 0.036373 0.688788
0.187962 -0.672028 -0.050694 0.705209 -0.296777 -0.642163
0.048132 0.716105 0.091302 0.577934 -0.127985 0.799263
0.083274 -0.826262 -0.014119 -0.443738 -0.886212 0.026975
0.140886 -0.471401 0.063168 -0.439769 -0.125089 0.887924
-0.031633 -0.22019 -0.089597 0.264753 -0.001994 -0.963959
-0.032888 -0.861356 -0.116957 0.219699 -0.953346 -0.191882
0.072973 -0.332676 0.062445 -0.515827 -0.25148 0.818105
0.163355 0.193855 -0.066756 0.793341 0.039197 -0.607013
0.612868 0.059574 0.05429 -0.756854 -0.647525 -0.066421
-0.05824 -0.203115 0.119453 -0.133348 -0.139784 0.976466
0.199255 -0.458254 -0.002434 0.993346 -0.02228 0.106129
-0.016064 -0.236618 -0.082748 0.523456 -0.009237 -0.851861
0.306684 0.380212 -0.14325 0.02559 -0.179719 -0.980943
-0.002833 0.636652 0.010301 -0.815082 -0.118275 0.561693
0.256007 0.519908 -0.03746 0.701293 0.682637 0.192984
-0.030877 0.383463 -0.129129 -0.047559 -0.023607 -0.998563
0.379186 0.295452 -0.040307 0.109146 0.301114 0.940224
-0.015661 -0.831958 -0.096914 0.336729 -0.938543 -0.033041
-0.095635 -0.857688 -0.064879 -0.775268 -0.559714 0.110612
-0.459709 0.14404 -0.021442 0.316445 -0.851463 -0.414254
0.025855 -0.183542 -0.031212 -0.650162 0.034635 -0.751626
0.09563 -0.675094 -0.083068 -0.614437 0.035806 -0.787958
0.56276 0.129339 0.050282 -0.32841 0.171789 0.926003
-0.103799 -0.825213 -0.018305 -0.987932 0.01395 0.039647
-0.422532 0.213215 0.014717 -0.173927 0.187734 0.960624
0.05709 -0.4435 -0.060101 -0.757891 0.037785 -0.651096
-0.019114 -0.289864 0.095354 0.343395 -0.178692 0.920291
0.178711 0.239056 0.035192 0.926609 0.005067 0.373441
0.135239 -0.816702 0.071583 0.286286 0.896289 0.332671
0.20033 -0.593452 -0.036599 0.993966 -0.053182 -0.092775
-0.185477 0.378386 0.01347 0.423996 -0.577922 0.696525
-0.041556 -0.086686 0.127755 -0.107069 -0.045689 0.992023
0.075527 -0.719722 0.035795 -0.056303 -0.040943 0.995748
-0.051106 0.326071 0.097701 -0.326063 -0.085484 0.938685
-0.113396 -0.279832 0.095218 -0.726831 -0.051373 0.6845
0.052928 0.265419 0.123836 0.213147 0.129689 0.968296
0.192679 -0.264592 -0.047785 0.778221 -0.237155 -0.581292
-0.122482 -0.614865 -0.07757 -0.762473 0.063375 -0.64256
0.29181 0.330707 -0.067703 -0.596874 -0.765652 0.217471
-0.255489 0.414471 0.005812 -0.663762 0.51421 0.542059
-0.018153 -0.190495 -0.083806 0.580066 -0.007441 -0.814447
0.132494 -0.459206 0.060508 -0.502486 -0.138062 0.853119
0.128689 -0.869383 -0.100344 0.108759 -0.981569 -0.142926
-0.079902 -0.55842 0.0612 0.440788 -0.175386 0.879474
0.1332 0.268754 -0.11968 0.706561 -0.098861 -0.699184
-0.0305 0.262065 0.111479 -0.299499 0.022561 0.953599
0.219589 0.514755 -0.115818 0.369282 0.576634 -0.727701
0.15869 -0.014693 -0.118866 0.730521 0.052201 -0.680823
-0.040854 0.385606 -0.128435 -0.141192 -0.03236 -0.988306
0.074886 0.191789 0.123409 0.44203 0.042437 0.893024
0.121631 -0.544481 -0.107573 -0.154985 -0.048434 -0.983489
-0.025529 -0.669969 -0.093473 0.533422 0.174754 -0.826602
-0.412832 0.206043 0.017617 0.011356 0.255234 0.963759
-0.059054 -0.864012 0.041742 -0.004074 -0.999807 -0.019006
-0.134128 -0.567231 -0.039507 -0.994838 -0.075763 -0.028558
0.059585 0.699964 -0.078141 0.416392 -0.5672 -0.708067
0.164939 -0.321272 -0.066578 0.680974 0.002575 -0.731999
0.18202 -0.449645 -0.073002 0.729289 0.150999 -0.666491
0.023803 -0.036111 -0.133003 -0.098384 -0.479077 -0.871087
0.056982 -0.336919 0.044532 -0.716327 -0.18657 0.671826
0.171599 0.128838 -0.059913 0.839468 0.181243 -0.510144
0.013936 -0.609446 -0.053225 0.728811 0.097803 -0.67748
-0.129569 -0.140657 -0.035195 -0.858134 -0.131939 -0.495885
0.165535 -0.311471 -0.06596 0.67832 -0.00893 -0.734249
-0.127483 0.012881 0.073414 -0.840524 0.233555 0.481305
0.014385 0.113566 0.132699 -0.095767 0.281059 0.953927
0.158981 0.106715 -0.087884 0.753844 0.271711 -0.596665
0.041418 -0.323397 -0.040985 -0.875462 -0.0248 -0.482449
0.168575 -0.10943 0.098463 0.650749 0.035907 0.758325
-0.103592 -0.841999 -0.036518 -0.918525 -0.343069 -0.11587
-0.046895 -0.748809 0.014746 0.558155 -0.472446 0.658607
0.063081 0.520581 -0.127823 -0.165738 0.173181 -0.969078
0.0973 -0.210367 -0.098318 -0.332542 -0.16711 -0.927391
0.058973 0.834553 -0.088799 0.326317 0.694382 -0.6362
0.117857 -0.681962 -0.094316 -0.130932 0.045503 -0.989302
0.018374 -0.405393 -0.031504 0.941499 -0.027448 -0.331894
-0.024902 -0.847335 -0.057444 0.686267 -0.721167 0.059357
-0.366077 0.204783 0.001353 0.502393 -0.682134 0.508231
0.057341 0.293813 -0.134656 -0.347207 -0.047838 -0.936226
0.16731 0.405876 -0.126938 0.282292 -0.399096 -0.869938
-0.324734 0.233565 -0.004051 0.567657 -0.693499 0.420469
0.042815 0.468225 -0.128431 -0.211971 0.062321 -0.973623
0.134414 -0.642945 -0.095542 0.148218 -0.089887 -0.984522
-0.037486 -0.115384 -0.104879 0.166425 -0.179317 -0.968529
-0.116912 0.553536 -0.060556 -0.415523 0.762805 -0.494641
0.07409 -0.785064 -0.059495 -0.874488 0.159725 -0.457028
-0.062534 -0.320643 -0.087776 -0.267069 -0.045306 -0.962606
0.183789 -0.571231 -0.074159 0.742472 -0.032529 -0.66881
0.087765 0.609055 -0.013636 0.872483 0.212344 0.423624
0.104083 -0.703296 0.034094 0.351157 -0.120587 0.918895
0.081642 0.767785 -0.098512 0.759419 -0.04345 -0.612038
-0.125675 -0.693793 -0.03685 -0.938824 0.031647 0.336224
0.2054 -0.24822 0.00311 0.999827 0.00109 0.002517
0.181486 -0.041686 -0.085607 0.850297 -0.090553 -0.517215
-0.029929 0.251758 -0.128786 -0.126465 -0.063864 -0.989694
0.297376 0.394933 -0.017866 0.401847 -0.032808 0.910974
-0.107 0.004329 0.102623 -0.683182 0.053917 0.72114
0.40741 0.252534 -0.033281 -0.257046 -0.012413 0.956343
0.132405 0.290986 -0.122461 0.680945 -0.051799 -0.729667
-0.279976 0.323987 0.008347 -0.029666 -0.042379 0.997284
0.040217 0.373091 -0.130368 -0.317308 -0.028126 -0.945793
0.066529 -0.809737 -0.014467 -0.9626 -0.248474 0.056507
0.054889 -0.664559 -0.033696 -0.87259 -0.149538 -0.463281
0.444364 0.243784 -0.106179 0.61956 -0.308575 -0.721166
-0.039585 0.040455 0.127583 -0.338944 0.163776 0.923265
-0.460092 0.147541 0.049185 0.656499 -0.297621 0.658803
-0.496401 0.154262 -0.003396 -0.778545 0.625418 -0.047935
-0.527718 0.103904 0.028431 -0.761766 0.290066 -0.481923
0.103933 0.397773 0.092074 0.243326 0.171753 0.953766
-0.423649 0.211257 -0.054589 -0.528132 0.06194 -0.846837
-0.117861 0.324488 -0.006337 -0.98273 -0.043928 0.176587
0.084038 0.660327 -0.009254 0.988122 -0.026277 0.120298
-0.024979 -0.826006 0.050199 0.920476 -0.194735 0.262127
-0.134021 -0.257886 0.013022 -0.987291 -0.122105 -0.092759
0.294163 0.469875 -0.040587 0.791505 0.435081 0.422577
-0.118384 0.050661 -0.06368 -0.848364 0.150604 -0.506223
0.201133 0.126344 -0.002059 0.934048 -0.243754 -0.194788
0.059878 0.056448 0.131655 0.035868 0.145645 0.98659
0.086388 0.524857 0.048793 0.188127 0.545747 0.816048
-0.034541 -0.263381 0.10589 0.178009 -0.18132 0.967159
-0.147663 0.547449 0.012425 -0.396968 0.814022 0.416227
0.133593 -0.293279 -0.090658 0.512164 -0.033141 -0.857754
0.055138 0.314284 0.117736 0.320481 0.182991 0.927631
-0.012958 -0.542614 -0.083331 0.652499 0.003079 -0.756091
-0.109214 -0.136525 -0.065661 -0.764687 -0.117015 -0.633254
0.165297 -0.501067 -0.094867 0.605283 -0.010402 -0.793785
0.020607 -0.247651 -0.03925 0.929075 -0.060183 -0.364263
0.093546 -0.845711 0.137672 -0.83895 0.456319 0.290653
0.151925 -0.08171 0.107591 0.68642 0.03938 0.677733
-0.054142 0.455203 -0.131402 -0.102599 -0.006763 -0.994108
-0.052607 -0.315052 -0.089983 -0.070397 -0.061715 -0.993453
0.178584 0.157514 0.049245 0.776277 0.133695 0.615231
-0.07474 0.487788 0.066872 -0.243496 0.379795 0.889958
0.160518 0.545919 -0.108372 0.282464 0.648594 -0.706007
-0.456328 0.138723 0.014681 0.612213 -0.783258 0.100367
-0.119575 0.356518 0.009965 -0.973779 -0.170194 0.145002
0.098642 0.810166 -0.014006 0.941019 0.322383 0.052076
0.167902 -0.073773 0.096619 0.613671 0.053372 0.786596
-0.03632 -0.178217 -0.092861 0.366516 -0.030074 -0.929897
0.036355 0.337748 0.115834 0.077478 0.238443 0.965945
0.124561 -0.380604 0.072642 -0.269341 -0.189608 0.943714
0.557007 0.095042 -0.011205 -0.732316 -0.670177 -0.096188
-0.048276 -0.250037 0.110789 0.127589 -0.123307 0.984032
0.164748 0.553785 -0.005341 0.200335 0.733757 0.649153
0.139977 0.002379 0.116165 0.456454 -0.147627 0.865698
-0.07303 -0.792574 0.040345 -0.586143 0.53448 0.602017
0.11532 -0.034304 0.12176 0.325047 -0.073047 0.942241
0.186397 -0.573963 0.026707 0.726916 -0.185001 0.659601
-0.060111 0.441792 0.08782 -0.18043 0.254061 0.948608
0.324963 0.399923 -0.139906 0.354186 0.24773 -0.896702
0.330798 0.425252 -0.115352 0.586158 0.631802 -0.497422
0.519529 0.176265 0.016108 -0.226474 0.49109 0.833339
0.161001 -0.193939 -0.085996 0.617893 -0.084948 -0.781564
0.131234 0.585648 -0.050901 0.552474 0.810211 0.163113
0.063632 0.661816 0.047617 0.5383 -0.836807 0.076398
0.252843 0.422263 -0.138865 -0.200117 0.014652 -0.978751
0.260025 0.453928 -0.132053 0.164669 0.492114 -0.85372
0.185435 -0.154418 0.083541 0.700245 -0.018395 0.711094
0.521165 0.148922 -0.022663 -0.709848 -0.699269 -0.076934
0.153281 -0.76717 -0.092571 0.671411 0.315575 -0.668123
-0.101636 -0.241284 0.107108 -0.424621 -0.023677 0.904824
0.073688 -0.140217 0.085941 -0.595639 0.032011 0.802553
0.069822 0.37977 0.102221 0.240963 0.220252 0.944126
-0.127169 0.071905 -0.033799 -0.962453 0.130012 -0.225291
-0.119943 -0.024807 0.081142 -0.774253 0.067247 0.628303
-0.089085 0.356752 0.071641 -0.750209 -0.107956 0.650284
0.173755 -0.532439 0.047818 0.537982 -0.215445 0.813519
0.111921 0.20981 -0.117746 0.533467 -0.373544 -0.758303
0.190408 -0.564382 0.023558 0.874212 -0.072867 0.477048
0.10826 0.431841 -0.146395 -0.016944 -0.038789 -0.998809
-0.427207 0.160786 -0.013986 0.534259 -0.842891 -0.038785
-0.114247 -0.684817 0.009552 -0.868981 -0.172997 0.450557
0.224495 0.43995 -0.13336 -0.185494 -0.099955 -0.976084
0.203471 -0.03266 -0.035711 0.941813 0.022221 -0.333513
0.174573 0.095222 -0.071595 0.807193 0.209387 -0.551037
0.046022 0.162424 -0.119655 -0.093559 0.053126 -0.993688
0.088821 0.76026 0.050095 0.849158 0.065438 0.510681
0.037589 0.808129 0.079033 0.035603 0.353196 0.93207
0.628745 0.064638 0.070803 0.851477 0.513729 0.077838
0.164832 0.053159 0.093112 0.476662 0.279123 0.828838
0.10332 -0.86737 -0.038531 -0.242636 -0.949111 0.186826
0.171474 -0.294767 -0.061635 0.675936 -0.108298 -0.72875
0.199101 0.393003 -0.028231 0.985849 -0.150742 0.022502
0.174306 -0.852005 0.066722 0.906061 0.388292 -0.014048
0.193436 0.14089 0.028909 0.869651 0.053518 0.489028
0.065376 -0.369622 -0.071467 -0.756235 -0.054875 -0.650145
0.465312 0.236595 -0.016706 -0.198618 0.489662 0.841101
0.156239 0.395817 0.066027 0.70853 0.013285 0.705525
-0.095509 0.244763 0.067667 -0.684012 0.125732 0.717737
0.136548 -0.869288 -0.094419 0.185246 -0.967915 -0.124098
-0.294626 0.365387 -0.015017 -0.769088 0.558887 0.292124
0.167537 -0.615641 -0.083878 0.610152 -0.149817 -0.777299
0.203259 -0.24284 -0.033671 0.963889 -0.130984 -0.226714
0.098739 -0.127577 -0.117615 -0.244727 -0.214314 -0.943192
0.168672 -0.410536 0.071415 0.3342 -0.073708 0.934685
-0.056436 0.407988 -0.126791 -0.226407 -0.090095 -0.969518
-0.314299 0.349191 -0.020131 -0.60541 0.713802 0.342551
0.048244 -0.236707 -0.055314 -0.814407 -0.146123 -0.561135
0.139616 -0.826072 0.106374 0.226982 0.965136 0.126
-0.125221 0.155569 -0.017792 -0.922452 0.054602 -0.37823
0.017399 -0.74416 -0.071761 0.914784 -0.022552 -0.397659
0.062878 0.839271 0.046761 0.581629 0.487165 0.650955
0.172062 -0.860661 0.11985 0.538112 -0.805143 0.128459
-0.140524 0.546538 -0.054065 -0.504788 0.726094 -0.466403
0.152179 0.168652 -0.08251 0.747517 0.056357 -0.661107
0.110767 -0.869883 0.091003 0.025648 -0.999601 0.009717
0.175563 -0.346664 -0.056641 0.709264 0.094444 -0.697709
0.049849 0.455796 -0.131796 -0.417141 0.078857 -0.902794
-0.125012 -0.103345 0.080541 -0.805951 0.039715 0.590586
-0.103415 -0.725212 -0.004468 -0.668469 -0.337975 0.653452
-0.017634 0.464267 0.087939 -0.102112 0.38118 0.914788
0.082521 0.298713 -0.141377 -0.094369 -0.108839 -0.985951
0.027124 0.549675 0.031479 0.038169 0.572107 0.81875
0.038221 0.077177 0.133039 0.083904 0.086825 0.991697
0.008075 -0.057766 0.126673 0.315324 -0.212467 0.923178
0.022904 0.54174 0.038517 0.09037 0.71702 0.690122
0.141359 0.279767 0.079733 0.742948 0.047948 0.667447
-0.096702 -0.849263 0.132243 -0.898977 0.070211 0.370452
0.180013 0.195682 0.039814 0.925597 0.051149 0.36922
-0.086884 -0.694169 0.024519 0.040074 -0.415511 0.905395
0.313187 0.42295 -0.038759 0.753264 0.24976 0.607093
-0.016924 0.016897 -0.14421 -0.189055 -0.313063 -0.92918
-0.114855 -0.390509 -0.050049 -0.734377 -0.118404 -0.668198
0.324786 0.374041 -0.140775 0.215506 -0.059449 -0.971648
-0.152059 0.549062 0.003317 -0.412509 0.873906 0.239429
0.073681 -0.434591 0.016883 -0.704875 -0.309858 0.637687
-0.128791 -0.360107 0.002739 -0.999888 0.009907 -0.001909
0.529165 0.17725 0.019331 -0.32419 0.314561 0.859975
0.201604 -0.02319 0.05314 0.890146 0.065418 0.450429
0.254466 0.36483 -0.112238 -0.534551 -0.778808 -0.320413
0.155467 0.049684 0.097037 0.311058 0.31272 0.892138
-0.088747 0.084503 0.088916 -0.476327 0.362262 0.777743
-0.003804 -0.480032 0.044365 0.688574 -0.194352 0.698038
0.484153 0.242612 -0.072978 0.638438 0.481253 -0.580527
0.053166 -0.231975 -0.063466 -0.78051 -0.153596 -0.605472
0.221531 0.425563 -0.128535 -0.392933 -0.324266 -0.852079
-0.024531 -0.717439 -0.105601 0.520079 0.289354 -0.802685
0.019183 -0.011066 -0.143463 -0.118762 -0.279336 -0.95166
-0.025146 0.558939 -0.106054 -0.135755 0.498436 -0.855559
0.050181 -0.251152 0.052688 -0.830265 -0.075458 0.551164
-0.136679 -0.212934 0.029766 -0.996742 -0.075549 0.00295
0.095244 0.787897 -0.077095 0.891851 0.090675 -0.438964
-0.063416 0.388811 -0.122346 -0.314721 -0.090202 -0.944875
-0.111598 -0.766358 -0.010065 -0.699641 0.017778 0.628952
0.194919 -0.475422 0.015003 0.952149 -0.000642 0.305097
0.13153 -0.143023 0.109471 0.191096 -0.19635 0.960938
0.095932 0.715612 -0.035571 0.859019 -0.454631 -0.215807
-0.113874 0.448006 -0.114262 -0.429965 -0.027962 -0.901329
-0.133527 -0.414186 0.029258 -0.960037 0.078328 0.265543
0.172124 -0.15274 -0.07994 0.684469 -0.091754 -0.723223
-0.050085 -0.296802 -0.091408 -0.035195 -0.088176 -0.99279
-0.139104 -0.027732 -0.010929 -0.968271 0.192224 -0.144016
0.509453 0.170975 0.018208 -0.010307 0.180556 0.932682
0.201622 0.559001 -0.045687 0.257759 0.958617 0.041492
0.041279 0.428483 0.093755 0.116334 0.323225 0.938454
-0.061708 -0.376713 -0.084412 -0.15682 -0.125398 -0.977515
0.107355 0.077071 -0.140703 0.532266 0.264576 -0.804013
0.180628 -0.674056 -0.057077 0.697953 -0.314182 -0.642496
0.086033 0.51673 0.054183 0.218494 0.560866 0.797913
0.186431 0.452932 -0.135752 0.146803 -0.052993 -0.9877
0.093102 0.727418 0.030066 0.951097 -0.057102 0.297269
0.043251 0.237206 -0.126889 -0.158179 -0.037223 -0.985076
0.048996 0.705457 -0.086944 0.242312 -0.639539 -0.728355
-0.434508 0.229007 -0.005916 -0.804454 0.524186 0.202505
-0.054336 -0.152413 0.122028 -0.088471 -0.021919 0.994848
-0.037412 0.778912 -0.046432 -0.989907 0.078346 -0.116556
-0.047149 0.088731 -0.125627 -0.451429 0.308791 -0.835617
-0.293004 0.261409 -0.011478 0.78655 -0.443341 0.407107
-0.227322 0.415332 0.029736 -0.525194 0.074497 0.844188
0.171497 0.069472 0.081636 0.734288 0.21044 0.645032
0.202114 -0.286535 0.035636 0.955069 -0.052577 0.291264
0.212163 0.447217 0.019951 0.485437 -0.025242 0.86749
-0.009093 -0.259962 -0.076789 0.641205 -0.081401 -0.761611
-0.138088 0.400214 -0.035184 0.314 -0.880168 -0.035231
0.093896 0.815423 0.014437 0.805333 0.52757 0.26258
-0.290801 0.386155 -0.036536 -0.99404 0.051077 0.088857
0.343997 0.341223 -0.136577 0.074393 -0.025502 -0.994113
-0.025796 0.300991 -0.130882 -0.108573 0.036856 -0.99229
-0.0144 -0.358014 -0.067347 0.681765 -0.105701 -0.72385
0.504499 0.222123 -0.025636 0.743416 0.627487 0.205191
0.170983 -0.354074 -0.062294 0.676992 0.135127 -0.722711
0.077794 0.82407 -0.085155 0.640486 0.533483 -0.551725
0.171362 -0.409308 -0.075061 0.632304 0.072562 -0.771228
0.087479 -0.484585 -0.093215 -0.59168 -0.004398 -0.804779
-0.422561 0.200095 0.01815 -0.117309 0.278184 0.952449
0.059299 0.731165 0.078646 0.532484 0.341777 0.768187
-0.093655 -0.8633 0.084943 -0.027543 -0.999611 0.002776
-0.060341 0.466546 0.079267 -0.202561 0.390859 0.895021
0.067126 -0.813485 -0.027781 -0.975283 -0.195649 -0.029531
-0.105822 0.056567 0.091735 -0.515536 0.277644 0.809869
0.054375 -0.470341 -0.058848 -0.772619 0.034737 -0.633113
0.143758 -0.252644 -0.087542 0.511266 -0.09379 -0.85422
-0.130216 0.061642 0.033247 -0.921913 0.33128 0.198374
-0.184385 0.367419 -0.073471 0.586589 -0.65351 -0.476541
-0.407102 0.262485 -0.052696 -0.788003 0.558864 -0.249022
-0.231732 0.324293 -0.063906 0.71136 -0.558791 -0.383145
-0.066593 0.519553 -0.11419 -0.220625 0.42137 -0.879126
-0.007165 -0.136351 0.118246 0.536859 -0.158072 0.822906
0.186246 0.068789 0.061671 0.829315 0.167586 0.532032
0.176562 -0.17497 0.088795 0.477645 -0.095657 0.869939
0.016017 0.165595 -0.117205 -0.093499 0.0173 -0.993902
0.087069 -0.737973 -0.070106 -0.860457 -0.073335 -0.503417
0.081519 -0.812649 -0.084086 -0.89869 0.063784 -0.426012
0.015094 -0.775188 -0.080912 0.906545 0.049572 -0.410958
-0.120799 0.204104 -0.016939 -0.924994 0.12416 -0.35626
-0.057013 0.544699 0.034714 -0.188116 0.64892 0.734577
0.095845 -0.322752 -0.098108 -0.304522 0.010749 -0.947878
0.203959 -0.543791 -0.035653 0.96652 -0.027113 -0.249112
0.010125 -0.529017 -0.053239 0.863493 0.05676 -0.501103
0.14902 -0.773657 0.035332 0.39579 0.295261 0.862957
-0.024733 -0.350458 -0.077483 0.555298 -0.113295 -0.822898
0.008768 -0.729835 -0.083461 0.732333 0.108027 -0.671821
-0.106363 -0.216115 0.104835 -0.554459 -0.061486 0.822148
-0.347123 0.276762 -0.08939 -0.112094 -0.145767 -0.980892
0.175939 -0.360112 0.070673 0.232304 -0.099997 0.966959
0.079804 0.592565 0.002652 0.723762 0.114275 0.677874
0.163387 0.340713 0.054931 0.674222 -0.077959 0.733923
-0.072752 -0.164963 -0.093528 -0.570411 -0.149257 -0.807065
-0.13522 0.41626 0.047545 -0.521835 -0.712304 0.455675
-0.015949 -0.298561 0.092092 0.405104 -0.17383 0.897226
0.047938 -0.016228 -0.148039 -0.308527 -0.352244 -0.883576
0.087473 0.158859 -0.119197 0.202767 0.183797 -0.960957
0.143476 0.508 0.040935 0.358377 0.543582 0.755696
0.051386 0.835634 0.05877 0.420331 0.524441 0.73633
0.155353 0.039563 0.100435 0.457005 0.308872 0.831856
0.214383 -0.109195 0.01345 0.998441 -0.010499 0.049132
0.369101 0.355778 -0.07729 0.668046 0.651146 0.358767
0.114426 -0.61853 0.036171 -0.167803 0.208836 0.955569
0.047836 -0.526143 -0.043281 -0.879725 -0.062398 -0.471242
0.261721 0.499359 -0.01865 0.72838 0.417774 0.539565
0.074605 0.834224 0.038905 0.751863 0.35604 0.550242
0.09327 0.106955 0.120587 0.358475 0.056153 0.930344
-0.064667 -0.170498 -0.095343 -0.215804 -0.161294 -0.959865
0.130449 0.37303 0.085361 0.479244 0.052829 0.875832
0.544157 0.122126 0.010657 -0.85909 -0.498613 0.044842
-0.110269 -0.739572 -0.00914 -0.33523 0.314938 0.87692
-0.252073 0.430052 -0.058421 -0.674184 0.64523 -0.356557
0.186787 -0.20576 -0.064337 0.626472 -0.087033 -0.774428
-0.040985 0.182619 0.109864 -0.555607 0.088195 0.826369
-0.48756 0.165737 0.016656 -0.742133 0.666306 0.032467
-0.084658 0.503221 -0.116184 -0.298077 0.338052 -0.891213
0.364828 0.268539 -0.056537 -0.627356 -0.606389 0.483031
-0.250251 0.364387 -0.097857 0.015869 -0.049495 -0.996281
-0.126882 -0.347767 -0.022306 -0.980254 0.070356 -0.17982
-0.129095 -0.283958 0.002675 -0.995954 -0.065141 -0.054528
0.155821 -0.148683 0.101651 0.528694 -0.291892 0.795427
-0.090341 0.151521 0.077396 -0.693521 0.010127 0.719753
0.002396 0.772345 -0.115635 -0.484071 -0.046209 -0.872104
0.053229 -0.684633 0.006997 -0.976395 -0.000411 0.210536
0.553951 0.14178 0.044096 -0.433103 0.204199 0.877011
-0.001697 0.019745 -0.148719 -0.183692 -0.431189 -0.876213
0.215432 0.403425 -0.068214 -0.904952 -0.414153 0.037569
0.195994 0.15896 -0.001763 0.834369 0.532627 -0.062818
0.031128 0.395793 -0.128992 -0.119382 0.004145 -0.992779
-0.001525 0.708575 0.071943 -0.640562 0.003277 0.763289
0.538321 0.129973 0.009362 -0.762595 -0.645686 0.02984
-0.032682 0.176466 -0.106883 -0.366471 -0.283681 -0.886064
0.162034 -0.854778 0.15776 0.866242 0.179744 0.342381
0.634662 0.053334 0.076044 0.920041 0.379845 0.091634
0.16114 -0.536257 0.051999 0.192484 -0.283372 0.934493
0.161267 0.250106 0.058416 0.721345 0.084445 0.68586
0.173847 -0.686887 -0.060296 0.770005 -0.155051 -0.617786
-0.006074 -0.132366 -0.08156 0.71317 -0.218466 -0.664465
0.204672 0.012973 0.045744 0.967303 0.022494 0.243859
-0.106827 0.419788 -0.112372 -0.442074 -0.229163 -0.86133
-0.070946 0.247228 -0.106576 -0.621406 -0.242121 -0.744844
-0.156382 0.380834 -0.015325 0.672959 -0.717589 0.176497
0.192103 0.10605 0.03192 0.977292 -0.075144 0.191258
0.205306 0.471361 -0.133875 0.083347 0.060967 -0.993082
0.106033 -0.491649 -0.103907 -0.346873 0.008386 -0.935923
0.060704 0.854787 -0.059541 0.37436 0.820052 -0.427434
-0.143986 -0.133361 0.026403 -0.996543 -0.010604 0.074889
0.09848 -0.3611 -0.099313 -0.317098 -0.018 -0.941582
0.192358 0.156421 0.025606 0.872214 0.30207 0.37946
-0.151298 0.390723 -0.053552 0.719973 -0.662146 -0.207331
0.103825 -0.837522 -0.112303 -0.52414 -0.042841 -0.849979
-0.109571 -0.447375 -0.066378 -0.711642 0.195681 -0.67445
0.189105 -0.514308 -0.069759 0.832883 0.011772 -0.553253
-0.024847 0.706484 -0.019524 -0.676645 -0.667564 -0.147126
-0.114281 0.370977 0.043294 -0.857267 -0.310712 0.405461
-0.004451 0.244793 0.121564 -0.367497 0.080108 0.926436
0.248821 0.460945 -0.000502 0.275965 -0.125403 0.952309
-0.138018 -0.152885 0.051595 -0.972624 -0.028193 0.226293
-0.129519 -0.530498 -0.054053 -0.889004 0.04082 -0.454826
0.042202 0.05564 -0.152389 -0.13606 0.21408 -0.967259
-0.115386 -0.346059 0.08619 -0.797878 -0.097704 0.59409
0.021068 -0.491918 0.008385 0.884502 -0.019063 0.465472
0.334377 0.373625 -0.050712 0.688244 0.364613 0.620502
0.132376 -0.530285 0.049546 -0.365766 -0.174885 0.913429
-0.485935 0.109418 0.049127 0.877693 -0.432768 0.184335
0.212557 -0.118577 0.026944 0.975501 -0.052316 0.203431
-0.049267 -0.544727 -0.10172 0.19052 0.03726 -0.980101
0.344653 0.309346 -0.044157 -0.296128 -0.282344 0.888663
0.475786 0.183336 -0.034329 -0.569289 -0.819706 -0.041337
0.095732 0.764699 -0.078813 0.893709 -0.045644 -0.438739
0.135036 -0.835757 -0.114629 0.446674 -0.032305 -0.891155
0.185465 -0.237466 -0.06265 0.699126 -0.117705 -0.705026
0.166324 -0.729021 -0.003211 0.429319 0.218135 0.851733
-0.445476 0.218683 -0.009946 -0.787925 0.59676 0.126957
0.017817 0.568449 -0.103935 -0.064723 0.439211 -0.895251
0.167427 -0.56088 0.042365 0.279155 -0.197664 0.934588
0.079931 0.648295 0.006658 0.894245 -0.146104 0.412313
0.054034 -0.301406 0.049145 -0.740168 -0.097663 0.66464
0.198618 0.061246 0.041091 0.953036 0.205467 0.217244
0.205427 -0.263602 -0.001855 0.999673 -0.000341 -0.023327
0.19003 -0.318448 -0.039252 0.771821 -0.00825 -0.635551
-0.363 0.253318 -0.083828 0.00495 -0.268159 -0.961695
-0.047483 0.448019 -0.131502 -0.073908 -0.061964 -0.994706
-0.111858 -0.846701 0.065512 -0.923276 0.191153 0.06928
0.266551 0.489646 -0.018005 0.648029 0.456366 0.606604
-0.118411 -0.596619 -0.080103 -0.687459 0.043556 -0.723476
0.110477 0.513867 0.04899 0.295286 0.537839 0.787949
-0.109211 -0.115975 0.102006 -0.685244 0.042684 0.726704
0.041712 -0.136915 0.058042 -0.088778 -0.531095 0.806929
0.111419 -0.218578 0.092134 -0.028396 -0.193925 0.979845
-0.108224 -0.050733 -0.084785 -0.779644 -0.148013 -0.60832
0.059535 -0.617201 -0.054202 -0.77028 -0.0597 -0.634587
0.124728 -0.008212 0.119187 0.344256 -0.20405 0.914942
0.141334 -0.236717 0.086764 0.110181 -0.223288 0.968287
-0.126701 -0.251374 -0.017577 -0.916733 0.020387 -0.394335
-0.537217 0.070295 0.030653 0.578528 -0.692235 -0.426484
0.168212 -0.708381 -0.065521 0.81303 -0.025984 -0.58156
0.024273 -0.121494 -0.053986 -0.508026 -0.535546 -0.497178
0.205478 -0.394065 -0.016941 0.99178 -0.038082 -0.113508
0.113789 -0.520556 -0.106432 -0.266666 -0.006758 -0.960823
-0.107579 0.470267 -0.115464 -0.450871 0.131634 -0.882575
-0.144345 -0.100697 0.017306 -0.999563 0.007488 0.022245
-0.113647 0.467524 0.061877 -0.079209 0.009604 0.996792
0.04208 -0.084568 -0.11186 -0.49668 -0.49138 -0.712418
0.191011 0.381828 0.017313 0.940745 -0.14922 0.299253
0.213857 -0.116295 -0.012751 0.990043 0.001064 -0.131225
0.406213 0.312515 -0.115075 0.576421 0.498444 -0.647513
0.187431 0.121583 -0.033651 0.848692 0.261618 -0.459208
-0.030766 0.034679 0.130373 -0.222803 0.195754 0.953491
0.175726 0.019309 -0.091999 0.828477 0.00876 -0.558942
0.011931 -0.19372 0.092485 0.822 -0.071246 0.56497
0.034169 -0.156178 -0.052678 -0.918622 -0.206511 -0.336619
0.229232 0.513093 -0.111498 0.458643 0.578778 -0.673368
-0.007905 -0.288831 -0.071238 0.707333 -0.126967 -0.695345
-0.128076 -0.681751 -0.059535 -0.99712 -0.00747 -0.057978
0.071104 0.071888 0.13053 0.181484 0.042153 0.977751
-0.082358 0.573275 -0.011407 -0.130581 0.939853 0.291684
-0.096808 -0.822827 0.032215 -0.859151 0.468024 0.187304
-0.02577 0.364064 -0.128928 -0.027704 -0.018084 -0.999364
0.077207 -0.455232 -0.082264 -0.705862 0.034613 -0.707462
-0.089011 -0.095945 0.113301 -0.401642 0.010712 0.915197
-0.340164 0.260534 -0.084304 0.056481 -0.404109 -0.910913
0.009389 -0.499128 -0.051411 0.844473 0.032224 -0.534144
0.052264 -0.460535 -0.055632 -0.796051 0.034491 -0.603182
-0.09528 0.507367 0.055358 -0.009471 0.381502 0.923697
-0.018131 0.693231 -0.032095 -0.898507 -0.336425 -0.231563
0.343064 0.293008 -0.115361 -0.529849 -0.636547 -0.556942
-0.043199 -0.792411 0.051756 0.050495 0.696358 0.699507
-0.116222 0.566149 -0.016053 -0.198985 0.978055 0.05174
-0.281348 0.281016 -0.008169 0.479914 -0.593833 0.643823
-0.012928 -0.257063 0.100492 0.444643 -0.210731 0.870501
-0.084612 -0.156069 -0.087052 -0.616298 -0.176363 -0.766527
0.106843 0.126208 -0.122304 0.40017 0.33595 -0.850934
-0.097679 0.195003 -0.060874 -0.776097 0.113769 -0.619959
-0.045905 -0.802413 -0.149651 -0.190091 -0.022845 -0.970916
0.070226 -0.647854 -0.059821 -0.716966 -0.134636 -0.683961
0.14174 -0.078542 0.112175 0.338395 0.034084 0.930034
0.042824 0.247928 -0.126976 -0.201386 -0.024374 -0.977547
0.076434 -0.615183 0.009609 -0.767213 -0.215126 0.603705
-0.367172 0.280115 -0.084372 -0.346155 0.325645 -0.879627
0.044603 0.327212 0.117404 0.190565 0.234199 0.952512
-0.495306 0.142882 0.073758 -0.052006 0.659566 0.7002
-0.004368 0.087301 -0.136374 -0.133133 0.207579 -0.969061
0.015393 0.71054 -0.091122 -0.245936 -0.632535 -0.734082
0.164497 -0.547339 -0.093608 0.682774 -0.033679 -0.729851
0.187616 0.513155 0.019578 0.259914 0.390908 0.881427
-0.129029 -0.150625 -0.033341 -0.857352 -0.134041 -0.496203
0.178387 0.121067 0.057297 0.773189 0.15686 0.613704
-0.023261 -0.147156 0.123625 0.208948 -0.101447 0.972224
0.349536 0.381051 -0.106467 0.847094 0.504752 0.004792
-0.029979 0.711872 0.009059 -0.937331 -0.323001 0.037727
0.043944 -0.499602 -0.031981 -0.998167 -0.003307 -0.022715
-0.096964 0.066878 -0.093271 -0.734411 0.154869 -0.660141
0.105375 -0.556567 -0.100972 -0.464098 -0.121448 -0.875933
0.038119 -0.265242 0.009226 -0.140133 -0.061584 0.899009
-0.183906 0.521865 -0.04024 -0.691943 0.659595 -0.288128
-0.135634 0.519669 -0.086289 -0.397764 0.495569 -0.771728
-0.007361 0.363752 0.10944 -0.269534 0.290938 0.917673
0.082974 0.28582 -0.140207 -0.065812 -0.066209 -0.993628
0.356033 0.37214 -0.116438 0.778692 0.591968 -0.198171
-0.435549 0.204261 0.014328 -0.275894 0.357578 0.890804
0.083837 -0.615194 0.018865 -0.729391 -0.235497 0.639933
0.091712 -0.853602 0.020378 -0.806335 -0.566029 -0.132492
-0.033066 0.076666 -0.13419 -0.250136 0.275646 -0.925589
-0.28546 0.401408 -0.047218 -0.553206 0.832348 -0.008509
0.055382 0.827564 0.063273 0.392713 0.540802 0.741916
-0.023022 -0.849379 -0.082488 0.940757 -0.31603 0.085858
0.165138 0.087144 -0.088189 0.765264 0.206791 -0.608639
0.390002 0.309458 -0.048209 0.271292 0.481939 0.831804
-0.038493 0.243962 -0.127035 -0.330055 -0.112301 -0.935138
0.295778 0.427649 -0.135317 0.271055 0.432752 -0.856766
-0.092067 -0.859822 0.135281 -0.441614 -0.848325 0.246191
-0.102229 -0.25691 0.106433 -0.44299 -0.020457 0.893615
0.054277 -0.728162 0.014827 -0.983539 -0.153348 0.079231
0.01193 0.084241 -0.139891 -0.199961 0.287567 -0.936278
-0.098171 0.305634 0.055256 -0.871009 0.191555 0.451151
-0.319213 0.273724 0.005734 -0.056682 0.010784 0.997382
-0.129025 -0.163553 -0.029873 -0.853295 -0.143151 -0.50096
0.174441 0.550008 -0.004243 0.221665 0.727351 0.649244
-0.07282 -0.825921 0.104906 -0.162826 0.981487 0.099611
0.157353 0.042322 -0.112529 0.705653 0.210064 -0.675186
-0.059897 -0.425461 -0.086865 -0.110233 0.240364 -0.963107
0.092684 -0.392919 0.054397 -0.521749 -0.218568 0.824495
-0.095577 -0.064208 -0.095216 -0.669562 -0.225574 -0.707585
0.027568 -0.619036 -0.029472 0.994932 0.01569 -0.082396
0.150949 -0.509884 -0.102652 0.41674 -0.015132 -0.907093
0.165243 0.150054 -0.067076 0.823452 0.038432 -0.564341
-0.01127 0.456969 0.090878 -0.07299 0.342946 0.9356
-0.139865 -0.053983 0.040866 -0.96755 0.077425 0.240028
-0.120845 0.348125 -0.045268 -0.997721 -0.061232 0.000178
-0.090124 -0.432273 -0.077738 -0.53332 0.313554 -0.785004
0.16793 0.572627 -0.050707 0.382118 0.894588 0.080621
-0.053366 0.329358 -0.123173 -0.380535 -0.021811 -0.924444
-0.172639 0.363714 -0.033828 0.672815 -0.737078 -0.029601
-0.068189 -0.752711 -0.126497 -0.274161 0.18261 -0.939572
0.153877 -0.588008 -0.096609 0.430354 -0.119922 -0.892749
0.06028 -0.658037 -0.044998 -0.83459 -0.159638 -0.526662
0.090529 0.204335 -0.123542 0.133086 -0.444886 -0.883439
-0.05088 -0.106381 0.124948 -0.266566 -0.059765 0.961677
-0.031527 -0.04812 -0.126918 -0.047883 -0.446136 -0.89324
0.045546 -0.569035 -0.034437 -0.948334 -0.041841 -0.252215
0.014626 0.103145 -0.135642 -0.16487 0.280157 -0.944801
0.548077 0.16969 0.031288 0.165775 0.731357 0.600051
-0.136041 0.48023 0.061576 -0.120854 0.111141 0.981966
-0.020354 0.492347 -0.127582 0.047763 0.137874 -0.989198
0.08365 0.67132 -0.018235 0.988178 -0.071479 -0.120512
0.01217 -0.649191 -0.061935 0.611114 0.160238 -0.775104
0.129748 -0.857667 0.183372 -0.012526 -0.445647 0.835843
0.225291 0.445315 0.014853 0.428475 -0.221405 0.870899
-0.448148 0.2111 -0.037337 -0.751177 0.36228 -0.529774
-0.129164 -0.628975 -0.044244 -0.999004 -0.037387 0.010514
-0.05995 -0.261948 0.110519 0.089101 -0.145327 0.985151
-0.112416 -0.126493 0.099486 -0.692277 0.041219 0.719895
-0.088505 0.452642 -0.123786 -0.346622 -0.038946 -0.935817
-0.128525 -0.370793 0.014226 -0.99954 -0.004626 0.024722
0.265911 0.431016 -0.139739 -0.020462 0.202442 -0.97716
0.150213 0.477277 0.057077 0.439742 0.376546 0.810887
0.090224 0.37338 0.098251 0.186956 0.104856 0.975217
-0.012649 0.473233 0.084321 -0.061815 0.454527 0.886606
0.380961 0.319298 -0.128002 0.40424 0.229844 -0.877147
-0.129172 -0.280656 0.042838 -0.988024 -0.139606 0.0602
-0.002627 -0.497648 0.038048 0.664908 -0.210363 0.716387
-0.106733 -0.270236 0.102248 -0.631316 -0.040943 0.768211
-0.008859 0.007626 -0.143172 -0.169995 -0.193267 -0.966006
-0.103423 -0.002036 -0.098774 -0.816075 0.000134 -0.575363
0.067574 -0.405035 -0.071746 -0.728674 -0.025091 -0.683925
0.121502 0.083891 -0.130176 0.554649 0.255915 -0.791266
0.166365 -0.177264 0.092941 0.37633 -0.173817 0.908275
-0.075807 0.127716 0.091852 -0.647944 -0.014014 0.7613
0.042619 -0.37103 0.000175 -0.980368 -0.074444 0.181302
-0.094591 0.350876 -0.1013 -0.57844 -0.146675 -0.802159
0.022671 -0.146295 -0.032847 0.740523 -0.234989 -0.489601
0.24666 0.487218 -0.119273 0.418803 0.486303 -0.766397
0.04223 -0.359766 0.003963 -0.971001 -0.095932 0.214779
-0.115404 0.238473 -0.002864 -0.903801 0.41067 0.030274
-0.417342 0.168561 -0.022816 0.636813 -0.763892 -0.100523
0.475896 0.24992 -0.026345 0.323726 0.819847 0.456384
-0.023374 0.704138 0.028685 -0.912823 -0.361291 0.188285
-0.075111 -0.863793 0.093678 -0.043934 -0.998946 0.008777
0.057731 -0.6768 -0.035615 -0.856951 -0.124702 -0.500058
0.036267 0.178646 0.130148 0.054118 0.03649 0.997713
0.192773 -0.693752 -0.03811 0.783096 -0.115134 -0.606386
-0.047747 0.209418 -0.111042 -0.557123 -0.318886 -0.766407
0.420084 0.292066 -0.047696 0.321359 0.629235 0.706681
-0.388117 0.187832 -0.019246 0.624434 -0.778609 -0.013629
-0.053713 0.295224 0.095663 -0.491697 0.001681 0.870063
0.084432 -0.860793 0.104577 -0.788045 -0.540334 0.020548
0.175967 -0.126597 -0.080001 0.751578 -0.131762 -0.645603
-0.191121 0.498823 0.030148 -0.649979 0.481533 0.585015
0.430813 0.254281 -0.029542 -0.1442 0.355875 0.917986
-0.095516 -0.34516 -0.068366 -0.64088 0.076512 -0.762531
0.582798 0.082496 -0.009265 0.589694 0.361285 -0.716335
-0.012163 0.141091 -0.114756 -0.2239 0.49621 -0.836337
0.162988 0.261747 0.05495 0.741651 0.064328 0.667587
-0.042156 0.059348 -0.135708 -0.315347 0.205813 -0.923246
-0.032839 0.723363 -0.004601 -0.94819 -0.196429 0.185824
0.19675 -0.337882 0.04039 0.905318 -0.078632 0.417332
0.020416 -0.712162 -0.063151 0.924934 0.008383 -0.377135
0.142499 -0.869384 -0.078175 0.186043 -0.97188 -0.024433
-0.032327 -0.713579 -0.109827 0.520048 0.205082 -0.828754
0.072785 0.692803 -0.061099 0.653129 -0.51732 -0.550915
-0.371285 0.300933 -0.025995 -0.629356 0.746326 0.207146
0.027197 -0.223758 0.046293 0.974138 -0.027233 0.224151
0.19739 0.556579 -0.07625 0.281144 0.85721 -0.422997
-0.357864 0.210317 -0.002151 0.55983 -0.790879 0.247093
-0.065125 -0.863319 0.004807 0.004251 -0.999387 -0.03449
0.138515 0.45899 -0.144714 0.115028 0.034315 -0.992719
0.165003 -0.792008 -0.094313 0.762004 0.178363 -0.618228
-0.104346 0.087243 0.079829 -0.613776 0.274945 0.725637
0.117353 0.577147 -0.016912 0.370453 0.735905 0.563127
0.041022 0.398225 -0.130859 -0.323336 0.026475 -0.942331
0.046723 -0.606444 -0.027298 -0.98731 -0.087687 0.112606
-0.114415 -0.452325 0.062087 -0.844603 -0.183396 0.502647
-0.031902 -0.496289 0.057012 0.316484 -0.270203 0.9089
0.437537 0.292454 -0.102974 0.663457 0.566107 -0.486097
0.154028 0.516631 -0.128507 0.141262 0.361217 -0.920757
-0.030975 0.031058 -0.144737 -0.148432 0.076653 -0.985114
0.13927 -0.098791 0.112266 0.203403 -0.054933 0.976165
0.05061 -0.646199 -0.008006 -0.990785 -0.048985 0.115996
0.022568 0.083355 0.134131 0.183416 -0.010123 0.981199
0.158615 -0.864472 0.07315 0.262601 -0.96078 -0.005358
-0.103757 0.494577 0.059162 0.008579 0.227402 0.973157
0.202919 -0.045049 -0.037289 0.935763 -0.022431 -0.351677
0.312443 0.456903 -0.073983 0.724663 0.687901 0.020626
0.022247 -0.47844 0.007434 0.906344 -0.107159 0.407985
0.092413 0.825351 -0.03482 0.834239 0.529893 -0.050034
0.176085 0.310897 0.033129 0.960395 0.001234 0.277836
-0.015867 0.080776 -0.136113 -0.15527 0.216243 -0.963908
-0.065452 0.161187 0.097176 -0.490274 0.026122 0.869306
0.078582 0.466102 0.080749 0.106273 0.342279 0.931188
0.077242 0.194977 -0.120437 -0.029942 -0.249486 -0.966806
-0.045072 -0.049899 -0.124346 -0.15987 -0.417133 -0.89251
0.164236 -0.798702 0.015752 0.823457 0.386877 0.409984
0.207641 -0.177547 -0.014582 0.999722 -0.000441 -0.02268
-0.448229 0.1594 -0.040715 0.152004 -0.878034 -0.434758
0.100443 0.720682 0.007598 0.977351 -0.004817 0.199099
