-0.060494 -0.863744 0.115795 0.002323 -0.999413 0.024495
-0.118593 0.56055 0.002121 -0.264314 0.877906 0.38434
0.047091 0.156603 0.130363 0.121419 0.039586 0.991801
0.087146 -0.278529 -0.09375 -0.431136 0.062135 -0.90003
0.085886 -0.575851 -0.083674 -0.650133 -0.114216 -0.751123
0.048132 0.716105 0.091302 0.577934 -0.127985 0.799263
-0.305487 0.265312 0.003646 0.381283 -0.217279 0.895594
-0.085196 -0.340833 -0.075972 -0.558514 0.029905 -0.828224
0.053784 -0.369178 -0.056785 -0.8081 -0.026975 -0.588133
0.02256 -0.39961 0.011664 0.946796 -0.222533 0.223502
-0.532059 0.106217 0.044093 -0.821632 0.54907 -0.130416
-0.328892 0.296135 0.002635 -0.222356 0.11795 0.967095
-0.109098 -0.157879 -0.060421 -0.783183 -0.142868 -0.604953
-0.059897 -0.425461 -0.086865 -0.110233 0.240364 -0.963107
0.559349 0.161747 0.016622 0.733562 0.67937 0.010078
0.044909 -0.227388 -0.051687 -0.893806 -0.084557 -0.438739
0.012167 -0.685079 -0.004878 0.83994 -0.243829 0.445949
0.07217 -0.796836 0.017273 -0.868396 -0.248586 0.426854
-0.333482 0.236862 -0.066748 0.317009 -0.701281 -0.637056
-0.163911 0.543162 -0.019722 -0.644565 0.763365 -0.028213
-0.104559 0.033384 0.098254 -0.497529 0.139955 0.845351
0.135279 0.507151 -0.135999 0.116709 0.266508 -0.955298
0.165571 0.309316 -0.081759 0.714121 -0.253101 -0.607343
-0.5523 0.078732 0.073191 -0.8235 0.536222 0.17569
-0.007604 -0.234202 -0.077519 0.628514 -0.044845 -0.77634
0.18175 -0.789071 -0.027217 0.934112 -0.347666 0.075034
-0.1286 -0.371219 -0.00453 -0.999762 0.008286 -0.00936
-0.101692 -0.841274 0.102591 -0.726854 0.674019 0.126264
0.083834 0.101108 0.124548 0.458304 0.00751 0.887809
0.602782 0.078308 0.005336 0.408092 -0.335459 -0.834305
-0.034991 -0.759528 -0.129941 0.275164 0.423981 -0.85872
-0.27023 0.325392 0.008223 0.093909 -0.169958 0.977223
0.074886 0.191789 0.123409 0.44203 0.042437 0.893024
0.02449 -0.356047 0.031654 0.938072 -0.158133 0.303676
0.037915 0.760297 -0.120435 0.109365 -0.128626 -0.982881
0.116783 -0.281298 0.083079 -0.026686 -0.064148 0.997568
-0.018834 0.698642 0.046035 -0.930833 -0.211103 0.292665
-0.01884 0.808011 0.037444 -0.90439 0.234216 0.352225
0.097784 -0.566445 0.0322 -0.411119 -0.090295 0.906272
0.17227 -0.245579 0.078937 0.465066 -0.125298 0.875549
-0.015287 0.067777 0.1297 -0.252618 0.124435 0.958787
-0.087968 0.061281 -0.103978 -0.713477 0.14314 -0.68535
0.021825 0.02805 -0.15476 -0.188363 -0.008692 -0.969142
0.027381 -0.638527 -0.021158 0.99435 -0.029829 0.077074
-0.128026 0.182541 0.015444 -0.991913 0.046513 0.111881
-0.570223 0.02744 0.030441 -0.10945 -0.977029 0.08753
0.070029 0.850404 -0.059065 0.48205 0.764465 -0.426691
0.348619 0.329241 -0.135302 0.033178 -0.13572 -0.986137
0.184264 0.482697 -0.135167 0.087879 0.165515 -0.981563
0.080883 -0.261016 0.080001 -0.399901 -0.133568 0.90333
0.01011 0.384097 0.106478 0.002775 0.205569 0.978245
0.148364 -0.403376 -0.089932 0.527134 0.097428 -0.843615
0.119791 -0.427293 0.060959 -0.459557 -0.232404 0.855669
0.109877 0.169844 0.108769 0.543182 0.058469 0.836379
0.196987 -0.175344 0.057599 0.960072 -0.050423 0.273181
0.198187 0.116127 -0.00935 0.983093 -0.072374 -0.147146
0.18405 0.192301 0.018817 0.974517 0.192431 0.094315
0.194754 -0.159831 0.065473 0.908295 -0.036372 0.413268
0.447731 0.278172 -0.049828 0.428953 0.688829 0.568799
0.10168 0.205943 -0.122083 0.349524 -0.440251 -0.826257
0.026607 0.592352 -0.090333 -0.066726 0.591832 -0.803259
0.197394 -0.601615 0.005747 0.964159 -0.049544 0.253103
0.000853 0.6871 0.07162 -0.747654 -0.056095 0.6606
-0.055424 0.368982 -0.123636 -0.358929 -0.061483 -0.931267
-0.124519 0.501187 0.057599 -0.060985 0.309807 0.947231
-0.112314 0.0469 0.088889 -0.769355 0.090647 0.606957
-0.08825 0.283732 0.072311 -0.660198 0.019258 0.749868
0.183847 -0.292259 0.070806 0.55248 -0.04729 0.827883
0.132464 -0.771747 0.033971 -0.038902 0.707778 0.688819
0.011065 -0.328863 0.067675 0.753291 -0.218505 0.619837
0.051695 -0.084023 -0.117945 -0.418078 -0.444019 -0.791648
-0.016833 -0.095891 0.126653 0.13277 -0.128498 0.98265
-0.001431 0.70195 -0.072596 -0.637215 -0.5322 -0.557024
0.128689 -0.869383 -0.100344 0.108759 -0.981569 -0.142926
0.000525 0.344209 -0.127945 0.11188 0.004725 -0.993639
-0.093461 0.566411 -0.060579 -0.409667 0.822197 -0.3934
0.122406 -0.863279 0.166375 -0.039133 -0.985786 0.159626
-0.267689 0.277331 -0.034268 0.721279 -0.677269 0.136585
0.239061 0.379465 -0.114022 -0.698372 -0.575665 -0.408451
0.046795 -0.497662 -0.046089 -0.884281 -0.053615 -0.457476
-0.473513 0.128931 0.047877 0.785675 -0.54264 0.285842
-0.043227 -0.825262 -0.146125 0.087852 -0.276538 -0.956226
0.046224 -0.598881 -0.033534 -0.985628 -0.035188 -0.114923
0.186833 0.380634 0.026591 0.878781 -0.1934 0.435021
0.156212 -0.554778 0.045976 0.091085 -0.350893 0.931836
-0.087685 0.0254 -0.117127 -0.731941 0.136911 -0.661183
0.13902 -0.56392 -0.105325 0.238037 -0.095159 -0.962501
0.178862 0.547258 -0.098995 0.289444 0.731733 -0.616945
0.185214 -0.027178 -0.078931 0.884041 -0.008069 -0.466826
0.089205 -0.253537 -0.092925 -0.450763 0.043185 -0.891391
-0.038446 0.017885 -0.140571 -0.226882 -0.48744 -0.842778
-0.071976 -0.855952 0.156869 -0.077674 -0.715187 0.671867
-0.110886 -0.20631 -0.050211 -0.851204 -0.06299 -0.519983
-0.030835 -0.847814 0.106518 0.935684 0.10103 0.322678
0.132015 0.526991 -0.128107 0.141175 0.414776 -0.89692
0.242831 0.480185 -0.12484 0.35069 0.430891 -0.831445
0.048634 0.282041 0.122425 0.125572 0.113737 0.985424
-0.236197 0.425963 0.019484 -0.650504 0.316477 0.687445
0.203897 0.140669 0.002281 0.913854 0.376414 -0.068931
0.025357 -0.374965 -0.01146 0.975513 -0.032481 -0.205101
0.205624 -0.113399 0.04841 0.921916 -0.024591 0.385675
0.048402 -0.376334 0.019146 -0.79247 -0.191755 0.571117
0.049354 0.732617 0.091158 0.855596 0.144142 0.492137
0.019276 -0.408324 0.022684 0.969751 -0.091333 0.224682
0.620899 0.078388 0.064079 0.869724 0.4906 0.050229
0.051421 -0.160462 -0.081468 -0.769483 -0.186796 -0.610099
-0.269059 0.284537 -0.071897 0.667503 -0.565839 -0.481203
0.045374 -0.482859 -0.020358 -0.950258 -0.011704 0.27881
0.01734 -0.738635 -0.023837 0.920063 -0.120725 0.367861
-0.084201 -0.176965 -0.083437 -0.607579 -0.095846 -0.787966
-0.119976 -0.67686 -0.082125 -0.796782 -0.062659 -0.598075
0.201196 -0.186592 -0.047951 0.867297 0.026694 -0.495701
0.447838 0.201347 -0.086877 0.679757 -0.560856 -0.289536
0.094831 -0.74088 0.030148 -0.000131 -0.449316 0.889504
-0.123187 -0.318183 0.062138 -0.986836 -0.065299 0.147139
0.153241 -0.171053 -0.093471 0.622771 -0.036444 -0.781458
0.428892 0.292446 -0.112825 0.561849 0.494838 -0.661579
-0.23241 0.396838 -0.09445 -0.084722 0.190439 -0.977735
0.573016 0.144577 0.02312 0.822775 0.567941 0.019734
0.143343 -0.714232 -0.089064 0.529262 0.05339 -0.84307
0.185231 0.552955 -0.0882 0.312687 0.751396 -0.580739
-0.025301 -0.596315 -0.090967 0.55302 -0.025357 -0.830253
0.154159 -0.823838 0.062409 0.670932 0.72003 0.169118
-0.124032 -0.670596 -0.025137 -0.951164 -0.102435 0.290971
-0.437215 0.156902 0.019999 0.531427 -0.822511 0.185877
-0.045966 -0.357258 0.095533 0.258557 -0.184498 0.947444
-0.087322 -0.840036 -0.114066 -0.902608 -0.018211 -0.428341
-0.087268 -0.378004 0.09802 0.007762 -0.206243 0.977748
0.155376 -0.711028 0.007616 0.462803 -0.445055 0.765557
-0.120797 0.543476 0.029787 -0.083314 0.73698 0.669906
-0.029929 0.251758 -0.128786 -0.126465 -0.063864 -0.989694
0.088062 0.289378 0.108927 0.372334 0.139382 0.916127
0.306684 0.380212 -0.14325 0.02559 -0.179719 -0.980943
-0.081341 0.413824 0.083597 -0.641934 0.084037 0.761179
0.092449 -0.443877 -0.094268 -0.55261 0.053016 -0.831658
-0.087567 -0.655168 -0.105143 -0.31963 0.015282 -0.944322
0.05211 0.250443 -0.129476 -0.289056 -0.070131 -0.954136
0.016472 -0.703821 -0.070117 0.816231 0.080999 -0.569977
-0.111653 0.326328 0.021696 -0.939734 -0.125674 0.31434
-0.133033 -0.514341 0.001382 -0.854079 -0.174862 0.484466
-0.042097 0.153697 0.112506 -0.518979 0.073005 0.85116
0.027677 0.569866 -0.104223 -0.074751 0.413079 -0.907464
0.437537 0.292454 -0.102974 0.663457 0.566107 -0.486097
-0.106925 -0.0625 -0.083523 -0.768491 -0.184244 -0.612755
0.046096 0.31072 0.119688 0.118158 0.111081 0.98665
-0.047977 0.306512 0.098284 -0.404582 0.023934 0.913336
-0.130216 0.061642 0.033247 -0.921913 0.33128 0.198374
-0.128345 -0.316791 1.5e-05 -0.999818 -0.008581 -0.0164
0.171065 0.348577 -0.09501 0.710629 -0.347768 -0.610739
-0.059665 -0.147604 -0.099824 -0.125843 -0.178264 -0.971229
0.192132 -0.356635 -0.044642 0.690038 0.267726 -0.667351
0.489142 0.227486 -0.072314 0.292081 -0.116691 -0.929969
0.294403 0.449012 -0.029538 0.762899 0.186709 0.608517
0.197004 -0.554975 0.006941 0.945233 0.011221 0.326023
0.344296 0.320545 -0.041708 0.018013 -0.080304 0.993221
0.129955 -0.045483 -0.138175 0.359639 -0.291817 -0.882613
0.076719 -0.508696 -0.082561 -0.699429 -0.029788 -0.714003
0.165393 -0.341507 -0.066229 0.680677 0.018682 -0.732121
0.084106 0.601687 -0.075548 0.291683 0.704739 -0.644353
-0.103469 -0.693205 0.020054 -0.510756 -0.365549 0.764788
-0.120893 -0.247521 0.087224 -0.883367 -0.034404 0.467045
0.163718 0.561525 -0.014975 0.243492 0.750556 0.613973
-0.045431 0.224527 -0.118604 -0.525645 -0.249959 -0.81062
-0.097199 -0.201249 -0.069878 -0.719639 -0.036747 -0.693157
-0.005224 -0.28622 0.090083 0.402572 -0.157027 0.901215
0.199251 -0.590938 -0.00249 0.985599 -0.02805 0.166644
-0.315986 0.342058 -0.072801 -0.580201 0.676196 -0.444867
0.05626 -0.528784 -0.001125 -0.754401 -0.024182 0.654167
-0.545653 0.086002 0.01458 -0.254414 0.684991 -0.552594
-0.150492 0.394322 0.002493 0.659313 -0.670512 0.336496
0.124998 -0.27381 -0.09528 0.407543 -0.05557 -0.911464
-0.06082 -0.613265 0.039668 0.441866 -0.161844 0.882112
-0.014513 -0.344134 -0.069306 0.692938 -0.074313 -0.716996
0.33378 0.427901 -0.076754 0.816548 0.54846 0.167668
0.057038 0.006475 0.141855 0.138682 0.041505 0.977808
-0.02132 -0.2686 -0.085532 0.624586 -0.060697 -0.778354
0.158076 -0.456046 -0.094408 0.487404 0.161281 -0.857648
0.124831 -0.588478 -0.10245 -0.110382 -0.133024 -0.98348
-0.023292 -0.200236 0.116072 0.326988 -0.189905 0.925036
0.167695 -0.220536 0.086047 0.365183 -0.255331 0.893344
-0.014767 -0.822189 0.028748 0.77352 -0.555009 0.231836
0.349995 0.282501 -0.110005 -0.611149 -0.679994 -0.401937
-0.178475 0.507247 -0.065036 -0.609865 0.476489 -0.632712
0.167055 0.54687 0.001882 0.20626 0.692463 0.690257
0.142285 0.478571 -0.142736 0.157133 0.187188 -0.966732
0.018103 -0.667557 -0.005571 0.870716 -0.225524 0.435729
0.19773 -0.581135 0.005813 0.963024 -0.022055 0.264966
0.17655 0.048747 -0.085157 0.819307 0.196127 -0.537873
-0.223064 0.327751 -0.026356 0.655826 -0.747228 0.097044
-0.268802 0.322918 -0.093921 0.347761 -0.209539 -0.913068
0.387677 0.342053 -0.090754 0.698286 0.709663 0.059406
-0.014689 0.677391 0.032428 -0.761641 -0.613174 0.190898
0.161004 -0.447073 -0.090652 0.570241 0.204504 -0.795182
-0.223497 0.476273 -0.027036 -0.850436 0.518803 -0.060108
-0.08262 0.493635 0.061911 -0.259014 0.418612 0.869195
-0.098337 0.151974 -0.068762 -0.729531 0.177556 -0.65945
0.500783 0.228105 -0.036849 0.662422 0.745834 0.060208
0.194576 -0.186031 0.062696 0.950465 -0.085166 0.296536
0.092742 -0.713163 -0.081802 -0.747963 0.015415 -0.661732
-0.122164 -0.150957 -0.044048 -0.80497 -0.159355 -0.570734
0.301522 0.453875 -0.039724 0.761634 0.359476 0.537076
-0.276878 0.374696 0.006857 -0.769918 0.155442 0.618351
0.202939 -0.125926 -0.044609 0.871205 0.021491 -0.490361
0.052975 -0.489132 -0.004094 -0.849323 -0.025576 0.521555
-0.081152 -0.432277 -0.08254 -0.414941 0.329644 -0.846643
0.093968 -0.789089 0.043991 -0.476269 0.339107 0.810735
-0.019217 0.035742 -0.145926 -0.170572 0.13094 -0.974656
-0.105466 0.370534 -0.098599 -0.628246 -0.242625 -0.738618
0.071743 -0.697723 -0.051599 -0.841636 -0.148669 -0.51789
-0.037741 0.769301 -0.049852 -0.988249 -0.002368 -0.143847
-0.095819 0.375251 -0.106439 -0.483079 -0.225176 -0.845531
0.080346 0.417607 -0.143355 -0.221017 0.037626 -0.973668
-0.094084 0.338276 -0.099503 -0.618645 -0.136826 -0.773461
0.000215 -0.1196 -0.078702 0.775518 -0.258132 -0.574775
0.045089 -0.534387 -0.020007 -0.954975 0.006862 0.256739
-0.079177 0.184939 -0.081887 -0.648513 -0.019114 -0.760383
0.491814 0.236322 -0.030042 0.663206 0.742428 0.083751
0.037811 -0.081452 0.111916 0.078242 -0.55046 0.828148
-0.083385 0.571138 -0.061983 -0.483843 0.757788 -0.426183
-0.017243 -0.206934 0.112507 0.346942 -0.142663 0.925372
0.160567 0.313348 -0.090959 0.673974 -0.260334 -0.663575
0.1822 -0.3191 -0.048114 0.753644 -0.017893 -0.656956
0.084119 0.637848 -0.016529 0.980827 0.005288 0.170091
0.313621 0.324841 -0.051642 -0.467799 -0.59893 0.64762
0.193281 -0.039652 -0.06247 0.905665 -0.027027 -0.423004
-0.185942 0.524208 -0.01855 -0.699812 0.710579 -0.005411
0.588724 0.098306 0.066431 -0.370739 -0.177692 0.835801
0.13804 -0.65187 -0.093034 0.376002 -0.119601 -0.918561
0.176364 0.520858 -0.121851 0.181818 0.519594 -0.834713
-0.031174 -0.28292 -0.089237 0.36281 -0.077165 -0.928407
-0.11926 -0.60003 0.010474 -0.914961 0.033455 0.400744
-0.489428 0.163331 0.004755 -0.776628 0.629589 -0.019252
0.014224 0.186839 0.130099 -0.02908 0.028925 0.998986
0.155193 -0.78272 0.029042 0.453511 -0.254266 0.843624
-0.25217 0.399374 -0.088507 -0.329659 0.489986 -0.804635
0.162972 -0.758865 0.023775 0.126631 0.083463 0.980998
0.093125 -0.023976 -0.152535 0.062748 -0.24648 -0.966416
0.163809 -0.02278 -0.113967 0.7604 -0.008123 -0.649078
-0.072624 0.0781 -0.113853 -0.573609 0.269501 -0.77256
-0.124479 -0.419796 -0.036375 -0.796207 0.190637 -0.568497
0.004582 -0.314075 0.078132 0.543457 -0.255301 0.79912
0.182195 0.234464 -0.019536 0.991659 0.007123 -0.118105
0.182906 -0.110909 -0.074098 0.786345 -0.081491 -0.611896
-0.122325 -0.279948 0.079658 -0.944644 -0.034906 0.321521
-0.110688 0.224559 0.051298 -0.903794 0.18425 0.379874
0.475679 0.240723 -0.079195 0.569552 -0.1115 -0.811365
0.630981 0.037246 0.023975 -0.94364 -0.293003 -0.12272
0.156604 -0.863355 0.028418 0.272184 -0.959445 -0.071859
0.460069 0.193803 -0.015391 -0.559857 -0.806623 0.133181
0.158102 0.106843 0.079251 0.39833 0.169502 0.898221
0.045018 0.105492 0.134867 0.106123 0.092836 0.980614
0.592025 0.057657 -0.005428 0.942039 -0.183454 -0.233904
0.080396 -0.221607 -0.089472 -0.469199 -0.09276 -0.877702
-0.048259 -0.862837 -0.083082 0.044824 -0.997185 0.054484
-0.010837 0.403816 0.104858 0.01663 0.122867 0.991561
0.280265 0.496602 -0.059338 0.718775 0.694009 0.022466
0.124561 -0.380604 0.072642 -0.269341 -0.189608 0.943714
0.01432 -0.533162 -0.045655 0.84724 0.046832 -0.528643
0.060307 -0.354199 0.042227 -0.708864 -0.267527 0.65252
-0.458323 0.201496 -0.017727 -0.846974 0.523435 -0.055063
-0.015331 0.056771 0.131362 -0.351223 0.158902 0.921795
-0.037049 0.726067 -0.020746 -0.836134 -0.525919 0.011636
0.042998 0.772938 -0.119968 0.208327 0.016093 -0.972925
0.17206 -0.656542 -0.071767 0.58643 -0.222459 -0.77873
-0.001351 0.457797 -0.128275 0.12586 0.034697 -0.991382
0.04025 -0.182871 -0.052776 -0.905148 -0.205258 -0.371431
-0.120662 0.345823 -0.035833 -0.998404 -0.048161 0.010788
0.097618 0.813452 -0.033054 0.952213 0.299886 -0.01947
0.115381 -0.870374 -0.091646 0.017745 -0.999551 -0.0173
0.068237 -0.663617 -0.054241 -0.766908 -0.146425 -0.624685
-0.012576 0.687704 -0.038967 -0.887475 -0.32933 -0.317643
0.092384 -0.801288 -0.099202 -0.806802 0.182054 -0.559142
0.210368 0.534812 -0.100194 0.280889 0.735894 -0.615955
-0.071128 0.346897 -0.115453 -0.488262 -0.081048 -0.868826
0.166145 -0.371114 0.073068 0.258245 0.00032 0.965225
0.198399 -0.029102 0.060377 0.877538 0.039909 0.476947
-0.025543 -0.78105 0.028899 0.625055 0.5651 0.533327
0.041195 0.65407 0.050654 0.134221 -0.871988 0.420998
-0.097564 -0.39981 -0.06547 -0.633115 -0.076332 -0.763558
-0.128371 -0.322526 0.00987 -0.999888 -0.01027 0.00438
-0.031597 -0.699401 -0.105687 0.524719 0.223047 -0.820988
0.08714 0.618802 -0.016899 0.875936 0.204491 0.42553
0.045419 -0.580082 -0.03061 -0.992881 -0.048395 -0.051889
0.065032 0.458596 -0.137132 -0.294559 0.075294 -0.952169
0.041279 0.428483 0.093755 0.116334 0.323225 0.938454
-0.066227 0.448615 -0.129287 -0.170981 -0.066221 -0.98235
-0.040224 -0.799907 0.057198 0.149681 0.425691 0.878613
0.178174 0.489199 0.031408 0.537204 0.350043 0.763944
0.181202 0.360377 0.031163 0.879398 -0.155164 0.450032
-0.069323 -0.698095 -0.11434 -0.201761 0.259402 -0.942303
0.154101 -0.859568 -0.091135 0.742673 -0.510634 -0.394857
-0.04479 -0.534633 0.051493 0.375836 -0.188546 0.906793
-0.380185 0.19391 -0.000969 0.553271 -0.803237 0.200801
0.059419 -0.627533 -0.052435 -0.79041 -0.115266 -0.60029
-0.075248 0.325318 0.082923 -0.541535 -0.08983 0.834867
0.187329 0.388738 -0.108595 0.471946 -0.561713 -0.67845
0.001379 0.093695 0.134767 -0.265254 0.004587 0.960765
0.103707 -0.257381 -0.098686 -0.201826 0.027842 -0.975939
0.194137 0.411194 0.017782 0.891875 -0.293592 0.305451
-0.031084 -0.1247 -0.100923 0.39292 -0.22789 -0.890833
0.180173 -0.683957 -0.052951 0.713923 -0.236883 -0.657727
-0.043885 -0.408347 0.084322 0.256791 -0.198606 0.945683
-0.1405 0.531186 0.038044 -0.183713 0.688947 0.701064
-0.144041 -0.144957 0.019327 -0.998974 -0.032497 0.021114
-0.066936 -0.026967 -0.126319 -0.37485 -0.198251 -0.901483
0.119706 -0.186015 -0.105912 0.066075 -0.098573 -0.990999
0.062416 -0.654896 0.01274 -0.302206 0.296372 0.90443
-0.082645 -0.443376 -0.086105 -0.368025 0.277461 -0.885284
0.201674 -0.587399 -0.021578 0.995869 -0.077451 0.002958
0.014105 -0.026953 -0.137369 -0.014161 -0.37818 -0.92533
0.163755 -0.032587 -0.113139 0.750654 -0.071802 -0.656192
0.148558 0.221177 0.076862 0.766627 0.066249 0.638559
-0.11441 -0.306292 -0.041825 -0.864637 0.055405 -0.498499
0.167902 -0.073773 0.096619 0.613671 0.053372 0.786596
-0.128301 -0.027539 0.070026 -0.870327 0.097521 0.482434
0.640244 0.044356 0.017835 0.887976 0.455365 -0.054053
-0.092042 -0.802842 0.021075 -0.844754 0.266218 0.457397
-0.072278 0.113535 0.095612 -0.561481 0.237384 0.78331
-0.047871 -0.80773 0.061759 0.304105 0.575355 0.748876
-0.043757 0.577958 -0.00574 -0.198266 0.779988 0.59323
-0.010185 0.637497 -0.036494 -0.898134 0.190017 -0.364231
-0.072438 -0.050422 -0.116742 -0.463358 -0.324311 -0.821681
0.158664 0.004789 -0.116107 0.724355 0.110365 -0.680191
0.055115 0.557172 -0.113281 -0.137871 0.455327 -0.878974
0.32909 0.410432 -0.132398 0.437941 0.561412 -0.700137
0.058117 -0.691358 -0.032058 -0.868628 -0.148843 -0.472353
0.075761 -0.494751 0.015565 -0.644061 0.048689 0.763393
-0.009079 -0.458404 0.055227 0.672128 -0.222876 0.705765
0.406119 0.276232 -0.03862 0.041435 0.299698 0.952793
-0.098529 0.296479 0.058976 -0.809782 0.189427 0.553369
0.193167 -0.170615 0.070412 0.931594 -0.00102 0.362771
0.098525 0.083363 -0.143264 0.388323 0.284601 -0.872246
0.038113 -0.003777 -0.149096 -0.260592 -0.220915 -0.935756
-0.064497 -0.537945 0.059044 0.358979 -0.176242 0.915806
0.042916 0.196233 0.129371 0.06145 0.022628 0.997783
-0.075857 -0.596183 0.051212 0.469807 -0.207123 0.857686
0.197989 -0.328358 0.039307 0.920553 -0.06868 0.384442
0.032754 -0.064528 0.119484 -0.120824 -0.287262 0.948606
0.052655 -0.35209 0.034482 -0.748573 -0.259162 0.60931
0.127322 0.555366 0.004227 0.282365 0.719559 0.633565
-0.041714 -0.864034 0.063119 0.05064 -0.998572 -0.002296
0.093201 0.774041 -0.082507 0.843597 0.029756 -0.535917
0.063737 -0.801004 -0.028769 -0.92235 -0.366374 -0.099916
-0.021699 -0.145709 -0.090498 0.528092 -0.224359 -0.817381
-0.129894 -0.279549 0.031822 -0.985211 -0.166289 0.02704
0.378258 0.249784 -0.100103 -0.67521 -0.664446 -0.318492
0.174652 0.178265 -0.048039 0.928647 0.057317 -0.361419
0.052944 0.49756 -0.128455 -0.162534 0.059707 -0.984618
0.176807 0.250404 -0.037954 0.93133 0.005128 -0.364118
0.148592 -0.364879 -0.082418 0.590159 0.12203 -0.797683
0.120261 0.030797 -0.144651 0.480903 0.101201 -0.870274
0.181672 0.203607 -0.025247 0.978313 0.027979 -0.195114
0.083389 -0.587555 0.022927 -0.699455 -0.07358 0.710621
-0.056712 -0.863251 -0.102522 -0.010655 -0.999724 -0.012781
0.019676 -0.094715 0.111265 0.587242 -0.257112 0.766296
0.080615 -0.635101 -0.071805 -0.657036 -0.083976 -0.748582
-0.119943 -0.024807 0.081142 -0.774253 0.067247 0.628303
0.321132 0.3034 -0.07052 -0.666754 -0.66391 0.336541
0.215621 0.401151 -0.081546 -0.905358 -0.420571 -0.004248
0.096849 -0.830612 0.102468 -0.669739 0.719345 0.168234
-0.270171 0.368225 0.013942 -0.578837 0.057118 0.810511
0.252589 0.432072 -0.138072 -0.141073 0.113966 -0.979745
0.193222 -0.385139 0.041174 0.945144 -0.03001 0.324842
0.199879 -0.196587 0.043612 0.951651 -0.024906 0.305726
-0.065293 -0.764603 0.023111 -0.299134 0.515615 0.788904
0.052584 -0.511122 -0.00558 -0.843667 -0.017758 0.53221
0.264493 0.491492 -0.102638 0.565573 0.563605 -0.601601
-0.032648 -0.837857 -0.137339 0.52855 -0.452672 -0.705186
-0.011072 -0.517445 0.039198 0.605277 -0.215664 0.765945
-0.147139 0.508198 0.050712 -0.20928 0.37747 0.901863
0.202354 0.06086 -0.012799 0.981852 0.147364 -0.109309
0.21076 -0.022783 -0.00713 0.959021 0.047784 -0.27777
0.599678 0.112319 0.03566 0.75002 0.661087 0.002264
0.175295 -0.802341 -0.07355 0.959568 -0.174781 -0.194283
-0.00684 -0.764802 -0.111177 0.734325 0.358326 -0.572932
-0.319213 0.273724 0.005734 -0.056682 0.010784 0.997382
0.121631 -0.544481 -0.107573 -0.154985 -0.048434 -0.983489
0.084432 -0.860793 0.104577 -0.788045 -0.540334 0.020548
0.182844 -0.019288 -0.084547 0.879681 0.032456 -0.473702
0.156255 -0.238813 -0.082345 0.499987 -0.129494 -0.856265
-0.036233 0.512699 0.062522 -0.160202 0.531349 0.831779
0.107641 0.306926 -0.138319 0.33133 -0.070819 -0.939452
-0.120841 0.166922 -0.02625 -0.889093 0.055945 -0.451241
0.162306 -0.205871 -0.083212 0.593266 -0.130389 -0.79424
-0.116306 0.008725 0.092115 -0.785922 0.090153 0.61076
0.506178 0.161641 -0.001065 -0.601594 -0.794325 0.080775
-0.125133 0.110898 0.032767 -0.91949 0.102949 0.378907
0.098572 -0.626027 0.029771 -0.662092 -0.254514 0.700706
0.264887 0.506283 -0.032288 0.740859 0.564409 0.362585
0.182253 -0.715639 -0.007984 0.061987 -0.344914 0.917946
0.006875 -0.604297 -0.060356 0.735037 0.054385 -0.67556
0.325617 0.44178 -0.092768 0.709661 0.684411 -0.158468
-0.38724 0.287615 -0.03825 -0.700929 0.711421 0.044855
-0.12845 0.181002 0.005921 -0.99891 0.029951 0.004806
-0.086081 -0.643045 -0.105181 -0.27068 0.05922 -0.960299
0.098184 0.810191 -0.050737 0.935477 0.331517 -0.111994
0.234694 0.542095 -0.063873 0.618276 0.773237 -0.125463
-0.4037 0.178507 0.008202 0.562404 -0.818828 0.108604
0.189985 -0.242859 0.065467 0.788171 -0.045336 0.60705
0.057764 0.556742 0.024071 0.203677 0.499828 0.840517
0.138838 0.409774 0.078169 0.533544 0.080017 0.841597
0.295543 0.459976 -0.034557 0.740453 0.328911 0.582393
0.12048 0.247781 0.099293 0.527057 0.057294 0.847683
0.023191 -0.198424 -0.032437 0.797085 0.054346 -0.503291
0.044165 -0.375425 0.009097 -0.969889 -0.07887 0.21867
-0.007858 -0.428237 0.063008 0.647937 -0.263627 0.713353
0.368441 0.337174 -0.129673 0.497711 0.251903 -0.82495
0.198795 -0.289671 0.045485 0.924927 -0.073362 0.371327
0.022742 0.866271 -0.005592 -0.355236 0.926607 0.106169
-0.456385 0.144631 0.039175 0.68249 -0.682844 0.204653
0.164339 -0.839745 0.086054 0.787739 0.615723 0.01869
-0.547555 0.085274 0.079753 -0.88084 0.401699 0.20987
-0.482078 0.160274 0.05003 -0.205514 0.803951 0.509682
-0.119767 0.086666 0.052112 -0.941725 0.122569 0.309067
0.090529 0.204335 -0.123542 0.133086 -0.444886 -0.883439
0.086978 0.700388 0.052326 0.891911 -0.253838 0.363311
0.082951 -0.763415 0.011294 -0.04061 0.037829 0.918535
0.18202 -0.449645 -0.073002 0.729289 0.150999 -0.666491
0.086665 -0.644484 0.022163 -0.585198 0.435515 0.681096
0.163027 -0.735348 -0.070055 0.799676 -0.090652 -0.592005
-0.064278 0.579363 -0.066695 -0.450662 0.811748 -0.346835
-0.037273 0.315636 -0.128505 -0.185775 0.033694 -0.981169
0.064321 0.847143 0.03949 0.540993 0.555921 0.630285
-0.256128 0.288992 -0.050074 0.76111 -0.636637 -0.102212
-0.056467 -0.861596 -0.058521 0.041564 -0.997551 0.052
0.160518 0.545919 -0.108372 0.282464 0.648594 -0.706007
0.041222 0.091306 0.132606 0.136351 -0.416088 0.894898
0.059907 -0.768204 -0.01519 -0.994076 0.042076 -0.098062
-0.126905 0.387369 -0.072235 -0.970489 -0.158741 -0.168705
0.183053 -0.403939 0.061532 0.816009 -0.056223 0.575124
-0.132319 -0.255788 0.001567 -0.966219 -0.112581 -0.230884
0.1003 -0.417698 0.052211 -0.556169 -0.331451 0.760924
0.080481 0.185064 -0.11835 0.13886 -0.16266 -0.969452
0.083438 -0.453531 0.020005 -0.664253 -0.147156 0.731957
0.049758 -0.409223 -0.051384 -0.785023 -0.014949 -0.61825
0.181921 0.288895 -0.029423 0.963977 -0.155649 -0.211397
0.166126 -0.49627 0.061474 0.344212 -0.192851 0.911377
0.182915 0.269371 0.007513 0.997586 0.005793 0.067612
0.009835 -0.304332 -0.047044 0.768608 -0.091005 -0.633203
0.20301 0.051328 0.030948 0.951774 0.238192 0.192666
0.192977 -0.610232 0.012968 0.766574 -0.142931 0.613693
0.014048 0.661177 0.073322 -0.34637 -0.90614 0.216492
0.175921 -0.733056 -0.049397 0.833521 -0.185153 -0.52027
-0.282859 0.374028 -0.001189 -0.808825 0.25422 0.521565
0.008974 -0.277406 -0.05265 0.756636 -0.122566 -0.641392
-0.029014 0.138743 0.119457 -0.404757 0.008852 0.914151
0.068667 0.664406 -0.052292 0.690865 -0.043815 -0.719521
0.331393 0.389769 -0.051194 0.891583 -0.238912 0.370247
-0.128645 -0.299677 0.006263 -0.999679 -0.017198 -0.012459
0.070226 -0.647854 -0.059821 -0.716966 -0.134636 -0.683961
-0.049218 -0.220928 0.115925 0.082402 -0.225512 0.969318
-0.003308 0.389108 0.105746 0.025413 0.090301 0.995288
-0.045774 0.513895 0.059923 -0.168845 0.512752 0.84151
0.088012 0.299135 0.107571 0.383907 0.126795 0.907108
0.182285 -0.160503 -0.069073 0.667403 -0.06591 -0.741391
0.2177 0.527561 0.00041 0.337396 0.614788 0.712242
0.00065 -0.162357 -0.067988 0.768777 -0.018195 -0.639116
0.209265 0.416639 -0.020294 0.39193 -0.851212 0.186373
0.021784 -0.744558 -0.0516 0.98035 -0.173592 -0.044073
0.075529 0.833037 -0.077747 0.585412 0.636626 -0.501685
0.179063 0.103108 -0.060942 0.795769 0.282374 -0.535238
-0.019813 -0.722447 0.021965 0.564229 -0.341152 0.735891
-0.360854 0.2584 0.008759 0.056543 0.13525 0.988678
0.196581 -0.213422 0.051805 0.939993 -0.009471 0.339933
-0.050039 -0.86416 0.087553 0.023385 -0.999541 0.011823
0.098438 0.27217 0.106933 0.337248 0.073031 0.93745
0.045122 -0.119025 0.071233 0.604852 -0.540639 0.578362
0.027822 0.756666 -0.119866 -0.045186 -0.201208 -0.974792
-0.062821 -0.441224 0.081137 0.156171 -0.190891 0.969011
0.067281 -0.18127 0.081071 -0.57175 -0.03779 0.818767
-0.042366 -0.114539 0.126272 -0.092922 -0.090334 0.988998
0.127665 -0.355485 -0.095657 0.404695 0.074301 -0.911415
-0.029987 0.784869 0.022363 -0.912988 0.121004 0.389105
0.076004 0.848588 0.024149 0.710321 0.613974 0.334688
0.037189 0.27067 -0.127282 -0.120172 -0.074542 -0.988995
0.192485 0.563126 -0.053245 0.551342 0.821239 -0.034377
-0.36187 0.217137 0.005804 0.329965 -0.372216 0.865398
0.198561 0.152386 0.006801 0.934206 0.348746 0.05683
-0.1063 -0.3205 0.0995 -0.662487 -0.046262 0.747217
0.01767 -0.418997 0.02593 0.945162 -0.073152 0.311852
0.354293 0.375172 -0.095208 0.742038 0.668392 0.046984
0.309514 0.333212 -0.046866 -0.383223 -0.532929 0.753017
-0.004451 -0.831714 -0.064021 0.19191 -0.962637 0.004176
-0.050577 -0.706358 0.014127 -0.285125 0.034803 0.953983
0.060581 -0.200994 -0.079273 -0.712144 -0.204176 -0.671458
-0.50095 0.093051 0.042829 0.527892 -0.808911 -0.226018
-0.127866 -0.331994 -0.010844 -0.995518 -0.004798 -0.083943
0.182697 -0.473409 0.053117 0.875865 -0.107694 0.468195
0.005597 -0.264213 -0.059698 0.774686 -0.116953 -0.621326
-0.113874 0.448006 -0.114262 -0.429965 -0.027962 -0.901329
0.08553 0.355312 -0.145133 -0.085257 -0.022963 -0.995811
-0.093486 -0.030841 -0.106348 -0.679861 -0.116949 -0.723896
0.409337 0.222693 -0.060323 -0.6086 -0.762955 0.209645
0.151194 -0.693697 -0.083929 0.640532 -0.018544 -0.767345
0.039444 -0.25519 0.009968 -0.383115 -0.037466 0.836024
0.177246 -0.382366 -0.065562 0.683901 0.221076 -0.689004
0.001157 0.5432 -0.114761 0.007791 0.386267 -0.922252
-0.526212 0.074152 0.038777 0.553705 -0.724374 -0.403247
0.136119 -0.648832 0.032677 0.173633 0.006913 0.983285
0.142495 -0.793382 0.038238 0.570181 0.407781 0.71133
0.150545 0.248909 0.072096 0.775372 0.061399 0.628248
-0.128638 -0.56249 -0.010418 -0.966789 -0.100787 0.234766
0.049935 0.756025 0.079679 0.785558 0.156416 0.596175
0.387094 0.238039 -0.092071 -0.640431 -0.742372 -0.187857
-0.028498 0.759254 0.030632 -0.965523 0.016881 0.253178
-0.120943 0.366114 0.014692 -0.966199 -0.205166 0.154583
-0.129362 -0.284547 0.012399 -0.995761 -0.086597 -0.015967
-0.076126 -0.091923 -0.102512 -0.536904 -0.188365 -0.819083
0.007071 -0.464825 0.03624 0.753763 -0.090399 0.650301
-0.376738 0.240537 0.010675 0.053109 0.054783 0.997023
0.267325 0.38458 -0.138482 -0.385024 -0.256122 -0.884509
0.137796 -0.867962 0.023067 0.135842 -0.983727 -0.101139
0.02166 0.331723 0.117434 -0.173501 0.314149 0.930827
0.027498 -0.343875 0.007591 0.998847 -0.047642 0.002386
0.008006 0.588679 0.01989 -0.462826 0.122998 0.876763
0.169859 -0.848551 0.111012 0.781221 0.61306 0.095102
0.147919 0.038465 -0.123158 0.680528 0.169214 -0.71252
0.005314 -0.691627 0.002428 0.827142 -0.233186 0.508563
0.064943 -0.300406 0.061305 -0.71163 -0.11168 0.693448
-0.103211 -0.647158 -0.096774 -0.544264 0.036169 -0.837506
0.136003 -0.30568 0.081557 0.055549 -0.055396 0.996356
-0.017914 -0.274702 0.098021 0.366525 -0.220961 0.902918
-0.286732 0.346392 -0.091942 -0.413919 0.303953 -0.856068
-0.084484 -0.672532 0.033075 0.167328 -0.352658 0.915656
0.120285 0.525666 -0.129524 0.06936 0.39014 -0.917614
0.052038 -0.054972 0.12419 0.054423 -0.481619 0.874236
0.015085 0.432239 0.096688 0.107962 0.148707 0.982937
-0.125308 -0.344921 0.047458 -0.990218 0.052007 0.128615
-0.009875 -0.639967 -0.077687 0.661974 0.038138 -0.748322
-0.179968 0.448419 0.043354 0.010096 -0.216792 0.973647
0.161034 0.568606 -0.028335 0.344916 0.834093 0.425354
0.629565 0.054184 0.00655 -0.841941 0.314931 -0.404996
-0.002873 -0.540865 0.027709 0.647428 -0.15592 0.744562
-0.01431 0.81532 -0.095631 -0.464603 0.501677 -0.722704
0.48125 0.201416 -0.061582 -0.061163 -0.590837 -0.799257
-0.143551 -0.069613 0.025405 -0.994281 0.022016 0.098088
0.165215 0.122142 -0.073506 0.805248 0.201251 -0.554417
0.052219 -0.596298 -0.046411 -0.826075 -0.022243 -0.561102
0.027392 -0.598662 -0.024697 0.994474 0.036142 -0.059696
-0.083819 -0.369047 0.099777 0.050485 -0.209933 0.974562
-0.131322 0.407529 0.011867 -0.559579 -0.671973 0.228504
-0.409489 0.233211 -0.064364 -0.527241 -0.084752 -0.843779
-0.114959 0.150638 -0.042613 -0.883465 0.14446 -0.445152
-0.076148 0.032378 0.112744 -0.384715 0.332879 0.859038
0.125011 -0.86969 0.094582 -0.014384 -0.999744 0.017478
0.109302 -0.734079 0.028479 0.319506 0.14636 0.935138
0.098501 -0.83849 0.142 -0.864959 0.445605 0.21369
-0.523017 0.11995 0.064384 -0.757597 0.652114 0.019873
-0.34382 0.239035 0.007724 0.260884 -0.180339 0.947852
0.075672 -0.588554 -0.071602 -0.694795 -0.095631 -0.712629
0.20033 -0.593452 -0.036599 0.993966 -0.053182 -0.092775
-0.134029 -0.522376 -0.044414 -0.908158 0.030624 -0.395364
0.214509 -0.112795 0.004077 0.999581 -0.005448 0.00295
0.000173 0.475595 0.083522 -0.006109 0.434793 0.899874
0.160246 0.314583 0.056983 0.661457 0.020357 0.749228
-0.186855 0.366689 0.002419 0.496774 -0.677052 0.541861
0.133212 -0.323086 -0.091276 0.509322 0.03157 -0.859034
0.029071 0.560248 -0.107841 -0.087126 0.445593 -0.888704
0.097754 -0.107805 -0.121872 -0.151435 -0.287748 -0.94356
-0.013783 -0.757831 -0.115046 0.68199 0.337133 -0.647987
0.174651 -0.054203 0.089752 0.686771 0.022572 0.72652
0.07709 0.051354 0.129904 0.37553 0.12464 0.914182
0.197785 0.3939 -0.097876 0.893431 -0.362028 -0.259275
0.096939 0.034869 -0.155312 0.352623 0.125211 -0.925948
-0.033438 0.760632 0.014769 -0.945825 -0.114804 0.296412
-0.032888 -0.861356 -0.116957 0.219699 -0.953346 -0.191882
0.235367 0.393845 -0.12273 -0.623778 -0.487184 -0.608946
0.109745 -0.507532 0.039277 -0.611405 -0.067516 0.788139
0.183298 0.351395 0.023577 0.915428 -0.101361 0.388151
0.197228 -0.237811 0.052369 0.923374 0.04103 0.379519
-0.125459 0.204998 0.004615 -0.917504 0.384003 0.005226
0.132244 -0.165912 -0.105944 0.318823 -0.111481 -0.940422
-0.043199 -0.792411 0.051756 0.050495 0.696358 0.699507
0.025741 0.865174 -0.033402 -0.16779 0.968484 -0.180128
0.03431 0.731277 -0.109301 -0.001783 -0.551729 -0.831811
0.168516 -0.86306 0.0718 0.295482 -0.944 -0.011117
0.049695 0.005301 -0.153417 -0.19918 -0.188036 -0.960793
-0.252054 0.417731 -0.074301 -0.530459 0.609347 -0.58619
0.007915 -0.722654 -0.009501 0.791664 0.001039 0.610764
-0.250361 0.38873 -0.094348 -0.118553 0.155149 -0.979208
0.054803 -0.478841 -5.4e-05 -0.664656 0.00107 0.740114
-0.007391 0.52243 -0.121374 -0.020975 0.191527 -0.981238
-0.012406 0.848785 0.021007 -0.711794 0.557647 0.366719
-0.004963 0.689671 0.063474 -0.784343 -0.222115 0.571996
-0.176376 0.497654 -0.072728 -0.553494 0.426204 -0.71439
-0.09459 0.409125 -0.114707 -0.339991 -0.205423 -0.917421
0.051204 0.603907 -0.081868 0.100009 0.690904 -0.692399
-0.136764 -0.012352 0.037956 -0.993229 0.0307 0.110823
-0.015857 -0.320337 0.089417 0.478546 -0.079196 0.874354
0.207653 -0.144689 -0.031072 0.969488 -0.084807 -0.225805
-0.070572 0.125973 -0.099705 -0.541613 0.198087 -0.816484
0.101707 -0.284996 0.082168 -0.134037 -0.107107 0.984858
0.532453 0.187522 -0.047546 0.124301 -0.656899 -0.736277
-0.127731 -0.655289 -0.040957 -0.996567 -0.026369 0.076726
-0.10444 0.449189 -0.118625 -0.375653 -0.03747 -0.923613
0.043823 -0.396573 -0.00442 -0.974585 -0.115303 0.178856
0.158299 0.38879 -0.123273 0.398745 -0.331128 -0.853136
0.036594 0.282326 0.123716 0.085027 0.155863 0.983802
0.026174 0.003902 -0.148295 -0.218046 -0.251555 -0.938915
-0.116626 0.060264 0.081347 -0.799357 0.243089 0.529084
0.148108 -0.505124 0.060669 -0.211268 -0.170311 0.961805
-0.48756 0.165737 0.016656 -0.742133 0.666306 0.032467
-0.197847 0.394515 0.025993 0.228862 -0.368011 0.899856
0.597598 0.069365 0.046635 -0.300938 -0.920346 0.170072
0.190135 -0.47625 -0.066741 0.842351 0.048048 -0.535827
-0.128243 0.12763 0.014826 -0.986171 0.097363 0.130626
-0.012458 -0.081784 -0.108855 0.296472 -0.48989 -0.81824
0.134601 -0.499755 0.056177 -0.44935 -0.139432 0.880833
0.042628 0.740618 0.097671 0.774202 0.267576 0.560181
0.074713 0.521048 -0.129167 -0.123611 0.155985 -0.979768
-0.02731 0.794177 0.026373 -0.90684 0.140949 0.395927
-0.031008 0.569928 -0.097613 -0.157146 0.590434 -0.79161
0.147032 -0.023778 -0.131378 0.667377 -0.028864 -0.74338
-0.113325 -0.073631 -0.071633 -0.77238 -0.163032 -0.613084
0.020101 -0.579254 -0.040654 0.850905 0.110385 -0.511228
-0.067994 -0.693113 0.019197 0.239608 -0.317656 0.91724
-0.527718 0.103904 0.028431 -0.761766 0.290066 -0.481923
0.138513 -0.108682 0.111767 0.17117 -0.057162 0.982356
0.344653 0.309346 -0.044157 -0.296128 -0.282344 0.888663
-0.072511 -0.509589 -0.098222 -0.189326 0.083753 -0.977786
-0.011135 -0.79576 0.003453 0.938134 0.129756 0.316551
0.050995 0.694344 -0.077934 0.216433 -0.599749 -0.769591
0.136293 -0.568252 0.042991 -0.052339 -0.197313 0.977716
0.104981 0.792363 -0.035313 0.987225 0.11682 -0.028909
0.157733 -0.219379 -0.08421 0.567078 -0.105826 -0.816601
0.145146 -0.851012 -0.106199 0.714917 -0.025195 -0.696436
-0.099175 0.45369 0.065553 -0.372487 0.068528 0.918342
0.154124 0.215859 -0.077868 0.791107 -0.069748 -0.606673
0.007023 -0.819682 -0.074266 0.875377 -0.476614 -0.023713
0.059535 -0.617201 -0.054202 -0.77028 -0.0597 -0.634587
0.03915 0.114767 0.133388 0.032255 0.173515 0.983667
0.490001 0.234915 -0.018001 0.577977 0.713988 0.363914
0.038695 0.858344 -0.063319 0.062936 0.844897 -0.530598
-0.030268 0.753441 0.02131 -0.963482 -0.091839 0.245168
0.189749 0.092969 0.042718 0.970838 0.059825 0.221388
0.092012 0.707312 0.029013 0.963475 -0.239416 0.092577
0.063595 0.143841 -0.124304 -0.050807 0.396995 -0.913769
0.075454 -0.818816 0.017143 -0.857745 -0.391683 0.300634
0.10334 -0.618099 0.033679 -0.363794 0.144665 0.908359
-0.108986 -0.099337 -0.071629 -0.768149 -0.119024 -0.628771
-0.238325 0.345464 -0.090199 0.323208 -0.472939 -0.817367
0.17053 -0.237565 -0.074209 0.525877 -0.117816 -0.842074
0.421375 0.274035 -0.12524 0.370131 0.122608 -0.920276
0.076485 -0.288567 0.072442 -0.462644 -0.163505 0.869748
0.173612 0.451073 -0.137763 0.189637 -0.061136 -0.979496
-0.107535 -0.022958 -0.091232 -0.816338 -0.061244 -0.574299
-0.091293 0.276709 -0.094918 -0.692296 -0.071913 -0.717847
0.20191 -0.119618 0.055877 0.896642 -0.031282 0.441577
-0.130868 -0.171247 -0.023547 -0.874903 -0.160511 -0.456371
-0.060998 -0.224518 0.11507 -0.06139 -0.160877 0.983624
0.086173 0.254377 0.112986 0.399254 0.065544 0.91447
0.024037 0.839191 0.060829 -0.212563 0.599995 0.769168
-0.126159 0.141153 0.019164 -0.982754 0.051906 0.174826
0.213244 -0.050861 0.020002 0.991246 0.033149 0.112901
0.17421 -0.772099 0.019144 0.702165 -0.060052 0.693315
-0.076284 -0.184911 -0.08788 -0.52054 -0.097952 -0.845042
0.209472 0.547425 -0.084326 0.333878 0.78641 -0.51533
0.144788 -0.26232 -0.085803 0.533301 -0.105971 -0.83911
0.008458 -0.502624 0.026501 0.733564 -0.135334 0.66524
0.047869 0.340072 0.113795 0.149905 0.169299 0.973555
-0.112051 -0.614284 -0.086957 -0.61959 0.09368 -0.779187
-0.402496 0.182273 0.018193 0.620379 -0.500855 0.495298
0.011726 -0.794985 -0.083225 0.964004 -0.175087 -0.177303
-0.082637 0.505612 0.057194 -0.157219 0.398859 0.902063
-0.120002 0.151332 0.037539 -0.942959 0.014967 0.330645
-0.076454 0.287864 -0.108904 -0.638375 -0.05169 -0.767886
-0.056555 -0.561862 -0.103192 0.08298 0.013693 -0.995163
0.009719 -0.792942 -0.094235 0.950802 -0.023118 -0.297042
0.125185 -0.815842 0.074935 0.110662 0.923261 0.361489
0.110983 0.061909 -0.142562 0.500986 0.193601 -0.842892
0.156474 -0.003275 0.104487 0.535022 -0.239359 0.804821
-0.098296 0.081377 0.086266 -0.400552 0.487916 0.773468
0.127451 -0.337137 0.0796 -0.037908 -0.081493 0.995294
-0.137296 -0.050659 -0.029858 -0.969426 -0.010104 -0.244997
-0.235559 0.317377 -0.057408 0.707207 -0.648284 -0.2599
-0.127646 -0.348265 0.026338 -0.996166 0.0352 0.076631
0.120968 -0.418839 -0.102863 0.078209 0.051801 -0.989084
0.182357 0.464296 0.037428 0.492392 0.234232 0.837631
-0.029979 0.711872 0.009059 -0.937331 -0.323001 0.037727
0.039405 -0.194732 0.028347 -0.660748 -0.208742 0.598734
-0.126875 -0.610168 -0.00829 -0.981208 0.023794 0.189093
-0.035435 -0.593198 -0.09626 0.407673 -0.011975 -0.912333
0.084602 -0.560881 -0.084852 -0.580784 -0.070413 -0.801148
0.610708 0.08579 0.007559 0.300013 0.226141 -0.919392
0.190717 -0.541569 -0.066829 0.814771 -0.028456 -0.578745
0.204319 0.017894 -0.025306 0.969279 -0.015532 -0.24032
-0.118119 0.343126 0.006969 -0.976638 -0.142031 0.16103
-0.049666 -0.369542 0.093463 0.301475 -0.278624 0.911673
-0.120195 -0.190252 -0.037762 -0.850454 -0.101697 -0.515844
0.28021 0.354306 -0.12058 -0.504013 -0.629524 -0.590452
0.009393 0.470537 0.086131 0.032568 0.484899 0.873123
-0.050085 -0.296802 -0.091408 -0.035195 -0.088176 -0.99279
-0.276612 0.40666 -0.054601 -0.671401 0.730406 -0.124957
0.119122 0.570549 -0.010165 0.363796 0.715305 0.595798
-0.13932 -0.074059 -0.021984 -0.949522 0.006457 -0.312413
-0.094591 0.350876 -0.1013 -0.57844 -0.146675 -0.802159
-0.086912 0.522788 -0.105798 -0.292605 0.464762 -0.835644
0.088884 0.768673 -0.089806 0.825318 -0.023511 -0.561374
-0.044702 -0.674587 -0.105628 0.405112 0.18448 -0.894627
0.166871 0.470506 0.04715 0.635065 0.18412 0.749254
0.06674 -0.633417 -0.059172 -0.705471 -0.158749 -0.690159
-0.279849 0.263515 -0.051705 0.70532 -0.706951 -0.036441
-0.0856 -0.707597 0.019009 -0.011413 -0.397025 0.914814
-0.493865 0.149757 0.064157 -0.264578 0.824804 0.475805
-0.139419 -0.469151 -0.009144 -0.992821 0.05568 0.072527
-0.43177 0.169373 -0.049957 0.352439 -0.654468 -0.655481
0.026108 -0.115778 -0.065983 -0.899462 -0.302708 -0.311797
-0.100518 0.200333 0.069438 -0.693176 -0.011309 0.719621
-0.26098 0.285336 -0.030665 0.70635 -0.673087 0.214892
0.295797 0.34811 -0.040601 -0.202304 -0.666028 0.713398
-0.037632 -0.240991 -0.091642 0.195435 0.044775 -0.978894
0.615776 0.055912 0.09012 -0.864769 -0.480088 0.114247
0.192448 0.482212 0.027528 0.36507 0.25298 0.895135
-0.287158 0.380504 -0.016311 -0.923564 0.235228 0.244274
0.127173 0.269296 0.093832 0.5929 0.047255 0.803809
0.027239 -0.201525 0.047477 0.974028 0.001996 0.225755
0.145422 -0.572319 -0.10246 0.297198 -0.098351 -0.949071
-0.371685 0.303057 -0.046736 -0.688433 0.725076 -0.011166
0.177489 -0.708377 -0.05233 0.783544 -0.037048 -0.617302
0.398957 0.327554 -0.072424 0.578885 0.731345 0.354349
-0.141658 0.545642 0.019708 -0.332184 0.791405 0.512203
0.256744 0.384044 -0.133465 -0.458993 -0.342737 -0.816382
-0.044008 -0.62445 -0.100822 0.39225 0.037005 -0.917172
-0.127104 0.37619 -0.027438 -0.980379 -0.192389 0.007597
-0.095789 0.054439 -0.096968 -0.728989 0.195196 -0.655973
0.075754 -0.514493 0.016565 -0.653179 0.015932 0.756944
0.510649 0.160834 0.017432 -0.559381 -0.632398 0.441305
0.203551 0.557038 -0.03027 0.362466 0.873889 0.297028
0.201604 -0.02319 0.05314 0.890146 0.065418 0.450429
0.213857 -0.0616 0.007646 0.997605 0.034541 -0.057598
-0.04054 -0.673605 0.021606 -0.041409 -0.180313 0.981134
0.076607 0.54707 0.033489 -0.232193 0.739411 0.626419
0.079669 0.492506 -0.136218 -0.190954 0.160054 -0.968114
-0.119026 0.016807 0.085244 -0.815115 0.231475 0.53057
-3.2e-05 0.253928 0.122338 -0.372984 0.064475 0.925589
0.019812 -0.378209 -0.027693 0.923312 -0.008657 -0.381337
0.002396 0.772345 -0.115635 -0.484071 -0.046209 -0.872104
0.122633 -0.494865 -0.107681 -0.078739 0.036244 -0.993655
0.196553 -0.264007 0.054789 0.896909 -0.058496 0.437763
0.561299 0.093315 0.038292 -0.829007 -0.514272 0.213675
-0.308936 0.31293 0.004815 -0.159199 0.089039 0.982931
0.066707 -0.068295 0.11779 -0.015762 -0.435418 0.898981
-0.057137 -0.589343 0.043853 0.409402 -0.276292 0.869264
-0.057619 -0.806416 0.062772 -0.022117 0.524111 0.83745
-0.206658 0.33826 -0.03013 0.615236 -0.780135 0.099288
0.387509 0.31882 -0.0526 0.356524 0.499601 0.788331
0.081251 -0.395094 0.045273 -0.673927 -0.26986 0.687309
-0.051203 0.395186 0.09913 -0.317433 0.130869 0.937839
0.411906 0.308885 -0.060213 0.499348 0.680414 0.532109
-0.106363 -0.216115 0.104835 -0.554459 -0.061486 0.822148
0.0431 -0.251932 -0.044379 -0.873672 -0.002576 -0.485384
0.178962 0.566806 -0.050554 0.273864 0.952231 0.028622
-0.451292 0.212503 -0.016404 -0.775755 0.626914 0.05134
-0.012874 0.482506 -0.128171 0.083292 0.09096 -0.99217
-0.310006 0.239182 -0.042079 0.522283 -0.849775 -0.056536
0.173154 -0.860074 0.048149 0.78374 -0.531877 -0.104331
-0.119723 0.318568 -0.02092 -0.995988 -0.043182 0.072571
0.191662 -0.604719 -0.06305 0.792952 -0.026735 -0.607841
0.348408 0.371849 -0.067248 0.700043 0.567143 0.42525
-0.126144 -0.324246 0.039144 -0.992542 -0.031696 0.116957
0.012884 -0.78306 -0.037783 0.878759 -0.280555 0.384017
0.142274 0.227107 0.083313 0.729407 0.070587 0.680063
-0.092154 -0.851014 0.142303 -0.867932 -0.100214 0.467434
-0.039403 0.540476 0.042999 -0.207686 0.622547 0.754301
0.040568 -0.329231 0.007691 -0.939182 -0.087336 0.33056
-0.032451 -0.136191 0.124367 -0.004558 -0.06992 0.997327
0.088 -0.185917 0.092059 -0.406 -0.047193 0.912072
0.059511 -0.778919 -0.012721 -0.997663 -0.003515 -0.060283
0.100162 -0.03117 0.127605 0.233872 -0.072807 0.968521
0.482521 0.246936 -0.058708 0.75577 0.652068 -0.039558
-0.183701 0.388166 0.019337 0.29266 -0.476637 0.827514
0.00902 -0.099085 0.117767 0.5461 -0.23522 0.799677
0.013479 0.360454 -0.127295 0.039585 -0.036876 -0.998417
0.059712 -0.380385 -0.064046 -0.771473 -0.030218 -0.635442
-0.127457 -0.429955 -0.036727 -0.826321 0.24583 -0.506597
-0.100767 0.120183 0.070876 -0.704889 0.156184 0.6858
0.051879 0.802176 -0.114311 0.276503 0.285333 -0.915255
0.001188 -0.694117 -0.080791 0.492092 0.241801 -0.836211
0.411798 0.315601 -0.105863 0.666745 0.639218 -0.366914
0.110354 -0.829571 0.154878 -0.593584 0.74069 0.264793
0.138515 0.45899 -0.144714 0.115028 0.034315 -0.992719
-0.04622 0.062647 0.120233 -0.462601 0.145598 0.873459
0.231927 0.51824 -0.000631 0.559784 0.524193 0.63503
0.191335 -0.028005 -0.067737 0.906257 0.005626 -0.422324
0.0961 0.586098 -0.013587 0.671425 0.485762 0.558013
0.199007 -0.436321 0.008302 0.986373 -0.089127 0.137288
0.582218 0.131641 0.01903 0.77672 0.627108 -0.047736
-0.139024 -0.174737 0.00167 -0.948124 -0.215828 -0.226629
-0.103238 -0.245132 -0.059397 -0.796345 -0.045891 -0.601148
0.326725 0.381096 -0.043807 0.809187 -0.048124 0.582392
-0.34323 0.266839 0.006253 0.015736 0.179261 0.983563
-0.078546 -0.276885 -0.082787 -0.60024 -0.045762 -0.798399
-0.191114 0.398883 -0.096827 0.117645 -0.075087 -0.987572
-0.202335 0.342274 -0.051155 0.612099 -0.769258 -0.167248
-0.012072 0.665444 -0.007248 -0.985952 -0.107132 0.003977
0.108346 -0.799223 -0.114428 -0.44096 0.300727 -0.837615
0.64467 0.023963 0.06229 0.8796 -0.437024 0.059053
-0.027582 -0.180188 -0.089202 0.414255 -0.019617 -0.908463
-0.106018 -0.1859 -0.0602 -0.800925 -0.05954 -0.595139
0.54339 0.176319 -0.026706 0.824431 -0.016387 -0.46159
-0.216585 0.484433 0.001486 -0.784903 0.545804 0.291823
0.051325 -0.556063 -0.046995 -0.857937 -0.036951 -0.51236
0.089297 0.702331 0.04266 0.965566 -0.206357 0.144299
-0.133269 0.504978 0.05513 -0.151678 0.397934 0.904055
0.176463 -0.105172 0.091404 0.692021 0.033826 0.720972
-0.071023 -0.678321 -0.110034 -0.164399 0.121291 -0.976543
-0.127755 -0.481867 -0.050661 -0.839927 0.07326 -0.537341
0.543851 0.135844 0.037962 -0.719268 -0.106465 0.637183
-0.045283 0.405285 0.099345 -0.274799 0.198509 0.939279
-0.047152 0.268274 0.102006 -0.627375 0.054539 0.775818
0.167537 -0.615641 -0.083878 0.610152 -0.149817 -0.777299
0.3659 0.257696 -0.082847 -0.777003 -0.621949 0.023094
0.501108 0.164726 -0.025417 -0.592547 -0.803578 -0.051217
-0.098044 -0.14079 -0.077211 -0.691257 -0.128011 -0.710844
0.173341 0.31161 0.042472 0.906019 0.049491 0.407677
0.373634 0.249463 -0.078363 -0.72866 -0.678831 0.084382
-0.1257 -0.542248 0.007891 -0.868517 -0.158295 0.464464
-0.131749 -0.251857 0.058398 -0.952149 -0.149602 0.260216
0.102843 0.746245 0.001974 0.821498 -0.116414 0.535512
0.09163 -0.724429 -0.080101 -0.805752 -0.073484 -0.584539
0.289049 0.335835 -0.111415 -0.6247 -0.632514 -0.45621
0.096604 -0.057813 0.122074 0.036777 -0.284283 0.954415
-0.113008 -0.023898 0.089599 -0.764185 0.051915 0.642549
0.081519 -0.812649 -0.084086 -0.89869 0.063784 -0.426012
-0.089488 -0.33406 0.104527 -0.087072 -0.077944 0.99109
0.177745 0.278834 0.029268 0.937893 0.009934 0.3449
-0.009794 -0.181939 -0.077634 0.617371 -0.013003 -0.786482
0.017582 0.014939 -0.149903 -0.189933 -0.401472 -0.895282
0.197032 -0.403483 -0.043866 0.924181 -0.038703 -0.376184
-0.129377 -0.618519 -0.046427 -0.999819 -0.017896 0.000207
0.052101 -0.686413 -0.014491 -0.996131 -0.043118 -0.070002
0.035212 0.230806 -0.125855 -0.045067 -0.048385 -0.99548
0.241303 0.373604 -0.060606 -0.674407 -0.713656 0.17995
0.157353 0.042322 -0.112529 0.705653 0.210064 -0.675186
0.042894 0.316805 -0.129252 -0.302872 0.00552 -0.947474
0.094643 -0.865756 0.058666 -0.614922 -0.780104 -0.065575
-0.193131 0.455272 0.043416 -0.355758 0.162544 0.915435
0.194919 -0.475422 0.015003 0.952149 -0.000642 0.305097
0.103305 -0.785392 0.045895 -0.144904 0.593894 0.783646
0.117691 -0.869738 0.083928 0.004379 -0.999907 0.011938
-0.091802 0.511734 -0.110293 -0.310966 0.42358 -0.848789
-0.073278 0.232343 -0.098853 -0.672976 -0.289862 -0.679356
0.199549 -0.347318 -0.030118 0.87542 0.164547 -0.45401
0.015329 0.631876 -0.063718 -0.317037 0.322812 -0.890595
-0.308337 0.275845 0.005919 0.185155 -0.083372 0.96942
0.104213 0.373848 -0.14532 0.121096 -0.037856 -0.99001
-0.0419 -0.733944 0.027373 0.068651 -0.261488 0.930398
-0.112418 -0.270858 -0.043795 -0.870748 -0.004392 -0.491098
-0.001424 0.580288 -0.095491 -0.070821 0.56929 -0.817976
0.120243 0.16894 0.102919 0.532804 0.024232 0.845105
-0.118004 0.182029 -0.029218 -0.880787 0.120687 -0.457702
0.466742 0.264811 -0.07095 0.81127 0.577926 -0.050905
0.130405 0.08468 0.102703 0.316934 0.149645 0.928222
