0.131418 0.43345 0.078744 0.386283 0.190157 0.900409
0.117353 0.577147 -0.016912 0.370453 0.735905 0.563127
0.175256 0.338525 0.037586 0.879777 -0.05004 0.471763
-0.052059 -0.558921 0.049927 0.370455 -0.173613 0.912014
-0.034523 -0.288262 0.100573 0.340555 -0.20899 0.915866
0.129614 -0.869274 0.119407 -0.005729 -0.999405 0.032541
-0.268488 0.280074 -0.024682 0.664401 -0.672937 0.320582
0.450137 0.197078 -0.033873 -0.701767 -0.684882 0.161241
0.611503 0.093237 0.065321 0.761017 0.646631 0.05025
0.181688 -0.373024 -0.058245 0.638077 0.240657 -0.731038
-0.19197 0.480807 -0.071518 -0.549508 0.454428 -0.700183
-0.06259 0.37195 0.096397 -0.442598 -0.03321 0.895147
-0.028666 0.731211 -0.053554 -0.887977 -0.342701 -0.284949
0.063595 0.143841 -0.124304 -0.050807 0.396995 -0.913769
0.013654 -0.445009 0.029581 0.827746 -0.049754 0.558783
-0.02708 -0.37535 -0.075789 0.599481 -0.09725 -0.793403
0.020654 0.486991 0.077333 0.064796 0.55293 0.829417
0.140416 -0.626212 0.032504 0.347228 -0.29522 0.889075
-0.011502 0.635586 -0.009522 -0.986691 0.006432 0.147325
0.01373 -0.788937 -0.046789 0.894102 -0.37085 0.250343
0.087235 0.703232 -0.044319 0.770274 -0.498241 -0.365133
-0.061734 -0.30936 0.104634 0.149435 -0.086083 0.984697
-0.109077 -0.583055 0.032691 -0.905633 0.020846 0.42225
0.095008 -0.464064 -0.097474 -0.53248 0.057993 -0.84418
-0.003308 0.389108 0.105746 0.025413 0.090301 0.995288
0.557645 0.162417 -0.005014 0.74223 0.660976 -0.10528
-0.492336 0.159935 0.027669 -0.753756 0.65479 0.048128
-0.116626 0.060264 0.081347 -0.799357 0.243089 0.529084
-0.023374 0.704138 0.028685 -0.912823 -0.361291 0.188285
-0.098296 0.081377 0.086266 -0.400552 0.487916 0.773468
0.181656 -0.429586 -0.068262 0.736852 0.154311 -0.657843
0.190306 0.357271 -0.074453 0.819676 -0.436207 -0.369359
0.172373 0.046315 0.0889 0.669054 0.240426 0.702885
0.1134 0.34348 0.094898 0.428671 0.10265 0.893925
0.067462 0.861281 -0.029529 0.450448 0.867181 -0.137915
0.006538 0.288792 0.12168 -0.195434 0.100868 0.974394
-0.058207 -0.208581 -0.092244 -0.135181 -0.06493 -0.985479
-0.129894 -0.279549 0.031822 -0.985211 -0.166289 0.02704
-0.143858 -0.096375 -0.003332 -0.994136 0.002509 -0.098136
0.07463 -0.247855 -0.084498 -0.590279 -0.000887 -0.804841
-0.131505 -0.586528 -0.046256 -0.988492 -0.12674 -0.075492
-0.371685 0.303057 -0.046736 -0.688433 0.725076 -0.011166
-0.037521 0.772707 -0.007739 -0.986049 0.07837 0.143107
0.090734 -0.151107 -0.110152 -0.227809 -0.220076 -0.947667
-0.125156 0.195674 0.021228 -0.935328 0.204157 0.284744
-0.018185 0.441284 -0.130177 0.086406 -0.029406 -0.995577
-0.122166 0.398489 -0.090863 -0.799322 -0.257881 -0.539011
0.36288 0.282647 -0.046524 -0.604184 -0.446261 0.657611
-0.136486 -0.419444 0.014816 -0.990576 0.03054 0.12906
0.199948 -0.467229 -0.017813 0.999721 -0.00243 0.017233
-0.105701 0.549739 -0.075071 -0.442977 0.680288 -0.582868
0.146951 -0.524592 0.055667 -0.200313 -0.276869 0.936766
-0.111763 -0.637418 -0.089797 -0.606833 0.06557 -0.792107
0.052383 -0.291281 0.048962 -0.768758 -0.090996 0.631531
-0.093534 0.497246 0.0587 -0.078212 0.301631 0.949482
-0.552477 0.080768 0.024191 -0.747583 0.644614 -0.108192
0.389909 0.305567 -0.127946 0.306913 0.192018 -0.929427
0.081442 0.474825 0.076304 0.137133 0.417368 0.896757
-0.324442 0.242339 -0.070708 0.19486 -0.731615 -0.649701
0.085816 -0.847754 -0.062864 -0.982711 0.175555 0.031151
0.213198 -0.088549 -0.009892 0.982438 0.044099 -0.17018
0.059907 -0.768204 -0.01519 -0.994076 0.042076 -0.098062
-0.118564 -0.420664 -0.044166 -0.779893 0.23203 -0.576773
-0.046735 0.515197 -0.12042 -0.125196 0.324357 -0.937518
0.004551 0.493121 -0.124145 0.159785 0.122792 -0.978194
0.063702 0.721998 -0.093806 0.44104 -0.54089 -0.716111
0.10075 -0.382513 0.061127 -0.475271 -0.247603 0.844176
0.038373 0.670506 -0.067886 0.050565 -0.285627 -0.95459
0.005368 -0.388401 -0.049048 0.659932 0.098292 -0.744376
-0.122946 -0.380001 0.058501 -0.983651 -0.025738 0.176039
0.170282 -0.645576 -0.07578 0.574215 -0.19217 -0.795716
0.003184 0.237676 0.125318 -0.391454 0.094842 0.911702
0.001187 -0.683074 0.012417 0.772937 -0.193211 0.600308
-0.001847 0.69451 -0.065161 -0.657428 -0.516563 -0.54798
-0.375803 0.273337 -0.083609 -0.326093 0.195264 -0.923335
0.201622 0.559001 -0.045687 0.257759 0.958617 0.041492
-0.054382 0.584454 -0.06471 -0.481323 0.80035 -0.350378
0.014897 -0.706203 -0.016331 0.801627 -0.139927 0.57948
0.189981 0.075561 -0.053345 0.886119 0.12737 -0.444221
0.182369 0.264682 -0.019336 0.990682 -0.002465 -0.126205
0.156489 0.194522 -0.07483 0.761222 0.034066 -0.647533
-0.061011 0.575396 -0.008698 -0.186439 0.863299 0.464543
-0.012477 0.738956 -0.093644 -0.727448 -0.328311 -0.600214
0.18926 -0.66715 0.008878 0.852903 -0.066762 0.5027
0.078385 -0.44131 -0.082705 -0.689053 0.038449 -0.723623
0.213244 -0.050861 0.020002 0.991246 0.033149 0.112901
0.027347 -0.309864 0.034036 0.991784 -0.029897 0.121055
0.098741 0.572611 -0.104985 0.112798 0.669959 -0.733724
0.045041 -0.508219 -0.039971 -0.962606 -0.044539 -0.257344
-0.127789 0.382931 -0.012504 -0.99265 -0.114323 0.034823
-0.345495 0.291303 -0.089833 -0.296521 0.120256 -0.94443
-0.124039 -0.161009 -0.038506 -0.818974 -0.171558 -0.547122
-0.023253 -0.117849 -0.09915 0.452875 -0.268982 -0.849731
0.153601 0.432861 -0.139329 0.257617 -0.219709 -0.940001
0.05872 0.039693 0.134683 -0.022611 0.209722 0.97722
-0.241329 0.374255 0.019774 -0.023914 -0.16646 0.984794
0.179214 -0.593691 0.026114 0.555434 -0.330273 0.762931
0.201388 -0.580911 -0.013775 0.984645 -0.090754 0.143111
0.02026 0.467135 0.08709 0.086405 0.446509 0.88627
0.083164 -0.766964 -0.067219 -0.840301 0.217613 -0.496031
-0.132606 -0.573939 -0.048114 -0.959448 -0.080261 -0.249875
-0.063091 -0.864092 0.052997 -0.014152 -0.999856 -0.007688
-0.090479 -0.522342 -0.093483 -0.511948 0.109602 -0.851963
0.051516 0.063879 0.131446 0.135775 0.112956 0.982575
-0.335184 0.330356 -0.018621 -0.609438 0.731455 0.267363
0.166327 0.095794 0.07853 0.611815 0.23638 0.741742
-0.059534 -0.280958 0.107189 0.128749 -0.114454 0.984799
0.034365 0.684467 0.089982 0.027365 0.099879 0.977287
0.158361 0.574469 -0.047364 0.307676 0.947885 0.056303
-0.326878 0.229595 -0.048285 0.471592 -0.837943 -0.266443
-0.07854 0.225676 0.083967 -0.595825 0.118869 0.794187
0.136268 0.383496 -0.134931 0.491548 -0.16997 -0.848565
0.14814 -0.495048 0.062491 -0.287469 -0.197981 0.935319
-0.138263 -0.157447 -0.010582 -0.937409 -0.12044 -0.325783
-0.078284 -0.024434 0.118688 -0.50455 0.036675 0.862234
0.131001 0.404783 0.082718 0.411005 0.087249 0.907194
-0.07426 -0.628432 -0.105707 -0.077333 0.075504 -0.992896
-0.041194 0.030581 0.128595 -0.319396 0.165845 0.928827
-0.024936 0.604267 -0.04038 -0.722996 0.690315 0.019413
0.121788 -0.165486 -0.108244 0.203623 -0.151805 -0.965383
-0.042507 0.135737 -0.109189 -0.323693 0.452389 -0.829904
0.138319 -0.215962 -0.096408 0.416742 -0.144921 -0.894466
-0.143512 -0.143901 0.029485 -0.99302 -0.02748 0.110099
-0.028436 -0.326955 -0.082617 0.53 -0.092768 -0.840845
0.088062 0.289378 0.108927 0.372334 0.139382 0.916127
0.017297 -0.134323 -0.049491 0.811851 -0.249086 -0.522864
0.486077 0.195888 0.007986 0.558435 0.671347 0.43537
0.199006 0.558414 -0.066864 0.206036 0.963355 -0.157273
-0.202631 0.447864 -0.083728 -0.364511 0.42214 -0.828529
0.073188 0.020935 -0.160046 0.021273 -0.151857 -0.986515
-0.301968 0.29419 -0.095064 0.09142 -0.244374 -0.96356
0.578009 0.061131 -0.00889 -0.933511 -0.352434 -0.004419
-0.036352 0.755687 -0.051601 -0.964284 -0.162329 -0.20111
0.024053 -0.693895 -0.029964 0.917365 -0.160746 0.360419
0.064089 -0.335448 -0.073718 -0.770656 -0.053446 -0.634951
-0.223098 0.412878 -0.091316 -0.242538 0.319298 -0.915386
-0.063491 -0.681987 0.022232 0.239718 -0.359928 0.90134
-0.003653 -0.720929 0.006126 0.779756 -0.12337 0.612867
0.093487 -0.866849 -0.07517 -0.693609 -0.719076 -0.025526
-0.108023 -0.305601 0.099039 -0.681016 -0.0506 0.729452
-0.066936 -0.026967 -0.126319 -0.37485 -0.198251 -0.901483
0.020787 -0.392271 -0.024381 0.949732 -0.040569 -0.307966
0.12989 0.103092 0.101116 0.521359 0.108737 0.845898
0.17337 0.533835 -0.113813 0.251907 0.597446 -0.760733
0.310456 0.454499 -0.097576 0.61314 0.668335 -0.420276
0.137649 0.395096 -0.136584 0.412494 -0.166587 -0.894784
0.144682 -0.825866 0.097062 0.293647 0.94107 0.150767
0.0844 -0.235435 0.085005 -0.250841 -0.111218 0.956997
-0.094591 0.350876 -0.1013 -0.57844 -0.146675 -0.802159
0.007828 0.194969 0.129713 -0.066747 0.047116 0.996647
0.249176 0.513623 -0.093645 0.537591 0.644119 -0.543995
-0.307007 0.350542 -0.011635 -0.610564 0.619412 0.48771
-0.032453 -0.509602 0.053268 0.356719 -0.267696 0.89458
-0.058011 -0.009237 0.133432 -0.273804 -0.566883 0.739439
0.433961 0.231062 -0.032065 -0.632137 -0.485465 0.589626
-0.225382 0.458645 -0.058301 -0.587593 0.643249 -0.488981
-0.015973 0.84548 -0.050998 -0.529165 0.788038 -0.312306
-0.013223 0.27186 0.11627 -0.356492 0.05493 0.932019
0.078523 0.08238 0.127105 0.471138 0.02626 0.880806
0.070683 0.043039 0.134409 0.227805 0.185021 0.953461
-0.100115 -0.823298 0.013756 -0.919184 0.344219 0.165554
0.195285 -0.206479 -0.056225 0.728511 -0.06686 -0.681647
0.180396 0.261146 0.026814 0.974321 0.095942 0.199026
0.448502 0.216879 -0.018152 -0.702358 -0.155923 0.679059
-0.277736 0.401763 -0.067289 -0.498997 0.785156 -0.346684
0.111916 0.266839 0.102655 0.413699 0.050746 0.907255
-0.125675 -0.693793 -0.03685 -0.938824 0.031647 0.336224
0.019596 -0.378637 0.035238 0.942754 -0.105017 0.316262
-0.497096 0.106859 0.074212 0.636585 -0.179674 0.729083
-0.121148 0.353853 -0.025749 -0.990098 -0.128385 0.014721
0.143417 0.142979 -0.094652 0.697764 0.145052 -0.701075
0.083688 0.114127 0.123506 0.426605 0.064564 0.900385
0.192531 0.340712 -0.03944 0.958088 -0.264909 -0.087525
0.134071 -0.510406 0.054118 -0.423532 -0.177366 0.888222
0.248968 0.481396 -0.000943 0.493925 0.091364 0.860484
-0.016553 -0.161183 0.11872 0.426071 -0.143317 0.890748
-0.134581 -0.411583 -0.014745 -0.958384 0.083125 -0.269854
-0.025548 -0.515616 0.049502 0.398714 -0.226458 0.886374
-0.080943 0.436239 -0.124002 -0.311646 -0.192919 -0.929823
0.162906 -0.838767 0.098688 0.759645 0.648136 0.045387
0.346891 0.350928 -0.135621 0.247828 0.093591 -0.957677
0.132482 0.355694 -0.131649 0.52634 -0.215234 -0.820741
0.234845 0.535825 -0.080107 0.571776 0.70837 -0.411637
0.095792 -0.30437 -0.097809 -0.279765 0.012875 -0.955937
-0.10278 0.444747 0.064295 -0.324139 0.018078 0.943056
0.008526 -0.338416 0.067304 0.751549 -0.178311 0.633048
0.212805 -0.018714 0.005972 0.987684 0.105059 -0.0878
-0.074896 0.197408 0.090746 -0.576984 0.065434 0.812947
0.086142 -0.859786 -0.074087 -0.853626 -0.470252 -0.077451
-0.060094 -0.686301 -0.112185 0.010816 0.214743 -0.971417
0.201028 -0.515419 -0.001203 0.935295 -0.007491 0.352952
0.025345 -0.595956 -0.035065 0.926305 0.09627 -0.34114
-0.116123 -0.481026 -0.066258 -0.745999 0.102617 -0.657539
0.347075 0.382926 -0.09573 0.900768 0.408874 0.105868
0.141788 0.354026 0.077548 0.696682 -0.04747 0.715111
-0.048196 -0.76334 0.021302 0.218247 0.668007 0.705903
0.175101 0.301432 0.038196 0.949014 0.013599 0.314345
-0.038479 0.758902 -0.038923 -0.991877 -0.059621 -0.105454
-0.001271 -0.118564 0.117611 0.527916 -0.19827 0.821781
-0.083301 -0.792366 0.028483 -0.683947 0.464377 0.561983
-0.180905 0.360235 -0.050617 0.646663 -0.726756 -0.231404
0.205374 0.416065 -0.010192 0.558744 -0.773946 0.197563
-0.065452 0.161187 0.097176 -0.490274 0.026122 0.869306
0.018722 -0.765951 -0.061098 0.996374 -0.034388 -0.064585
0.183026 -0.768857 0.00735 0.898125 -0.184585 0.384492
0.097781 -0.819091 0.069213 -0.613587 0.690112 0.354582
0.020251 -0.356049 -0.027385 0.915114 -0.017213 -0.401402
-0.005076 -0.341648 -0.060265 0.713165 -0.067265 -0.697625
-0.243227 0.311592 -0.064656 0.708125 -0.578891 -0.39822
-0.098574 -0.09164 0.108384 -0.548889 0.061451 0.83251
0.013853 0.840095 -0.085058 -0.243036 0.72217 -0.64601
-0.033394 -0.862311 -0.105921 0.221876 -0.968737 -0.028869
-0.056226 -0.083052 -0.112058 -0.173603 -0.232084 -0.955246
-0.103469 -0.693205 0.020054 -0.510756 -0.365549 0.764788
-0.09303 -0.133105 -0.083406 -0.665008 -0.090394 -0.741304
0.21227 -0.04024 0.024026 0.976519 0.025056 0.211784
-0.032578 0.271468 -0.129351 -0.177804 -0.038175 -0.98191
0.281813 0.393861 -0.016351 -0.136354 -0.311467 0.937147
0.195994 0.15896 -0.001763 0.834369 0.532627 -0.062818
-0.131998 -0.181079 0.071953 -0.853663 -0.064639 0.515509
0.082248 0.003374 -0.157293 0.089245 -0.068315 -0.990647
-0.032803 0.214395 -0.121246 -0.3261 -0.300028 -0.893583
-0.028271 0.600692 -0.048659 -0.692152 0.714914 -0.054774
-0.035129 0.801236 -0.064915 -0.987596 -0.004116 -0.147566
-0.056002 -0.103367 -0.108147 -0.154804 -0.20449 -0.965567
-0.494031 0.151152 -0.024612 -0.8115 0.319683 -0.449838
-0.065847 -0.331924 -0.086265 -0.292088 -0.045089 -0.955213
0.056991 0.712617 -0.090274 0.353926 -0.585405 -0.727675
0.263638 0.442319 -0.136494 0.065074 0.316763 -0.940445
0.186946 -0.34728 0.059951 0.860764 -0.077665 0.502816
0.196553 -0.264007 0.054789 0.896909 -0.058496 0.437763
0.051242 0.612652 -0.075472 0.126218 0.544557 -0.822141
-0.126745 -0.679842 -0.070022 -0.961536 -0.036959 -0.270346
-0.065293 -0.764603 0.023111 -0.299134 0.515615 0.788904
-0.028653 -0.066663 -0.119106 0.02345 -0.369878 -0.928549
-0.020525 0.69479 0.02944 -0.969906 -0.22246 0.094947
0.047782 -0.282073 0.043558 -0.858145 -0.04989 0.509315
0.060581 -0.200994 -0.079273 -0.712144 -0.204176 -0.671458
0.043113 -0.316985 0.022903 -0.990283 -0.019751 0.134644
0.146809 -0.867041 0.138999 0.239293 -0.958248 0.131641
-0.236765 0.434528 -0.071452 -0.529059 0.544873 -0.649725
0.130003 0.110669 -0.115054 0.564697 0.300896 -0.766308
0.0657 0.714372 -0.086336 0.456735 -0.557102 -0.691432
0.184383 -0.779794 -0.029586 0.970274 -0.234403 -0.003338
0.169393 -0.173853 -0.080421 0.663384 -0.035396 -0.747002
0.1371 0.09071 0.098194 0.58074 0.161066 0.794508
-0.049666 -0.369542 0.093463 0.301475 -0.278624 0.911673
-0.111922 0.245458 0.026988 -0.976559 0.163873 0.133185
-0.030849 -0.693111 0.022463 -0.499065 0.039509 0.864403
-0.281162 0.278483 -0.079516 0.532747 -0.528369 -0.659832
-0.125546 -0.43789 -0.043259 -0.79827 0.252873 -0.546009
-0.216512 0.453054 -0.072338 -0.485253 0.567269 -0.664728
0.407173 0.222213 -0.075395 -0.613582 -0.784832 0.081526
0.070099 -0.679613 0.02557 -0.408988 0.379195 0.829823
0.548273 0.149201 -0.020776 0.620137 0.042581 -0.780993
-0.114744 -0.634775 0.024344 -0.856085 -0.016892 0.516014
0.018494 -0.467878 0.018797 0.893987 -0.07109 0.440289
-0.035272 -0.817861 -0.147416 0.163843 -0.241645 -0.950221
-0.450259 0.197842 0.012001 -0.421325 0.569663 0.693012
-0.076918 0.38314 -0.117318 -0.420898 -0.15217 -0.893728
0.520835 0.211365 -0.062604 0.140791 -0.305593 -0.91834
0.141964 -0.829146 0.131508 0.463409 0.881724 0.076
0.08931 -0.852968 0.032019 -0.894683 -0.418974 -0.12857
0.163061 -0.308818 0.076186 0.25952 -0.06562 0.963378
0.079789 -0.358367 0.057437 -0.50789 -0.328182 0.796294
-0.111054 -0.014941 -0.086839 -0.831714 -0.04488 -0.553168
-0.030624 0.132336 -0.114963 -0.278269 0.474815 -0.834806
-0.001511 0.58755 0.013273 -0.590384 0.217154 0.776723
-0.513367 0.130464 0.056679 -0.789299 0.607183 0.035484
0.065147 -0.70992 -0.03625 -0.801212 -0.283559 -0.526349
-0.127162 -0.399811 0.04866 -0.959196 0.095106 0.259265
0.063081 0.551231 -0.117883 -0.16808 0.479548 -0.858435
0.022966 -0.736328 -0.045584 0.991029 -0.083065 0.079693
-0.083001 -0.820608 0.067298 -0.381827 0.867806 0.29706
-0.071656 0.412933 -0.122765 -0.289153 -0.138881 -0.947082
-0.200284 0.505855 0.003131 -0.747125 0.642094 0.163016
0.174253 -0.853738 0.05651 0.920611 0.200112 -0.041786
0.093508 0.478125 -0.143216 -0.162075 0.194768 -0.964113
0.187824 -0.50052 0.037581 0.886873 -0.123662 0.443398
-0.10165 -0.045424 0.104314 -0.630474 0.011908 0.77593
0.193048 -0.211852 0.062841 0.947836 -0.035588 0.314216
0.174376 0.099604 0.068172 0.726645 0.24659 0.640999
-0.110352 -0.803512 -0.018401 -0.844389 -0.456551 0.268558
0.051368 -0.501207 -0.007676 -0.87636 -0.007482 0.481167
-0.336825 0.22232 -0.027086 0.489255 -0.865704 0.000172
0.127748 -0.600943 -0.100799 -0.051465 -0.163094 -0.978131
-0.106018 0.481394 0.061767 -0.0875 0.155787 0.981371
-0.044362 -0.019528 0.130393 -0.21152 -0.27217 0.91385
-0.018814 -0.66126 0.025269 -0.073781 0.058274 0.994172
0.037395 0.714913 0.096812 0.211747 -0.331041 0.911856
0.107684 -0.365007 -0.10119 -0.07286 0.013363 -0.991406
0.461498 0.265816 -0.042178 0.520737 0.69374 0.462526
0.039127 0.819664 0.073527 0.074174 0.498203 0.863543
3.4e-05 -0.399435 -0.055364 0.624414 0.099111 -0.77465
0.062674 -0.727588 0.03574 -0.358452 -0.053479 0.928691
0.068431 0.574254 0.014859 0.514509 0.195293 0.831477
-0.143027 -0.08035 -0.009368 -0.984039 0.00977 -0.16873
0.033223 0.704861 0.093485 0.001216 -0.364872 0.919574
-0.132519 -0.117788 -0.035245 -0.851157 -0.100422 -0.51517
-0.094335 -0.767233 0.008614 -0.619205 -0.327418 0.694751
0.241534 0.49678 -0.115796 0.469243 0.533194 -0.703433
0.089938 -0.849507 0.011542 -0.85161 -0.476672 -0.084855
-0.045315 -0.862361 0.004747 0.136035 -0.986971 -0.068217
0.311943 0.411193 -0.032238 0.71638 0.238339 0.652453
0.139469 -0.783629 0.038014 0.385247 0.134138 0.892016
0.192977 -0.610232 0.012968 0.766574 -0.142931 0.613693
-0.481317 0.122413 0.054011 0.792758 -0.465555 0.367154
0.02154 0.604619 -0.080499 -0.08821 0.617679 -0.781203
0.233301 0.387415 -0.114089 -0.694733 -0.567962 -0.427968
0.085191 -0.160811 -0.105776 -0.320123 -0.248377 -0.913699
0.143579 0.457108 0.067453 0.443296 0.276726 0.847468
0.084354 0.224852 -0.132665 -0.022548 -0.380788 -0.922905
-0.056547 0.386627 0.098266 -0.346904 0.072288 0.934263
0.304521 0.381613 -0.020949 0.387528 -0.09295 0.913021
0.204768 -0.534009 -0.033087 0.983921 0.011353 -0.176348
-0.094751 -0.850124 -0.095116 -0.97074 0.021082 -0.234709
-0.249681 0.324835 -0.083664 0.59125 -0.49427 -0.636635
0.169585 0.298521 -0.068284 0.858898 -0.248885 -0.446404
0.041794 0.407921 -0.130822 -0.312019 0.038994 -0.945876
0.036655 0.105015 -0.138634 -0.108076 0.313172 -0.940496
-0.095225 0.164958 0.073085 -0.706901 -0.033636 0.706497
-0.276878 0.374696 0.006857 -0.769918 0.155442 0.618351
0.027729 0.009219 0.142885 -0.010918 0.128347 0.991617
0.262986 0.379059 -0.028154 -0.393149 -0.458437 0.790044
0.206911 -0.167591 0.01798 0.994417 -0.015316 0.095038
-0.073187 -0.723629 -0.120932 -0.327305 0.230487 -0.910586
0.051939 0.782846 0.084191 0.297949 -0.000752 0.937088
-0.051623 -0.56992 0.047517 0.420441 -0.209648 0.879123
0.124728 -0.008212 0.119187 0.344256 -0.20405 0.914942
0.025813 -0.579118 -0.028109 0.958928 0.099186 -0.23747
-0.105792 0.24926 0.050203 -0.945037 0.138171 0.289645
0.20194 0.026968 0.050087 0.924962 0.107655 0.363254
0.048113 -0.135364 -0.0864 -0.649966 -0.302722 -0.694521
-0.019758 0.55007 0.038456 0.041675 0.838562 0.533922
0.03379 0.0352 0.137161 0.099492 0.203939 0.971624
0.006124 -0.269711 0.087449 0.548973 -0.171636 0.814925
-0.076005 -0.840044 0.156315 -0.481232 0.686155 0.532619
0.130633 -0.256663 0.084953 0.101393 -0.119586 0.987548
0.467804 0.215471 -0.074652 0.332734 -0.494602 -0.787623
0.028355 -0.181725 0.044771 0.945819 -0.118534 0.294793
-0.103659 -0.838257 -0.047264 -0.944513 -0.271723 -0.068862
0.12306 -0.074644 -0.13093 0.242856 -0.304715 -0.919852
0.206066 -0.530273 -0.022835 0.998453 0.009878 -0.021426
-0.068352 0.26199 -0.11198 -0.524245 -0.15577 -0.836958
-0.36187 0.217137 0.005804 0.329965 -0.372216 0.865398
-0.246618 0.419355 0.011846 -0.707054 0.391978 0.581205
0.001379 0.093695 0.134767 -0.265254 0.004587 0.960765
0.105818 -0.722291 -0.093821 -0.399084 0.060947 -0.914343
-0.315986 0.342058 -0.072801 -0.580201 0.676196 -0.444867
0.15284 -0.451626 0.069274 -0.08698 -0.123105 0.981656
0.131547 0.346371 0.086197 0.467994 0.026965 0.882794
0.182746 0.063396 0.069126 0.788929 0.230535 0.568377
0.062282 -0.061981 -0.132582 -0.314856 -0.407041 -0.857414
-0.019813 -0.722447 0.021965 0.564229 -0.341152 0.735891
-0.039262 0.775006 -0.036081 -0.989121 0.110513 -0.076349
-0.115492 -0.172943 -0.048529 -0.814564 -0.137916 -0.563025
0.102038 -0.42858 0.04838 -0.587029 -0.377007 0.716033
-0.033847 0.838627 -0.019883 -0.735166 0.676631 -0.025612
0.311575 0.377896 -0.026623 0.604276 -0.24313 0.748797
0.200688 -0.211201 -0.048559 0.823592 -0.02722 -0.564557
-0.085391 0.327511 -0.10464 -0.591559 -0.088423 -0.800545
0.037485 -0.244783 -0.035059 -0.731007 -0.077284 -0.673332
0.126463 -0.041608 0.117408 0.391079 -0.069777 0.91759
0.059535 -0.617201 -0.054202 -0.77028 -0.0597 -0.634587
0.188667 -0.765014 -0.010446 0.948896 -0.297697 0.077874
0.005597 -0.264213 -0.059698 0.774686 -0.116953 -0.621326
-0.039324 -0.195968 -0.09306 0.242662 -0.081416 -0.966344
-0.245852 0.437402 -0.056642 -0.65967 0.633579 -0.40039
0.182274 0.006462 -0.080883 0.869545 0.068564 -0.483263
-0.035648 -0.359801 0.091843 0.280196 -0.194494 0.938733
0.035471 0.56102 0.026271 0.104318 0.154351 0.974822
0.032028 0.869659 -0.006054 -0.203162 0.97365 0.068582
0.05954 0.643307 -0.060542 0.52677 0.173451 -0.825487
-0.183801 0.509654 -0.057313 -0.643061 0.520706 -0.559704
0.180578 -0.725325 -0.045598 0.725507 -0.23573 -0.646371
-0.018487 0.841555 0.017645 -0.803821 0.332137 0.478443
-0.046669 -0.651832 -0.10347 0.368194 0.078343 -0.926271
0.199669 0.395108 -0.04107 0.978519 -0.190676 0.023781
0.064319 -0.168657 0.079666 -0.613992 -0.029542 0.787362
-0.128612 -0.551139 -0.004377 -0.942697 -0.145931 0.297266
0.177246 -0.382366 -0.065562 0.683901 0.221076 -0.689004
-0.288298 0.380554 -0.066385 -0.898619 0.313124 -0.2827
0.093102 0.727418 0.030066 0.951097 -0.057102 0.297269
0.077982 0.589108 -0.090765 0.087737 0.71172 -0.648085
-0.084201 -0.176965 -0.083437 -0.607579 -0.095846 -0.787966
0.098572 -0.626027 0.029771 -0.662092 -0.254514 0.700706
-0.086396 -0.543025 0.06695 -0.057733 -0.195331 0.973456
0.098739 -0.168531 0.09874 -0.35311 -0.176186 0.917407
-0.118578 0.308094 -0.017529 -0.97982 -0.160159 0.095715
-0.044155 -0.431485 0.079613 0.236532 -0.226544 0.944018
-0.06888 -0.547344 0.058759 0.354262 -0.188446 0.915902
-0.097363 -0.792941 -0.109907 -0.797989 0.040954 -0.597553
0.015329 0.631876 -0.063718 -0.317037 0.322812 -0.890595
0.023389 0.830036 -0.098532 -0.082613 0.700272 -0.708609
0.326452 0.301176 -0.10793 -0.568382 -0.705082 -0.415294
-0.122771 -0.093692 0.0832 -0.80807 0.034664 0.587433
0.18287 0.274551 -0.014806 0.996931 -0.023736 -0.071456
-0.118764 0.30587 -0.041903 -0.978616 -0.18931 -0.064174
-0.209313 0.481082 0.021013 -0.725413 0.432663 0.525945
-0.115965 -0.747891 -0.076484 -0.845603 0.049566 -0.528428
-0.007919 -0.380753 0.07676 0.588752 -0.22559 0.775575
0.620834 0.049358 0.070828 -0.815481 -0.574335 0.000689
-0.114618 -0.656458 -0.088684 -0.659367 0.004448 -0.748828
0.121974 0.142307 -0.110229 0.454388 0.227465 -0.860084
0.462845 0.197187 -0.059757 0.343126 -0.731956 -0.550539
0.184993 -0.754665 0.007508 0.693519 0.045265 0.685192
0.031782 0.622394 -0.070567 -0.122591 0.5023 -0.855138
0.170248 0.114725 0.068593 0.714924 0.182818 0.67445
-0.439647 0.216474 -0.043871 -0.593162 0.311013 -0.740044
0.142949 -0.434058 -0.097522 0.402849 0.166218 -0.899958
0.155892 -0.781316 -0.097602 0.572725 0.387061 -0.722472
0.082392 0.843602 0.009493 0.871628 0.475475 0.107559
0.132158 -0.435092 -0.102306 0.240605 0.107227 -0.964185
0.623369 0.075375 0.028943 0.864786 0.497516 -0.06522
0.13804 -0.65187 -0.093034 0.376002 -0.119601 -0.918561
0.130998 -0.580751 -0.104384 0.008282 -0.148745 -0.985891
-0.072587 0.106883 -0.104176 -0.555836 0.283972 -0.780685
0.140453 -0.068744 0.11232 0.328391 0.022211 0.944147
-0.313814 0.353606 -0.045234 -0.673934 0.735856 -0.054712
0.046321 -0.411571 -0.002011 -0.89318 -0.180639 0.401153
0.32795 0.313616 -0.051295 -0.517061 -0.575238 0.633185
0.007294 0.788804 0.08002 -0.405969 0.253682 0.873095
-0.00154 0.284534 -0.130479 0.130008 -0.005318 -0.99099
0.202766 -0.404813 -0.026021 0.946923 -0.135051 -0.290204
0.083493 -0.624724 0.013596 -0.744331 -0.171673 0.643779
0.227068 0.411287 -0.126512 -0.56444 -0.388177 -0.724567
-0.117548 -0.442379 0.060714 -0.83402 -0.186753 0.518991
0.180795 0.558697 -0.017787 0.238947 0.819482 0.518517
0.199784 0.072835 0.014519 0.971316 0.223299 0.077502
0.117265 0.398226 -0.144269 0.188178 -0.064928 -0.979869
0.490001 0.234915 -0.018001 0.577977 0.713988 0.363914
-0.071764 0.13651 -0.096268 -0.502315 0.24446 -0.826276
-0.007211 -0.677431 -0.080935 0.552186 0.203726 -0.80728
0.342963 0.41767 -0.108835 0.69046 0.701319 -0.172548
-0.021232 0.003142 0.139461 -0.199448 0.335934 0.914512
-0.095607 -0.155348 0.112764 -0.319119 -0.048524 0.940897
0.029552 -0.279138 -0.018341 -0.185829 -0.5154 -0.703877
-0.515116 0.123292 0.083722 -0.380425 0.64089 0.534228
0.022772 0.577485 0.026686 -0.122364 0.040289 0.991053
-0.121902 0.358637 -0.049588 -0.980917 -0.189921 -0.0167
-0.003145 -0.254072 -0.071494 0.721746 -0.069082 -0.687399
0.11718 -0.439601 0.05537 -0.562795 -0.35952 0.743334
-0.144093 -0.073752 0.005786 -0.999441 0.012054 -0.021688
-0.511545 0.133013 0.045223 -0.837827 0.545494 0.020771
0.273278 0.42423 -0.140814 0.01382 0.106871 -0.994081
-0.127863 -0.339399 0.022069 -0.99773 -0.004499 0.063366
-0.027587 0.525879 0.056143 -0.147609 0.539879 0.828215
0.335803 0.297978 -0.059701 -0.583668 -0.634402 0.506401
-0.281421 0.290217 -0.087914 0.415131 -0.474206 -0.774459
0.146067 -0.678275 0.02726 0.173739 -0.181054 0.967414
-0.03988 -0.721674 -0.116122 0.465311 0.22354 -0.855899
-0.010419 0.362346 -0.128938 0.026171 -0.011799 -0.999384
0.044248 -0.459188 -0.021596 -0.98192 -0.036983 0.157625
0.05437 0.329432 0.114563 0.205354 0.187192 0.960264
-0.360449 0.217433 -0.063048 0.374302 -0.710968 -0.592441
-0.123093 -0.272133 -0.026194 -0.851225 0.009699 -0.522685
0.245609 0.368143 -0.069649 -0.700339 -0.710467 0.058795
-0.104196 -0.519321 0.048237 -0.825981 -0.051186 0.56039
-0.114435 -0.560289 -0.081629 -0.674866 0.09046 -0.730337
-0.108784 -0.525319 -0.081311 -0.678443 0.108897 -0.72639
-0.270781 0.410946 -0.015426 -0.729358 0.647648 0.217741
0.070417 -0.478244 0.009647 -0.567888 0.082744 0.818712
0.050884 -0.637527 -0.033113 -0.953587 -0.139419 -0.255911
0.187625 -0.151716 -0.065124 0.686984 -0.054505 -0.724439
-0.102984 0.131679 -0.069142 -0.837558 0.115826 -0.533667
0.049237 0.255425 0.125902 0.196654 0.087187 0.975165
0.025357 -0.374965 -0.01146 0.975513 -0.032481 -0.205101
0.148928 0.574175 -0.077347 0.338281 0.868598 -0.355536
-0.146515 0.40572 0.017555 0.51546 -0.732655 0.440078
-0.017744 0.724525 -0.074073 -0.80624 -0.434009 -0.394073
-0.046038 0.16201 0.108869 -0.58716 0.109135 0.801872
-0.181003 0.470186 -0.082905 -0.380702 0.312707 -0.869075
0.007541 0.723699 -0.099048 -0.427189 -0.680341 -0.571605
0.017284 -0.77936 -0.048554 0.965601 -0.181285 0.163515
-0.002044 0.375049 0.107556 -0.111162 0.184452 0.975241
0.133419 0.438335 -0.144961 0.141611 -0.077771 -0.986814
-0.079177 0.184939 -0.081887 -0.648513 -0.019114 -0.760383
0.039008 -0.105078 0.095582 0.482706 -0.589514 0.643932
0.021317 -0.420758 -0.000958 0.997589 0.021631 0.013407
0.030646 -0.239813 0.026597 0.953786 -0.021688 0.292954
0.138686 -0.219627 0.09045 0.052626 -0.17757 0.982611
0.003315 0.632364 0.016478 -0.725485 -0.188583 0.660641
-0.073204 -0.038427 -0.120392 -0.482479 -0.247083 -0.833014
0.121111 -0.86995 0.067099 -0.004018 -0.999968 0.000345
-0.35872 0.305419 -0.013687 -0.500232 0.727771 0.461273
0.066399 -0.80526 -0.004015 -0.91961 -0.355877 0.153181
-0.047995 -0.613833 0.033681 0.394063 -0.129885 0.909817
-0.207537 0.498665 -0.003595 -0.757529 0.64051 0.115414
0.350911 0.279795 -0.063752 -0.669694 -0.679259 0.298021
0.067785 -0.747227 0.027496 0.026025 -0.540076 0.791382
0.131194 -0.78672 -0.112265 0.092898 0.423043 -0.899014
-0.010131 -0.659795 -0.079757 0.633523 0.106626 -0.766088
-0.143551 -0.107786 -0.005753 -0.98852 -0.023738 -0.141929
0.086145 -0.289535 0.076886 -0.390437 -0.215584 0.89491
-0.08637 -0.025901 0.113583 -0.536556 0.051083 0.841979
-0.335488 0.247571 -0.076475 0.079043 -0.395765 -0.893096
0.044296 0.863111 0.029944 0.098912 0.963057 0.239833
0.16983 -0.294034 0.075604 0.251877 -0.07965 0.964237
-0.230729 0.452757 0.007691 -0.821596 0.407859 0.397771
-0.126457 -0.654789 -0.029515 -0.979507 -0.059331 0.185996
-0.125221 0.155569 -0.017792 -0.922452 0.054602 -0.37823
0.067225 -0.809672 -0.039434 -0.981724 -0.146035 -0.111515
0.16849 -0.858195 0.026333 0.809825 -0.491255 -0.218998
-0.086098 -0.74961 -0.117193 -0.577848 -0.010815 -0.815322
-0.045004 0.333637 0.100069 -0.305509 -0.148795 0.936475
0.046768 0.658442 0.062916 0.189098 -0.971361 0.143205
-0.124269 -0.728708 -0.065703 -0.867284 -0.037041 -0.486891
0.144071 -0.715635 0.011562 0.399689 -0.240855 0.873367
-0.028763 -0.809079 0.057886 0.379555 0.331271 0.82753
0.067714 -0.439345 0.009127 -0.590318 -0.240133 0.767826
-0.093144 0.433511 -0.120155 -0.24939 -0.152624 -0.95621
0.061436 -0.538524 0.004008 -0.689467 -0.018566 0.723662
0.125185 -0.815842 0.074935 0.110662 0.923261 0.361489
0.066947 0.659545 0.034087 0.667252 -0.558787 0.460371
0.128925 0.178436 0.097671 0.5218 0.023226 0.852475
-0.000426 -0.063646 -0.116768 0.248766 -0.584372 -0.77168
0.07449 -0.234408 0.080064 -0.50183 -0.106431 0.85524
-0.236955 0.377311 -0.097219 0.041169 0.067592 -0.99603
0.130282 -0.201713 0.094743 0.087214 -0.219967 0.971236
0.121289 0.525396 0.034931 0.281034 0.625776 0.725621
0.016289 -0.788357 -0.058182 0.896094 -0.418252 0.080111
0.106299 0.50424 0.05619 0.306645 0.484043 0.817184
-0.143534 -0.065639 -0.002989 -0.994729 0.020388 -0.091272
0.069274 0.334231 0.110784 0.317731 0.17866 0.929741
0.154599 0.101945 -0.095255 0.783671 0.259017 -0.560545
0.182465 -0.33626 0.06859 0.793375 -0.058433 0.604828
-0.395548 0.222869 -0.069188 -0.32669 -0.233377 -0.913449
0.350302 0.410051 -0.096447 0.744673 0.666413 0.003755
-0.134024 0.032348 -0.031144 -0.955964 0.144218 -0.255204
0.040583 -0.349025 0.001788 -0.939226 -0.126025 0.306938
0.151608 -0.087834 -0.11258 0.708168 -0.105582 -0.65932
-0.136428 -0.521528 -0.032018 -0.996077 -0.003946 -0.068175
0.075639 0.492416 0.06823 0.130033 0.464822 0.875658
-0.116381 0.108687 0.054056 -0.850721 0.19833 0.48655
-0.005511 -0.311186 0.084849 0.326629 -0.117384 0.929942
-0.025671 -0.056758 -0.122729 -0.010373 -0.403846 -0.913568
0.015519 -0.38263 -0.036988 0.823506 0.020009 -0.566571
-0.082565 0.152842 0.084535 -0.663312 -0.00012 0.747928
-0.216811 0.470949 0.017683 -0.766564 0.365146 0.520163
0.037305 -0.358523 -0.017533 -0.992873 -0.089098 0.016635
0.151641 -0.26936 0.08236 0.131831 -0.071611 0.988165
-0.561869 0.063904 0.041763 -0.793657 0.602495 0.006822
0.131985 -0.529839 -0.108351 0.104694 0.017383 -0.992843
-0.126596 0.088775 0.028951 -0.974885 0.038763 0.208693
0.586488 0.127159 0.028069 0.754926 0.655576 -0.002565
0.091692 0.604454 -0.021724 0.831462 0.365866 0.376209
0.061375 0.755468 -0.110562 0.455984 -0.22327 -0.859943
0.042502 -0.278304 0.022006 -0.991091 -0.018251 0.124691
0.179656 -0.302228 0.07317 0.396262 -0.03383 0.917262
-0.058788 -0.787183 -0.142649 -0.297809 0.357223 -0.881818
0.108901 -0.183595 -0.106 -0.085407 -0.146674 -0.984897
0.144968 -0.869063 -0.061861 0.237124 -0.958709 0.022947
-0.007839 0.702006 0.064725 -0.710156 -0.16081 0.682842
-0.037584 -0.526836 0.050435 0.332371 -0.216798 0.917447
0.067556 -0.689272 -0.047573 -0.789758 -0.143092 -0.595986
0.064904 -0.141395 0.079024 -0.64204 0.049847 0.764727
-0.128692 -0.359222 0.015619 -0.999544 0.011862 0.027372
0.018363 -0.05553 -0.12001 -0.025918 -0.624797 -0.770839
0.08651 0.023156 0.130087 0.307776 0.22376 0.923762
0.15966 -0.82965 0.053706 0.893773 0.442884 0.06293
-0.03623 0.395262 -0.129165 -0.082151 -0.024456 -0.995746
0.111512 0.562147 0.00516 0.422697 0.683743 0.593736
-0.239937 0.404509 0.02301 -0.480798 0.09626 0.86978
0.101703 -0.105078 0.106619 -0.530111 -0.104541 0.841251
0.192022 0.448481 0.035736 0.556501 0.126565 0.82052
0.061837 -0.220755 0.072457 -0.683039 -0.103929 0.722815
-0.083628 0.042555 0.10548 -0.451443 0.165906 0.87207
0.007396 0.807814 0.070619 -0.499527 0.468687 0.727339
-0.385244 0.282923 -0.015104 -0.658331 0.671128 0.340361
0.051879 0.802176 -0.114311 0.276503 0.285333 -0.915255
-0.038095 -0.632631 -0.098315 0.461734 0.025466 -0.886476
0.175454 -0.363181 -0.060562 0.680588 0.191479 -0.702249
0.1185 -0.870027 -0.101437 0.041679 -0.994714 -0.090851
0.125105 0.583664 -0.035898 0.379799 0.835045 0.388745
0.342878 0.333704 -0.042617 0.234011 0.118084 0.9548
-0.127646 -0.348265 0.026338 -0.996166 0.0352 0.076631
0.172703 0.162831 0.055922 0.745907 0.093194 0.658996
0.081355 -0.660435 0.025602 -0.5744 0.287278 0.763303
-0.126713 -0.667837 -0.036114 -0.985538 -0.047788 0.15373
0.091289 -0.650832 0.028561 -0.488744 0.29595 0.820454
0.08492 -0.448049 -0.089108 -0.639335 0.055434 -0.766321
-0.027653 -0.718005 0.027303 0.082372 -0.104803 0.959313
-0.374308 0.195071 -0.029589 0.623393 -0.77625 -0.040727
-0.136051 -0.0088 -0.030866 -0.987313 0.035018 -0.154214
0.205819 -0.520144 -0.021957 0.995906 0.038973 -0.019853
-0.02475 -0.03054 0.132763 -0.047268 0.149122 0.986112
0.081919 -0.727647 -0.061454 -0.923346 -0.107977 -0.367197
0.195404 0.447222 -0.133962 0.145364 -0.108318 -0.982967
0.137957 -0.420372 -0.097674 0.437721 0.115432 -0.888651
-1.1e-05 -0.151621 0.109981 0.604055 -0.140416 0.783793
0.082782 0.65 -0.005331 0.978974 -0.056829 0.195392
-0.080502 -0.318768 0.105714 0.034725 -0.065696 0.996202
0.121006 -0.531034 -0.107844 -0.132027 -0.010322 -0.988029
-0.071896 -0.208452 -0.088915 -0.39117 -0.021733 -0.916608
0.088088 -0.837734 0.008056 -0.99473 0.01109 -0.002273
-0.137448 -0.4244 0.006591 -0.996869 0.025818 0.062981
0.564528 0.154372 -0.005705 0.849947 0.443712 -0.269119
0.307242 0.443273 -0.039792 0.69516 0.380611 0.606052
0.068133 0.559736 -0.1142 -0.120111 0.510938 -0.849422
0.005536 -0.742802 -0.089139 0.732058 0.10934 -0.671533
0.050029 -0.644544 -0.018459 -0.990343 -0.125317 -0.029335
-0.056436 0.122915 -0.107937 -0.459005 0.321454 -0.82803
0.421375 0.274035 -0.12524 0.370131 0.122608 -0.920276
0.029071 0.560248 -0.107841 -0.087126 0.445593 -0.888704
0.195685 -0.740232 -0.021664 0.923579 -0.3279 -0.131157
-0.064514 -0.155138 0.121 -0.112716 -0.050248 0.991577
0.044505 0.574165 -0.103144 -0.054869 0.523072 -0.848369
0.349053 0.376219 -0.077132 0.676021 0.679886 0.282712
-0.029043 -0.109968 -0.103846 0.275506 -0.240032 -0.928682
0.110048 -0.869239 0.118226 0.01097 -0.998565 0.050382
0.019755 0.504545 -0.123063 -0.009637 0.01777 -0.999157
-0.041837 0.246223 0.106929 -0.513639 0.025328 0.855642
0.095932 0.715612 -0.035571 0.859019 -0.454631 -0.215807
-0.004368 0.087301 -0.136374 -0.133133 0.207579 -0.969061
0.050104 -0.199604 0.062587 -0.809571 -0.080517 0.581104
0.164286 -0.839634 0.006555 0.931236 0.35788 -0.019797
0.092742 -0.713163 -0.081802 -0.747963 0.015415 -0.661732
-0.087322 -0.840036 -0.114066 -0.902608 -0.018211 -0.428341
-0.050523 -0.862408 -0.005563 0.104704 -0.991955 -0.056369
0.081598 0.842698 -0.054622 0.733978 0.635111 -0.240163
0.150175 0.015042 -0.123723 0.675218 0.066288 -0.734263
-0.086707 -0.860987 -0.061134 -0.14469 -0.985315 0.060804
0.036626 0.169208 -0.118192 -0.065472 0.165382 -0.978925
-0.112509 0.275123 -0.031327 -0.997904 -0.060979 -0.010099
0.151879 -0.193412 0.095007 0.160597 -0.135897 0.975254
0.19373 0.381894 0.006157 0.967976 -0.119906 0.219967
-0.080595 0.369703 0.082925 -0.720695 -0.048105 0.688987
-0.016863 -0.115605 0.123498 0.255652 -0.13361 0.956356
-0.110346 0.121549 -0.058667 -0.850355 0.070229 -0.518524
-0.52369 0.117479 0.084257 -0.683053 0.696967 0.115224
-0.082991 -0.692112 -0.108076 -0.49843 0.15425 -0.850726
0.354871 0.272327 -0.075443 -0.674307 -0.720762 0.157969
-0.191121 0.498823 0.030148 -0.649979 0.481533 0.585015
0.057719 -0.693191 0.019916 -0.871974 0.155319 0.461985
0.248821 0.460945 -0.000502 0.275965 -0.125403 0.952309
-0.134621 0.402237 -0.059319 -0.161454 -0.919304 -0.187908
0.353143 0.402571 -0.090769 0.938683 0.008707 0.095636
0.141463 -0.095833 -0.118234 0.495953 -0.163445 -0.852022
0.070754 -0.23904 -0.082241 -0.646526 -0.04292 -0.76102
-0.139162 0.025703 -0.008552 -0.971979 0.112526 -0.195502
0.265207 0.434376 -0.00972 0.041332 -0.046164 0.996239
-0.040431 -0.515364 0.054862 0.409776 -0.284203 0.866329
0.112397 0.190529 0.106416 0.492389 0.028284 0.86981
-0.018108 0.709024 0.053695 -0.884153 -0.16473 0.43332
0.114247 0.416619 0.087105 0.307538 0.197823 0.929129
-0.113841 -0.440464 -0.059221 -0.725615 0.249435 -0.640408
-0.083579 0.204933 -0.077539 -0.779972 -0.025703 -0.624265
0.037027 0.381271 0.105734 0.0592 0.179113 0.981717
0.095883 0.738976 0.026763 0.962693 -0.12375 0.237766
0.054277 -0.728162 0.014827 -0.983539 -0.153348 0.079231
-0.082035 0.577061 -0.032218 -0.522803 0.825622 0.102025
0.173086 0.248169 -0.048164 0.90924 0.019933 -0.413537
-0.043227 -0.825262 -0.146125 0.087852 -0.276538 -0.956226
-0.09198 -0.105527 -0.08802 -0.633592 -0.162742 -0.753993
0.073968 -0.660397 -0.061492 -0.744898 -0.11111 -0.657604
0.199296 0.041932 0.052323 0.927656 0.138353 0.341887
0.117932 -0.694253 0.029434 0.293044 -0.17896 0.93825
0.132498 0.210504 -0.102414 0.619795 -0.219381 -0.753346
0.151618 0.377824 0.070264 0.671055 -0.041423 0.740178
-0.099939 -0.741683 -0.001076 -0.630085 0.464618 0.609456
0.167904 -0.7502 0.021691 0.569041 0.374265 0.7238
0.336316 0.400831 -0.134388 0.544196 0.290767 -0.774996
-0.022607 -0.702542 0.027511 0.001418 0.096033 0.983369
0.129748 -0.857667 0.183372 -0.012526 -0.445647 0.835843
0.096402 -0.265175 -0.09679 -0.327031 0.044486 -0.941004
0.163438 -0.235739 0.083869 0.242418 -0.173199 0.953647
-0.199811 0.344484 -0.023579 0.638372 -0.747234 0.180427
0.055707 -0.1924 -0.076897 -0.746109 -0.22091 -0.62749
-0.012458 -0.081784 -0.108855 0.296472 -0.48989 -0.81824
0.012158 -0.068174 0.122618 0.361498 -0.188605 0.912302
-0.229393 0.469099 -0.030339 -0.786972 0.611012 -0.07965
0.088093 -0.863584 0.094362 -0.588652 -0.8069 -0.012287
-0.191415 0.466251 -0.07987 -0.420553 0.398177 -0.813892
0.096644 -0.767095 -0.085544 -0.773935 0.230703 -0.57085
-0.29804 0.368145 -0.042055 -0.739927 0.668758 -0.010611
0.482789 0.217087 -0.008672 0.484663 -0.041738 0.833768
-0.060246 -0.567149 0.051266 0.346393 -0.185119 0.9195
0.425313 0.210931 -0.061356 -0.493575 -0.836467 0.237073
0.2047 -0.235566 0.02316 0.99433 -0.025685 0.101768
0.005001 -0.195845 -0.064806 0.727736 0.040632 -0.684231
0.410114 0.320385 -0.090164 0.68965 0.722757 -0.002536
-0.326596 0.227455 -0.014669 0.6648 -0.716723 0.194331
0.003561 -0.701622 0.00156 0.851 -0.180648 0.492956
0.150663 0.261722 -0.093211 0.862799 -0.094236 -0.496084
0.017433 -0.238695 0.077287 0.918109 -0.047909 0.38956
-0.145606 0.551629 -0.033816 -0.434878 0.868552 -0.211291
0.009389 -0.499128 -0.051411 0.844473 0.032224 -0.534144
-0.00225 -0.409039 -0.058211 0.640156 0.093827 -0.758404
0.016111 -0.044394 -0.128428 0.050758 -0.549419 -0.832668
0.097798 -0.370247 0.063504 -0.462952 -0.27331 0.842523
0.064256 0.403784 -0.138865 -0.353922 0.04667 -0.932598
-0.048399 0.127786 -0.110299 -0.415722 0.363004 -0.833385
-0.005329 -0.484793 -0.070133 0.767334 0.08464 -0.635623
0.3683 0.257683 -0.071836 -0.729487 -0.645921 0.222735
0.195103 0.128707 -0.017246 0.802227 0.13853 -0.575976
0.032898 0.052659 -0.151677 -0.15235 0.234287 -0.960045
0.12109 -0.825784 0.146592 -0.021325 0.990769 0.093694
0.165165 -0.859074 0.013384 0.790479 -0.557873 -0.219041
0.048437 0.23221 0.127483 0.106146 0.067644 0.990877
-0.106827 0.419788 -0.112372 -0.442074 -0.229163 -0.86133
-0.138493 -0.460408 -0.002078 -0.991166 -0.034846 0.116739
0.043944 -0.499602 -0.031981 -0.998167 -0.003307 -0.022715
-0.045104 -0.234521 -0.092168 0.104738 0.040836 -0.993056
0.159092 -0.807083 0.03162 0.813639 0.278336 0.478296
0.344653 0.309346 -0.044157 -0.296128 -0.282344 0.888663
-0.0102 -0.736072 0.007642 0.482175 -0.496213 0.699571
0.038938 -0.161815 -0.061066 -0.86257 -0.261691 -0.431479
0.087469 0.263871 0.111877 0.41794 0.080784 0.902737
0.102395 0.771479 -0.057785 0.942188 -0.062992 -0.320523
-0.244125 0.305965 -0.027017 0.740207 -0.654484 0.151131
0.179765 -0.53052 -0.080557 0.703852 -0.034432 -0.709442
0.059898 -0.083124 0.105296 0.134743 -0.705171 0.695184
-0.028674 0.747087 0.028645 -0.985718 -0.047108 0.160504
0.168327 0.023093 -0.102694 0.806893 0.03383 -0.58896
-0.324734 0.233565 -0.004051 0.567657 -0.693499 0.420469
-0.012278 0.372497 0.106939 -0.067346 0.075962 0.993758
0.105095 -0.866438 0.138872 -0.135549 -0.968328 0.187098
-0.098989 0.548335 0.025879 -0.016443 0.753836 0.65634
0.008974 -0.277406 -0.05265 0.756636 -0.122566 -0.641392
0.148699 -0.865613 0.021838 0.280551 -0.953345 -0.10976
-0.010309 0.058831 -0.142826 -0.162217 0.209969 -0.964042
0.243878 0.509996 -0.102367 0.519772 0.602307 -0.605719
-0.047747 0.209418 -0.111042 -0.557123 -0.318886 -0.766407
0.336495 0.320553 -0.131895 -0.221425 -0.352329 -0.908826
-0.12868 -0.376998 0.003773 -0.990558 0.084028 0.008664
-0.120509 0.336245 -0.041014 -0.99984 -0.015754 0.003086
-0.026827 0.558006 0.026394 0.057771 0.827266 0.555274
-0.082777 -0.792161 -0.12859 -0.7005 0.10736 -0.698866
0.06674 -0.633417 -0.059172 -0.705471 -0.158749 -0.690159
0.117405 -0.793407 0.050917 0.115162 0.546659 0.828544
0.189559 -0.190904 -0.063042 0.680134 -0.007418 -0.732197
0.10095 0.80023 -0.001106 0.915101 0.323745 0.228527
-0.46727 0.189472 -0.000239 -0.747624 0.66116 0.041256
-0.015218 0.602032 -0.071172 -0.399754 0.73981 -0.53818
-0.26098 0.285336 -0.030665 0.70635 -0.673087 0.214892
-0.067005 0.425378 -0.126354 -0.241739 -0.155933 -0.957033
-0.040653 -0.760051 0.013249 0.523815 0.563164 0.621507
-0.025796 0.300991 -0.130882 -0.108573 0.036856 -0.99229
0.204584 0.541752 -0.094099 0.273889 0.748913 -0.603198
-0.506251 0.143109 0.037551 -0.783188 0.621724 0.00578
-0.125526 0.076486 0.039977 -0.939197 0.200102 0.27822
-0.136591 0.029838 -0.020327 -0.977355 0.113062 -0.17409
-0.118593 0.56055 0.002121 -0.264314 0.877906 0.38434
0.00063 -0.427696 0.051894 0.766037 -0.210678 0.6062
0.411458 0.218676 -0.098161 -0.590713 -0.80335 -0.066807
0.075399 -0.205489 0.084698 -0.530383 -0.116918 0.838414
0.187511 -0.048649 -0.073238 0.827981 -0.068343 -0.55649
-0.068095 -0.230225 -0.090249 -0.303848 -0.006574 -0.948902
0.042169 0.348383 -0.13001 -0.339128 -0.067957 -0.932919
0.111026 0.173525 -0.109942 0.399734 0.086065 -0.910709
-0.137663 -0.199992 0.033525 -0.997452 -0.03595 0.054915
0.068015 -0.794063 -0.048904 -0.925106 0.035605 -0.370492
-0.04698 0.522333 0.054127 -0.169503 0.591218 0.788471
0.444268 0.276526 -0.107222 0.727521 0.298834 -0.612397
-0.073876 -0.175702 -0.090447 -0.482447 -0.157326 -0.857379
0.019282 -0.215065 0.073027 0.958379 -0.02862 0.280518
-0.112788 -0.193922 -0.048618 -0.832186 -0.073889 -0.548012
0.072057 -0.061067 -0.13624 -0.220575 -0.382122 -0.896626
-0.135676 -0.234943 0.015563 -0.997854 -0.037655 -0.053147
-0.034257 0.295307 0.108083 -0.579504 0.070046 0.811082
-0.160959 0.376504 -0.043006 0.645948 -0.727615 -0.149409
-0.204407 0.344083 -0.014722 0.52779 -0.752744 0.392261
-0.083608 -0.010316 0.119146 -0.517511 -0.277169 0.804657
-0.002215 -0.365007 0.07468 0.716321 -0.126383 0.6859
-0.080097 -0.668356 -0.106999 -0.236044 0.029478 -0.969241
0.169822 -0.818603 -0.044462 0.780021 -0.625429 0.00735
-0.508613 0.135489 0.004708 -0.921754 0.312291 -0.182153
-0.077009 -0.647639 -0.106967 -0.123538 0.063732 -0.989347
-0.127692 0.074247 0.030789 -0.977033 0.150462 0.145411
-0.026382 0.842341 -0.03969 -0.60562 0.75986 -0.231945
0.053479 -0.561466 -0.005014 -0.828815 -0.009827 0.55755
0.029347 0.060665 0.13536 0.083956 0.062283 0.99438
0.099057 0.52662 0.043516 0.284454 0.537482 0.792413
-0.070516 0.420013 0.090249 -0.367801 0.145212 0.916854
0.100768 -0.527975 -0.101257 -0.527052 -0.037537 -0.84883
0.205007 0.000526 -0.024382 0.969388 0.095924 -0.214542
-0.123409 -0.5772 -0.073258 -0.777581 0.043492 -0.626562
0.152731 -0.249654 0.083527 0.11235 -0.07614 0.990457
0.109691 -0.855501 0.172394 -0.678125 0.276843 0.65028
-0.005077 -0.107535 -0.090909 0.620997 -0.40195 -0.668931
0.091747 0.32733 0.104165 0.259324 0.091927 0.961241
-0.018474 0.616563 -0.039813 -0.867667 0.427805 -0.240172
0.121698 -0.013377 -0.146718 0.414071 0.009482 -0.907548
0.013035 -0.675314 -0.00046 0.828748 -0.271821 0.482201
0.038208 -0.338239 0.000841 -0.868223 -0.162688 0.463675
-0.058158 -0.068546 -0.115297 -0.222396 -0.274284 -0.935139
-0.139419 -0.469151 -0.009144 -0.992821 0.05568 0.072527
0.103201 0.238827 -0.134378 0.325733 -0.233016 -0.910436
-0.092021 -0.570508 -0.097189 -0.437329 0.046694 -0.896394
-0.417636 0.250061 -0.032665 -0.769199 0.638699 -0.004774
-0.566707 0.046851 0.022126 -0.883243 0.468162 -0.0195
0.075787 0.099406 -0.142543 0.088761 0.40708 -0.905701
-0.48756 0.165737 0.016656 -0.742133 0.666306 0.032467
0.044271 -0.438535 -0.038775 -0.978035 9.9e-05 -0.205449
0.185435 -0.154418 0.083541 0.700245 -0.018395 0.711094
0.182357 0.464296 0.037428 0.492392 0.234232 0.837631
-0.048114 -0.3525 -0.087655 0.104481 -0.086467 -0.988295
0.111503 -0.548665 0.039303 -0.431065 -0.047375 0.900343
-0.120497 -0.772781 -0.0361 -0.992195 -0.094973 0.063102
-0.014353 -0.589823 0.026736 0.273165 -0.129787 0.946528
-0.027148 0.084264 -0.133222 -0.256536 0.314713 -0.912888
-0.134305 -0.494274 -0.040794 -0.920444 0.051979 -0.376893
0.174499 0.512733 -0.126999 0.142625 0.416601 -0.894983
-0.141944 0.469843 -0.098703 -0.425586 0.077806 -0.900629
-0.093553 0.032624 0.103708 -0.419492 0.258944 0.869983
0.09479 0.74556 0.034235 0.931567 -0.12824 0.331394
0.148048 0.274902 -0.099531 0.837482 -0.100981 -0.537026
0.177106 0.071357 0.073892 0.843598 0.116298 0.48844
-0.270347 0.31473 0.00614 0.222207 -0.261105 0.938317
0.11532 -0.034304 0.12176 0.325047 -0.073047 0.942241
0.096255 -0.275775 0.082098 -0.170325 -0.131514 0.975303
0.388885 0.240381 -0.10288 -0.664346 -0.670938 -0.32479
0.14161 0.581883 -0.052926 0.244742 0.965147 0.027406
0.5938 0.057349 0.020232 0.944766 -0.272898 0.0849
0.05017 0.565997 -0.107876 -0.106495 0.485006 -0.866575
-0.128205 -0.329662 0.017538 -0.99915 -0.010291 0.033254
-0.001351 0.457797 -0.128275 0.12586 0.034697 -0.991382
0.022942 -0.391349 0.018368 0.921929 -0.2303 0.307771
0.496223 0.232784 -0.058346 0.669935 0.737607 -0.069728
0.197887 0.370382 -0.0305 0.996933 -0.036555 0.063202
0.42433 0.245485 -0.11924 0.299516 -0.372091 -0.874353
-0.007964 -0.319934 -0.065711 0.711553 -0.087552 -0.69713
0.500426 0.228854 -0.049307 0.64277 0.765544 -0.001478
0.060307 -0.354199 0.042227 -0.708864 -0.267527 0.65252
-0.539604 0.088334 0.088307 -0.172538 0.309314 0.715181
-0.12815 0.504678 -0.097488 -0.383207 0.320884 -0.865329
0.003898 -0.039275 0.133192 0.176268 -0.307309 0.931721
-0.129259 0.074182 0.003355 -0.978035 0.175066 0.008372
-0.034888 0.835292 -0.037824 -0.710478 0.683207 -0.159849
0.093094 -0.401715 -0.093816 -0.471373 -0.009953 -0.881489
-0.377344 0.268653 0.004625 -0.260477 0.383506 0.883222
0.15033 -0.389502 -0.085994 0.546366 0.174354 -0.819177
0.077607 0.700366 0.068142 0.746817 -0.067468 0.659918
-0.0257 0.470238 0.08422 -0.134863 0.39638 0.907241
-0.090877 -0.860915 -0.015361 -0.298381 -0.936718 -0.121097
0.193307 -0.277024 0.058457 0.86616 -0.055266 0.492809
0.174652 0.178265 -0.048039 0.928647 0.057317 -0.361419
0.101972 -0.795086 0.051786 -0.293341 0.476778 0.82558
-0.062489 -0.017844 -0.129315 -0.259031 -0.117997 -0.957764
0.076719 -0.508696 -0.082561 -0.699429 -0.029788 -0.714003
-0.078555 -0.361347 -0.079929 -0.444812 -0.019547 -0.895322
0.033489 0.84716 -0.080991 -0.008898 0.876464 -0.458164
0.084318 -0.849964 0.084002 -0.937929 0.320165 0.010549
-0.10579 0.567864 -0.034064 -0.387862 0.900535 -0.108995
0.067126 -0.813485 -0.027781 -0.975283 -0.195649 -0.029531
0.094738 -0.664238 -0.08199 -0.603244 -0.0065 -0.797454
-0.041078 -0.270593 0.105747 0.170675 -0.16775 0.970881
0.183549 -0.248255 0.071665 0.612045 -0.060726 0.785313
0.196526 0.07877 0.028942 0.903614 0.387282 0.177554
0.242625 0.469031 -0.129506 0.213483 0.313035 -0.924994
-0.122325 -0.279948 0.079658 -0.944644 -0.034906 0.321521
-0.103457 -0.861329 0.075195 -0.535954 -0.816237 0.015169
