0.353143 0.402571 -0.090769 0.938683 0.008707 0.095636
0.1291 0.040479 -0.137862 0.522144 0.228364 -0.819446
0.40794 0.279322 -0.127592 0.154074 0.084345 -0.980435
-0.071348 -0.104017 -0.103375 -0.463137 -0.153038 -0.868509
0.186946 -0.34728 0.059951 0.860764 -0.077665 0.502816
-0.129548 0.039878 0.057023 -0.886889 0.230381 0.399491
-0.044702 -0.674587 -0.105628 0.405112 0.18448 -0.894627
0.009193 0.547024 0.034048 0.083253 0.707754 0.700038
0.284486 0.392097 -0.143941 -0.14715 -0.03239 -0.986248
0.166318 0.013443 -0.105806 0.709804 0.014704 -0.676136
-0.160695 0.387204 -0.069027 0.669118 -0.624323 -0.401937
-0.214636 0.368734 0.01449 0.171021 -0.479707 0.859591
0.063574 -0.696002 0.029398 -0.569491 0.289345 0.7594
-0.129025 -0.163553 -0.029873 -0.853295 -0.143151 -0.50096
0.077982 0.589108 -0.090765 0.087737 0.71172 -0.648085
-0.079718 0.127072 -0.092731 -0.624503 0.16903 -0.762097
-0.004555 -0.024175 0.132906 -0.062884 -0.121224 0.987884
0.165529 0.003098 0.101046 0.631248 -0.25078 0.717709
-0.134964 -0.472986 0.012343 -0.929726 -0.101107 0.332172
0.152749 0.321994 0.063631 0.721648 0.002913 0.692009
-0.017208 0.206277 -0.122837 -0.205572 -0.379541 -0.901029
0.195679 0.364779 -0.016922 0.973972 -0.1235 0.188994
0.57221 0.080801 0.049238 -0.746123 -0.624215 0.227241
0.444364 0.243784 -0.106179 0.61956 -0.308575 -0.721166
0.077447 0.55755 -0.116548 -0.095422 0.564917 -0.819197
0.161969 -0.858054 -0.049755 0.870033 -0.456762 0.046643
0.073745 0.646728 0.01625 0.833338 -0.19225 0.516018
-0.041191 0.827953 -0.03628 -0.935464 0.328727 -0.101399
-0.051106 0.326071 0.097701 -0.326063 -0.085484 0.938685
0.184976 -0.38788 -0.059294 0.705186 0.144657 -0.691785
-0.128488 -0.293781 0.030111 -0.997254 -0.060286 0.038275
0.035551 -0.171245 -0.049016 -0.894262 -0.16234 -0.415569
-0.078284 -0.024434 0.118688 -0.50455 0.036675 0.862234
-0.010719 0.041249 0.134987 -0.252009 0.10562 0.959306
-0.018348 0.780436 0.051109 -0.910007 0.046982 0.404286
0.000582 -0.482133 -0.062469 0.838838 0.057619 -0.521368
0.021797 0.725645 -0.104484 -0.147652 -0.538963 -0.828104
0.188774 -0.328283 0.060298 0.871851 -0.094887 0.477113
-0.051291 0.551539 0.029079 -0.200277 0.72975 0.653607
0.102064 0.473152 0.073901 0.204417 0.402806 0.890285
-0.010077 0.653124 0.002605 -0.921393 -0.188397 0.305087
0.041222 0.250012 0.127255 0.086274 0.03741 0.994945
0.079985 -0.303301 0.071168 -0.428673 -0.184197 0.882662
-0.053925 -0.863128 0.126929 0.116386 -0.984905 0.09552
-0.011759 0.649873 -0.018807 -0.999301 -0.000299 -0.021478
0.111138 -0.721269 0.026291 0.514894 -0.034483 0.847746
-0.095819 0.375251 -0.106439 -0.483079 -0.225176 -0.845531
0.0758 0.403501 0.096255 0.136463 0.212233 0.967198
-0.057871 0.184893 -0.096313 -0.529121 -0.182419 -0.82688
-0.186855 0.366689 0.002419 0.496774 -0.677052 0.541861
0.198038 -0.098629 0.065176 0.861293 -0.028873 0.501947
-0.103457 -0.861329 0.075195 -0.535954 -0.816237 0.015169
0.052383 -0.291281 0.048962 -0.768758 -0.090996 0.631531
-0.001022 -0.047132 0.130595 0.130633 -0.30045 0.944428
-0.123187 -0.318183 0.062138 -0.986836 -0.065299 0.147139
0.114488 -0.843654 -0.117072 -0.423112 0.021785 -0.905572
-0.075172 0.25725 -0.106 -0.613933 -0.180834 -0.768074
0.224089 0.430395 0.00741 0.308304 -0.638151 0.700652
0.015833 0.611702 -0.074296 -0.145597 0.604995 -0.780322
0.095521 -0.652946 -0.083125 -0.599036 -0.060333 -0.798265
0.107684 -0.365007 -0.10119 -0.07286 0.013363 -0.991406
-0.288949 0.393504 -0.064044 -0.900213 0.151071 -0.39104
0.068504 0.286226 -0.137861 -0.238292 -0.048605 -0.968953
-0.015218 0.602032 -0.071172 -0.399754 0.73981 -0.53818
-0.069249 0.31251 -0.115069 -0.53336 -0.010261 -0.845588
0.179402 0.510223 0.023602 0.42238 0.444653 0.789215
-0.120231 -0.441478 -0.051958 -0.75324 0.24799 -0.608444
-0.06259 0.37195 0.096397 -0.442598 -0.03321 0.895147
0.048634 0.282041 0.122425 0.125572 0.113737 0.985424
-0.079888 0.516952 0.05162 -0.11856 0.504461 0.854461
0.086869 0.714224 -0.061253 0.738157 -0.521793 -0.418503
0.079688 -0.739075 0.031026 -0.034636 -0.548513 0.835267
-0.082273 -0.802204 -0.128508 -0.718696 -0.176828 -0.671282
-0.013087 -0.716963 0.017816 0.684768 -0.223444 0.693094
-0.385244 0.282923 -0.015104 -0.658331 0.671128 0.340361
0.08553 0.355312 -0.145133 -0.085257 -0.022963 -0.995811
0.096939 0.034869 -0.155312 0.352623 0.125211 -0.925948
-0.545487 0.071996 0.01614 0.791461 -0.412015 -0.444998
0.025909 0.342003 -0.126395 -0.068449 -0.043638 -0.995383
-0.062235 0.273208 0.090686 -0.52263 0.035405 0.851771
0.087814 0.795629 0.042789 0.894962 0.246111 0.358742
0.24666 0.487218 -0.119273 0.418803 0.486303 -0.766397
-0.125549 -0.640255 -0.074452 -0.89051 0.008962 -0.443032
-0.048964 0.160175 -0.09781 -0.320936 0.123754 -0.931551
0.185043 0.565901 -0.061189 0.31038 0.931797 -0.140378
0.2054 -0.24822 0.00311 0.999827 0.00109 0.002517
-0.118593 0.56055 0.002121 -0.264314 0.877906 0.38434
0.073455 -0.272271 -0.084692 -0.604158 0.031488 -0.793151
-0.181061 0.500985 0.038569 -0.564619 0.461932 0.681505
0.076311 0.434483 0.088979 0.082579 0.172627 0.981448
0.201791 -0.513784 -0.039007 0.957794 0.075194 -0.276573
0.199846 -0.603811 -0.03226 0.997331 -0.063062 -0.031614
0.171388 0.385629 0.050483 0.738716 -0.061328 0.670553
-0.332144 0.33529 -0.056308 -0.649776 0.749005 -0.119801
-0.028518 -0.626515 -0.092678 0.538415 0.002805 -0.841764
-0.414648 0.213851 -0.059421 -0.415236 -0.093854 -0.902586
-0.09333 0.195916 0.076013 -0.672915 -0.003888 0.739479
-0.128669 -0.458073 0.032737 -0.89509 -0.177924 0.407172
0.127173 0.269296 0.093832 0.5929 0.047255 0.803809
-0.125051 -0.35538 0.054041 -0.982469 0.065302 0.174038
-0.043756 -0.406483 -0.081462 0.181552 0.189301 -0.964532
0.135454 -0.11644 -0.116448 0.462039 -0.242623 -0.852865
-0.075937 0.477731 0.071137 -0.326502 0.368685 0.867168
0.199376 0.070858 0.024256 0.97135 0.209609 0.105907
-0.144128 -0.085301 0.002801 -0.999068 0.010884 -0.036018
0.188137 -0.484457 0.03923 0.929006 -0.002752 0.369289
0.618117 0.08283 0.078726 0.873816 0.469491 0.113525
0.019138 0.269255 -0.127235 0.105623 -0.057137 -0.991562
-0.119984 0.346959 -0.005485 -0.991973 -0.099176 0.069603
-0.071037 -0.003565 0.12836 -0.412661 0.061941 0.871799
0.005196 -0.323468 0.074957 0.646849 -0.201144 0.735495
-0.041382 -0.170062 0.122812 0.043774 -0.056147 0.996583
0.55083 0.105591 0.011829 -0.927944 -0.364771 0.052071
0.075884 0.308133 -0.141146 -0.199458 -0.095112 -0.97492
0.068246 -0.508681 -0.074039 -0.719832 -0.039932 -0.692651
0.581377 0.058647 0.029224 -0.891634 -0.426684 0.127588
-0.04959 -0.072966 -0.115933 -0.13265 -0.296237 -0.945204
0.005001 -0.195845 -0.064806 0.727736 0.040632 -0.684231
-0.070024 -0.68848 -0.111867 -0.184207 0.19885 -0.962078
0.455063 0.203507 -0.014245 -0.748425 -0.140078 0.614241
-0.107748 0.330433 0.032893 -0.904859 -0.151345 0.39689
-0.095225 0.164958 0.073085 -0.706901 -0.033636 0.706497
-0.060341 0.23085 0.095289 -0.557539 0.093824 0.823507
-0.047152 0.041807 -0.137936 -0.322575 0.223308 -0.919755
-0.04817 -0.24425 -0.092897 0.047289 0.049054 -0.995361
-0.110938 0.108929 0.06332 -0.773071 0.299548 0.558558
0.19041 -0.448618 -0.062521 0.824603 0.13011 -0.54996
-0.036236 0.771411 0.002854 -0.986317 0.049228 0.147993
-0.021027 0.43897 0.095911 -0.130638 0.232855 0.96285
0.393135 0.260337 -0.124498 -0.350502 -0.347413 -0.86839
0.084483 -0.826193 -0.004146 -0.480199 -0.870062 0.049371
0.015652 -0.435824 0.027406 0.846112 -0.055691 0.529084
-0.089401 0.312059 0.069922 -0.866907 0.03017 0.496279
0.216965 0.550068 -0.072195 0.347732 0.898602 -0.260792
-0.138911 0.540776 -0.064216 -0.429106 0.735503 -0.522983
0.026286 -0.221219 -0.03241 0.1454 -0.073256 -0.901562
0.1369 -0.774199 -0.104687 0.270914 0.363364 -0.885396
0.115955 -0.308503 0.081132 -0.090033 -0.080239 0.992141
-0.426282 0.240459 -0.03755 -0.742598 0.662359 -0.092932
0.201325 -0.305917 -0.021151 0.895748 -0.041339 -0.441451
-0.111572 0.526473 -0.093135 -0.384119 0.5666 -0.728768
0.120821 -0.869064 -0.047897 0.002777 -0.998061 0.061789
-0.20051 0.353429 -0.072894 0.528534 -0.690635 -0.490498
0.203004 -0.232705 -0.039839 0.939616 -0.145597 -0.305115
-0.243227 0.311592 -0.064656 0.708125 -0.578891 -0.39822
0.042926 0.663944 0.091283 0.211344 -0.655477 0.710136
0.018002 0.216998 -0.125625 0.116743 -0.124139 -0.981788
-0.007496 0.854205 -0.041737 -0.492041 0.844725 -0.202759
0.093295 -0.865898 0.117341 -0.481639 -0.870784 0.089293
0.176412 0.435138 0.046799 0.528111 0.106876 0.842196
-0.040854 0.385606 -0.128435 -0.141192 -0.03236 -0.988306
-0.116626 0.060264 0.081347 -0.799357 0.243089 0.529084
0.197995 0.512317 0.016991 0.296768 0.393011 0.865722
-0.292804 0.362641 -0.075331 -0.737358 0.498063 -0.44042
0.018275 0.419108 0.098363 0.133386 0.182971 0.97341
0.130138 -0.826935 0.1508 0.190079 0.968876 0.136583
-0.12749 -0.240025 -0.015737 -0.926973 -0.011726 -0.374577
0.443995 0.292959 -0.078913 0.663234 0.746589 0.027196
0.635473 0.047775 0.085348 0.917013 0.366717 0.15461
0.178174 0.489199 0.031408 0.537204 0.350043 0.763944
0.205728 0.411316 -0.105129 0.613151 -0.698014 -0.323688
0.157448 -0.684582 -0.078833 0.667694 -0.039237 -0.743113
0.009369 0.186692 -0.116971 0.139442 -0.133335 -0.980208
-0.012525 0.633206 -0.020301 -0.981162 0.159609 0.065075
-0.091642 -0.447781 -0.081757 -0.541829 0.215113 -0.810216
-0.047491 0.58521 -0.072102 -0.467197 0.739089 -0.479674
0.026306 -0.568706 -0.022114 0.981058 0.071407 -0.13385
0.030646 -0.239813 0.026597 0.953786 -0.021688 0.292954
0.003565 0.076998 0.135884 -0.278559 0.069189 0.94491
-0.033499 0.409706 0.101477 -0.236868 0.309638 0.92013
-0.040496 -0.862732 -0.090123 0.105726 -0.99239 0.045885
0.070066 -0.263467 0.073661 -0.606104 -0.119147 0.785584
-0.024442 -0.076738 0.128913 0.027749 -0.070931 0.996795
0.062238 -0.239946 -0.072774 -0.767832 -0.06685 -0.636377
0.12389 0.189487 0.099816 0.516807 0.03425 0.854752
0.12849 -0.031721 0.117214 0.410682 -0.057293 0.909957
0.039989 -0.216075 -0.040146 -0.970058 0.021087 -0.237595
0.044354 -0.472324 -0.02306 -0.980778 -0.022246 0.17678
0.053476 -0.401606 -0.055959 -0.764761 -0.013528 -0.644114
-0.142263 0.022532 0.005161 -0.987872 0.068728 -0.093911
0.056007 -0.562463 -0.053923 -0.802914 -0.063852 -0.591973
0.201471 -0.276468 0.039017 0.952031 -0.05374 0.301169
0.06366 -0.75197 -0.024942 -0.868475 0.15425 -0.468458
-0.386122 0.191494 -0.041142 0.388792 -0.886611 -0.220272
0.152669 0.096149 0.083251 0.388363 0.224604 0.881435
0.097911 -0.542884 0.033047 -0.468776 0.009661 0.881984
-0.212267 0.344953 -0.072438 0.50224 -0.702697 -0.501462
-0.028143 0.843772 -0.026097 -0.633015 0.767413 -0.096682
0.085173 -0.477586 0.02174 -0.631787 0.09001 0.769581
0.165165 -0.859074 0.013384 0.790479 -0.557873 -0.219041
0.195169 -0.623483 -0.056727 0.828616 -0.054595 -0.556964
0.158749 -0.604407 -0.091268 0.521794 -0.158913 -0.837524
0.031844 -0.030024 -0.137666 -0.195583 -0.428175 -0.881781
0.188579 -0.199632 0.076115 0.830807 -0.10942 0.531388
0.203989 -0.368591 0.009033 0.964311 -0.024656 0.256523
-0.05162 0.384035 -0.125967 -0.200026 -0.048981 -0.97673
-0.098529 0.296479 0.058976 -0.809782 0.189427 0.553369
-0.086116 -0.633768 0.046358 0.237433 -0.358364 0.901285
0.135124 -0.706113 -0.093094 0.429323 0.029471 -0.902009
-0.071035 -0.056532 0.122094 -0.364707 -0.03724 0.929517
-0.111438 0.27376 0.01126 -0.994509 0.020925 0.092089
0.205478 -0.227499 0.01788 0.995705 -0.044748 0.074839
-0.23001 0.335163 -0.000288 0.463033 -0.598129 0.653234
-0.128339 -0.213854 0.07687 -0.908552 -0.040582 0.414988
0.027392 -0.598662 -0.024697 0.994474 0.036142 -0.059696
-0.109053 -0.304407 -0.050438 -0.802767 0.034286 -0.595265
0.063353 0.680636 0.080527 0.61933 0.114367 0.775524
0.341155 0.383769 -0.074479 0.84292 0.353533 0.316387
-0.131726 -0.271663 0.02268 -0.970357 -0.239272 -0.02049
0.06774 0.855884 -0.048931 0.50277 0.8063 -0.301878
-0.106825 -0.774431 -0.002367 -0.738272 0.115368 0.662746
-0.173776 0.531896 0.006702 -0.642013 0.726618 0.242467
-0.05544 0.580064 -0.075484 -0.40722 0.794461 -0.442521
0.228379 0.494918 0.012457 0.50042 0.12186 0.85246
-0.126896 0.529208 -0.083508 -0.357518 0.599036 -0.715216
-0.146881 0.498084 -0.090668 -0.458234 0.293504 -0.838246
-0.12044 0.378518 0.031139 -0.957203 -0.209353 0.198777
-0.114256 -0.255417 -0.040345 -0.890556 -0.013641 -0.454229
0.049228 -0.128208 0.063816 -0.197137 -0.120481 0.904154
-0.098508 -0.861833 0.109796 -0.361052 -0.906864 0.100439
0.20325 -0.03778 0.050488 0.883205 0.020646 0.467829
-0.259316 0.291339 -0.020879 0.680859 -0.66318 0.30994
-0.111904 -0.811141 -0.047018 -0.868841 -0.491764 0.039722
-0.128692 -0.359222 0.015619 -0.999544 0.011862 0.027372
0.25451 0.515863 -0.084309 0.585758 0.68027 -0.439761
0.084904 0.649101 -0.017095 0.990873 -0.046884 0.060758
-0.040945 0.100367 0.11712 -0.520574 0.162275 0.837565
0.38608 0.325454 -0.122526 0.540334 0.406208 -0.736052
-0.060586 -0.324892 0.103002 0.19315 -0.119287 0.97316
-0.125567 0.371491 -0.012883 -0.953533 -0.288785 0.066445
-0.15713 0.514318 0.045033 -0.313071 0.494931 0.808548
0.60529 0.092343 0.080692 -0.09345 0.532357 0.711221
0.151335 -0.831651 -0.103633 0.633633 -0.229483 -0.736588
0.478614 0.21995 -0.073539 0.264479 -0.295877 -0.916122
-0.120457 -0.664295 -0.007087 -0.977033 -0.156245 0.144268
-0.031532 -0.195764 0.118876 0.180889 -0.142422 0.972999
0.254516 0.359493 -0.066279 -0.711273 -0.694349 0.091735
-0.068189 -0.752711 -0.126497 -0.274161 0.18261 -0.939572
0.032002 0.658853 0.077038 -0.008532 -0.981867 0.186135
-0.035447 -0.334072 -0.085927 0.480231 -0.083281 -0.872813
0.107094 0.295129 -0.137726 0.293516 -0.052101 -0.952786
0.157264 0.165962 0.072028 0.715994 0.053325 0.696031
0.004637 -0.53758 0.021261 0.699786 -0.169095 0.693932
0.174476 -0.75783 -0.050257 0.856947 0.243579 -0.453495
-0.088037 -0.280998 0.108651 -0.112792 -0.076951 0.989258
-0.120833 0.533253 0.039657 -0.061236 0.631897 0.772189
-0.065363 -0.187029 -0.092567 -0.336576 -0.116784 -0.932864
-0.282467 0.263881 -0.028458 0.686356 -0.663708 0.289724
0.023355 -0.554046 -0.025443 0.90089 0.163549 -0.400135
0.185188 -0.49388 0.044538 0.861303 -0.114563 0.494355
0.029552 -0.279138 -0.018341 -0.185829 -0.5154 -0.703877
-0.128108 -0.280745 0.055715 -0.986281 -0.0992 0.127533
-0.257447 0.427133 -0.017932 -0.751627 0.624967 0.210845
0.058709 0.483179 0.074989 0.070559 0.448095 0.891025
-0.081403 -0.611928 0.050573 0.345688 -0.220167 0.898191
0.061996 -0.059179 0.121856 0.031328 -0.426008 0.903216
-0.014125 0.58341 -0.091325 -0.153674 0.640044 -0.752481
-0.022496 -0.547513 0.039545 0.479725 -0.228616 0.846086
-0.038045 -0.205951 -0.09171 0.211101 -0.069936 -0.973706
0.281708 0.373852 -0.021662 -0.321897 -0.286443 0.897757
0.068429 -0.585953 0.00864 -0.652358 -0.142186 0.744257
-0.079055 0.240577 -0.096757 -0.662095 -0.313759 -0.680304
0.155892 -0.781316 -0.097602 0.572725 0.387061 -0.722472
-0.120147 0.134127 0.038762 -0.926894 0.074876 0.366937
0.176981 0.004785 0.090826 0.680227 -0.236477 0.680843
-0.129519 -0.530498 -0.054053 -0.889004 0.04082 -0.454826
-0.106216 -0.596794 0.040942 -0.925605 0.014809 0.37574
-0.401081 0.253368 -0.070549 -0.680352 0.120934 -0.714309
0.033703 0.184824 -0.113922 0.018243 0.166008 -0.982038
-0.02193 -0.202868 -0.0862 0.532719 -0.014321 -0.844212
-0.083217 -0.739411 0.01375 -0.50209 0.588883 0.630568
0.043823 -0.396573 -0.00442 -0.974585 -0.115303 0.178856
0.202103 0.558668 -0.057044 0.192905 0.976074 -0.059584
0.076262 -0.070765 0.11673 -0.016655 -0.413847 0.901239
0.175001 -0.187633 -0.074972 0.642881 -0.010676 -0.765602
-0.044849 -0.731451 -0.120161 0.330763 0.223984 -0.913087
0.134246 0.48741 -0.141769 0.139551 0.304303 -0.939756
-0.07797 0.580544 -0.041046 -0.453337 0.880568 -0.095781
0.124412 0.350872 -0.135561 0.467888 -0.154912 -0.869871
0.002215 -0.47357 0.040029 0.709769 -0.145596 0.688931
0.171667 -0.84955 0.09761 0.754121 0.655343 0.039234
0.489797 0.216228 -0.069046 0.168914 -0.338874 -0.919739
-0.109925 0.280246 0.020307 -0.978569 -0.010173 0.201764
-0.073348 -0.350976 -0.082631 -0.398614 -0.019675 -0.915051
0.093094 -0.401715 -0.093816 -0.471373 -0.009953 -0.881489
0.006168 0.606129 0.017385 -0.622125 -0.003329 0.775638
0.15442 0.198384 0.072579 0.737013 0.090039 0.669555
-0.233192 0.317159 -0.039095 0.733919 -0.679136 -0.000893
-0.011329 0.67704 -0.036695 -0.958476 -0.145692 -0.227682
0.043454 -0.426137 -0.030107 -0.998768 -0.010824 -0.037042
0.273278 0.42423 -0.140814 0.01382 0.106871 -0.994081
-0.107434 0.278478 0.032722 -0.985977 -0.007947 0.16435
-0.12629 0.11823 -0.024573 -0.949996 0.000175 -0.309964
0.119083 -0.50699 0.045435 -0.559959 -0.086673 0.823834
0.204829 -0.236934 -0.024586 0.993776 -0.080143 -0.071613
-0.014989 -0.193995 0.113273 0.391303 -0.096354 0.914648
-0.014338 0.1102 0.127689 -0.350658 0.212861 0.910124
-0.072624 0.0781 -0.113853 -0.573609 0.269501 -0.77256
0.05238 0.864348 -0.036119 0.168096 0.969405 -0.166427
0.095265 -0.773733 0.028348 -0.261598 0.756113 0.574347
-0.114494 -0.367256 0.084883 -0.777045 -0.006068 0.626973
-0.057983 -0.163955 0.121845 -0.145875 0.008066 0.988517
0.045546 -0.569035 -0.034437 -0.948334 -0.041841 -0.252215
0.602698 0.070154 0.075549 -0.736934 -0.585415 0.283218
0.083513 -0.852809 0.071858 -0.978952 -0.013544 -0.069445
0.03937 -0.055278 0.124987 -0.143978 -0.480181 0.864241
0.166906 -0.817365 -0.087653 0.891005 -0.343478 -0.246938
0.144745 0.56192 -0.009846 0.178169 0.756306 0.629111
0.017678 0.349007 0.113313 -0.0538 0.10134 0.992583
-0.203904 0.504206 -0.018562 -0.749349 0.660942 -0.007909
0.022364 -0.543471 -0.02504 0.951608 0.051592 -0.298457
-0.361635 0.309861 -0.06258 -0.652359 0.721414 -0.231951
-0.040763 0.068999 -0.134199 -0.369413 0.252601 -0.891631
0.023873 0.376758 -0.127806 -0.060639 -0.033512 -0.997387
-0.03632 -0.178217 -0.092861 0.366516 -0.030074 -0.929897
-0.060246 -0.567149 0.051266 0.346393 -0.185119 0.9195
-0.162829 0.522231 -0.066722 -0.517775 0.594865 -0.614388
0.053186 -0.09191 0.095215 0.316251 -0.760326 0.561309
0.008932 -0.301977 0.078743 0.736219 -0.175293 0.64581
0.18822 0.36221 -0.083956 0.746044 -0.473963 -0.466934
-0.062405 0.470238 -0.129581 -0.116906 0.078677 -0.989796
0.067984 0.145251 0.128088 0.238096 0.034701 0.967858
0.097643 -0.007237 0.129397 0.282573 -0.250304 0.925065
0.144456 0.468405 0.063327 0.407076 0.362881 0.835946
-0.04277 -0.723329 0.02493 -0.377 0.325538 0.855576
0.108269 -0.232465 0.089793 -0.037053 -0.147785 0.987943
-0.093492 -0.489136 -0.087216 -0.563617 0.13148 -0.814191
0.183159 0.479106 0.032866 0.477908 0.310694 0.82092
-0.11988 -0.78281 -0.05893 -0.992088 -0.04555 -0.104842
0.020536 0.852637 0.047703 -0.221272 0.687981 0.687037
0.064081 -0.778736 -0.035319 -0.91419 0.096933 -0.392175
0.363995 0.265117 -0.066827 -0.755224 -0.621752 0.200843
0.132405 0.290986 -0.122461 0.680945 -0.051799 -0.729667
-0.319367 0.326852 -0.086292 -0.37971 0.490142 -0.784556
-0.049889 -0.277331 0.106171 0.162695 -0.135182 0.977076
-0.038391 -0.131202 -0.10243 0.241686 -0.197593 -0.948951
0.034365 0.684467 0.089982 0.027365 0.099879 0.977287
0.145715 0.255637 -0.099428 0.803044 -0.113416 -0.584272
0.02415 0.235162 0.128071 -0.013401 0.028982 0.999458
-0.353311 0.26802 -0.08713 -0.033141 -0.224391 -0.97149
0.037203 0.094932 -0.141793 -0.138827 0.213244 -0.96598
-0.117461 -0.762632 -0.074211 -0.901536 -0.031759 -0.424597
-0.115132 -0.375628 -0.0509 -0.753343 -0.002853 -0.656846
-0.050322 -0.416649 0.084171 0.234333 -0.227098 0.944438
-0.200104 0.382787 0.021093 0.161637 -0.496691 0.851802
0.098739 -0.168531 0.09874 -0.35311 -0.176186 0.917407
0.087146 -0.278529 -0.09375 -0.431136 0.062135 -0.90003
-0.127692 0.074247 0.030789 -0.977033 0.150462 0.145411
0.065815 0.040423 -0.159499 -0.025244 0.181946 -0.981731
-0.128724 -0.638668 -0.051161 -0.998494 -0.048547 -0.001591
0.126232 -0.688833 0.028671 0.192897 -0.184141 0.962804
0.478342 0.234616 -0.011375 -0.100901 0.574166 0.780195
0.10026 0.555253 -0.118643 0.112314 0.546364 -0.82873
-0.072421 0.207716 0.091117 -0.561189 0.116801 0.819004
0.277138 0.455977 -0.014377 0.57964 0.147663 0.798706
0.026085 -0.214727 0.051272 0.957474 -0.027553 0.281493
0.2064 -0.222703 -0.003239 0.99863 -0.050555 0.005364
-0.133199 -0.156176 -0.024978 -0.85447 -0.133606 -0.499118
-0.030297 0.780579 -0.082069 -0.863599 -0.019442 -0.503129
0.160622 -0.844451 -0.075919 0.977399 -0.032001 -0.205425
-0.097639 -0.636497 -0.099368 -0.495318 0.072544 -0.86481
0.078762 -0.326876 -0.088376 -0.628628 -0.023696 -0.777171
0.061495 0.785628 0.079582 0.515254 0.14138 0.801787
0.156165 -0.571434 -0.09723 0.490271 -0.072411 -0.868464
0.204827 -0.2661 -0.016074 0.994489 -0.003005 -0.100261
-0.022687 -0.829547 -0.135316 0.615416 -0.601131 -0.496488
0.140658 -0.866656 -0.026121 0.152315 -0.976582 0.150182
-0.069851 -0.318077 0.105108 0.099048 -0.081767 0.991612
0.047233 0.693985 0.088944 0.312317 -0.096947 0.942116
-0.03623 0.395262 -0.129165 -0.082151 -0.024456 -0.995746
0.10354 -0.566808 -0.098171 -0.511148 -0.14704 -0.846135
-0.018631 -0.216125 -0.084108 0.533609 0.013637 -0.845415
0.049237 0.255425 0.125902 0.196654 0.087187 0.975165
-0.080595 0.369703 0.082925 -0.720695 -0.048105 0.688987
-0.134285 0.047214 -0.019193 -0.975064 0.119451 -0.182023
-0.080865 0.145092 -0.086952 -0.578471 0.235818 -0.780777
-0.101599 -0.821687 0.004036 -0.951773 0.244696 0.18471
-0.113141 0.285743 -0.048638 -0.988723 -0.131146 -0.05836
0.18864 -0.538201 0.029634 0.88104 -0.080544 0.464423
0.161544 0.481958 -0.137784 0.17403 0.192785 -0.964369
0.023157 -0.287596 -0.021644 0.843353 -0.074883 -0.512578
0.203551 0.557038 -0.03027 0.362466 0.873889 0.297028
0.050181 -0.251152 0.052688 -0.830265 -0.075458 0.551164
-0.050864 0.022573 0.126026 -0.430011 0.267861 0.858622
-0.137448 -0.4244 0.006591 -0.996869 0.025818 0.062981
-0.250203 0.42384 0.003178 -0.708775 0.51536 0.480478
-0.375175 0.198912 -0.049765 0.529487 -0.785222 -0.310985
0.10111 -0.217681 0.091675 -0.133312 -0.18885 0.972402
-0.099909 -0.511769 0.056262 -0.860977 -0.131516 0.48776
0.152284 -0.838584 0.154856 0.651719 0.735678 0.183832
0.037027 0.381271 0.105734 0.0592 0.179113 0.981717
0.297896 0.405638 -0.018399 0.505411 0.059118 0.860038
-0.1361 -0.222712 0.015626 -0.997732 -0.035009 -0.057373
-0.098337 0.151974 -0.068762 -0.729531 0.177556 -0.65945
-0.092408 -0.139377 0.113813 -0.252514 0.015102 0.967345
0.157357 -0.640173 -0.085492 0.517392 -0.180604 -0.8364
0.132627 -0.338035 -0.092213 0.499131 0.046862 -0.865001
-0.206312 0.49735 0.006821 -0.756871 0.589691 0.273561
0.133212 -0.323086 -0.091276 0.509322 0.03157 -0.859034
0.193127 -0.378784 -0.049822 0.738538 0.093102 -0.660878
0.081919 -0.727647 -0.061454 -0.923346 -0.107977 -0.367197
-0.079236 0.064315 0.104528 -0.541655 0.197225 0.815679
0.346471 0.306099 -0.127978 -0.296667 -0.428191 -0.844414
-0.12101 -0.353369 0.072699 -0.954514 0.002151 0.287218
0.482401 0.246205 -0.03599 0.705179 0.702532 0.086956
0.142661 0.131745 -0.097963 0.705421 0.198913 -0.679906
0.053127 0.016643 0.140322 0.117354 0.228998 0.96616
0.06925 0.440973 0.088502 0.095189 0.189882 0.976475
-0.038698 0.81047 -0.027433 -0.958049 -0.261381 0.070932
0.072979 -0.740537 -0.039846 -0.911749 0.026088 -0.408743
-0.033642 0.735674 -0.0028 -0.931619 -0.208921 0.291371
0.019214 0.865098 -0.0252 -0.256421 0.95897 -0.075623
-0.103063 -0.761458 0.005795 -0.580579 -0.50435 0.59026
0.157328 -0.860414 -0.035394 0.579814 -0.779841 0.159468
0.194661 -0.51126 0.018505 0.93695 -0.019514 0.348777
-0.046167 -0.582224 -0.100693 0.338221 -0.018398 -0.940849
-0.439415 0.158821 0.030219 0.495188 -0.763791 0.387427
-0.554246 0.060339 0.085981 0.191314 -0.489365 0.762522
0.55719 0.094582 0.002145 -0.75206 -0.658853 0.00031
-0.137353 -0.468725 0.002706 -0.980924 -0.031872 0.190541
0.398964 0.295728 -0.044217 0.206065 0.352631 0.911294
0.085873 -0.3954 -0.089565 -0.62047 -0.040329 -0.7829
0.119642 0.582637 -0.084868 0.337414 0.824599 -0.453015
0.196939 -0.313684 0.044573 0.90173 -0.065934 0.424236
0.155467 0.049684 0.097037 0.311058 0.31272 0.892138
-0.18837 0.491617 0.038088 -0.600419 0.326475 0.727459
0.033678 0.837399 0.063049 0.004494 0.574443 0.809261
-0.12589 -0.268962 0.071497 -0.939438 -0.117485 0.321423
0.143983 -0.150709 -0.102012 0.515895 -0.178219 -0.837053
0.154561 -0.630932 -0.088752 0.469564 -0.149496 -0.869676
0.05057 -0.329669 -0.055938 -0.823277 -0.034263 -0.565812
-0.212118 0.494441 -0.011088 -0.744052 0.664302 0.06054
0.065347 -0.201083 0.078105 -0.653153 -0.080028 0.752969
0.08891 -0.083758 -0.129397 -0.138744 -0.392042 -0.90851
-0.059749 -0.601258 -0.10368 0.113059 0.034968 -0.991702
-0.091231 0.532546 0.04109 -0.013268 0.591674 0.805678
0.038961 0.534556 0.046823 0.024273 0.779783 0.625573
0.15271 -0.058301 0.106282 0.506724 0.000949 0.861992
-0.138624 -0.439704 -0.007757 -0.995079 0.0768 -0.058574
-0.050004 0.506039 -0.122523 -0.118966 0.294962 -0.947674
0.567434 0.141184 -0.006876 0.633084 0.179168 -0.735963
-0.09435 -0.084265 -0.090003 -0.678341 -0.174213 -0.713309
-0.012884 0.596466 -0.079108 -0.269242 0.723683 -0.633668
0.298987 0.356864 -0.134193 -0.31352 -0.388628 -0.864099
-0.022316 0.025444 -0.145995 -0.163002 -0.13883 -0.968373
-0.347946 0.311381 -0.010964 -0.493583 0.551714 0.664006
-0.119653 -0.372054 0.076257 -0.938603 -0.01786 0.339778
-0.076704 0.284344 0.081138 -0.52662 0.003527 0.8423
0.129851 0.566858 -0.010829 0.267255 0.753588 0.600206
0.178025 -0.607415 -0.076933 0.643014 -0.079736 -0.761351
0.008612 -0.160344 -0.05816 0.811739 -0.016532 -0.58302
0.202325 -0.265712 0.038669 0.956576 -0.048755 0.28711
0.152217 -0.332295 0.077894 0.240139 -0.052761 0.969287
-0.062489 -0.017844 -0.129315 -0.259031 -0.117997 -0.957764
-0.192924 0.349428 -0.045165 0.627208 -0.772753 -0.087418
-0.063424 -0.543386 -0.102396 -0.036076 0.054434 -0.99745
0.627277 0.039426 0.069104 -0.826284 -0.562254 -0.032344
0.02357 0.516959 0.059736 0.128171 0.504089 0.854018
-0.080943 0.436239 -0.124002 -0.311646 -0.192919 -0.929823
0.573533 0.080886 -0.015937 0.22038 -0.296544 -0.771101
0.039697 0.065346 0.134168 0.154016 0.070662 0.984894
0.118113 0.589862 -0.049063 0.322636 0.941308 0.082639
0.20191 -0.119618 0.055877 0.896642 -0.031282 0.441577
-0.013497 0.17714 -0.114284 -0.294198 -0.205774 -0.928984
0.003422 0.183995 0.129585 -0.088769 0.019033 0.995585
-0.06082 -0.613265 0.039668 0.441866 -0.161844 0.882112
0.253772 0.422489 -0.011039 0.095743 -0.273158 0.950239
0.080542 0.71499 0.065522 0.758373 -0.003598 0.647824
-0.066593 0.519553 -0.11419 -0.220625 0.42137 -0.879126
0.148798 0.149442 -0.087888 0.720119 0.09758 -0.686538
0.184072 -0.025023 0.07946 0.7411 0.060762 0.668123
-0.132412 -0.559985 -0.049796 -0.927697 0.014955 -0.370968
-0.13634 -0.163468 0.058897 -0.977525 -0.016176 0.203077
-0.103718 -0.747676 -0.097568 -0.908292 0.045332 -0.386026
0.093467 -0.225557 0.089153 -0.189094 -0.126756 0.972803
0.01355 -0.282726 0.076321 0.804681 -0.090016 0.585938
0.106621 -0.692964 -0.091215 -0.431614 0.077175 -0.894498
-0.288332 0.365676 -0.003007 -0.726027 0.416125 0.545884
0.03379 0.0352 0.137161 0.099492 0.203939 0.971624
-0.105132 -0.778257 -0.096203 -0.843526 0.061505 -0.533334
0.097876 0.746295 -0.061743 0.972013 -0.148153 -0.181965
-0.07759 0.2163 0.086468 -0.572822 0.138552 0.807765
0.052365 0.384027 0.104026 0.111228 0.187202 0.975077
0.165525 0.529121 0.019057 0.286993 0.618057 0.730186
0.012299 -0.339037 -0.041656 0.746147 -0.053193 -0.663344
0.014814 0.783464 0.083395 -0.289618 0.082272 0.943637
0.313241 0.339631 -0.133073 -0.320111 -0.340776 -0.882977
-0.395557 0.200628 0.015895 0.2806 0.078207 0.938296
-0.142382 0.417653 0.038565 -0.411379 -0.799844 0.413292
0.066277 0.303911 -0.138177 -0.297875 -0.06834 -0.95118
-0.07486 -0.239363 -0.086835 -0.500804 -0.026989 -0.860652
0.24127 0.382258 -0.041198 -0.557338 -0.733069 0.389621
-0.118729 0.172822 0.039986 -0.878773 0.011188 0.476424
-0.444184 0.167584 -0.052436 -0.049762 -0.381064 -0.838775
0.059371 -0.706732 -0.02836 -0.869897 -0.234353 -0.431505
-0.101983 -0.604617 0.050126 -0.667457 -0.076181 0.723111
0.085968 -0.111579 0.096194 -0.572177 -0.146182 0.806684
-0.003158 0.812144 -0.104171 -0.393986 0.483966 -0.779946
-0.127442 -0.513631 0.011772 -0.863878 -0.139193 0.483437
0.46356 0.226731 -0.012685 -0.260746 0.28314 0.916599
0.116249 -0.820986 -0.117526 -0.214011 -0.10329 -0.963052
0.048593 -0.142343 0.064346 -0.626696 0.01438 0.77564
0.207462 -0.017613 -0.017789 0.974074 0.055402 -0.21828
-0.128585 0.394215 -0.025174 -0.958686 -0.217164 0.003491
0.356109 0.373391 -0.105892 0.739028 0.66818 -0.053997
-0.127224 -0.058927 -0.054585 -0.88165 -0.067209 -0.466558
0.151881 0.353295 0.067344 0.679782 -0.117357 0.723584
0.057278 0.576209 0.020057 0.377563 0.031803 0.923588
-0.135837 -0.515117 -0.008036 -0.983169 -0.076168 0.164201
-0.008794 0.855569 -0.024497 -0.48818 0.868942 -0.068557
-0.027596 -0.755238 -0.000406 0.594618 -0.035806 0.756558
0.09431 -0.426936 -0.094985 -0.525954 0.014098 -0.849674
0.167647 0.282193 0.04928 0.752367 -0.044566 0.656314
0.051962 -0.310481 0.045421 -0.777042 -0.102057 0.619752
0.261721 0.499359 -0.01865 0.72838 0.417774 0.539565
0.137273 0.226115 -0.102181 0.749228 -0.225953 -0.62156
0.193098 0.41921 0.028507 0.836803 -0.300934 0.437212
0.043515 -0.404488 -0.011668 -0.989934 -0.07092 0.109865
-0.051863 0.274104 -0.122309 -0.458556 -0.052591 -0.886676
0.172608 -0.762664 0.020491 0.541892 0.097677 0.83073
0.006173 0.513616 -0.122812 0.021351 0.131535 -0.990634
-0.085296 -0.197818 0.112879 -0.177219 -0.060206 0.982054
0.082222 -0.712831 -0.06646 -0.893886 -0.092327 -0.437082
-0.103784 -0.195649 -0.062761 -0.815109 -0.038144 -0.57732
0.105996 -0.05979 0.120997 0.10744 -0.174583 0.975235
-0.244551 0.31992 -0.003711 0.549198 -0.553562 0.624044
0.030678 0.865344 0.014655 -0.201718 0.95902 0.190661
0.039479 -0.213691 0.019329 -0.45708 -0.259188 0.675037
-0.06229 -0.856193 0.153709 0.266029 -0.753235 0.582258
0.182274 0.006462 -0.080883 0.869545 0.068564 -0.483263
-0.085196 -0.340833 -0.075972 -0.558514 0.029905 -0.828224
0.181249 0.35252 -0.084646 0.77855 -0.425793 -0.457671
0.193155 -0.116711 0.07249 0.824849 -0.01528 0.563258
0.01326 -0.433683 -0.038634 0.835441 -0.003004 -0.54916
0.192203 -0.318101 0.05444 0.912856 -0.060663 0.403543
0.050852 0.327337 -0.132952 -0.46155 -0.029859 -0.886383
0.335803 0.297978 -0.059701 -0.583668 -0.634402 0.506401
-0.088505 0.452642 -0.123786 -0.346622 -0.038946 -0.935817
0.080904 0.471609 -0.141115 -0.358265 0.200358 -0.910418
-0.082745 -0.456112 -0.088698 -0.418597 0.154344 -0.892472
0.089465 0.836223 -0.014424 0.933512 0.349941 0.0086
-0.035492 -0.85994 0.004032 0.411944 -0.891674 -0.148438
-0.112379 -0.701236 0.00185 -0.849764 -0.391012 0.344305
0.350557 0.364188 -0.130888 0.547386 0.326737 -0.759688
-0.016763 0.028219 0.135988 -0.209906 0.187955 0.959007
-0.027579 0.800411 -0.086905 -0.884085 0.054877 -0.459156
-0.038207 0.591487 -0.060476 -0.435217 0.873933 -0.17235
0.59136 0.121303 0.020362 0.744753 0.66471 -0.051214
0.196858 -0.708303 -0.028008 0.973289 -0.010029 -0.200592
-0.042874 -0.330274 0.097779 0.231896 -0.095286 0.968006
0.06281 0.429864 0.090845 0.13051 0.232936 0.963564
-0.022172 -0.849455 -0.106837 0.989661 -0.081324 -0.093813
0.000106 0.447705 -0.128353 0.136024 0.006696 -0.990589
0.050889 0.351132 0.111846 0.174261 0.189902 0.96516
0.090383 0.805076 0.03008 0.920985 0.157898 0.352987
0.122501 -0.086186 -0.127672 0.199799 -0.257854 -0.944139
-0.046152 -0.629137 0.029999 0.375165 -0.25094 0.890927
0.344293 0.346911 -0.046017 0.437502 0.246295 0.863214
0.036721 0.499738 -0.124789 -0.171228 0.029861 -0.98461
0.093927 -0.865091 0.127366 -0.4889 -0.860885 0.136957
-0.238719 0.440486 -0.063569 -0.624033 0.569911 -0.53153
0.204029 0.503752 -0.126966 0.169242 0.393449 -0.899882
0.068184 0.230881 0.122858 0.298556 0.096597 0.949273
-0.105612 0.147903 0.061488 -0.768978 0.061867 0.636184
0.013834 -0.651477 0.007362 0.767235 -0.143544 0.623796
0.139115 -0.509714 -0.106519 0.241152 0.001413 -0.968852
-9.7e-05 -0.557173 0.021653 0.711267 -0.134808 0.689641
0.010857 0.054898 0.138241 0.047249 0.027029 0.994332
0.06885 -0.357003 0.050012 -0.634677 -0.307761 0.707378
0.0855 0.637309 -0.02605 0.965766 0.194932 -0.070683
0.001651 -0.657766 0.018178 0.623314 -0.110554 0.773331
-0.142333 0.396904 -0.026662 0.758267 -0.650856 0.021992
-0.012918 -0.008556 0.145894 -0.094472 -0.391933 0.864785
0.134973 0.202146 -0.097835 0.672668 -0.134597 -0.725433
0.639846 0.045916 0.029783 0.896756 0.437969 -0.021655
-0.02497 0.232584 0.113514 -0.340644 0.060351 0.938031
-0.073024 -0.823201 0.081859 -0.230418 0.937789 0.253364
0.012122 -0.472222 0.028714 0.797611 -0.111896 0.592073
0.19373 0.381894 0.006157 0.967976 -0.119906 0.219967
0.109437 -0.229247 -0.09997 -0.184717 -0.064355 -0.980533
0.089182 -0.835681 0.051979 -0.981134 0.185421 0.022579
0.101536 0.021609 0.128401 0.264268 0.260953 0.927509
0.129244 -0.869519 -0.05662 0.008706 -0.998811 0.047217
0.206894 0.007023 -0.004235 0.996531 0.031937 -0.05945
-0.129501 -0.415852 0.04225 -0.948694 0.006802 0.312024
0.007828 0.194969 0.129713 -0.066747 0.047116 0.996647
-0.097564 -0.39981 -0.06547 -0.633115 -0.076332 -0.763558
-0.022071 -0.846588 0.05003 0.985197 0.03575 0.062664
-0.445675 0.192816 -0.043515 -0.587062 0.252682 -0.766057
0.162257 -0.846657 -0.065666 0.992102 -0.015985 -0.114958
0.140028 -0.869321 0.116654 0.054708 -0.998026 0.026632
-0.018102 0.679539 -0.013322 -0.868651 -0.455097 -0.1667
-0.105871 0.280091 0.044266 -0.98304 -0.004485 0.180219
-0.114415 -0.452325 0.062087 -0.844603 -0.183396 0.502647
0.094588 -0.351983 0.067699 -0.409855 -0.297238 0.862041
0.182752 0.23573 0.005035 0.999664 -0.012964 0.02014
0.185488 0.425175 -0.130421 0.199327 -0.346849 -0.916381
-0.119129 -0.674038 -0.006697 -0.977996 -0.036756 0.20069
0.095732 0.764699 -0.078813 0.893709 -0.045644 -0.438739
0.611503 0.093237 0.065321 0.761017 0.646631 0.05025
-0.039995 -0.371988 -0.082963 0.335795 -0.177811 -0.923992
0.521705 0.150024 -0.032409 -0.672697 -0.609606 -0.300996
-0.054831 0.217748 0.099571 -0.520758 0.097752 0.848035
0.075672 -0.588554 -0.071602 -0.694795 -0.095631 -0.712629
-0.13318 -0.050309 0.065025 -0.869005 0.034723 0.489524
0.163467 0.559881 -0.09136 0.331123 0.725568 -0.603018
0.096849 -0.830612 0.102468 -0.669739 0.719345 0.168234
0.191647 -0.307691 -0.037691 0.784256 -0.052855 -0.617377
-0.033388 0.215383 0.112114 -0.376474 0.045307 0.921427
-0.023292 -0.200236 0.116072 0.326988 -0.189905 0.925036
0.084546 0.706861 0.059693 0.830318 -0.136281 0.538779
0.214256 -0.124516 0.004886 0.997735 -0.057223 0.022101
-0.023272 -0.853322 0.020893 0.799993 -0.585078 -0.103762
0.085191 -0.160811 -0.105776 -0.320123 -0.248377 -0.913699
0.070904 -0.573911 -0.069102 -0.695229 -0.12437 -0.707774
-0.120291 -0.384067 -0.0433 -0.841506 -0.040318 -0.537374
-0.120557 -0.776693 -0.049166 -0.997406 -0.05741 -0.022404
-0.025274 -0.33621 -0.079694 0.587202 -0.094869 -0.801934
-0.131244 0.458292 0.061486 -0.063896 -0.047041 0.995345
0.200934 -0.482728 -0.023745 0.993019 0.112581 -0.026402
-0.059314 -0.70121 0.014215 0.114924 -0.267899 0.947425
0.028354 -0.147845 -0.040526 -0.913691 -0.23623 -0.328961
0.165103 0.321519 0.052318 0.729763 0.033585 0.680768
0.156089 -0.260268 0.082327 0.158392 -0.076586 0.984349
-0.01744 -0.574833 0.030086 0.356866 -0.194323 0.911821
0.310456 0.454499 -0.097576 0.61314 0.668335 -0.420276
-0.058594 -0.179958 -0.095278 -0.14852 -0.104632 -0.978159
0.145073 -0.625173 -0.094311 0.339417 -0.154034 -0.926963
-0.010189 -0.487684 0.047618 0.600301 -0.248558 0.759018
-0.31824 0.320155 0.002173 -0.286476 0.263388 0.918403
0.085916 0.320307 -0.143799 -0.036556 -0.068656 -0.996952
0.328727 0.389615 -0.139077 0.414871 0.024392 -0.908868
0.022714 -0.637542 -0.003576 0.864667 -0.118081 0.487054
0.032169 0.269023 0.126256 0.040285 0.127302 0.990021
-0.349815 0.216427 -0.052552 0.503597 -0.7934 -0.329446
0.133281 0.355749 0.084711 0.568511 0.037603 0.821371
-0.116381 0.108687 0.054056 -0.850721 0.19833 0.48655
0.001195 0.305062 -0.129318 0.143236 0.053158 -0.988173
-0.114744 -0.634775 0.024344 -0.856085 -0.016892 0.516014
0.067936 -0.611563 0.001332 -0.590992 -0.179403 0.782965
0.188579 -0.747234 0.002251 0.659281 0.232995 0.61604
-0.10254 -0.327142 -0.060202 -0.721038 0.053447 -0.689979
0.115135 -0.005496 -0.149571 0.411929 0.073507 -0.907213
0.157207 0.361232 -0.113764 0.579169 -0.297819 -0.758537
0.075926 -0.691517 -0.059707 -0.843758 -0.08159 -0.529821
0.207617 -0.170174 0.006256 0.999096 0.002681 0.039415
-0.051203 0.395186 0.09913 -0.317433 0.130869 0.937839
0.08687 0.724228 -0.072076 0.740728 -0.443829 -0.497856
0.097722 -0.016882 0.12858 0.206181 -0.029499 0.976473
-0.097647 -0.834217 0.085238 -0.664476 0.734962 0.123628
0.029904 -0.164345 0.049746 0.898319 -0.269722 0.341762
0.086978 0.700388 0.052326 0.891911 -0.253838 0.363311
0.030241 -0.281771 0.015614 0.989397 -0.092682 0.111024
-0.116104 0.229936 -0.032432 -0.942942 0.040938 -0.298494
0.131801 0.121274 -0.110858 0.517145 0.27188 -0.808761
0.018532 0.658842 0.064811 -0.219017 -0.965863 0.12905
0.049677 -0.447762 -0.050921 -0.829977 0.041195 -0.554256
0.18106 0.276257 -0.027675 0.969226 -0.056953 -0.231783
0.076434 -0.536771 -0.079758 -0.712629 -0.07129 -0.697882
0.464899 0.251175 -0.089597 0.782667 -0.062195 -0.584043
-0.128279 -0.337218 0.008172 -0.99993 -0.004266 0.003438
0.162749 -0.826029 -0.081091 0.829512 -0.53495 -0.095426
-0.091293 0.276709 -0.094918 -0.692296 -0.071913 -0.717847
0.166646 0.286488 -0.068516 0.894714 -0.174875 -0.410517
0.088012 0.299135 0.107571 0.383907 0.126795 0.907108
0.175785 0.089802 0.07048 0.723482 0.220767 0.653614
0.069611 0.758948 -0.106727 0.531112 -0.164443 -0.830262
0.121289 0.525396 0.034931 0.281034 0.625776 0.725621
-0.038107 0.589498 -0.071578 -0.339909 0.881934 -0.290908
-0.105921 -0.280863 0.102427 -0.621137 -0.036397 0.774445
0.157114 -0.590251 0.039668 0.164105 -0.167709 0.969538
-0.040013 0.495408 -0.12716 -0.047594 0.238662 -0.968224
-0.139121 0.019797 0.037118 -0.973722 0.107699 0.19155
-0.179714 0.358781 -0.022022 0.606205 -0.754963 0.245287
0.181526 0.36079 -0.090822 0.677934 -0.467632 -0.565502
0.52252 0.214984 -0.038457 0.519883 0.782047 0.34174
-0.119703 0.317853 -0.048604 -0.992093 -0.088023 -0.075961
0.266265 0.497794 -0.094222 0.618703 0.581735 -0.527963
0.126209 0.065838 0.106369 0.077739 0.203487 0.973826
-0.109862 0.200909 0.057482 -0.856761 -0.021416 0.513092
-0.126451 -0.537217 -0.062267 -0.876795 0.087988 -0.471941
0.075061 -0.631023 0.006833 -0.526485 0.322295 0.771457
0.14032 -0.693493 -0.090259 0.445977 -0.001692 -0.895009
-0.082949 -0.825312 0.085001 -0.239557 0.954312 0.148841
0.089215 0.098515 -0.140618 0.253526 0.396948 -0.879847
-0.003804 -0.480032 0.044365 0.688574 -0.194352 0.698038
0.07023 0.031518 -0.160955 0.004575 0.065224 -0.997631
0.064598 0.635159 0.022309 0.619717 -0.28462 0.727362
-0.187635 0.352415 -0.037457 0.608478 -0.788817 -0.06087
0.24333 0.45185 -0.000582 0.353364 -0.137953 0.918791
0.006726 -0.480304 0.033734 0.731997 -0.165548 0.659033
0.17196 -0.152298 0.093013 0.583445 -0.083106 0.805719
0.009035 -0.108063 0.114302 0.577349 -0.294933 0.760489
0.027621 -0.626924 -0.021385 0.996698 -0.016588 0.052317
0.170891 0.569563 -0.063767 0.533193 0.812815 -0.212254
0.069583 -0.784124 -0.049953 -0.897064 0.123756 -0.421731
0.154591 -0.129438 -0.100533 0.62209 -0.229947 -0.748242
0.092561 -0.033759 -0.149064 0.047994 -0.351059 -0.934738
0.168516 -0.86306 0.0718 0.295482 -0.944 -0.011117
-0.109347 -0.717108 -0.00789 -0.839582 -0.352947 0.410351
0.178697 0.038437 -0.085321 0.828488 0.122912 -0.545926
0.200089 0.444435 0.030127 0.640462 0.049887 0.765246
0.164623 -0.847194 0.139841 0.876018 0.42922 0.207317
0.20622 -0.159318 -0.033228 0.983256 -0.007012 -0.170624
0.074622 -0.760617 -0.049716 -0.860219 0.216227 -0.461105
-0.026847 0.313902 -0.13 -0.101516 0.064138 -0.992068
0.164468 0.123227 0.071714 0.602877 0.212497 0.768013
0.026861 -0.671987 -0.043725 0.994794 0.00499 -0.076304
-0.104719 -0.292322 -0.055818 -0.799092 0.011234 -0.600773
-0.108524 0.22175 -0.047097 -0.833 -0.259411 -0.487456
0.081821 0.695175 0.060324 0.885452 -0.15676 0.431604
-0.103415 -0.725212 -0.004468 -0.668469 -0.337975 0.653452
-0.092141 -0.736178 0.00318 -0.620372 0.239035 0.729845
0.022697 -0.37838 0.025721 0.927798 -0.12719 0.348211
0.008075 -0.057766 0.126673 0.315324 -0.212467 0.923178
0.205186 -0.548637 -0.015251 0.975495 -0.051106 0.208838
-0.083579 0.204933 -0.077539 -0.779972 -0.025703 -0.624265
0.108423 -0.571664 0.035765 -0.339681 -0.141016 0.929756
0.031562 0.038652 -0.155154 -0.192364 0.226279 -0.954612
0.074587 -0.822788 -0.044996 -0.436799 -0.890412 -0.063564
0.365264 0.302771 -0.041747 -0.028361 0.095207 0.969908
0.38867 0.241503 -0.053285 -0.64343 -0.675663 0.345842
-0.044697 0.344086 0.102329 -0.158261 -0.107982 0.980707
0.113317 -0.868839 -0.110156 -0.012513 -0.921211 -0.303758
-0.456385 0.144631 0.039175 0.68249 -0.682844 0.204653
0.374969 0.260275 -0.112442 -0.59157 -0.600491 -0.536223
0.177152 0.414078 -0.127846 0.204515 -0.377135 -0.903095
-0.011169 0.422186 0.100523 -0.045774 0.303261 0.950244
-0.112748 -0.189453 0.100252 -0.695914 0.003999 0.717704
-0.016508 -0.013161 0.138014 -0.053141 -0.721109 0.667213
0.164779 0.349399 -0.102681 0.672061 -0.31149 -0.671069
0.121827 0.00923 -0.14457 0.427662 0.063819 -0.901135
0.282812 0.446369 -0.130146 0.336611 0.520263 -0.782835
0.143912 0.266352 0.078225 0.754158 0.07057 0.652855
0.089347 -0.541928 -0.09145 -0.639364 -0.093472 -0.762336
-0.180591 0.399534 -0.094928 0.244147 -0.167255 -0.953109
0.112397 0.190529 0.106416 0.492389 0.028284 0.86981
0.470558 0.260685 -0.058793 0.718237 0.694692 0.034381
0.105949 -0.864761 0.009149 -0.384105 -0.891185 -0.149739
0.107991 -0.870529 -0.083186 -0.038242 -0.995499 0.002172
0.54543 0.180058 0.001937 0.832126 0.533495 0.119673
0.149009 -0.110401 0.109179 0.422743 -0.016616 0.904958
0.096835 -0.265668 0.083652 -0.163918 -0.151085 0.97391
0.048955 0.478668 0.078532 0.119547 0.501106 0.855528
-0.44259 0.194187 0.017715 -0.232677 0.503413 0.82776
0.009059 0.660783 0.061547 -0.368392 -0.919016 0.12716
0.052655 -0.35209 0.034482 -0.748573 -0.259162 0.60931
0.020666 0.620048 -0.070114 -0.19214 0.517392 -0.830605
-0.106155 -0.024305 0.09833 -0.739137 0.04432 0.671946
-0.075423 -0.062386 -0.111047 -0.268039 -0.219617 -0.934182
-0.047076 0.441257 0.089999 -0.155761 0.213384 0.964354
0.060721 0.072938 -0.151087 -0.083773 0.240639 -0.965844
0.548273 0.149201 -0.020776 0.620137 0.042581 -0.780993
0.180779 0.329196 -0.066957 0.830903 -0.354141 -0.427145
0.092684 -0.392919 0.054397 -0.521749 -0.218568 0.824495
-0.023856 0.806914 0.025719 -0.79505 0.338369 0.502005
0.14041 -0.029644 -0.135964 0.601411 -0.111559 -0.790269
-0.031902 -0.496289 0.057012 0.316484 -0.270203 0.9089
0.023689 -0.447787 -0.01602 0.903757 0.15737 -0.394347
-0.415365 0.252438 -0.043708 -0.782898 0.610068 -0.104147
-0.075111 -0.863793 0.093678 -0.043934 -0.998946 0.008777
-0.05604 0.108085 0.106486 -0.465006 0.224601 0.855271
-0.131998 -0.181079 0.071953 -0.853663 -0.064639 0.515509
-0.066186 -0.241547 -0.090549 -0.301939 -0.000577 -0.949782
0.10373 -0.660549 -0.088127 -0.486184 -0.021258 -0.871934
-0.006296 -0.346847 0.08085 0.623977 -0.05558 0.774906
-0.060094 -0.686301 -0.112185 0.010816 0.214743 -0.971417
-0.372496 0.258893 -0.084531 -0.139062 -0.134337 -0.977503
0.164677 -0.284721 0.078131 0.300065 -0.098693 0.94856
-0.080688 -0.056411 0.117434 -0.565469 -0.014379 0.823684
-0.100955 0.018108 -0.102046 -0.741328 0.054477 -0.667145
-0.023121 -0.83795 -0.109946 0.897695 -0.372441 -0.107378
-0.268802 0.322918 -0.093921 0.347761 -0.209539 -0.913068
0.12898 0.388687 -0.139148 0.389385 -0.140392 -0.910159
-0.02203 -0.848132 -0.094879 0.984622 -0.127215 0.032227
0.144179 -0.227596 -0.091353 0.505335 -0.147473 -0.850185
0.020754 0.40767 0.10045 0.140421 0.276612 0.950008
0.471466 0.258396 -0.077674 0.792886 0.549163 -0.25386
-0.018108 0.709024 0.053695 -0.884153 -0.16473 0.43332
0.20637 -0.035365 -0.025156 0.975235 0.010219 -0.219076
0.00358 -0.583586 0.014301 0.68803 -0.033817 0.723548
0.122127 0.493833 0.056238 0.23275 0.533419 0.812644
0.095255 0.351227 -0.144948 0.045731 -0.040663 -0.996817
-0.026557 -0.370016 0.08774 0.322734 -0.158514 0.930673
-0.019813 -0.722447 0.021965 0.564229 -0.341152 0.735891
0.183201 -0.463862 0.054382 0.877853 -0.098759 0.468345
0.084432 -0.860793 0.104577 -0.788045 -0.540334 0.020548
0.019147 0.554485 0.028471 -0.019572 0.414662 0.908279
0.012744 -0.293434 -0.045213 0.79688 -0.092364 -0.595729
-0.016169 0.760388 0.05506 -0.791682 0.071505 0.604972
-0.015537 -0.817036 -0.135259 0.713837 -0.338419 -0.6068
-0.222728 0.331272 -0.013424 0.605028 -0.708556 0.353711
0.325617 0.44178 -0.092768 0.709661 0.684411 -0.158468
-0.080791 -0.861423 -0.105329 -0.18155 -0.973861 -0.110433
0.065659 0.081731 -0.148877 -0.057802 0.323255 -0.942945
0.109172 -0.184619 0.097849 -0.103167 -0.142933 0.983314
0.075053 0.345046 0.106526 0.270369 0.145752 0.949957
-0.128681 -0.573277 -0.015208 -0.969988 -0.083693 0.227768
-0.002601 0.38482 -0.128893 0.057045 -0.011676 -0.99825
0.019811 -0.346062 -0.029012 0.910164 -0.02554 -0.412566
-0.539874 0.078719 0.087854 0.48357 -0.272458 0.739626
-0.073959 0.053961 -0.119682 -0.646213 0.236 -0.723227
0.189505 0.317605 -0.029875 0.981107 -0.163022 -0.079423
0.081251 -0.395094 0.045273 -0.673927 -0.26986 0.687309
0.01463 -0.736038 -0.076755 0.811794 0.026523 -0.581136
0.349493 0.276253 -0.093924 -0.637555 -0.746351 -0.189957
0.07481 0.104367 0.128384 0.330515 0.05576 0.939415
-0.103478 -0.860482 0.023718 -0.564604 -0.807482 -0.05555
-0.086884 -0.694169 0.024519 0.040074 -0.415511 0.905395
0.20584 -0.382968 -0.01023 0.999073 0.010105 -0.012481
-0.024292 -0.834288 0.040916 0.975483 0.089622 0.082832
0.063639 0.587707 -0.093612 0.070825 0.655485 -0.751718
-0.014822 0.607425 -0.062325 -0.528173 0.690712 -0.490925
0.098607 -0.151293 0.100909 -0.53177 -0.080909 0.842009
0.159954 0.220728 -0.070865 0.791276 -0.044356 -0.609406
0.019183 -0.011066 -0.143463 -0.118762 -0.279336 -0.95166
-0.034257 0.295307 0.108083 -0.579504 0.070046 0.811082
0.082388 -0.383174 -0.087149 -0.664918 -0.075622 -0.742376
-0.043083 -0.860496 -0.013146 0.281458 -0.949352 -0.114401
0.254598 0.453724 -0.004494 0.365146 -0.229483 0.901776
-0.126356 -0.277719 0.066213 -0.961705 -0.093394 0.251631
0.107665 -0.242071 0.088472 -0.029051 -0.130905 0.989946
0.007195 0.474544 -0.126151 0.126887 0.08503 -0.988088
0.477893 0.210524 -0.002453 0.211626 0.461918 0.818436
-0.340711 0.296606 2.6e-05 -0.199296 0.272531 0.940798
-0.119107 -0.723156 -0.073448 -0.769266 -0.129896 -0.62387
0.075754 -0.514493 0.016565 -0.653179 0.015932 0.756944
0.018665 -0.146783 -0.042315 0.907007 -0.119575 -0.401528
-0.411777 0.172681 -0.014827 0.611915 -0.788194 -0.034506
0.061931 -0.250615 -0.071862 -0.782484 -0.010206 -0.62238
-0.043872 -0.183954 -0.094523 0.167482 -0.053264 -0.982528
-0.347699 0.217629 -0.003569 0.575372 -0.737002 0.343738
0.170607 -0.20921 -0.076212 0.616166 -0.091818 -0.781927
0.131555 -0.000334 0.120349 0.380716 -0.226666 0.89613
0.13534 -0.738461 -0.097951 0.339692 0.165406 -0.918621
0.28525 0.470949 -0.105165 0.523463 0.650533 -0.549901
0.319629 0.406701 -0.037131 0.600248 0.359732 0.712997
0.031346 0.835225 -0.093868 -0.036224 0.683732 -0.728606
0.208823 0.5166 0.011113 0.276699 0.409928 0.867477
-0.113874 0.448006 -0.114262 -0.429965 -0.027962 -0.901329
0.190483 0.33831 0.000263 0.977225 -0.093188 0.187781
0.045707 0.504145 -0.126819 -0.20725 0.06804 -0.97575
-0.113487 0.182987 -0.038047 -0.895743 0.08078 -0.436981
0.148251 -0.58617 0.041733 -0.004964 -0.122932 0.992005
0.189166 -0.117986 -0.065324 0.776005 -0.023951 -0.63004
-0.0064 -0.755172 -0.012091 0.462148 -0.382003 0.783915
0.0771 0.384171 -0.14386 -0.201005 0.013546 -0.978548
-0.207537 0.498665 -0.003595 -0.757529 0.64051 0.115414
-0.059917 -0.490874 -0.098113 -0.035114 0.101003 -0.992653
0.186246 0.068789 0.061671 0.829315 0.167586 0.532032
0.498542 0.227663 -0.06908 0.432649 0.346283 -0.753776
-0.081638 -0.519154 -0.096903 -0.295264 0.090866 -0.948838
