0.011432 -0.744951 -0.081542 0.812369 0.058695 -0.578637
-0.079207 -0.732185 -0.119785 -0.475782 0.142258 -0.866884
-0.082817 -0.820976 -0.122987 -0.771511 -0.124237 -0.622438
-0.137943 -0.065182 -0.026831 -0.963388 0.005479 -0.267388
-0.154407 0.525308 0.038365 -0.261067 0.438865 0.841644
-0.027388 -0.830005 0.066569 0.939948 0.285335 0.168129
0.083765 0.028673 -0.159729 0.165039 0.008027 -0.98093
0.145196 0.025008 -0.12754 0.767791 0.078772 -0.60124
0.18272 0.113224 -0.048207 0.840229 0.300339 -0.450194
-0.126457 -0.654789 -0.029515 -0.979507 -0.059331 0.185996
-0.059656 0.5158 0.056407 -0.160626 0.51117 0.844028
0.164339 -0.839745 0.086054 0.787739 0.615723 0.01869
-0.094192 -0.856816 -0.023883 -0.6683 -0.708228 -0.224965
-0.097007 -0.199363 0.110599 -0.295761 -0.048614 0.94572
-0.032578 0.271468 -0.129351 -0.177804 -0.038175 -0.98191
-0.12955 -0.282679 0.022 -0.991439 -0.126797 0.002941
0.053795 -0.705478 0.014922 -0.975837 0.069851 0.197778
0.093125 -0.023976 -0.152535 0.062748 -0.24648 -0.966416
-0.377344 0.268653 0.004625 -0.260477 0.383506 0.883222
0.040583 -0.349025 0.001788 -0.939226 -0.126025 0.306938
-0.298277 0.361063 -0.067496 -0.691841 0.654012 -0.3044
0.133905 -0.316709 0.081145 0.034955 -0.056871 0.997394
-0.137628 -0.185142 0.037613 -0.99189 -0.064838 0.092454
0.144682 -0.825866 0.097062 0.293647 0.94107 0.150767
-0.13522 0.41626 0.047545 -0.521835 -0.712304 0.455675
0.189463 -0.459822 -0.065814 0.813675 0.099476 -0.570706
-0.041087 -0.340146 0.0964 0.257527 -0.100256 0.960748
0.277606 0.499221 -0.068702 0.713788 0.695291 -0.076677
0.610405 0.063994 0.084241 -0.772822 -0.545327 0.288422
0.106475 -0.704125 -0.092093 -0.447023 0.090316 -0.885329
-0.315405 0.341933 -0.009739 -0.5511 0.574146 0.595041
-0.179968 0.448419 0.043354 0.010096 -0.216792 0.973647
-0.013497 0.17714 -0.114284 -0.294198 -0.205774 -0.928984
0.57221 0.080801 0.049238 -0.746123 -0.624215 0.227241
-0.050385 -0.791534 -0.14683 -0.22636 0.327294 -0.904064
0.079789 -0.358367 0.057437 -0.50789 -0.328182 0.796294
-0.135282 -0.549777 -0.038049 -0.990005 -0.0662 -0.101619
0.010944 0.410145 0.101594 0.159979 0.223646 0.961339
0.190757 -0.419274 -0.0549 0.827227 0.066893 -0.556931
0.243543 0.532761 -0.070559 0.680546 0.710294 -0.176312
0.041209 0.660454 0.08242 0.11787 -0.955777 0.253366
-0.127716 -0.636368 -0.026514 -0.986464 -0.112795 0.107492
-0.096206 -0.565993 0.056353 -0.735217 -0.054654 0.65916
0.045089 -0.534387 -0.020007 -0.954975 0.006862 0.256739
-0.019611 -0.017179 -0.137583 -0.110567 -0.153734 -0.981608
0.431003 0.271328 -0.037544 0.09192 0.520348 0.847786
0.098725 -0.137404 -0.115173 -0.151293 -0.247013 -0.953195
-0.021595 -0.806219 0.045821 0.895513 0.308742 0.297523
0.381919 0.305098 -0.043802 0.196063 0.335386 0.921201
0.207775 -0.096474 -0.029282 0.933956 0.058581 -0.351971
-0.056942 -0.045585 -0.123597 -0.224139 -0.338065 -0.913366
0.048232 0.747312 0.08593 0.836227 0.222576 0.494675
-0.071078 -0.604295 0.046776 0.481544 -0.240266 0.842681
0.030207 -0.115453 0.091962 0.560499 -0.54443 0.620077
0.174306 -0.852005 0.066722 0.906061 0.388292 -0.014048
0.12921 0.502598 0.04947 0.256834 0.483213 0.836003
0.182531 0.091748 -0.061156 0.825013 0.209936 -0.523583
0.087507 0.748559 0.054859 0.835332 0.089919 0.537396
-0.194329 0.350891 -0.016571 0.567267 -0.76223 0.308182
0.082312 0.128247 0.123405 0.409234 0.050325 0.908474
-0.098584 -0.364329 -0.067298 -0.629815 0.041856 -0.773073
-0.063416 0.388811 -0.122346 -0.314721 -0.090202 -0.944875
0.522263 0.147529 0.001646 -0.727121 -0.684897 0.043467
0.12389 0.189487 0.099816 0.516807 0.03425 0.854752
-0.04201 -0.306659 0.099703 0.276382 -0.115386 0.952772
0.475896 0.24992 -0.026345 0.323726 0.819847 0.456384
-0.469487 0.156827 0.05237 0.359842 0.606355 0.705065
-0.199541 0.381461 -0.094476 0.163752 -0.334376 -0.919283
0.02166 0.331723 0.117434 -0.173501 0.314149 0.930827
0.085916 0.320307 -0.143799 -0.036556 -0.068656 -0.996952
0.130076 0.336423 0.087199 0.496064 0.033933 0.866818
-0.189228 0.51909 -0.031684 -0.70677 0.682802 -0.181863
0.065044 0.489699 0.071241 0.079184 0.503609 0.859199
0.057992 -0.73582 0.026137 -0.923396 -0.207634 0.303854
0.051421 -0.160462 -0.081468 -0.769483 -0.186796 -0.610099
-0.547671 0.060464 0.049158 0.66131 -0.740459 0.007073
0.041222 0.250012 0.127255 0.086274 0.03741 0.994945
0.128494 0.316169 -0.127288 0.581346 -0.080983 -0.808849
0.155193 -0.78272 0.029042 0.453511 -0.254266 0.843624
0.161146 -0.774087 -0.088605 0.659129 0.423645 -0.619809
-0.038756 0.816598 -0.011558 -0.920328 -0.333669 0.183774
0.161935 0.493019 0.04254 0.453016 0.391813 0.795738
-0.334501 0.333959 -0.039149 -0.676604 0.735575 0.031753
0.072507 0.483363 0.074041 0.091147 0.444049 0.891117
0.114426 -0.61853 0.036171 -0.167803 0.208836 0.955569
0.17509 0.150423 0.054986 0.749596 0.088845 0.655784
0.091712 -0.853602 0.020378 -0.806335 -0.566029 -0.132492
0.478614 0.21995 -0.073539 0.264479 -0.295877 -0.916122
-0.046038 0.16201 0.108869 -0.58716 0.109135 0.801872
0.084504 0.682077 0.017267 0.885594 -0.420557 0.168959
0.19003 -0.318448 -0.039252 0.771821 -0.00825 -0.635551
0.069122 0.154619 -0.121558 -0.007761 0.168618 -0.983206
-0.060924 -0.59163 -0.103592 0.085729 0.012739 -0.995455
0.38867 0.241503 -0.053285 -0.64343 -0.675663 0.345842
0.198439 0.00367 0.060541 0.876715 -0.141646 0.451587
0.119171 -0.556656 0.041755 -0.31015 -0.089307 0.94573
0.020651 -0.422856 0.010169 0.991257 0.019401 0.120882
-0.11988 -0.78281 -0.05893 -0.992088 -0.04555 -0.104842
0.198593 0.377671 -0.051498 0.999519 -0.024141 0.012657
0.095688 -0.118275 -0.118732 -0.228479 -0.224832 -0.945276
0.40794 0.279322 -0.127592 0.154074 0.084345 -0.980435
0.088963 0.710727 -0.05235 0.820202 -0.474392 -0.31235
0.166156 0.392142 0.056056 0.690853 -0.002176 0.722689
0.181812 -0.622562 0.017854 0.277926 -0.010106 0.955596
0.039364 0.830552 0.06676 0.112405 0.49718 0.859202
0.106925 0.119448 0.112637 0.510598 0.032485 0.858356
-0.34323 0.266839 0.006253 0.015736 0.179261 0.983563
-0.081685 -0.073915 -0.103675 -0.539543 -0.236752 -0.807714
0.423138 0.211839 -0.102999 -0.630933 -0.635819 -0.413028
0.095932 0.715612 -0.035571 0.859019 -0.454631 -0.215807
0.037033 0.316529 0.120018 0.082024 0.113278 0.989911
0.150158 0.268865 0.070323 0.759476 0.08344 0.644894
-0.140094 -0.135697 -0.012975 -0.922812 -0.095157 -0.372992
0.240489 0.436404 -0.00061 0.651634 -0.210013 0.720062
0.522514 0.19563 0.01955 -0.120793 0.69342 0.675725
-0.071009 -0.824686 0.093252 -0.154301 0.983191 0.09649
0.064038 -0.37691 0.036099 -0.704611 -0.286853 0.648808
-0.112983 0.193807 -0.037051 -0.893895 0.086814 -0.439583
-0.133276 -0.107841 -0.036018 -0.878115 -0.106379 -0.464224
0.105141 0.788681 -0.014247 0.998093 0.038798 0.03891
0.008215 -0.349009 -0.045318 0.745441 -0.054853 -0.663918
-0.135868 -0.214762 0.009618 -0.991132 -0.060051 -0.112602
0.166201 -0.440759 -0.085276 0.656125 0.182819 -0.732065
0.050147 0.24549 0.126249 0.183092 0.068017 0.977494
-0.002772 -0.52018 -0.070606 0.792799 0.061386 -0.606235
-0.036352 0.755687 -0.051601 -0.964284 -0.162329 -0.20111
0.212367 -0.107308 -0.018767 0.953279 0.062221 -0.277926
-0.092757 -0.863254 0.043305 -0.032427 -0.999421 -0.007365
0.311943 0.411193 -0.032238 0.71638 0.238339 0.652453
0.028665 -0.175194 -0.03526 -0.814324 -0.030308 -0.562186
-0.167753 0.376434 -0.062577 0.661474 -0.6842 -0.306641
-0.115627 0.321257 0.004277 -0.976267 -0.05645 0.208057
0.154074 -0.092006 0.106685 0.485229 0.002862 0.873919
0.19046 -0.445208 0.039911 0.955277 -0.090511 0.279172
0.047233 0.693985 0.088944 0.312317 -0.096947 0.942116
0.155353 0.039563 0.100435 0.457005 0.308872 0.831856
-0.140459 0.450002 -0.100271 -0.481021 -0.034246 -0.87493
-0.097766 0.211204 0.071698 -0.6435 0.057232 0.763145
0.104808 -0.284546 -0.09935 -0.084911 0.008954 -0.992125
0.196149 0.089995 0.004164 0.963092 0.223178 0.13575
-0.010077 0.653124 0.002605 -0.921393 -0.188397 0.305087
0.154454 -0.187197 -0.091622 0.610346 -0.057198 -0.789904
-0.10165 -0.045424 0.104314 -0.630474 0.011908 0.77593
-0.137656 -0.479342 0.000252 -0.963658 -0.047791 0.259105
-0.00548 0.240618 -0.129131 0.057234 -0.056572 -0.995764
-0.10846 -0.391657 0.08855 -0.62017 -0.167383 0.758887
-0.120027 -0.772712 -0.060656 -0.98923 -0.065235 -0.123844
-0.125562 -0.386882 0.047124 -0.967896 0.102183 0.221908
0.194414 0.108158 0.022567 0.941586 -0.228123 0.241451
-0.02216 -0.647162 -0.088709 0.611593 0.028842 -0.789934
0.073204 -0.272938 0.073784 -0.533323 -0.16415 0.827331
0.226013 0.54954 -0.046702 0.443198 0.885426 0.134673
0.188585 0.552956 -0.013082 0.289825 0.758411 0.582403
0.108423 -0.571664 0.035765 -0.339681 -0.141016 0.929756
-0.020496 0.333509 -0.129191 -0.032756 0.04575 -0.998131
0.074605 0.834224 0.038905 0.751863 0.35604 0.550242
0.156165 -0.571434 -0.09723 0.490271 -0.072411 -0.868464
-0.070808 0.031117 -0.130742 -0.551517 0.212955 -0.804576
0.148144 0.467093 -0.143216 0.165698 0.071069 -0.983364
-0.056114 -0.298603 0.104981 0.167055 -0.10999 0.97957
-0.114618 -0.656458 -0.088684 -0.659367 0.004448 -0.748828
-0.128017 0.397871 0.015278 -0.97678 -0.20275 0.063872
0.064904 -0.141395 0.079024 -0.64204 0.049847 0.764727
-0.19197 0.480807 -0.071518 -0.549508 0.454428 -0.700183
0.156496 -0.652362 0.028495 0.197483 -0.009389 0.978304
-0.069644 0.098747 -0.109543 -0.569049 0.299664 -0.764524
-0.140524 0.546538 -0.054065 -0.504788 0.726094 -0.466403
0.196665 -0.520541 0.012377 0.950109 -0.020114 0.310789
0.080668 -0.608782 -0.074562 -0.677346 -0.053734 -0.733625
0.19073 -0.391749 0.047706 0.93289 -0.027111 0.358396
-0.089507 -0.828816 0.091637 -0.553859 0.823882 0.114079
-0.053425 -0.327308 -0.089385 -0.073525 -0.046156 -0.994608
0.177 0.542068 0.002875 0.248899 0.653512 0.714395
-0.252991 0.294724 -0.029141 0.709611 -0.672231 0.208613
-0.032742 -0.642703 -0.095457 0.490047 0.03539 -0.870771
-0.013765 -0.743604 0.001884 0.272156 -0.73003 0.620083
0.009298 0.678172 -0.064121 -0.489925 -0.417981 -0.763542
0.125219 0.14203 0.100899 0.52905 0.044001 0.847422
0.490001 0.234915 -0.018001 0.577977 0.713988 0.363914
0.003259 -0.281886 -0.058931 0.77418 -0.119107 -0.621561
-0.010419 0.362346 -0.128938 0.026171 -0.011799 -0.999384
0.059714 -0.479277 -0.065126 -0.733461 0.028056 -0.679048
0.529859 0.206229 -0.011815 -0.071928 0.95088 0.283591
0.132307 0.450482 -0.145651 0.116621 -0.001472 -0.992771
0.034459 0.190369 0.129881 0.040036 0.025319 0.998828
0.13069 0.124504 0.098436 0.550316 0.026703 0.833011
0.037003 0.626507 0.030556 0.032192 -0.450037 0.886621
-0.12711 -0.59469 -0.068318 -0.91805 0.02268 -0.380018
0.557304 0.094568 0.014532 -0.761564 -0.646886 0.026198
0.199594 -0.112056 0.061415 0.894428 -0.023744 0.446523
0.006861 -0.549162 -0.059672 0.807373 0.010097 -0.589759
-0.193117 0.354647 -0.065162 0.602475 -0.689391 -0.397533
0.345603 0.407528 -0.070562 0.823294 0.397132 0.3958
0.546604 0.194526 -0.02836 0.967461 -0.232494 0.069082
-0.086125 -0.544966 -0.098121 -0.35159 0.086356 -0.931826
-0.262095 0.373478 0.017331 -0.303795 0.096116 0.944195
0.158859 0.294423 -0.086304 0.841643 -0.178135 -0.509201
0.024828 -0.537256 -0.017104 0.982184 -0.078288 -0.081397
-0.05544 0.580064 -0.075484 -0.40722 0.794461 -0.442521
0.082222 -0.712831 -0.06646 -0.893886 -0.092327 -0.437082
-0.055404 0.002484 0.130259 -0.232793 0.367299 0.895494
0.08593 0.049699 0.125919 0.435049 0.175384 0.882231
-0.076215 -0.253136 0.111584 -0.064848 -0.055131 0.99613
0.48125 0.201416 -0.061582 -0.061163 -0.590837 -0.799257
0.256794 0.486218 -0.006871 0.598023 0.291471 0.743868
0.079688 -0.739075 0.031026 -0.034636 -0.548513 0.835267
0.087589 0.585295 -0.003818 0.689775 0.30238 0.655318
0.198043 -0.458693 -0.048148 0.966609 0.039069 -0.2315
0.053166 -0.231975 -0.063466 -0.78051 -0.153596 -0.605472
0.178962 0.566806 -0.050554 0.273864 0.952231 0.028622
0.023807 -0.468857 0.007912 0.887997 -0.10795 0.445503
0.195556 -0.697719 -0.006804 0.887133 -0.077597 0.432771
-0.04244 -0.447286 0.075019 0.207962 -0.224176 0.951731
-0.010494 -0.687428 -0.086154 0.65349 0.210402 -0.727064
-0.360854 0.2584 0.008759 0.056543 0.13525 0.988678
-0.046895 -0.748809 0.014746 0.558155 -0.472446 0.658607
0.154591 -0.129438 -0.100533 0.62209 -0.229947 -0.748242
-0.137879 -0.018521 -0.013607 -0.992645 0.058942 -0.088846
-0.056555 -0.561862 -0.103192 0.08298 0.013693 -0.995163
0.173843 -0.395815 0.069584 0.496751 -0.022621 0.863866
-0.063424 -0.543386 -0.102396 -0.036076 0.054434 -0.99745
-0.328892 0.296135 0.002635 -0.222356 0.11795 0.967095
0.066152 0.098722 0.130778 0.192534 -0.031903 0.973751
0.538321 0.129973 0.009362 -0.762595 -0.645686 0.02984
0.154654 -0.816187 -0.106623 0.651931 -0.181164 -0.729185
0.205227 -0.258616 0.017758 0.998701 0.016653 0.044483
-0.048196 -0.76334 0.021302 0.218247 0.668007 0.705903
0.017046 0.064961 -0.145431 -0.155591 0.209322 -0.965287
0.197361 -0.202494 0.050963 0.945559 -0.046818 0.321027
-0.036233 0.512699 0.062522 -0.160202 0.531349 0.831779
0.010531 -0.527283 0.01788 0.703992 -0.170323 0.689182
0.11581 0.182612 -0.107535 0.423761 -0.042782 -0.902215
-0.222618 0.374714 0.018881 0.097695 -0.418803 0.900676
-0.033168 0.746446 -0.054088 -0.8169 -0.374858 -0.364361
0.052945 0.826972 -0.098468 0.218695 0.631261 -0.743065
-0.013309 -0.440399 0.064255 0.647242 -0.173638 0.740768
0.207731 -0.182129 -0.004616 0.9999 -0.002647 0.004083
-0.298803 0.316067 0.006377 -0.150021 0.038224 0.986643
0.000173 0.475595 0.083522 -0.006109 0.434793 0.899874
-0.165508 0.458724 -0.091382 -0.285755 0.151628 -0.945156
0.204279 -0.563547 -0.027337 0.985633 -0.097643 -0.106122
-0.11864 -0.095826 -0.060328 -0.772412 -0.118441 -0.623186
0.198654 -0.166559 0.053486 0.959569 -0.086051 0.266567
-0.089467 0.135959 -0.082493 -0.682934 0.185419 -0.706053
-0.121971 -0.654734 -0.008257 -0.985098 -0.122931 0.118323
0.319249 0.41302 -0.13552 0.330826 0.513845 -0.789519
0.153601 0.432861 -0.139329 0.257617 -0.219709 -0.940001
-0.090763 0.265432 -0.093986 -0.686306 -0.124938 -0.716412
0.103825 -0.837522 -0.112303 -0.52414 -0.042841 -0.849979
-0.004451 0.244793 0.121564 -0.367497 0.080108 0.926436
0.586544 0.053785 0.041427 -0.039802 -0.6098 0.634075
0.640928 0.044232 0.047115 0.933021 0.34696 -0.000369
-0.060056 0.358403 -0.121233 -0.365642 -0.044186 -0.929656
-0.361107 0.303323 -0.075411 -0.600076 0.570378 -0.552365
-0.25217 0.399374 -0.088507 -0.329659 0.489986 -0.804635
-0.108096 0.086843 -0.070882 -0.801536 0.20713 -0.560368
-0.570265 0.026472 0.018718 -0.102365 -0.98795 0.041202
0.103567 0.563152 0.010596 0.321282 0.712981 0.60627
-0.120002 0.151332 0.037539 -0.942959 0.014967 0.330645
0.147208 -0.866409 -0.034902 0.286447 -0.939923 0.141442
0.017457 -0.767327 -0.043384 0.971855 -0.10212 0.198686
-0.025298 -0.159115 -0.089714 0.456014 -0.14107 -0.877257
-0.043531 -0.863041 -0.103853 0.049457 -0.998067 -0.021845
0.013559 0.86286 0.023618 -0.143774 0.975204 0.115584
-0.093695 0.411137 0.073678 -0.636818 0.053203 0.768873
-0.098296 0.081377 0.086266 -0.400552 0.487916 0.773468
0.058038 0.540791 0.039612 -0.040367 0.810169 0.580716
0.009151 0.261183 -0.12824 0.13536 -0.047687 -0.98961
-0.010142 0.621322 -0.002154 -0.905993 0.060372 0.400531
0.133848 -0.552133 0.046261 -0.21311 -0.175643 0.957612
0.094671 0.795836 0.022152 0.911955 0.125675 0.387923
0.178483 -0.498992 -0.082466 0.719847 0.002969 -0.694038
0.069583 -0.784124 -0.049953 -0.897064 0.123756 -0.421731
0.001255 -0.792323 -0.020439 0.876257 -0.170063 0.446241
0.272043 0.344808 -0.059832 -0.515367 -0.770856 0.356503
-0.107132 -0.840018 -0.006224 -0.961578 0.19156 -0.10791
-0.091869 -0.856921 -0.046506 -0.629303 -0.759892 0.08064
0.14902 -0.773657 0.035332 0.39579 0.295261 0.862957
0.025369 0.02699 0.140218 0.050136 0.258412 0.964135
0.293895 0.480394 -0.076648 0.69479 0.672288 -0.245474
0.102423 0.43817 0.084701 0.189829 0.241255 0.951523
0.324786 0.374041 -0.140775 0.215506 -0.059449 -0.971648
-0.076553 -0.81059 0.053402 -0.683177 0.510789 0.52001
0.143476 0.508 0.040935 0.358377 0.543582 0.755696
-0.128147 -0.65086 -0.063549 -0.993159 -0.011381 -0.094628
-0.021293 -0.841462 -0.01421 0.940475 -0.327524 -0.010167
-0.034686 0.797594 0.004613 -0.984354 0.023879 0.167405
0.105361 0.78025 -0.021313 0.999869 -4e-05 0.006775
-0.098841 0.009111 -0.10486 -0.85095 0.00017 -0.492384
0.119913 -0.779698 -0.108463 -0.174544 0.45193 -0.869523
-0.113874 0.448006 -0.114262 -0.429965 -0.027962 -0.901329
0.315732 0.442179 -0.108751 0.551953 0.679862 -0.481489
-0.371285 0.300933 -0.025995 -0.629356 0.746326 0.207146
-0.497968 0.097085 0.034081 0.284106 -0.867246 -0.333369
-0.138493 -0.460408 -0.002078 -0.991166 -0.034846 0.116739
0.180139 0.461344 -0.136932 0.150319 0.000928 -0.988601
0.197137 -0.731012 -0.016565 0.994081 -0.070043 0.040854
0.091601 -0.850247 0.0014 -0.805842 -0.562645 -0.066964
0.088197 -0.459185 -0.092644 -0.591897 0.062291 -0.802165
0.586258 0.047146 0.031538 0.570563 -0.788359 0.167661
-0.244653 0.430884 -0.067188 -0.56344 0.618271 -0.54364
0.173868 -0.423856 -0.07471 0.654413 0.14652 -0.741357
0.059291 0.214947 0.127176 0.199807 0.06965 0.974002
0.017404 0.199866 0.129712 -0.020876 0.05588 0.99808
-0.074068 -0.012577 0.123259 -0.420822 -0.429745 0.7828
-0.129227 -0.567086 -0.060355 -0.945261 0.029003 -0.322494
-0.026356 -0.853379 0.003931 0.70111 -0.689945 -0.162499
0.131982 -0.25248 -0.094411 0.441681 -0.083088 -0.890526
-0.021934 -0.814693 0.053376 0.905221 -0.011255 0.365483
0.02728 -0.326405 0.028806 0.99262 -0.043847 0.109785
-0.025836 -0.425737 0.075198 0.367519 -0.192376 0.908578
0.187435 -0.257567 -0.056813 0.723986 -0.183114 -0.664963
0.633134 0.045771 0.001981 -0.444324 -0.067978 -0.838875
-0.021516 0.130772 0.122562 -0.418475 0.007849 0.907297
-0.140401 -0.145109 -0.009459 -0.907048 -0.122802 -0.402088
0.158612 0.380267 0.063754 0.69726 -0.021563 0.716295
0.164939 -0.321272 -0.066578 0.680974 0.002575 -0.731999
-0.032039 -0.862957 0.08402 0.342552 -0.933372 0.046114
-0.059534 -0.280958 0.107189 0.128749 -0.114454 0.984799
0.008889 0.833561 -0.091082 -0.260551 0.730914 -0.629931
-0.114256 -0.255417 -0.040345 -0.890556 -0.013641 -0.454229
0.119684 -0.187131 0.098034 0.01774 -0.145716 0.988124
-0.112748 -0.189453 0.100252 -0.695914 0.003999 0.717704
0.120606 -0.664149 0.032387 0.099772 -0.141846 0.984436
-0.126123 -0.654282 -0.073011 -0.918637 -0.012563 -0.376569
0.33686 0.4258 -0.086898 0.778248 0.62375 0.066086
0.093973 -0.858274 -0.028552 -0.630074 -0.695255 0.336373
-0.123962 -0.306196 -0.026945 -0.878655 0.049973 -0.470131
0.172062 -0.860661 0.11985 0.538112 -0.805143 0.128459
0.019887 0.105218 0.135106 -0.015516 0.150608 0.987097
-0.060841 0.269242 -0.117465 -0.429928 -0.102982 -0.89479
-0.107004 0.340122 -0.088277 -0.714373 -0.20146 -0.667786
0.061837 -0.220755 0.072457 -0.683039 -0.103929 0.722815
0.139977 0.002379 0.116165 0.456454 -0.147627 0.865698
0.031316 0.640429 -0.064847 -0.095923 0.143785 -0.984761
-0.461362 0.138642 -0.010758 0.361243 -0.850341 -0.380699
0.133451 -0.363964 -0.093751 0.657579 0.255841 -0.646014
-0.126596 0.088775 0.028951 -0.974885 0.038763 0.208693
-0.103582 -0.626992 -0.095084 -0.550349 0.075971 -0.829956
-0.051637 0.219603 -0.112288 -0.577729 -0.283345 -0.765174
0.127592 0.009017 0.121557 0.348464 0.128524 0.927355
0.108768 0.406236 0.089817 0.203315 0.127159 0.970726
0.00777 -0.436017 -0.048134 0.787312 0.018137 -0.616069
-0.100283 -0.736318 -0.100193 -0.793376 0.096792 -0.599862
0.016289 -0.788357 -0.058182 0.896094 -0.418252 0.080111
-0.122506 -0.173862 -0.037499 -0.826045 -0.12256 -0.550036
0.046812 -0.007168 0.138297 0.067364 -0.425604 0.901066
0.591385 0.083574 -0.002317 0.595698 0.259958 -0.758509
-0.084619 -0.703345 -0.109593 -0.430665 0.205619 -0.877962
-0.032276 -0.728129 0.025521 0.266695 -0.30333 0.907458
0.175373 0.229051 -0.043143 0.932559 0.009867 -0.360282
-0.128095 -0.208258 -0.018472 -0.907679 -0.100161 -0.406732
-0.005073 -0.37277 -0.056495 0.64683 -0.020606 -0.761624
0.323551 0.360792 -0.038289 0.47338 0.055887 0.874154
0.014738 -0.479331 -0.041468 0.824501 0.046093 -0.563221
0.162095 -0.685497 0.020675 0.322455 -0.355931 0.875701
0.204611 -0.510947 -0.027475 0.977346 0.101321 -0.159216
0.042662 -0.165281 0.049933 -0.937 -0.120844 0.322389
0.193155 -0.116711 0.07249 0.824849 -0.01528 0.563258
-0.126039 -0.737222 -0.060028 -0.974743 -0.031782 -0.21369
0.045243 -0.344625 -0.045386 -0.871732 -0.079583 -0.483238
-0.038207 0.591487 -0.060476 -0.435217 0.873933 -0.17235
-0.014992 -0.505056 -0.082624 0.690496 0.067265 -0.720088
0.008458 -0.502624 0.026501 0.733564 -0.135334 0.66524
0.103336 0.763774 -0.050937 0.972392 -0.115994 -0.195124
0.18665 0.400892 0.036092 0.816825 -0.168196 0.549225
0.002201 -0.179493 -0.066808 0.745211 0.042859 -0.665093
-0.059314 -0.70121 0.014215 0.114924 -0.267899 0.947425
0.156489 0.194522 -0.07483 0.761222 0.034066 -0.647533
0.088699 -0.419428 -0.091383 -0.584025 0.00109 -0.808987
0.166315 0.331782 0.05083 0.766071 -0.013395 0.639446
0.171065 0.348577 -0.09501 0.710629 -0.347768 -0.610739
0.220987 0.464351 -0.133585 0.059397 0.064973 -0.994959
-0.035972 0.751736 0.001123 -0.965178 -0.106512 0.232266
-0.352752 0.263586 0.007152 0.057178 0.182724 0.98147
0.049723 0.292 0.121313 0.123456 0.10502 0.98645
0.319629 0.406701 -0.037131 0.600248 0.359732 0.712997
-0.063491 -0.681987 0.022232 0.239718 -0.359928 0.90134
0.093299 -0.419815 0.045093 -0.628483 -0.361557 0.688538
0.355386 0.286084 -0.119688 -0.527867 -0.541468 -0.651203
0.13127 0.280915 0.090222 0.635811 0.040751 0.770227
0.094865 -0.746515 -0.081793 -0.801568 -0.069944 -0.593112
-0.112787 0.173204 0.050231 -0.854047 -0.004788 0.518345
-0.052204 -0.26785 0.108375 0.176266 -0.212305 0.960761
0.015652 -0.435824 0.027406 0.846112 -0.055691 0.529084
0.347075 0.382926 -0.09573 0.900768 0.408874 0.105868
0.081009 0.73903 -0.089561 0.662254 -0.388179 -0.640725
0.14254 -0.260061 0.08368 0.061533 -0.066313 0.99575
-0.298707 0.278298 0.002268 0.46095 -0.19598 0.859759
0.074704 0.260865 0.118527 0.377189 0.057824 0.922099
0.017252 -0.514107 -0.03952 0.889008 0.04276 -0.453678
0.140886 -0.471401 0.063168 -0.439769 -0.125089 0.887924
-0.226042 0.346522 -0.085324 0.405493 -0.605241 -0.684021
0.08387 0.564013 0.011422 0.234097 0.611651 0.735346
-0.214686 0.481045 0.011506 -0.787698 0.473255 0.387239
0.213516 -0.044523 0.011458 0.99824 0.013068 -0.012173
-0.001705 0.222893 0.125352 -0.339399 0.151714 0.92714
0.363309 0.363967 -0.083194 0.66064 0.710914 0.235978
-0.143821 -0.060835 0.00663 -0.999305 0.030966 -0.013013
0.101703 -0.105078 0.106619 -0.530111 -0.104541 0.841251
0.028656 -0.005804 -0.146423 -0.170153 -0.21343 -0.958532
0.180638 0.241007 -0.027701 0.960391 0.00726 -0.264868
0.047024 0.068965 -0.15023 -0.184328 0.260513 -0.946907
0.060996 -0.290557 0.058807 -0.737112 -0.125636 0.663922
-0.105176 -0.819001 -0.030977 -0.927078 -0.333421 0.081198
-0.017634 0.464267 0.087939 -0.102112 0.38118 0.914788
-0.050985 0.052075 -0.133594 -0.434363 0.289288 -0.850927
0.099299 -0.683893 0.035398 0.074823 0.055674 0.993434
-0.391 0.270955 -0.075862 -0.625526 0.365193 -0.67444
0.140759 0.419192 -0.140101 0.386021 -0.232387 -0.89243
0.128719 -0.824005 0.106613 0.108549 0.986225 0.102583
-0.057343 0.31845 0.094621 -0.490943 -0.055695 0.866108
0.02699 0.343529 0.114515 -0.045929 0.187025 0.980075
-0.087335 0.379332 0.077192 -0.689772 -0.105237 0.712184
0.199393 -0.525842 0.00307 0.944396 -0.026382 0.326384
-0.200962 0.342272 -0.038898 0.643834 -0.763866 -0.022646
0.554571 0.164345 0.039422 0.299814 0.865459 0.293757
0.143843 0.214959 0.082831 0.72354 0.066087 0.686465
0.121931 -0.866173 -0.010532 -0.062503 -0.995739 -0.000613
0.049612 0.401984 -0.134401 -0.358241 0.032585 -0.931293
-0.087832 -0.164235 -0.082145 -0.652298 -0.147833 -0.742897
0.134189 -0.276395 -0.091156 0.475197 -0.06273 -0.876154
-0.411454 0.175018 0.021803 0.584415 -0.489061 0.549919
0.205893 -0.335357 0.005265 0.99903 -0.007236 0.02499
-0.071101 0.3372 0.087095 -0.519745 -0.15402 0.840005
-0.105805 -0.83657 0.032598 -0.768378 0.639336 0.021084
-0.147266 0.392699 -0.044854 0.717496 -0.676229 -0.164629
-0.003307 -0.807322 -0.013969 0.942019 -0.040672 0.326447
0.06925 0.440973 0.088502 0.095189 0.189882 0.976475
0.185591 0.008945 0.083753 0.751215 -0.141264 0.634364
0.360997 0.267632 -0.098781 -0.703438 -0.676158 -0.20873
0.022239 -0.274596 -0.027665 0.956846 -0.064564 -0.282886
0.08777 -0.072949 -0.134172 -0.120552 -0.382323 -0.915518
-0.176497 0.461805 -0.087386 -0.308988 0.272243 -0.91007
0.01316 0.297027 0.121568 -0.11928 0.104247 0.986722
0.092007 0.732755 0.03814 0.973824 -0.067167 0.21407
0.070086 0.861587 -0.003399 0.483237 0.870245 0.082333
0.261526 0.357924 -0.106993 -0.582023 -0.732337 -0.347837
-0.131966 -0.545747 -0.050268 -0.89845 0.01612 -0.43618
0.052083 -0.537677 -0.007052 -0.82368 -0.00491 0.566301
0.465312 0.236595 -0.016706 -0.198618 0.489662 0.841101
-0.522837 0.119902 0.040539 -0.793133 0.60685 -0.042995
0.096835 -0.265668 0.083652 -0.163918 -0.151085 0.97391
0.503122 0.194458 -0.057605 0.188698 -0.409666 -0.89129
0.113139 -0.679929 0.032256 0.198616 -0.01517 0.97793
0.199091 -0.177871 0.048291 0.967462 -0.051322 0.247557
0.012984 -0.173147 -0.052012 0.826853 0.05512 -0.559658
-0.031527 -0.04812 -0.126918 -0.047883 -0.446136 -0.89324
0.063777 -0.15487 -0.094573 -0.597061 -0.205439 -0.769461
-0.073472 -0.841562 -0.132727 -0.709672 -0.128446 -0.691084
-0.326596 0.227455 -0.014669 0.6648 -0.716723 0.194331
0.089215 0.098515 -0.140618 0.253526 0.396948 -0.879847
0.212163 0.447217 0.019951 0.485437 -0.025242 0.86749
0.117456 -0.55708 -0.105931 -0.249104 -0.111432 -0.961645
0.062238 -0.239946 -0.072774 -0.767832 -0.06685 -0.636377
-0.135953 -0.019379 -0.032334 -0.983107 0.027565 -0.175599
-0.092701 -0.621527 0.049779 -0.083563 -0.226413 0.964819
-0.385542 0.19015 -0.030203 0.506423 -0.853594 -0.064076
0.024279 -0.714854 -0.045336 0.989537 -0.095307 0.045774
-0.072578 -0.584758 -0.103535 -0.089295 0.036861 -0.994031
-0.090941 -0.653645 0.039696 -0.046676 -0.267626 0.956962
0.103364 -0.681951 -0.088813 -0.477151 0.063457 -0.874437
0.004403 -0.53039 -0.061892 0.807695 0.044879 -0.587842
0.069922 -0.217449 0.080227 -0.558089 -0.111189 0.821098
0.017491 0.524723 0.056735 0.114657 0.522957 0.843808
-0.344184 0.250665 -0.080197 0.194195 -0.411097 -0.889899
0.051325 -0.556063 -0.046995 -0.857937 -0.036951 -0.51236
0.062167 -0.686242 0.024924 -0.636113 0.287271 0.7047
-0.423989 0.240655 -0.047478 -0.774177 0.525331 -0.320644
0.075219 -0.116773 -0.111561 -0.283598 -0.23916 -0.921729
0.053504 -0.064987 0.11926 0.041685 -0.459316 0.884904
-0.532059 0.106217 0.044093 -0.821632 0.54907 -0.130416
-0.082358 0.573275 -0.011407 -0.130581 0.939853 0.291684
-0.084567 0.238637 0.078159 -0.628377 0.079185 0.773443
0.274249 0.444331 -0.010792 0.323113 0.103152 0.936899
0.172124 -0.15274 -0.07994 0.684469 -0.091754 -0.723223
0.155376 -0.711028 0.007616 0.462803 -0.445055 0.765557
-0.089377 -0.437938 0.083772 -0.09471 -0.184797 0.976217
0.086718 0.688884 -0.028868 0.835385 -0.402632 -0.354482
0.02674 -0.682051 -0.045723 0.995487 -0.016355 -0.065219
0.088627 0.616763 -0.048328 0.729393 0.598187 -0.319888
0.171935 -0.546879 -0.087166 0.680985 -0.033052 -0.73154
-0.065206 0.005481 0.127152 -0.287454 0.315609 0.902007
0.199948 -0.467229 -0.017813 0.999721 -0.00243 0.017233
-0.002843 0.859877 -0.003247 -0.586706 0.80381 0.038575
0.15869 -0.014693 -0.118866 0.730521 0.052201 -0.680823
-0.134076 -0.231125 0.055828 -0.977175 -0.080686 0.193577
0.071082 0.677889 0.072829 0.816711 -0.134333 0.516437
0.188205 -0.269516 0.066784 0.745483 -0.013989 0.662463
-0.059676 -0.295389 -0.09026 -0.207885 -0.087226 -0.971926
0.088457 -0.832013 -0.068589 -0.953404 -0.169389 -0.048992
-0.139865 -0.053983 0.040866 -0.96755 0.077425 0.240028
-0.050358 0.045127 0.120837 -0.459567 0.191019 0.866489
-0.110886 -0.20631 -0.050211 -0.851204 -0.06299 -0.519983
-0.089931 0.301922 0.069883 -0.787946 0.055262 0.61078
0.000582 -0.482133 -0.062469 0.838838 0.057619 -0.521368
-0.487871 0.105388 0.023909 0.773202 -0.609939 -0.159881
0.205943 -0.344097 0.001183 0.998926 -0.012502 0.021317
0.206132 0.007018 -0.01441 0.991368 0.027412 -0.122058
-0.023353 0.740928 0.048536 -0.824803 0.031166 0.563557
-0.029929 0.251758 -0.128786 -0.126465 -0.063864 -0.989694
-0.10139 -0.031585 -0.098552 -0.74048 -0.085576 -0.666142
-0.145699 0.393302 -0.01537 0.750259 -0.651602 0.109254
-0.14259 -0.058852 0.029819 -0.986291 0.049421 0.154393
0.090839 0.615205 -0.037617 0.85257 0.500972 0.063902
0.04644 -0.395459 -0.04709 -0.880836 0.025729 -0.462738
-0.113408 -0.089769 -0.068134 -0.763679 -0.123223 -0.633665
0.142135 0.520841 0.031081 0.277947 0.625185 0.728504
0.046306 -0.560552 -0.017425 -0.969907 -0.045297 0.230486
0.129955 -0.045483 -0.138175 0.359639 -0.291817 -0.882613
0.126043 0.201475 -0.104756 0.558481 -0.20588 -0.801815
0.087667 0.041543 -0.157245 0.286031 0.226068 -0.926745
-0.133199 -0.156176 -0.024978 -0.85447 -0.133606 -0.499118
0.083577 0.687247 0.049254 0.903462 -0.36304 0.219951
-0.137643 -0.077616 0.052035 -0.973145 0.006606 0.228471
0.001651 -0.657766 0.018178 0.623314 -0.110554 0.773331
0.187013 -0.587816 -0.069535 0.748875 -0.040744 -0.661249
0.103433 -0.860441 -0.009411 -0.565202 -0.81245 -0.066739
0.155259 -0.752217 -0.083019 0.809988 0.191853 -0.549983
0.054549 0.58456 -0.096587 0.014498 0.581252 -0.813226
0.006948 -0.803589 -0.040907 0.879056 -0.326971 0.345008
0.510444 0.158809 -0.030303 -0.581339 -0.78389 -0.199263
-0.366077 0.204783 0.001353 0.502393 -0.682134 0.508231
-0.137937 -0.004019 0.018531 -0.994799 -0.01848 0.028357
-0.105822 0.056567 0.091735 -0.515536 0.277644 0.809869
-0.080972 -0.512492 0.072703 0.208735 -0.212156 0.916634
-0.044473 -0.775704 -0.139786 -0.025612 0.439699 -0.894017
-0.220652 0.338321 -0.005098 0.480773 -0.657955 0.569094
-0.523215 0.08518 0.096062 -0.072036 0.18101 0.898296
0.19134 -0.306731 0.058101 0.901993 -0.081602 0.421719
0.162367 -0.834246 -0.012544 0.974944 0.105828 0.002673
-0.127405 -0.448753 -0.045246 -0.826934 0.18563 -0.529605
0.181814 0.239085 0.022795 0.989926 -0.013276 0.139153
0.001926 0.621381 0.013545 -0.729854 -0.053191 0.68097
-0.020867 0.601163 -0.018106 -0.827983 0.433685 0.338653
0.175295 -0.802341 -0.07355 0.959568 -0.174781 -0.194283
-0.297708 0.252438 -0.015671 0.697483 -0.661546 0.275237
0.207139 -0.178415 0.012708 0.997323 -0.00962 0.07044
0.169852 0.106126 -0.073247 0.7895 0.26341 -0.553857
0.415424 0.312269 -0.069035 0.642156 0.693625 0.31383
-0.010533 0.330499 -0.129343 0.045808 0.043037 -0.997568
-0.129221 -0.615621 -0.034399 -0.998837 -0.029145 0.03522
-0.053728 0.50829 0.061166 -0.181863 0.463747 0.866779
-0.052052 -0.86111 -0.125271 0.046704 -0.963 -0.256177
0.024037 0.839191 0.060829 -0.212563 0.599995 0.769168
0.171494 0.036538 -0.096892 0.790373 0.125181 -0.597883
-0.131505 -0.586528 -0.046256 -0.988492 -0.12674 -0.075492
0.182915 0.269371 0.007513 0.997586 0.005793 0.067612
0.413177 0.217922 -0.067911 -0.643429 -0.756584 0.111054
0.07762 -0.790139 0.028102 -0.706721 -0.210279 0.665855
0.285769 0.380066 -0.142248 -0.142841 -0.296273 -0.937906
0.157525 -0.207873 0.090847 0.162598 -0.172518 0.97049
0.028756 -0.251055 0.034344 0.98139 -0.031635 0.188206
0.075261 -0.357382 -0.083295 -0.660805 -0.071997 -0.745255
0.003164 -0.417371 0.052669 0.783725 -0.227623 0.576883
-0.091628 -0.612784 -0.099847 -0.450541 0.097069 -0.887407
-0.108992 0.369113 0.051756 -0.810311 -0.273516 0.517407
-0.111438 0.27376 0.01126 -0.994509 0.020925 0.092089
-0.168977 0.430806 0.036543 -0.091204 -0.473428 0.871293
0.277834 0.489986 -0.088743 0.644534 0.62359 -0.440864
-0.292475 0.37611 -0.036595 -0.898734 0.407189 0.056084
0.259975 0.367333 -0.123456 -0.491037 -0.668299 -0.554659
0.390002 0.309458 -0.048209 0.271292 0.481939 0.831804
0.074413 0.563643 0.015893 0.378598 0.431713 0.816734
-0.034483 0.583514 -0.010472 -0.360591 0.742205 0.558784
0.339331 0.302661 -0.121932 -0.431579 -0.608456 -0.659603
0.024613 -0.323473 -0.018928 0.900165 0.016166 -0.430466
-0.014799 -0.648473 -0.082513 0.651953 0.05033 -0.756547
0.19766 -0.695725 -0.026092 0.98275 -0.04207 -0.142526
0.045546 -0.569035 -0.034437 -0.948334 -0.041841 -0.252215
0.129939 -0.052821 0.11525 0.317169 -0.044783 0.946353
0.180804 -0.750774 -0.038147 0.685796 -0.010645 -0.721573
0.017806 0.724514 0.08884 -0.800357 0.080997 0.58572
-0.124362 -0.593272 -0.002927 -0.943694 0.023131 0.329561
0.106299 0.50424 0.05619 0.306645 0.484043 0.817184
0.262919 0.51237 -0.076629 0.676506 0.696313 -0.231804
0.019469 0.001664 0.143894 0.015039 0.145962 0.988915
0.180201 0.062788 -0.074177 0.819361 0.179819 -0.543954
0.080382 0.446115 0.086224 0.124275 0.299574 0.945646
0.187689 -0.462189 0.044429 0.929829 -0.095755 0.354519
-0.035629 -0.316306 0.09727 0.249602 -0.071969 0.965447
0.099917 -0.621682 -0.088803 -0.549828 -0.073683 -0.830287
0.434265 0.301089 -0.082 0.631449 0.766438 0.075506
0.201823 -0.168463 0.040745 0.94508 -0.116024 0.299078
0.185512 -0.769438 -0.002064 0.920112 -0.308431 0.228843
-0.126512 -0.330979 -0.02055 -0.977381 0.003709 -0.203939
0.611077 0.093885 0.025558 0.771675 0.633424 -0.055648
-0.434746 0.231416 -0.02475 -0.738302 0.674065 -4e-05
-0.130919 -0.386487 0.006172 -0.886085 0.426502 0.012409
0.047836 -0.526143 -0.043281 -0.879725 -0.062398 -0.471242
0.127173 0.269296 0.093832 0.5929 0.047255 0.803809
-0.114708 -0.716969 -0.017643 -0.827172 0.001446 0.537395
-0.134024 0.032348 -0.031144 -0.955964 0.144218 -0.255204
0.122107 -0.197702 -0.104308 0.099177 -0.144008 -0.982287
0.270241 0.358055 -0.038452 -0.396132 -0.70757 0.577911
-0.103355 0.228697 0.063594 -0.798648 0.146319 0.57816
0.313664 0.352377 -0.136648 -0.183823 -0.216259 -0.957017
0.437031 0.263979 -0.117363 0.59755 -0.001949 -0.794563
0.057719 -0.693191 0.019916 -0.871974 0.155319 0.461985
-0.010417 0.611395 -0.00029 -0.882116 0.08834 0.460427
0.091268 0.795039 -0.083108 0.861493 0.117771 -0.492385
0.55043 0.168816 -0.01335 0.868335 0.323064 -0.275416
0.033762 -0.062016 -0.120324 -0.404792 -0.477471 -0.779058
0.130003 0.110669 -0.115054 0.564697 0.300896 -0.766308
-0.134342 0.538963 0.032443 -0.174077 0.706118 0.685825
-0.046167 -0.582224 -0.100693 0.338221 -0.018398 -0.940849
-0.061567 0.580135 -0.017687 -0.206229 0.882178 0.39092
0.019145 0.350303 -0.126668 0.003819 -0.039996 -0.99776
0.475786 0.183336 -0.034329 -0.569289 -0.819706 -0.041337
-0.094722 -0.212198 -0.071829 -0.718339 -0.029225 -0.694953
0.189271 -0.031105 0.073524 0.77491 0.025525 0.631161
0.053773 -0.625667 -0.044382 -0.869422 -0.114129 -0.476144
-0.027184 0.490243 0.07484 -0.098416 0.446805 0.888421
-0.103138 -0.86084 0.096778 -0.630921 -0.728469 0.065031
-0.137851 -0.194062 0.014519 -0.996271 -0.047303 -0.065712
0.056614 -0.324692 0.04776 -0.702481 -0.206315 0.679325
0.310384 0.434154 -0.038394 0.788629 0.251125 0.556752
-0.106393 0.260141 -0.072255 -0.897115 -0.116651 -0.422942
-0.110328 -0.170429 -0.056453 -0.798108 -0.103953 -0.593224
0.012668 0.30849 0.120262 -0.153877 0.127571 0.979251
-0.043073 -0.263741 -0.093179 0.117321 -0.016072 -0.989812
0.02614 0.493989 -0.123253 -0.090184 0.051403 -0.992702
-0.114242 0.311769 0.008724 -0.975566 -0.066703 0.209043
-0.031206 -0.259736 -0.090277 0.320269 0.00094 -0.94716
0.083291 0.176719 0.120517 0.38487 0.034554 0.922206
0.087714 -0.734162 0.034476 0.071376 -0.373282 0.920698
-0.077081 -0.711476 0.015459 0.270998 -0.380991 0.882509
-0.011477 0.643059 -0.027852 -0.985059 0.068034 -0.124811
0.075787 0.099406 -0.142543 0.088761 0.40708 -0.905701
0.015091 -0.301771 0.069761 0.802531 -0.166202 0.572267
0.054594 -0.270457 -0.061902 -0.827194 0.007904 -0.561233
0.195808 -0.315244 -0.03133 0.852116 -0.018166 -0.521892
0.034219 0.492507 0.073019 0.083474 0.508359 0.856843
-0.168459 0.472923 -0.087453 -0.385841 0.236435 -0.891272
-0.017078 0.589715 -0.084669 -0.248233 0.689098 -0.675682
-0.132313 -0.403666 0.028714 -0.962525 0.138218 0.229997
0.189261 -0.298323 0.064463 0.836353 -0.082353 0.528133
0.063784 0.386832 -0.139351 -0.382759 0.022936 -0.922987
0.074708 -0.822101 0.004944 -0.541965 -0.798826 0.130369
0.103756 0.141122 -0.119029 0.345397 0.275201 -0.894871
0.065142 -0.415798 0.017761 -0.68343 -0.336971 0.647042
-0.13931 -0.04441 -0.021614 -0.965898 0.02799 -0.2484
0.126209 0.065838 0.106369 0.077739 0.203487 0.973826
0.107513 -0.213166 -0.101038 -0.199472 -0.113371 -0.970912
0.42433 0.245485 -0.11924 0.299516 -0.372091 -0.874353
0.17771 -0.178467 -0.072485 0.647589 -0.005829 -0.760492
-0.102057 -0.29479 0.10488 -0.433979 -0.066349 0.89379
0.085173 -0.477586 0.02174 -0.631787 0.09001 0.769581
0.163061 -0.308818 0.076186 0.25952 -0.06562 0.963378
0.159887 -0.462651 0.067723 0.101469 -0.121705 0.979778
-0.091155 -0.503847 -0.090734 -0.557305 0.120546 -0.818354
0.137649 0.395096 -0.136584 0.412494 -0.166587 -0.894784
0.017459 0.284106 0.123423 -0.093854 0.14338 0.984447
0.163915 -0.805515 0.022886 0.835812 0.304172 0.451929
-0.070129 -0.480857 0.074886 0.304367 -0.168655 0.937445
0.010708 0.70543 0.081352 -0.648661 0.047532 0.746687
0.096368 0.322578 -0.143004 0.15825 -0.092179 -0.980273
-0.054382 0.584454 -0.06471 -0.481323 0.80035 -0.350378
-0.128791 -0.360107 0.002739 -0.999888 0.009907 -0.001909
0.251575 0.369323 -0.049385 -0.658379 -0.653617 0.371681
0.098959 0.234179 0.11036 0.547314 0.152543 0.793365
0.215621 0.401151 -0.081546 -0.905358 -0.420571 -0.004248
0.52252 0.214984 -0.038457 0.519883 0.782047 0.34174
0.034169 -0.156178 -0.052678 -0.918622 -0.206511 -0.336619
0.179063 0.103108 -0.060942 0.795769 0.282374 -0.535238
-0.181061 0.500985 0.038569 -0.564619 0.461932 0.681505
0.184993 -0.754665 0.007508 0.693519 0.045265 0.685192
0.113589 0.035919 0.117559 0.405113 0.355417 0.831631
-0.081724 0.541852 -0.096423 -0.353713 0.555487 -0.751369
0.202939 -0.125926 -0.044609 0.871205 0.021491 -0.490361
-0.072643 0.524313 0.048323 -0.112519 0.564919 0.816741
0.183726 0.293495 0.007579 0.985457 -0.088713 0.141163
-0.029298 0.727788 0.017952 -0.987828 0.028097 0.148454
-0.040284 0.74663 -0.020028 -0.993273 0.02061 0.057494
-0.102065 -0.55432 0.048346 -0.846424 -0.051852 0.529801
-0.057732 -0.808852 -0.145388 -0.398858 -0.07368 -0.910846
0.049758 -0.409223 -0.051384 -0.785023 -0.014949 -0.61825
0.112298 0.364435 -0.14286 0.309201 -0.098383 -0.943633
0.049021 0.476009 -0.129355 -0.258598 0.084404 -0.959485
-0.249258 0.368036 0.018823 0.022521 -0.113322 0.992939
-0.415365 0.252438 -0.043708 -0.782898 0.610068 -0.104147
-0.047008 -0.843481 0.142288 0.822288 0.303571 0.47426
-0.05824 -0.203115 0.119453 -0.133348 -0.139784 0.976466
0.013079 -0.555178 -0.049726 0.83777 0.031428 -0.54446
0.016017 0.165595 -0.117205 -0.093499 0.0173 -0.993902
0.177632 0.181334 -0.039116 0.926378 0.068286 -0.370087
0.214469 -0.097409 0.012914 0.99914 -0.001519 0.033062
-0.162767 0.380385 -0.005158 0.545054 -0.738022 0.397558
0.106338 -0.77244 0.030602 -0.162649 0.703193 0.650295
-0.016354 0.718317 0.05856 -0.781066 -0.077596 0.613917
-0.370439 0.303752 -0.036966 -0.662219 0.743866 0.083775
-0.029988 0.105452 0.121743 -0.425069 0.183571 0.885364
0.208187 -0.150403 0.009993 0.972245 -0.214599 0.040954
0.095255 0.351227 -0.144948 0.045731 -0.040663 -0.996817
-0.284032 0.262885 -0.066188 0.628554 -0.660471 -0.379813
0.050029 -0.644544 -0.018459 -0.990343 -0.125317 -0.029335
0.181249 0.35252 -0.084646 0.77855 -0.425793 -0.457671
0.018557 0.229274 -0.126387 0.094173 -0.007283 -0.99459
-0.224449 0.442294 0.024198 -0.712084 0.287011 0.639302
-0.128602 0.135412 -0.002441 -0.998263 0.045994 -0.017051
0.196754 -0.397623 0.029687 0.942555 -0.036666 0.331636
-0.071896 -0.208452 -0.088915 -0.39117 -0.021733 -0.916608
0.196512 -0.564373 -0.057266 0.88295 -0.011641 -0.459138
-0.5058 0.105467 0.080704 0.600549 -0.267321 0.7498
0.186581 0.301339 -0.007812 0.977158 -0.207702 0.035025
0.091168 0.80711 -0.078417 0.87499 0.238993 -0.417001
-0.002355 -0.414813 0.060996 0.76436 -0.203144 0.611746
-0.128076 -0.681751 -0.059535 -0.99712 -0.00747 -0.057978
0.491226 0.236488 -0.067862 0.66565 0.735322 -0.117733
0.016672 0.596376 0.022568 -0.447763 0.035271 0.891228
0.038208 -0.256167 -0.035961 -0.802995 0.014819 -0.592307
0.018374 -0.405393 -0.031504 0.941499 -0.027448 -0.331894
0.143602 -0.311617 -0.083173 0.578058 0.032215 -0.814937
-0.063512 -0.036132 0.126332 -0.340958 0.032755 0.936628
0.065376 -0.369622 -0.071467 -0.756235 -0.054875 -0.650145
0.174573 0.095222 -0.071595 0.807193 0.209387 -0.551037
0.111717 0.333828 0.096509 0.369311 0.093007 0.922942
0.176631 0.230618 0.040204 0.900549 0.042149 0.429885
0.185214 -0.027178 -0.078931 0.884041 -0.008069 -0.466826
-0.051291 0.551539 0.029079 -0.200277 0.72975 0.653607
-0.125471 -0.64732 -0.023138 -0.964357 -0.141511 0.221017
0.093936 0.073021 0.119741 0.342703 0.110993 0.932017
0.098772 0.792083 -0.066259 0.935744 0.105765 -0.334892
-0.066533 0.534261 -0.10662 -0.275116 0.450819 -0.848502
-0.106843 0.18163 -0.050819 -0.847322 0.124383 -0.515719
0.097914 -0.857404 -0.10897 -0.761842 -0.053561 -0.637556
-0.018185 0.441284 -0.130177 0.086406 -0.029406 -0.995577
-0.009468 0.669677 0.027101 -0.771355 -0.608215 0.166994
0.429057 0.283996 -0.11821 0.533536 0.379038 -0.753502
-0.068267 -0.861729 -0.05787 0.001458 -0.999248 0.036279
-0.110693 -0.842343 0.018472 -0.864717 0.466179 -0.042257
0.215432 0.403425 -0.068214 -0.904952 -0.414153 0.037569
0.018494 -0.467878 0.018797 0.893987 -0.07109 0.440289
0.134414 -0.642945 -0.095542 0.148218 -0.089887 -0.984522
-0.144041 -0.144957 0.019327 -0.998974 -0.032497 0.021114
0.161001 -0.193939 -0.085996 0.617893 -0.084948 -0.781564
0.083383 -0.781724 0.03706 -0.432272 0.367013 0.809484
0.231937 0.492259 -0.123512 0.364763 0.42695 -0.827353
0.054728 -0.712602 0.021777 -0.95163 0.10305 0.287054
-0.072135 0.021301 -0.130686 -0.476978 -0.33638 -0.802794
-0.012928 -0.257063 0.100492 0.444643 -0.210731 0.870501
0.126156 0.364404 0.08813 0.393367 0.050836 0.916661
-0.055438 -0.863388 0.007492 0.036738 -0.998606 -0.036595
0.183053 -0.403939 0.061532 0.816009 -0.056223 0.575124
-0.129129 0.108829 0.017566 -0.986202 -0.026913 0.159064
0.074139 -0.383135 0.043553 -0.647329 -0.301464 0.700002
-0.056651 -0.122274 0.123605 -0.207317 0.038746 0.976766
0.055111 0.083291 -0.147331 -0.139252 0.314984 -0.938114
0.103673 0.543029 -0.124426 0.073428 0.520007 -0.850147
-0.115034 -0.254497 0.095549 -0.792529 -0.032983 0.580373
0.19813 -0.648837 -0.044613 0.962455 -0.090814 -0.23177
0.18106 0.276257 -0.027675 0.969226 -0.056953 -0.231783
-0.128692 -0.359222 0.015619 -0.999544 0.011862 0.027372
-0.230729 0.452757 0.007691 -0.821596 0.407859 0.397771
-0.135281 -0.107972 0.062921 -0.93021 -0.016108 0.361864
-0.072512 -0.136668 0.119796 -0.299255 0.043353 0.952632
0.071051 -0.227629 -0.083312 -0.616442 -0.085379 -0.782063
0.08561 0.817179 -0.081703 0.723624 0.440131 -0.527145
-0.103217 0.112312 -0.072141 -0.808597 0.123659 -0.572392
-0.109462 0.401751 -0.10527 -0.578615 -0.258456 -0.773472
0.115529 0.28042 -0.133877 0.476909 -0.04345 -0.874472
-0.353466 0.312734 -0.020215 -0.651867 0.711653 0.259653
-0.037999 0.812603 -0.0503 -0.958246 -0.21594 -0.170354
-0.126159 0.141153 0.019164 -0.982754 0.051906 0.174826
0.064336 0.174748 0.127745 0.182262 0.036584 0.977622
-0.102579 0.101444 0.078693 -0.699126 0.284358 0.652136
0.027077 -0.349783 0.01811 0.995271 -0.054095 0.069461
-0.02559 0.541288 -0.11409 -0.123716 0.313863 -0.940388
-0.095308 0.024816 -0.108454 -0.756763 0.137821 -0.637845
0.411798 0.315601 -0.105863 0.666745 0.639218 -0.366914
0.041953 0.490991 -0.126656 -0.210711 0.083022 -0.97384
-0.116063 -0.675231 0.008599 -0.940305 -0.1457 0.296357
-0.094902 0.315094 -0.095083 -0.680282 -0.110524 -0.724333
0.134258 -0.592811 -0.102442 0.089594 -0.158006 -0.978929
0.050327 0.65729 0.050942 0.313666 -0.892143 0.298726
0.249449 0.492239 -0.002806 0.591439 0.219841 0.77572
-0.118456 -0.517935 -0.069342 -0.752235 0.13649 -0.643877
-0.111077 0.535775 0.038086 -0.035742 0.647013 0.760796
-0.250251 0.364387 -0.097857 0.015869 -0.049495 -0.996281
0.087479 -0.484585 -0.093215 -0.59168 -0.004398 -0.804779
0.46356 0.226731 -0.012685 -0.260746 0.28314 0.916599
-0.128638 -0.56249 -0.010418 -0.966789 -0.100787 0.234766
-0.011715 -0.047449 -0.127862 0.004091 -0.499783 -0.865438
0.033365 0.240814 0.127826 0.020802 0.033613 0.999013
0.151881 0.353295 0.067344 0.679782 -0.117357 0.723584
-0.121902 0.358637 -0.049588 -0.980917 -0.189921 -0.0167
0.034915 -0.31142 -3e-05 -0.955405 -0.059548 0.28844
-0.09593 0.204505 -0.061887 -0.787244 0.046291 -0.611727
0.122501 -0.086186 -0.127672 0.199799 -0.257854 -0.944139
0.474581 0.22937 -0.077533 0.404967 -0.22406 -0.884174
0.021949 0.332382 -0.125912 0.002394 0.001265 -0.998671
0.590984 0.122108 0.035866 0.727253 0.685714 0.010974
0.141916 0.159384 -0.093545 0.66463 0.085676 -0.741755
0.515619 0.153625 -0.006697 -0.654549 -0.755616 0.022728
0.164751 -0.43358 0.070734 0.368986 -0.107596 0.917978
0.154599 0.101945 -0.095255 0.783671 0.259017 -0.560545
-0.071799 -0.379028 -0.081849 -0.303749 -0.090556 -0.947135
0.141964 -0.829146 0.131508 0.463409 0.881724 0.076
0.166925 0.57154 -0.039428 0.469654 0.814945 0.305842
-0.554938 0.053318 0.012419 0.803127 -0.505258 -0.290498
-0.104514 -0.832185 -0.039155 -0.997877 -0.030748 -0.021191
-0.095214 -0.58773 0.055975 -0.428852 -0.090779 0.892748
-0.012884 0.596466 -0.079108 -0.269242 0.723683 -0.633668
0.189559 -0.190904 -0.063042 0.680134 -0.007418 -0.732197
-0.057726 -0.339431 -0.088184 -0.163403 -0.044792 -0.980814
0.135824 0.365306 0.082365 0.574376 0.029168 0.816216
-0.083953 -0.222786 -0.081722 -0.592901 -0.011792 -0.804176
-0.001733 0.308462 0.116373 -0.307089 0.180621 0.932229
0.037305 -0.358523 -0.017533 -0.992873 -0.089098 0.016635
0.022658 -0.507243 -0.026678 0.858732 0.030782 -0.508609
-0.112126 0.273583 -0.045953 -0.998065 -0.055195 -0.02756
0.080827 -0.280558 0.076168 -0.475983 -0.181592 0.859721
0.162809 -0.611398 0.027875 0.427623 -0.375781 0.820811
0.204587 -0.282638 -0.015802 0.97965 -0.031733 -0.193527
0.196017 0.388311 -0.00092 0.967846 -0.120215 0.219146
0.130681 -0.364283 0.077177 -0.158224 -0.18031 0.969478
0.151177 -0.867332 0.103078 0.458505 -0.886937 0.015999
-0.180905 0.360235 -0.050617 0.646663 -0.726756 -0.231404
0.183017 -0.505738 0.044642 0.83269 -0.141163 0.534405
0.18926 -0.66715 0.008878 0.852903 -0.066762 0.5027
-0.29804 0.368145 -0.042055 -0.739927 0.668758 -0.010611
-0.097734 -0.849802 -0.042421 -0.802931 -0.590009 -0.049473
-0.572031 0.033105 0.009446 -0.985448 -0.050509 -0.018363
0.140316 -0.539884 0.049987 -0.237217 -0.191195 0.952095
-0.120173 0.48309 -0.10676 -0.436955 0.18589 -0.878691
0.141943 0.340321 -0.119885 0.662977 -0.173535 -0.727925
-0.017154 0.82674 0.026124 -0.755558 0.383687 0.526267
-0.102868 0.256204 0.056453 -0.906515 0.08113 0.403962
-0.124744 0.037769 -0.055541 -0.623412 0.037145 -0.759877
-0.126216 -0.189821 -0.027317 -0.869494 -0.129727 -0.473758
0.043611 0.595453 0.024976 0.270472 -0.023342 0.955783
0.183395 0.201623 0.003036 0.995385 0.070186 0.001508
0.023877 0.765692 -0.121196 -0.072494 -0.050631 -0.995851
0.10794 0.230893 -0.129159 0.448547 -0.296672 -0.839617
-0.093655 -0.8633 0.084943 -0.027543 -0.999611 0.002776
0.559349 0.161747 0.016622 0.733562 0.67937 0.010078
-0.152695 0.432436 0.044567 -0.506551 -0.492244 0.703801
0.075285 0.819888 0.04918 0.810773 0.417917 0.408084
0.067281 -0.18127 0.081071 -0.57175 -0.03779 0.818767
-0.083703 0.015863 -0.120137 -0.63185 -0.082574 -0.768654
0.066895 -0.551812 0.008736 -0.627266 0.018071 0.778364
0.033337 0.656895 0.066327 -0.014366 -0.977483 0.20729
0.01902 0.814483 0.07285 -0.33062 0.452973 0.823287
0.024511 -0.663085 -0.017216 0.896838 -0.18913 0.374172
0.073854 -0.395047 -0.078357 -0.674152 -0.042273 -0.73734
-0.183855 0.485651 -0.074413 -0.510115 0.415508 -0.750583
0.079891 -0.309257 -0.089751 -0.603046 -0.01241 -0.79736
0.428046 0.283599 -0.044806 0.280068 0.545442 0.789116
0.188027 0.076991 0.056862 0.855027 0.19705 0.478941
-0.261059 0.35094 0.014985 -0.250289 -0.323698 0.910486
0.205945 0.024878 -0.016043 0.991 0.03763 -0.123226
0.194272 -0.073055 0.070697 0.743454 0.078453 0.663932
0.124683 0.316573 0.091723 0.5519 0.080743 0.829865
