-0.124628 0.064431 0.050716 -0.901708 0.256884 0.344801
0.023859 -0.593012 -0.003718 0.877897 0.045975 0.467561
0.13502 -0.472665 -0.105777 0.165815 0.100554 -0.97893
0.059177 -0.43227 0.0047 -0.634188 -0.222741 0.739616
0.070086 0.861587 -0.003399 0.483237 0.870245 0.082333
0.614869 0.056432 0.078699 -0.780643 -0.615541 0.064349
-0.539874 0.078719 0.087854 0.48357 -0.272458 0.739626
0.076222 -0.547661 0.017041 -0.70823 0.01221 0.705863
0.165297 -0.501067 -0.094867 0.605283 -0.010402 -0.793785
0.055152 0.441769 0.089703 0.083709 0.192799 0.977652
-0.113325 -0.073631 -0.071633 -0.77238 -0.163032 -0.613084
-0.018321 0.611004 -0.018551 -0.910772 0.266811 0.297015
-0.277736 0.401763 -0.067289 -0.498997 0.785156 -0.346684
0.102395 0.771479 -0.057785 0.942188 -0.062992 -0.320523
0.007205 -0.138717 -0.062719 0.804074 -0.123513 -0.581474
0.294403 0.449012 -0.029538 0.762899 0.186709 0.608517
0.076609 -0.82281 -0.055071 -0.477161 -0.84694 -0.123953
0.12424 -0.825077 0.134689 0.037517 0.996568 0.055331
-0.028692 -0.014084 -0.137039 -0.116108 -0.129066 -0.984743
0.062173 0.693027 -0.07104 0.524037 -0.530111 -0.664741
0.137623 -0.826568 0.118059 0.271141 0.95804 0.063528
-0.113136 -0.726973 -0.080135 -0.8209 -0.092936 -0.561683
0.003239 -0.785456 -0.10689 0.87018 0.198581 -0.444107
0.22172 0.545117 -0.025249 0.523876 0.759395 0.378663
-0.092308 -0.311816 -0.069277 -0.679797 -0.003588 -0.733266
-0.038484 0.41594 -0.129679 -0.061998 -0.039673 -0.997118
0.435257 0.274296 -0.117625 0.576309 0.197188 -0.790249
0.197644 -0.635882 -0.008707 0.982557 -0.07007 0.166627
0.099563 0.753324 0.011298 0.978771 -0.014972 0.199252
-0.110328 -0.170429 -0.056453 -0.798108 -0.103953 -0.593224
0.172608 -0.762664 0.020491 0.541892 0.097677 0.83073
0.322448 0.321158 -0.126759 -0.417165 -0.508842 -0.740898
0.185722 -0.608413 -0.069655 0.701994 -0.044186 -0.710323
0.01326 -0.433683 -0.038634 0.835441 -0.003004 -0.54916
-0.177311 0.480135 -0.081225 -0.434983 0.317381 -0.842593
-0.375803 0.273337 -0.083609 -0.326093 0.195264 -0.923335
0.602698 0.070154 0.075549 -0.736934 -0.585415 0.283218
0.061837 -0.220755 0.072457 -0.683039 -0.103929 0.722815
0.186464 0.492303 0.026865 0.321173 0.252301 0.91097
0.117389 -0.260832 0.08548 0.053524 -0.232981 0.96769
-0.214212 0.425231 0.03648 -0.356254 -0.042378 0.924911
-0.395079 0.212217 0.013689 0.15358 0.131042 0.978519
0.095688 -0.118275 -0.118732 -0.228479 -0.224832 -0.945276
-0.011749 0.671446 -0.025147 -0.991658 -0.100714 -0.070454
0.178446 -0.635549 0.019324 0.36937 0.02549 0.927443
0.088062 0.154487 0.119618 0.3938 0.051563 0.911607
-0.076842 0.240402 0.083898 -0.617625 0.055242 0.784425
0.143181 -0.480779 0.062793 -0.391811 -0.147403 0.906159
0.209676 -0.078751 -0.020172 0.935158 0.099768 -0.338341
0.055382 0.827564 0.063273 0.392713 0.540802 0.741916
0.064413 0.049622 -0.156934 -0.065787 0.309374 -0.947099
0.539072 0.129403 -0.011374 -0.742781 -0.65501 -0.116246
0.186719 0.557976 -0.079266 0.286772 0.860894 -0.41574
-0.125239 0.420011 0.057391 -0.31227 -0.309574 0.886485
0.028128 -0.334435 0.00367 0.998552 -0.049552 -0.003761
-0.126485 -0.560262 -0.000736 -0.925483 -0.129969 0.352435
0.057992 -0.73582 0.026137 -0.923396 -0.207634 0.303854
0.000853 0.6871 0.07162 -0.747654 -0.056095 0.6606
-0.562534 0.052542 -0.004689 -0.413731 0.454019 -0.595604
0.457399 0.274293 -0.054384 0.592236 0.71772 0.363624
-0.526212 0.074152 0.038777 0.553705 -0.724374 -0.403247
0.17771 -0.178467 -0.072485 0.647589 -0.005829 -0.760492
-0.461362 0.138642 -0.010758 0.361243 -0.850341 -0.380699
0.152749 0.321994 0.063631 0.721648 0.002913 0.692009
0.100132 -0.644314 -0.087442 -0.538198 -0.081887 -0.836817
0.009389 -0.499128 -0.051411 0.844473 0.032224 -0.534144
0.195103 0.128707 -0.017246 0.802227 0.13853 -0.575976
-0.039497 -0.862445 0.111785 0.254442 -0.956348 0.127644
0.139017 0.269011 -0.112011 0.795385 -0.112239 -0.594877
0.154083 -0.514567 0.058979 -0.016347 -0.251662 0.963225
0.180332 -0.762408 -0.043393 0.768948 0.342546 -0.524924
0.16849 -0.858195 0.026333 0.809825 -0.491255 -0.218998
-0.002585 -0.735434 0.001346 0.635061 -0.374697 0.665979
0.195795 -0.358741 0.038692 0.906252 -0.09045 0.412288
-0.238561 0.391412 0.023096 -0.330543 -0.163054 0.927201
0.084618 -0.383664 0.05172 -0.561909 -0.239954 0.789837
0.18405 0.192301 0.018817 0.974517 0.192431 0.094315
0.020482 -0.309435 -0.028071 0.937328 -0.001135 -0.347319
-0.041556 -0.086686 0.127755 -0.107069 -0.045689 0.992023
-0.027695 0.340594 -0.12862 -0.051045 0.012486 -0.998454
0.366953 0.292866 -0.040249 -0.276237 -0.03815 0.946878
0.197231 -0.446758 0.013024 0.975705 -0.086426 0.198034
0.152669 0.096149 0.083251 0.388363 0.224604 0.881435
0.005338 0.242694 -0.127873 0.128099 -0.034277 -0.991132
-0.025543 -0.78105 0.028899 0.625055 0.5651 0.533327
-0.124495 0.415986 -0.09861 -0.696595 -0.384981 -0.60301
-0.060094 -0.686301 -0.112185 0.010816 0.214743 -0.971417
0.134835 0.26212 0.088132 0.6754 0.044126 0.734824
-0.435628 0.158141 -0.028946 0.352091 -0.889511 -0.266961
0.185748 -0.645686 0.015972 0.514627 -0.085578 0.851861
-0.114855 -0.390509 -0.050049 -0.734377 -0.118404 -0.668198
0.052337 -0.463781 -0.004177 -0.798328 -0.026902 0.593082
-0.112266 -0.337538 -0.04918 -0.796748 0.077413 -0.598255
0.506178 0.161641 -0.001065 -0.601594 -0.794325 0.080775
-0.038003 -0.76687 0.019913 0.428603 0.75914 0.479903
0.200089 0.444435 0.030127 0.640462 0.049887 0.765246
0.190015 0.349842 -0.066073 0.866651 -0.384136 -0.314849
0.027817 -0.191356 0.044605 0.968355 -0.03004 0.242964
0.109144 -0.354709 0.073464 -0.317027 -0.226394 0.919828
0.093299 -0.419815 0.045093 -0.628483 -0.361557 0.688538
-0.412801 0.239655 0.007368 -0.390497 0.507815 0.76506
-0.069486 -0.203186 0.116392 -0.305921 -0.087896 0.947883
-0.040136 -0.252596 -0.092733 0.173265 0.03979 -0.982909
0.197361 -0.202494 0.050963 0.945559 -0.046818 0.321027
-0.02516 0.717802 0.039867 -0.942677 -0.16272 0.283651
-0.063491 -0.681987 0.022232 0.239718 -0.359928 0.90134
0.17196 -0.152298 0.093013 0.583445 -0.083106 0.805719
-0.312321 0.312374 -0.09535 -0.194589 0.184571 -0.962951
0.1984 -0.378778 0.026438 0.953043 -0.025391 0.300506
0.164885 -0.011961 -0.111937 0.770045 0.061499 -0.632977
-0.566591 0.046936 0.042988 -0.904888 0.423623 0.033636
-0.127206 -0.381111 -0.027378 -0.973561 0.053992 -0.211145
-0.095214 -0.58773 0.055975 -0.428852 -0.090779 0.892748
-0.038107 0.589498 -0.071578 -0.339909 0.881934 -0.290908
-0.04223 0.503369 0.066169 -0.166555 0.418065 0.892712
0.041601 0.458416 0.087548 0.1353 0.314514 0.937982
-0.031633 -0.22019 -0.089597 0.264753 -0.001994 -0.963959
-0.029929 0.251758 -0.128786 -0.126465 -0.063864 -0.989694
0.0876 0.725281 0.056799 0.879446 0.009919 0.454289
-0.093931 -0.470787 -0.084143 -0.555001 0.113419 -0.824007
0.019011 -0.44947 0.0197 0.906702 -0.009624 0.418097
-0.000522 0.337727 0.112824 -0.038208 0.055773 0.997252
0.01457 -0.184897 -0.051098 0.831764 0.066583 -0.550993
0.095767 -0.854338 -0.009518 -0.702239 -0.708137 0.021974
-0.041837 0.246223 0.106929 -0.513639 0.025328 0.855642
0.199958 -0.147539 -0.049889 0.855952 -0.013672 -0.513853
0.096622 0.501329 0.059793 0.227681 0.478568 0.847294
0.160516 -0.154213 -0.089566 0.633464 -0.122715 -0.763712
-0.07098 -0.24513 0.112397 -0.053482 -0.068943 0.996024
0.076555 -0.801605 0.025643 -0.880569 -0.169385 0.441714
0.475896 0.24992 -0.026345 0.323726 0.819847 0.456384
-0.119769 -0.341945 0.078116 -0.953035 -0.013212 0.30164
0.146332 0.311263 0.071235 0.774297 0.047137 0.630873
0.0508 0.633907 -0.06603 0.180691 0.254006 -0.944379
0.142185 0.431641 -0.142583 0.253718 -0.166488 -0.952602
0.212557 -0.118577 0.026944 0.975501 -0.052316 0.203431
-0.229506 0.393232 0.026584 -0.259339 -0.2468 0.931263
-0.207571 0.492553 -0.043156 -0.711676 0.559365 -0.421825
0.006747 0.634781 -0.058793 -0.483514 0.287884 -0.821698
0.117173 -0.227905 0.090765 0.037746 -0.169037 0.984875
-0.106213 -0.51468 -0.081969 -0.680993 0.119687 -0.72173
-0.160983 0.480838 0.055034 -0.244082 0.108333 0.962233
-0.12573 -0.287808 0.067173 -0.988859 -0.0424 0.132905
0.102515 -0.072532 0.117686 -0.066944 -0.466186 0.876665
-0.439292 0.224611 -0.036341 -0.722435 0.628248 -0.236593
-0.092516 0.159401 -0.072835 -0.733983 0.181159 -0.636847
-0.007858 -0.428237 0.063008 0.647937 -0.263627 0.713353
0.44652 0.28626 -0.097086 0.690431 0.543384 -0.467972
-0.123093 -0.272133 -0.026194 -0.851225 0.009699 -0.522685
-0.143528 -0.057509 0.01982 -0.996944 0.042837 0.058422
-0.022071 -0.846588 0.05003 0.985197 0.03575 0.062664
0.121539 -0.022445 0.120385 0.353424 -0.016766 0.935193
-0.352613 0.252963 0.008599 0.060112 0.094471 0.99336
0.177393 -0.02506 0.086485 0.691848 0.057534 0.719448
0.206674 -0.197809 -0.027075 0.995474 -0.025188 -0.087346
0.037305 -0.358523 -0.017533 -0.992873 -0.089098 0.016635
-0.469716 0.171634 -0.03503 -0.590824 0.464331 -0.657911
0.181249 0.35252 -0.084646 0.77855 -0.425793 -0.457671
-0.060346 0.179007 0.099095 -0.439663 0.021418 0.896597
0.070945 -0.013263 0.134495 0.139177 -0.333998 0.931791
0.038961 0.534556 0.046823 0.024273 0.779783 0.625573
0.206894 0.007023 -0.004235 0.996531 0.031937 -0.05945
0.029166 0.131721 -0.125604 -0.147301 0.440014 -0.885727
0.12813 -0.219145 0.091257 0.0824 -0.170482 0.981849
0.100874 0.46093 -0.146004 -0.089177 0.077175 -0.992945
0.121021 -0.807718 0.062952 0.115069 0.764349 0.625619
0.201133 0.126344 -0.002059 0.934048 -0.243754 -0.194788
0.080282 -0.702992 -0.065005 -0.845025 -0.095674 -0.524666
0.093102 0.727418 0.030066 0.951097 -0.057102 0.297269
-0.450808 0.165035 0.040495 0.17267 0.535901 0.814289
0.025412 -0.379704 0.015826 0.980915 -0.08308 0.171706
-0.374776 0.203802 -0.059974 0.447624 -0.691477 -0.562759
-0.119984 0.346959 -0.005485 -0.991973 -0.099176 0.069603
0.145131 -0.816932 -0.112456 0.406809 -0.213933 -0.880452
0.166126 -0.49627 0.061474 0.344212 -0.192851 0.911377
0.19773 -0.581135 0.005813 0.963024 -0.022055 0.264966
0.105162 0.790083 -0.024198 0.996575 0.053809 -0.000296
0.052811 -0.520815 -0.005615 -0.832512 -0.0185 0.55111
-0.019144 0.007731 -0.140864 -0.257638 -0.224566 -0.939555
0.179656 -0.302228 0.07317 0.396262 -0.03383 0.917262
-0.062614 0.28782 -0.118253 -0.452918 -0.048144 -0.889987
-0.074571 -0.638228 -0.10647 -0.083825 0.079209 -0.991648
0.1134 0.34348 0.094898 0.428671 0.10265 0.893925
-0.495776 0.127743 -0.008297 -0.163567 -0.794389 -0.535022
0.042322 -0.22567 0.030172 -0.991192 -0.045292 0.120186
0.194272 -0.073055 0.070697 0.743454 0.078453 0.663932
0.073688 -0.140217 0.085941 -0.595639 0.032011 0.802553
0.079804 0.592565 0.002652 0.723762 0.114275 0.677874
0.01184 0.495042 0.073124 0.04407 0.517631 0.851584
-0.10165 -0.045424 0.104314 -0.630474 0.011908 0.77593
0.088463 -0.848657 -0.040596 -0.975052 -0.144576 0.113415
0.173167 -0.852395 0.041133 0.927047 0.275813 -0.120397
-0.105963 0.567993 -0.02256 -0.303636 0.940551 0.079032
-0.034951 0.80695 0.002187 -0.97601 0.004784 0.202835
-0.034202 0.225988 0.11115 -0.357939 0.053578 0.928774
0.067974 0.857264 0.022351 0.618261 0.730421 0.288015
-0.118086 -0.474427 0.044312 -0.822331 -0.267219 0.502239
0.195574 -0.218037 -0.054965 0.727508 -0.036976 -0.683887
0.143912 0.266352 0.078225 0.754158 0.07057 0.652855
0.174975 0.166724 -0.049057 0.927665 0.048397 -0.35934
-0.125147 -0.733723 -0.028367 -0.922647 0.069864 0.37577
0.522263 0.147529 0.001646 -0.727121 -0.684897 0.043467
0.17929 -0.647083 -0.068992 0.60763 -0.210703 -0.765516
-0.489428 0.163331 0.004755 -0.776628 0.629589 -0.019252
0.321616 0.373253 -0.037204 0.657871 -0.132281 0.728071
-0.450235 0.150038 -0.023539 0.337363 -0.825195 -0.449483
0.097754 -0.107805 -0.121872 -0.151435 -0.287748 -0.94356
0.060494 -0.793647 -0.013546 -0.962688 -0.231429 0.004449
-0.444184 0.167584 -0.052436 -0.049762 -0.381064 -0.838775
0.116804 -0.141386 0.112211 -0.112532 -0.155626 0.976801
0.064302 -0.346782 -0.072695 -0.77453 -0.075684 -0.627796
0.01217 -0.649191 -0.061935 0.611114 0.160238 -0.775104
-0.177394 0.378248 0.007048 0.507487 -0.625306 0.592146
-0.455124 0.142556 0.026765 0.647981 -0.734543 0.18986
0.070066 -0.263467 0.073661 -0.606104 -0.119147 0.785584
0.178174 0.489199 0.031408 0.537204 0.350043 0.763944
0.013636 -0.444884 -0.038516 0.83446 0.044707 -0.549186
0.043793 -0.200041 0.048998 -0.962952 -0.04894 0.248466
-0.113125 -0.533414 0.032137 -0.872795 -0.058444 0.48448
0.076485 -0.288567 0.072442 -0.462644 -0.163505 0.869748
-0.147507 0.389985 -0.032305 0.743739 -0.665265 -0.05792
0.047772 -0.369661 -0.047792 -0.851632 -0.00827 -0.523359
0.016951 -0.078042 -0.0989 -0.069636 -0.706638 -0.692572
0.182306 0.219518 0.019611 0.994792 0.054777 0.080423
0.049237 0.255425 0.125902 0.196654 0.087187 0.975165
0.070904 -0.573911 -0.069102 -0.695229 -0.12437 -0.707774
-0.054347 -0.188867 -0.095346 -0.074448 -0.092191 -0.991962
-0.56378 0.03555 0.037135 0.825709 -0.561987 0.033602
0.079688 -0.739075 0.031026 -0.034636 -0.548513 0.835267
0.052277 0.4389 -0.133762 -0.399348 0.014734 -0.91513
-0.043863 -0.640681 0.026956 0.28911 -0.112894 0.949274
0.084623 0.012888 0.134227 0.301003 0.248481 0.915731
-0.029326 0.441883 -0.131117 0.05794 -0.059828 -0.996177
-0.01097 0.251426 0.118565 -0.412914 0.060526 0.90708
-0.249258 0.368036 0.018823 0.022521 -0.113322 0.992939
-0.237841 0.327192 -0.002368 0.513569 -0.611059 0.59872
0.063623 0.131657 0.129071 0.151307 0.023719 0.987333
0.316334 0.449395 -0.060769 0.791065 0.531879 0.285842
-0.124409 -0.554747 -0.068766 -0.817618 0.12418 -0.56082
0.200207 0.553799 -0.021455 0.387633 0.782629 0.483662
0.164497 -0.547339 -0.093608 0.682774 -0.033679 -0.729851
0.14814 -0.495048 0.062491 -0.287469 -0.197981 0.935319
0.596751 0.066822 0.036813 0.286549 -0.899303 0.124408
0.158906 0.116982 0.07666 0.575583 0.176429 0.797391
0.348619 0.329241 -0.135302 0.033178 -0.13572 -0.986137
-0.03339 0.497612 0.070271 -0.150801 0.491479 0.857655
-0.057823 -0.093212 0.123919 -0.285212 -0.020644 0.957764
0.109691 -0.855501 0.172394 -0.678125 0.276843 0.65028
0.578009 0.061131 -0.00889 -0.933511 -0.352434 -0.004419
0.027347 -0.309864 0.034036 0.991784 -0.029897 0.121055
-0.032867 -0.856307 -0.006745 0.566151 -0.806195 -0.16599
0.036458 -0.006864 0.140353 0.282914 -0.549852 0.778695
0.092547 0.820523 -0.056499 0.823939 0.517925 -0.219032
-0.126123 -0.654282 -0.073011 -0.918637 -0.012563 -0.376569
0.22449 0.475745 -0.131117 0.191854 0.241976 -0.950222
-0.041753 0.257047 -0.126462 -0.41479 -0.06611 -0.900162
-0.014989 -0.193995 0.113273 0.391303 -0.096354 0.914648
0.020416 -0.712162 -0.063151 0.924934 0.008383 -0.377135
0.529165 0.17725 0.019331 -0.32419 0.314561 0.859975
-0.562238 0.037852 0.008006 0.903763 -0.419808 -0.019179
-0.003425 -0.469085 0.046755 0.718076 -0.142679 0.681092
0.122948 -0.42974 -0.103239 0.095159 0.073177 -0.989096
0.099294 0.346137 0.099359 0.292982 0.113129 0.948271
0.025741 0.865174 -0.033402 -0.16779 0.968484 -0.180128
0.060692 -0.212076 -0.076356 -0.723192 -0.174621 -0.667856
0.075884 0.308133 -0.141146 -0.199458 -0.095112 -0.97492
-0.127539 0.179081 -0.009313 -0.976691 0.046145 -0.192627
-0.118499 -0.302007 0.087171 -0.867812 -0.039336 0.486965
-0.261883 0.413306 -0.069888 -0.569295 0.656485 -0.493843
0.10338 -0.006132 -0.153427 0.249844 -0.001242 -0.965227
0.155313 0.0335 -0.116659 0.717426 0.121028 -0.685004
0.174571 -0.791707 -0.080528 0.895897 0.063168 -0.434535
-0.533298 0.068855 0.043087 0.454833 -0.858888 -0.185983
-0.011135 -0.79576 0.003453 0.938134 0.129756 0.316551
0.071288 -0.756219 -0.040836 -0.855932 0.238294 -0.456483
0.197642 -0.247911 0.052493 0.920274 0.032002 0.387053
0.117636 0.202535 -0.111141 0.52995 -0.30768 -0.789818
0.319348 0.380953 -0.031686 0.7407 -0.213746 0.630171
0.023494 -0.724898 -0.045397 0.985316 -0.061947 0.145931
-0.126025 0.046346 -0.048992 -0.914092 0.144791 -0.377307
0.064256 0.403784 -0.138865 -0.353922 0.04667 -0.932598
0.494357 0.227556 -0.0125 0.456736 0.548012 0.651412
-0.079276 -0.341298 0.103736 0.104319 -0.104024 0.987721
0.090327 0.723218 0.046638 0.984113 -0.005883 0.177207
0.061963 -0.296712 -0.072277 -0.799297 -0.009026 -0.600726
0.039875 0.750748 0.096037 0.512777 0.409943 0.72581
0.205537 -0.285424 0.015853 0.99903 0.010619 0.037404
0.035837 0.458048 -0.127757 -0.135373 0.042473 -0.989425
-0.027375 0.720461 0.030748 -0.980068 -0.064096 0.184731
-0.036134 -0.437422 -0.087809 0.30878 0.166254 -0.927433
0.060394 -0.149522 0.075956 -0.64122 0.050442 0.765546
-0.001037 0.662751 -0.048424 -0.766577 -0.090298 -0.6315
-0.129377 -0.618519 -0.046427 -0.999819 -0.017896 0.000207
0.143364 -0.865589 0.00868 0.19331 -0.977278 -0.068215
0.075511 0.672374 0.036488 0.803452 -0.573671 0.13735
0.019928 -0.196613 0.071972 0.964294 -0.016099 0.263793
-0.019084 -0.101383 -0.102783 0.378909 -0.323663 -0.862528
-0.064775 0.559511 -0.091048 -0.385297 0.596914 -0.703466
0.161001 -0.193939 -0.085996 0.617893 -0.084948 -0.781564
0.202356 -0.560024 -0.009184 0.942902 -0.048527 0.328527
-0.065047 -0.334775 0.10243 0.178262 -0.135507 0.974335
0.20549 -0.257889 0.007053 0.999947 0.006145 0.004068
-0.02884 -0.397776 -0.076135 0.431518 0.079701 -0.894265
-0.069644 0.098747 -0.109543 -0.569049 0.299664 -0.764524
-0.024539 -0.259109 0.104867 0.257742 -0.17774 0.94911
-0.005138 0.54657 0.039382 0.32101 0.745111 0.580379
-0.037214 0.805572 -0.017158 -0.986537 -0.117486 0.076573
0.117838 -0.749815 0.028796 -0.142815 -0.375631 0.906511
0.007581 0.140575 -0.11839 -0.092914 0.409873 -0.907384
-0.355184 0.235932 -0.076332 0.213457 -0.461771 -0.858178
-0.031534 -0.704441 0.02363 -0.719039 0.089849 0.667766
-0.09333 0.195916 0.076013 -0.672915 -0.003888 0.739479
0.026602 -0.341834 0.027281 0.987668 -0.065104 0.135315
0.045419 -0.580082 -0.03061 -0.992881 -0.048395 -0.051889
0.128898 -0.103669 0.113117 0.112052 -0.059282 0.991517
0.089519 -0.856653 0.13508 -0.925663 -0.106174 0.238833
0.05626 -0.528784 -0.001125 -0.754401 -0.024182 0.654167
0.078385 -0.44131 -0.082705 -0.689053 0.038449 -0.723623
0.178697 0.038437 -0.085321 0.828488 0.122912 -0.545926
0.193864 -0.108336 -0.059346 0.812116 0.008367 -0.583108
0.068237 -0.663617 -0.054241 -0.766908 -0.146425 -0.624685
0.224495 0.43995 -0.13336 -0.185494 -0.099955 -0.976084
0.335803 0.297978 -0.059701 -0.583668 -0.634402 0.506401
-0.412598 0.253753 -0.053654 -0.774557 0.573019 -0.255307
-0.123309 0.098729 -0.035807 -0.927834 0.132457 -0.347581
-0.030851 0.064117 -0.13708 -0.156752 0.188561 -0.969455
-0.095681 -0.440251 -0.076577 -0.569023 0.249438 -0.782495
0.142426 -0.301026 -0.083813 0.590515 -0.00839 -0.806714
0.007197 0.092069 -0.136916 -0.154881 0.218278 -0.963317
0.439914 0.204566 -0.048729 -0.698676 -0.685658 0.185465
0.049586 0.835889 -0.091191 0.20797 0.676627 -0.704301
0.122253 0.261408 0.097429 0.523871 0.056772 0.84956
0.230185 0.544019 -0.037553 0.608401 0.754657 0.241703
0.115566 -0.49777 0.044175 -0.577333 -0.107595 0.809009
0.061619 -0.768716 -0.026205 -0.951285 0.087113 -0.277344
0.177 0.542068 0.002875 0.248899 0.653512 0.714395
-0.090718 0.467071 0.067628 -0.407718 0.189776 0.888548
0.008323 -0.583301 -0.057522 0.782704 0.01566 -0.622062
0.108901 -0.183595 -0.106 -0.085407 -0.146674 -0.984897
0.052101 -0.686413 -0.014491 -0.996131 -0.043118 -0.070002
-0.192673 0.491952 -0.062543 -0.607438 0.508246 -0.61046
0.085681 -0.43233 -0.089033 -0.633589 0.004635 -0.773291
0.211535 0.412928 -0.051608 -0.458375 -0.797533 0.107016
-0.128848 0.558482 -0.000976 -0.220122 0.953867 0.196498
0.205068 -0.356551 0.0056 0.987458 -0.050171 0.134833
-0.081542 0.532005 -0.10281 -0.335062 0.403663 -0.847081
0.0458 0.136079 -0.125793 -0.12404 0.412681 -0.901817
0.083837 -0.615194 0.018865 -0.729391 -0.235497 0.639933
-0.123528 0.005413 -0.063597 -0.891832 0.073335 -0.445871
0.574421 0.071009 -0.004181 -0.869863 -0.4609 -0.127332
0.049677 -0.447762 -0.050921 -0.829977 0.041195 -0.554256
0.085173 -0.477586 0.02174 -0.631787 0.09001 0.769581
0.199948 -0.467229 -0.017813 0.999721 -0.00243 0.017233
-0.1405 0.531186 0.038044 -0.183713 0.688947 0.701064
-0.027226 -0.745972 0.004789 0.344197 -0.577091 0.685747
0.158615 -0.864472 0.07315 0.262601 -0.96078 -0.005358
0.150994 -0.239561 0.084878 0.129569 -0.185264 0.973248
0.041209 0.660454 0.08242 0.11787 -0.955777 0.253366
-0.228934 0.461556 0.001107 -0.838063 0.452717 0.302292
0.285617 0.46865 -0.026653 0.725513 0.262829 0.632326
0.037598 0.789833 -0.120221 0.07533 0.123998 -0.985752
0.321132 0.3034 -0.07052 -0.666754 -0.66391 0.336541
0.067145 0.37694 -0.141039 -0.400018 -0.005517 -0.914863
0.081138 0.659972 0.009357 0.941663 -0.17197 0.270227
-0.022231 -0.732664 0.018717 0.4376 -0.546314 0.702748
0.10111 -0.217681 0.091675 -0.133312 -0.18885 0.972402
-0.12589 -0.268962 0.071497 -0.939438 -0.117485 0.321423
-0.069175 -0.527123 0.063595 0.416205 -0.225858 0.879567
0.339331 0.302661 -0.121932 -0.431579 -0.608456 -0.659603
0.064321 0.847143 0.03949 0.540993 0.555921 0.630285
0.155259 -0.752217 -0.083019 0.809988 0.191853 -0.549983
0.162967 -0.361888 -0.070612 0.621448 0.16893 -0.764439
-0.222507 0.4796 -0.014991 -0.885084 0.460949 0.051933
-0.050985 0.052075 -0.133594 -0.434363 0.289288 -0.850927
0.040707 0.69463 -0.081144 0.128348 -0.618356 -0.774575
0.168575 -0.10943 0.098463 0.650749 0.035907 0.758325
-0.099987 -0.463994 0.077845 -0.564835 -0.321609 0.754785
0.124228 0.324614 -0.130949 0.558121 -0.102629 -0.82311
-0.118083 -0.790364 -0.066721 -0.957647 -0.162929 -0.215811
-0.118004 0.182029 -0.029218 -0.880787 0.120687 -0.457702
0.144682 -0.825866 0.097062 0.293647 0.94107 0.150767
0.210368 0.534812 -0.100194 0.280889 0.735894 -0.615955
0.153804 -0.849327 -0.094378 0.868018 -0.067118 -0.487117
0.173511 0.288765 0.04182 0.895208 -0.047316 0.431871
-0.427799 0.196371 -0.053394 -0.35543 0.052301 -0.930053
-0.014125 0.58341 -0.091325 -0.153674 0.640044 -0.752481
0.158599 -0.277784 -0.074107 0.56303 -0.140918 -0.814046
-0.016951 -0.827407 0.020066 0.721832 -0.647511 0.233965
-0.032337 0.400451 0.1039 -0.148876 0.162004 0.973258
-0.04698 0.522333 0.054127 -0.169503 0.591218 0.788471
0.26917 0.362359 -0.122867 -0.376437 -0.739094 -0.553032
0.104503 -0.163882 -0.109251 -0.094927 -0.248633 -0.962064
0.047025 0.657662 -0.064655 0.189294 -0.102551 -0.975481
0.097135 -0.73174 0.032679 0.317108 -0.238011 0.899296
-0.0064 -0.755172 -0.012091 0.462148 -0.382003 0.783915
0.152369 -0.220624 0.089344 0.1083 -0.198534 0.973819
0.017126 -0.760964 -0.072489 0.96475 0.015288 -0.252792
0.036352 -0.232682 0.01448 0.499311 -0.201288 0.639699
-0.301074 0.340922 0.000647 -0.411469 0.366672 0.83165
-0.128602 0.135412 -0.002441 -0.998263 0.045994 -0.017051
-0.021611 0.354664 0.106063 -0.185916 0.00412 0.979124
0.364828 0.268539 -0.056537 -0.627356 -0.606389 0.483031
0.198367 0.419605 0.020231 0.716519 -0.599682 0.345855
-0.011174 0.658727 -0.028251 -0.975772 -0.028039 -0.189541
0.007288 -0.783817 -0.097585 0.874216 0.164548 -0.454253
0.02105 0.498216 0.070967 0.090836 0.557043 0.824497
0.056695 0.408088 0.097486 0.094425 0.198652 0.974857
-0.052618 0.032782 0.122418 -0.405002 0.211328 0.887396
0.043193 0.567726 0.024852 0.235889 0.021182 0.965883
0.206373 -0.048476 -0.025451 0.97224 0.005555 -0.231114
0.399451 0.321638 -0.114065 0.591353 0.519205 -0.616158
-0.307007 0.350542 -0.011635 -0.610564 0.619412 0.48771
0.119259 -0.137448 -0.115189 0.175587 -0.303498 -0.933643
0.032928 -0.229221 -0.034662 -0.490445 -0.075462 -0.84587
-0.08202 0.094855 -0.100487 -0.649874 0.208444 -0.730765
-0.069104 -0.429833 -0.086703 -0.239981 0.305406 -0.919763
-0.12553 -0.280919 -0.021281 -0.944606 0.01093 -0.321107
-0.103821 -0.146599 0.109367 -0.674919 0.007032 0.737362
0.044505 0.574165 -0.103144 -0.054869 0.523072 -0.848369
0.232944 0.40235 -0.020962 -0.284218 -0.555518 0.756695
-0.098841 0.009111 -0.10486 -0.85095 0.00017 -0.492384
-0.36059 0.2962 -0.004904 -0.330878 0.592354 0.729417
0.199984 -0.129569 0.0596 0.899415 -0.039069 0.435197
0.101805 -0.483104 -0.102444 -0.393088 0.015719 -0.919086
0.182274 0.006462 -0.080883 0.869545 0.068564 -0.483263
0.037767 -0.126902 0.070251 0.759774 -0.499333 0.405849
0.025114 0.733937 -0.110579 -0.100176 -0.48305 -0.868564
0.068734 -0.296207 -0.080872 -0.72847 -0.012926 -0.681676
-0.071076 0.507284 -0.119326 -0.231716 0.352148 -0.906281
-0.107434 0.278478 0.032722 -0.985977 -0.007947 0.16435
-0.004403 0.110868 0.130471 -0.222827 0.204225 0.951256
-0.128076 -0.681751 -0.059535 -0.99712 -0.00747 -0.057978
0.344016 0.382968 -0.128857 0.817646 0.078695 -0.564368
0.130633 -0.256663 0.084953 0.101393 -0.119586 0.987548
-0.049462 0.437928 -0.130352 -0.087892 -0.108227 -0.990068
-0.504807 0.137338 0.074217 -0.482877 0.657073 0.400318
-0.109347 -0.717108 -0.00789 -0.839582 -0.352947 0.410351
0.149313 -0.866783 -0.044287 0.46763 -0.875647 0.087363
0.019112 0.308854 -0.12709 0.060886 0.046094 -0.995775
0.174499 0.512733 -0.126999 0.142625 0.416601 -0.894983
-0.401153 0.271705 -0.055489 -0.818614 0.538361 -0.185431
-0.45356 0.167339 -0.049298 -0.426274 -0.094089 -0.804812
0.214341 0.476742 -0.132675 0.124052 0.19262 -0.97311
0.122218 -0.113914 -0.120331 0.125264 -0.19894 -0.971102
-0.125675 -0.693793 -0.03685 -0.938824 0.031647 0.336224
-0.102024 0.08828 -0.080822 -0.778161 0.17539 -0.6015
0.131604 0.017756 0.11813 0.368887 0.22323 0.900979
0.165108 0.004225 -0.108857 0.821307 0.104191 -0.559541
-0.194825 0.347694 -0.031607 0.593841 -0.803581 0.031954
0.124492 -0.234112 -0.098963 0.239974 -0.112672 -0.96295
-0.071128 0.346897 -0.115453 -0.488262 -0.081048 -0.868826
0.175895 0.328504 -0.075372 0.814093 -0.335101 -0.473915
-0.079832 -0.579242 0.057532 0.369465 -0.188144 0.897564
0.06574 0.862886 -0.018157 0.371135 0.923647 -0.030867
0.194866 0.354884 -0.018189 0.970479 -0.12033 0.204588
0.103368 0.052936 0.118949 0.393639 0.163388 0.903729
-0.258016 0.409157 -0.078087 -0.465058 0.615891 -0.635904
0.105074 0.160936 0.111743 0.488668 0.045619 0.865853
-0.009093 -0.259962 -0.076789 0.641205 -0.081401 -0.761611
0.399411 0.306303 -0.123681 0.319221 0.282171 -0.885984
0.547257 0.158537 0.036707 -0.517564 0.213574 0.809001
-0.122171 -0.6885 -0.026211 -0.969659 -0.093827 0.205423
-0.075067 -0.862736 0.135236 -0.024662 -0.992777 0.108895
-0.049207 -0.6033 -0.101746 0.318868 0.032084 -0.946516
-0.072462 0.532226 0.042321 -0.086921 0.612407 0.785442
-0.333482 0.236862 -0.066748 0.317009 -0.701281 -0.637056
0.468831 0.186983 -0.02598 -0.524616 -0.851077 0.000803
0.067536 0.547743 0.029264 -0.107701 0.679032 0.711563
-0.352481 0.222283 0.005281 0.364819 -0.460401 0.792665
-0.054999 -0.509273 -0.100109 0.034321 0.086063 -0.995391
-0.51771 0.09205 0.091886 0.322191 -0.084908 0.826334
-0.037671 0.145687 -0.10535 -0.238646 0.392009 -0.885012
0.056345 -0.635564 -0.045916 -0.830463 -0.14478 -0.537425
-0.339691 0.220209 -0.018156 0.59794 -0.791618 0.05598
0.031346 0.835225 -0.093868 -0.036224 0.683732 -0.728606
-0.058184 -0.864255 0.08164 0.000203 -0.999972 0.003031
-0.336811 0.223774 -0.046184 0.500871 -0.842456 -0.182266
0.11628 -0.32896 0.079546 -0.140452 -0.087835 0.985293
0.200978 -0.504476 -0.001391 0.951436 0.056086 0.295391
0.076543 0.73629 0.067117 0.629139 0.122092 0.767362
0.212605 -0.091806 0.030334 0.970785 -0.006727 0.236643
-0.50506 0.140474 -0.006882 -0.947377 0.192488 -0.235897
-0.264305 0.420018 -0.0252 -0.76708 0.632191 0.095793
-0.031992 -0.408749 -0.07927 0.371738 0.17271 -0.910162
-0.003158 0.812144 -0.104171 -0.393986 0.483966 -0.779946
0.189505 0.317605 -0.029875 0.981107 -0.163022 -0.079423
-0.020569 0.018537 0.136794 -0.183299 0.130928 0.97412
0.198931 -0.449558 -0.041074 0.987534 0.033317 -0.138156
-0.00976 -0.803055 -0.134167 0.709128 -0.122904 -0.692435
-0.457059 0.193972 -0.032167 -0.747797 0.348089 -0.558755
-0.026619 0.183204 -0.111129 -0.316026 -0.251455 -0.914476
-0.106551 -0.851081 0.103574 -0.966179 0.053399 0.215766
0.008249 0.63766 0.024426 -0.634986 -0.284907 0.716469
0.198988 0.426823 0.027249 0.666902 -0.419205 0.598428
-0.133086 -0.499557 0.005936 -0.883229 -0.178883 0.429662
0.140549 0.499712 0.046765 0.356638 0.525082 0.772473
0.153892 -0.738771 -0.082164 0.776985 0.087874 -0.621655
0.165215 0.122142 -0.073506 0.805248 0.201251 -0.554417
0.04992 0.62842 0.028357 0.307379 -0.338923 0.880231
0.182976 0.219729 -0.00496 0.999665 0.02069 -0.009118
0.203602 0.435396 0.026912 0.690214 -0.16087 0.685938
-0.125742 0.171671 -0.016511 -0.920757 0.008529 -0.384461
-0.032635 0.504479 -0.124797 -0.058188 0.31184 -0.948209
-0.407592 0.256614 -0.061585 -0.8114 0.441188 -0.371047
0.018751 -0.55792 -0.039884 0.914902 0.048241 -0.397884
0.042975 -0.35177 0.011291 -0.978823 -0.069799 0.19156
-0.411568 0.243215 -0.063436 -0.643173 0.113023 -0.755197
0.24333 0.45185 -0.000582 0.353364 -0.137953 0.918791
0.060381 -0.603539 -0.002986 -0.713704 -0.120825 0.687403
0.586083 0.086839 0.058209 -0.277549 -0.50875 0.775068
0.202528 -0.495939 -0.01183 0.968799 0.172415 0.145848
-0.12088 -0.42981 -0.046068 -0.752726 0.2807 -0.595301
-0.034935 0.386125 0.105198 -0.120379 0.084256 0.98802
-0.127339 0.196438 8.7e-05 -0.986014 0.138888 -0.063883
-0.039005 0.306631 0.102453 -0.5281 0.130352 0.837825
0.610755 0.060741 0.066729 -0.721892 -0.689752 -0.025285
-0.080329 0.381297 0.083939 -0.670969 -0.056089 0.739062
0.101806 0.175205 -0.113072 0.268635 0.038366 -0.959407
-0.076239 0.303604 0.081802 -0.58392 0.005615 0.811393
0.083389 -0.587555 0.022927 -0.699455 -0.07358 0.710621
0.01741 0.385685 -0.128051 0.002256 -0.020665 -0.999332
-0.240874 0.435318 0.007248 -0.735295 0.505686 0.450927
0.021825 0.02805 -0.15476 -0.188363 -0.008692 -0.969142
-0.068885 -0.808408 -0.13929 -0.566189 -0.136326 -0.80997
0.194472 0.394294 0.007836 0.965393 -0.106721 0.23617
0.330798 0.425252 -0.115352 0.586158 0.631802 -0.497422
0.146212 -0.770373 -0.098973 0.488226 0.303282 -0.814052
-0.132076 -0.43628 0.032439 -0.917847 -0.088468 0.386655
0.198312 -0.038869 0.061253 0.88287 0.028183 0.468299
0.11065 -0.425699 0.055948 -0.532361 -0.303885 0.788032
0.020759 0.146842 0.131623 -0.069554 0.053818 0.995893
0.027312 0.22472 -0.125557 0.043509 -0.067265 -0.996352
0.19134 -0.306731 0.058101 0.901993 -0.081602 0.421719
0.161589 -0.622119 0.024655 0.380438 -0.097556 0.90552
0.075061 0.181304 0.123712 0.467644 0.035395 0.880403
0.082666 0.681942 0.033383 0.821106 -0.55631 0.116414
-0.259922 0.362562 0.018299 -0.175689 -0.121238 0.964327
-0.035018 -0.777359 0.033075 0.410154 0.669996 0.603064
0.175816 -0.664048 0.019947 0.488221 -0.115907 0.863935
-0.120833 0.533253 0.039657 -0.061236 0.631897 0.772189
0.150401 0.1568 0.079774 0.706535 0.040966 0.706444
0.158152 0.126192 -0.081189 0.766466 0.176931 -0.617216
-0.128724 -0.638668 -0.051161 -0.998494 -0.048547 -0.001591
0.120606 -0.664149 0.032387 0.099772 -0.141846 0.984436
-0.084985 -0.157513 0.115749 -0.323655 -0.014722 0.945737
0.053022 -0.425162 0.0013 -0.700541 -0.22941 0.672927
0.086142 -0.859786 -0.074087 -0.853626 -0.470252 -0.077451
0.104135 -0.048848 -0.143111 0.106938 -0.3346 -0.935274
0.204091 -0.501744 -0.023103 0.978478 0.178118 -0.0912
0.174652 0.178265 -0.048039 0.928647 0.057317 -0.361419
-0.011941 0.078086 0.12944 -0.309012 0.117469 0.942645
0.230761 0.418663 -0.131623 -0.444893 -0.218081 -0.867809
-0.128017 0.397871 0.015278 -0.97678 -0.20275 0.063872
0.21388 -0.103241 0.021817 0.990903 -0.018895 0.127453
-0.071665 -0.614041 -0.105022 -0.047412 0.065465 -0.995923
0.203503 -0.01975 -0.034455 0.938411 0.043504 -0.341155
0.026243 0.08767 -0.141789 -0.162282 0.246869 -0.955252
-0.069256 -0.138426 -0.099133 -0.356276 -0.124755 -0.924508
-0.115428 0.395196 -0.097785 -0.689212 -0.248479 -0.6781
0.086295 -0.860285 -0.062217 -0.668726 -0.741698 0.043115
-0.128301 -0.027539 0.070026 -0.870327 0.097521 0.482434
-0.013123 0.800802 -0.102918 -0.563798 0.272799 -0.774821
-0.134076 -0.231125 0.055828 -0.977175 -0.080686 0.193577
0.150391 -0.767052 0.027207 0.042224 0.411605 0.88965
0.121788 -0.165486 -0.108244 0.203623 -0.151805 -0.965383
0.083535 -0.625349 -0.075498 -0.654646 -0.080849 -0.751357
-0.050085 -0.296802 -0.091408 -0.035195 -0.088176 -0.99279
-0.050039 -0.86416 0.087553 0.023385 -0.999541 0.011823
-0.121627 -0.236033 -0.028017 -0.879772 -0.024415 -0.47433
0.044299 -0.492374 -0.024938 -0.985743 0.005346 0.151826
0.053166 -0.231975 -0.063466 -0.78051 -0.153596 -0.605472
0.089938 -0.849507 0.011542 -0.85161 -0.476672 -0.084855
0.153267 -0.439463 -0.093524 0.503726 0.204212 -0.838725
0.203762 -0.242481 0.030048 0.984051 0.025085 0.171985
0.573533 0.080886 -0.015937 0.22038 -0.296544 -0.771101
0.360498 0.320603 -0.044583 0.217082 0.277859 0.934805
0.342878 0.333704 -0.042617 0.234011 0.118084 0.9548
0.188774 -0.328283 0.060298 0.871851 -0.094887 0.477113
-0.117675 0.005615 -0.074943 -0.850155 0.033082 -0.524974
0.083834 0.101108 0.124548 0.458304 0.00751 0.887809
0.074431 0.857646 -0.023857 0.667365 0.740057 -0.077086
-0.147662 0.442863 -0.096307 -0.287766 -0.10551 -0.947852
0.03356 0.514888 0.059719 0.091477 0.502284 0.859369
0.054889 -0.664559 -0.033696 -0.87259 -0.149538 -0.463281
-0.128243 0.12763 0.014826 -0.986171 0.097363 0.130626
-0.064532 -0.863643 0.018972 -0.006111 -0.999856 -0.014786
0.022117 -0.520897 0.001362 0.868362 -0.171903 0.463673
0.102158 -0.868245 0.031144 -0.324024 -0.937734 -0.099848
0.620834 0.049358 0.070828 -0.815481 -0.574335 0.000689
0.145866 -0.323722 -0.08204 0.581172 0.023562 -0.811849
-0.216843 0.479338 -0.044797 -0.661169 0.588467 -0.460625
-0.083505 -0.861387 0.140539 -0.188732 -0.955897 0.20988
-0.003307 -0.807322 -0.013969 0.942019 -0.040672 0.326447
-0.185477 0.378386 0.01347 0.423996 -0.577922 0.696525
0.10109 0.065601 0.118253 0.431878 0.131936 0.890891
0.062968 0.605628 0.017498 0.538253 -0.04959 0.840559
0.151623 -0.86316 0.158451 0.228875 -0.957778 0.157033
-0.005598 0.157877 -0.11237 -0.232608 -0.106595 -0.964257
0.02146 0.056159 -0.148661 -0.214777 0.297698 -0.930014
0.056982 -0.336919 0.044532 -0.716327 -0.18657 0.671826
-0.1054 -0.83552 0.013217 -0.853755 0.515393 0.030616
0.038456 0.549751 0.030704 0.062568 0.548297 0.830666
-0.044477 0.22438 0.106002 -0.522101 0.048589 0.850888
0.10489 0.471649 -0.145134 -0.058354 0.106489 -0.992391
-0.042218 0.458296 -0.131973 -0.019217 0.038629 -0.99763
-0.121791 -0.407227 0.06432 -0.919281 -0.06809 0.382689
-0.1388 -0.451414 -0.012895 -0.993229 0.041173 -0.083041
0.064752 -0.312078 0.059476 -0.720599 -0.0866 0.687899
0.092976 0.706356 -0.003757 0.786615 -0.591984 0.03113
0.067114 0.806603 -0.105948 0.513157 0.293719 -0.80126
0.137177 -0.156917 -0.104868 0.418118 -0.136121 -0.894354
0.619932 0.052417 0.098312 -0.813376 -0.461911 0.291426
-0.13634 -0.163468 0.058897 -0.977525 -0.016176 0.203077
-0.061213 0.33182 0.093086 -0.619673 -0.061174 0.781884
-0.128756 0.397252 -0.036497 -0.926162 -0.354195 -0.004036
-0.093711 0.29023 0.066745 -0.749364 0.065899 0.65826
-0.076175 0.445755 -0.127168 -0.245457 -0.106123 -0.962751
-0.125133 0.110898 0.032767 -0.91949 0.102949 0.378907
0.550756 0.104709 -0.01484 -0.91187 -0.321983 -0.157234
0.049637 -0.226908 0.056647 -0.843489 -0.138273 0.51615
0.096705 -0.302328 0.07799 -0.407453 -0.214829 0.886787
0.164339 -0.839745 0.086054 0.787739 0.615723 0.01869
-0.460988 0.194963 0.008584 -0.692523 0.61701 0.338431
-0.12579 0.185826 0.024434 -0.922821 0.109097 0.360563
0.027586 -0.609218 -0.026631 0.994718 0.026575 -0.065994
0.207641 -0.177547 -0.014582 0.999722 -0.000441 -0.02268
0.435853 0.205214 -0.063969 -0.542315 -0.826847 0.130954
0.198019 -0.248754 -0.044199 0.88107 -0.142311 -0.447249
-0.066216 -0.832066 0.144547 0.016399 0.926412 0.330308
0.083712 -0.857953 0.114901 -0.947823 -0.134069 0.149151
0.026397 0.159437 0.131298 -0.018279 0.049308 0.998293
0.068227 -0.004192 -0.15626 -0.242269 -0.154435 -0.956388
-0.141909 -0.165705 0.030205 -0.974435 -0.13506 0.170888
0.075053 0.345046 0.106526 0.270369 0.145752 0.949957
0.267476 0.347422 -0.09156 -0.688712 -0.703936 -0.161925
0.059535 -0.617201 -0.054202 -0.77028 -0.0597 -0.634587
-0.128274 -0.617936 -0.020297 -0.994183 -0.037469 0.097944
-0.095232 -0.5017 0.067513 -0.866771 -0.158005 0.471512
0.130449 0.37303 0.085361 0.479244 0.052829 0.875832
-0.118378 -0.736205 -0.072133 -0.754081 -0.036543 -0.655239
0.269433 0.50415 -0.081083 0.652373 0.654634 -0.378383
0.157374 -0.39719 -0.083223 0.524244 0.159019 -0.836198
-0.529628 0.084801 0.084076 -0.532158 -0.065588 0.715001
0.163868 0.134768 0.068788 0.676485 0.15948 0.718273
0.08858 -0.770721 0.019807 -0.202103 0.820413 0.532378
-0.095635 -0.857688 -0.064879 -0.775268 -0.559714 0.110612
0.062379 0.483035 -0.133138 -0.491402 0.325554 -0.799725
-0.114352 -0.061066 -0.07424 -0.785614 -0.178557 -0.592074
0.107667 0.10521 -0.131139 0.437576 0.380285 -0.812313
0.568799 0.151166 0.014968 0.740751 0.67146 -0.011365
-0.508613 0.135489 0.004708 -0.921754 0.312291 -0.182153
-0.103799 -0.825213 -0.018305 -0.987932 0.01395 0.039647
0.012485 -0.565754 -0.051222 0.829682 0.024645 -0.557025
0.006168 0.606129 0.017385 -0.622125 -0.003329 0.775638
0.052264 -0.460535 -0.055632 -0.796051 0.034491 -0.603182
0.324963 0.399923 -0.139906 0.354186 0.24773 -0.896702
0.20048 -0.024322 -0.043605 0.950645 0.02868 -0.307796
0.019845 -0.743799 -0.034504 0.955472 -0.154655 0.244649
0.202702 -0.264484 -0.027552 0.944976 -0.105551 -0.306428
-0.350269 0.298465 -0.002983 -0.253936 0.459581 0.848796
0.00891 -0.223514 -0.061019 0.765724 -0.028679 -0.641193
0.090248 -0.52398 -0.093924 -0.58147 -0.054707 -0.8117
0.143343 -0.714232 -0.089064 0.529262 0.05339 -0.84307
-0.076071 -0.786022 0.031123 -0.516753 0.704807 0.483184
-0.068771 0.046756 -0.12676 -0.528618 0.294807 -0.792545
0.039814 0.740127 -0.113391 0.118434 -0.391908 -0.910657
-0.111152 0.042676 -0.079896 -0.836057 0.174431 -0.518126
-0.057529 -0.841055 -0.141743 -0.179873 -0.270837 -0.935584
0.128683 -0.603031 0.035123 -0.196176 -0.028122 0.975648
-0.002367 -0.668813 0.02 0.686097 -0.118871 0.717036
0.02428 0.611886 0.027014 -0.214772 -0.098162 0.968879
-0.085504 -0.587646 0.05857 0.140096 -0.202484 0.96476
-0.023207 0.590746 -0.00943 -0.610586 0.566463 0.550797
0.01316 0.297027 0.121568 -0.11928 0.104247 0.986722
-0.051773 -0.380656 -0.084144 0.118669 -0.14851 -0.977724
-0.032409 -0.20552 0.117184 0.231829 -0.235536 0.943757
0.120948 0.172946 -0.105538 0.427271 0.078458 -0.900112
-0.13307 -0.53643 -0.009525 -0.885862 -0.214316 0.409457
0.190384 0.540083 0.00034 0.273573 0.642051 0.715042
0.072372 -0.622442 0.002117 -0.624083 -0.128169 0.761498
-0.129292 0.067015 -0.025585 -0.971265 0.17703 -0.152701
0.097357 0.229906 -0.133124 0.220987 -0.298991 -0.919666
0.203633 -0.391696 -0.027425 0.961215 -0.052486 -0.264833
0.198473 -0.059498 -0.049262 0.933454 -0.014264 -0.355054
0.066065 -0.47275 -0.07156 -0.727066 0.039463 -0.685301
-0.134449 -0.560913 -0.03156 -0.986013 -0.107759 0.115355
-0.045702 0.202803 0.106162 -0.483429 0.01937 0.874736
0.025764 -0.606861 -0.036657 0.934045 0.082262 -0.323056
0.220987 0.464351 -0.133585 0.059397 0.064973 -0.994959
0.341718 0.370328 -0.056802 0.640529 0.47709 0.593567
-0.005121 -0.001594 -0.142467 -0.162829 -0.156444 -0.973789
0.198138 -0.616795 -0.005049 0.986707 -0.072427 0.134857
-0.064497 -0.537945 0.059044 0.358979 -0.176242 0.915806
-0.002376 -0.510076 -0.069057 0.792357 0.059147 -0.607168
0.130217 0.193757 -0.100522 0.566456 -0.075441 -0.818915
0.044165 -0.375425 0.009097 -0.969889 -0.07887 0.21867
0.019201 -0.426685 -0.025966 0.970895 0.018489 -0.224488
0.090978 0.827443 -0.018451 0.899695 0.42167 0.012114
-0.085893 -0.062712 -0.104336 -0.584993 -0.224828 -0.779227
0.004664 -0.074564 -0.104805 0.329075 -0.629811 -0.697354
0.156283 -0.845602 0.163527 0.812668 0.459866 0.345005
0.060704 0.854787 -0.059541 0.37436 0.820052 -0.427434
-0.08815 -0.787609 0.019399 -0.634174 0.551463 0.505639
0.119056 -0.824524 0.124983 -0.078563 0.994119 0.028226
0.066149 0.114898 0.129433 0.197186 0.102155 0.973643
0.168327 0.023093 -0.102694 0.806893 0.03383 -0.58896
-0.146515 0.40572 0.017555 0.51546 -0.732655 0.440078
0.042865 -0.180603 0.048096 -0.96941 -0.041191 0.238352
-0.007495 -0.501156 -0.074742 0.744613 0.073637 -0.66315
-0.214686 0.481045 0.011506 -0.787698 0.473255 0.387239
-0.121508 0.203253 0.026931 -0.94004 0.193802 0.277511
0.001546 0.596875 0.013701 -0.644901 0.119152 0.751706
0.080883 -0.261016 0.080001 -0.399901 -0.133568 0.90333
0.2054 -0.24822 0.00311 0.999827 0.00109 0.002517
0.160171 -0.431693 -0.08722 0.540358 0.207879 -0.813779
0.170375 0.079111 -0.08356 0.790964 0.181941 -0.584111
0.117201 -0.333361 -0.099069 0.274997 0.039462 -0.960629
-0.047976 -0.855181 -0.134235 0.150747 -0.675462 -0.707059
-0.128613 -0.633816 -0.061277 -0.99443 -0.024864 -0.09618
0.067597 -0.519789 -0.072422 -0.736738 -0.071994 -0.671583
0.011562 -0.457066 0.031445 0.801295 -0.060591 0.595057
-0.123344 -0.116453 0.083886 -0.837589 0.032524 0.544503
0.121111 -0.86995 0.067099 -0.004018 -0.999968 0.000345
-0.1341 -0.139745 0.065732 -0.90119 0.03083 0.419245
0.0987 0.447967 0.083025 0.144361 0.228611 0.962621
-0.136868 -0.115715 0.055393 -0.962746 -0.00746 0.268823
0.064421 0.632488 -0.061136 0.494005 0.315583 -0.808122
0.16706 -0.651908 0.02541 0.395904 -0.017651 0.91418
0.105551 -0.759804 -0.091689 -0.774522 0.008365 -0.561358
-0.009268 -0.529134 0.035181 0.546866 -0.156112 0.813931
0.019449 0.663728 0.08691 -0.46598 -0.664775 0.553471
-0.081995 -0.862138 -0.088385 -0.130115 -0.990345 -0.010377
0.023689 -0.447787 -0.01602 0.903757 0.15737 -0.394347
-0.071621 0.170203 0.093887 -0.63155 0.002607 0.774598
-0.074321 -0.540453 0.062651 0.406954 -0.215232 0.887516
-0.016598 -0.795262 0.019147 0.884404 0.268595 0.37928
0.047929 0.29513 -0.130953 -0.336124 -0.019107 -0.941252
-0.118521 -0.012264 -0.074476 -0.838872 0.005136 -0.542822
0.112327 0.590307 -0.037537 0.390197 0.865915 0.304519
-0.401081 0.253368 -0.070549 -0.680352 0.120934 -0.714309
-0.058158 -0.068546 -0.115297 -0.222396 -0.274284 -0.935139
0.192171 -0.356828 0.047556 0.92286 -0.054619 0.380726
0.061571 -0.229975 -0.073558 -0.730775 -0.117183 -0.672031
0.072766 0.526676 0.050225 0.120676 0.524077 0.842666
-0.125549 -0.640255 -0.074452 -0.89051 0.008962 -0.443032
-0.126666 -0.703331 -0.063496 -0.964779 -0.074123 -0.243364
0.121554 0.464441 -0.145951 0.052155 0.075672 -0.995494
0.026576 -0.518515 -0.007719 0.979307 -0.094187 0.168572
0.02491 -0.386036 -0.011959 0.972165 -0.047525 -0.214071
-0.127991 -0.585625 -0.015987 -0.977568 -0.044606 0.205516
0.151333 -0.044672 -0.123574 0.685834 -0.201926 -0.698293
0.143843 0.214959 0.082831 0.72354 0.066087 0.686465
-0.111904 -0.811141 -0.047018 -0.868841 -0.491764 0.039722
0.106571 0.130526 0.112835 0.503937 0.018375 0.862754
-0.058011 -0.009237 0.133432 -0.273804 -0.566883 0.739439
0.143602 -0.311617 -0.083173 0.578058 0.032215 -0.814937
0.021445 -0.42661 -0.010385 0.987306 0.102831 -0.102993
0.559349 0.161747 0.016622 0.733562 0.67937 0.010078
0.004088 -0.37596 -0.048702 0.659228 0.049632 -0.750037
-0.11217 0.253827 -0.029868 -0.998126 0.048498 -0.012729
0.104562 -0.671195 -0.088558 -0.458756 0.038343 -0.885949
-0.120284 0.324483 -0.030312 -0.999277 -0.024692 0.022066
-0.1311 0.016398 0.064502 -0.828915 0.292085 0.475435
0.081801 -0.094374 0.09689 -0.498033 -0.393028 0.764909
0.046377 -0.536567 -0.039889 -0.902495 -0.027424 -0.423306
-0.0786 -0.861797 -0.028556 -0.065825 -0.995656 -0.045674
-0.116381 0.108687 0.054056 -0.850721 0.19833 0.48655
-0.163911 0.543162 -0.019722 -0.644565 0.763365 -0.028213
0.236477 0.528132 -0.015748 0.647066 0.607287 0.460718
-0.076334 -0.828844 -0.130847 -0.78723 -0.011028 -0.615573
-0.043669 0.307083 -0.127085 -0.312825 0.014954 -0.945659
-0.009948 -0.062103 -0.119629 0.114522 -0.491208 -0.862646
-0.015218 0.602032 -0.071172 -0.399754 0.73981 -0.53818
0.041777 0.629871 -0.068017 0.032298 0.331934 -0.937887
-0.019835 -0.248248 0.105258 0.305264 -0.177175 0.934243
0.071564 0.607453 0.010831 0.693763 -0.005662 0.718023
0.095936 -0.412015 -0.095681 -0.475468 0.019272 -0.877783
0.179516 -0.289307 -0.055232 0.681653 -0.16847 -0.711927
0.140095 0.479177 0.059907 0.306932 0.458934 0.831861
-0.02402 -0.787884 -0.142487 0.392813 0.407445 -0.822547
-0.103134 0.048434 -0.090267 -0.797945 0.208029 -0.563033
0.285802 0.436883 -0.017755 0.607392 0.199005 0.767628
0.249714 0.392097 -0.132624 -0.439791 -0.279041 -0.852977
-0.069536 0.300974 -0.114627 -0.546721 -0.030833 -0.836533
0.119682 0.019611 -0.145243 0.451197 0.009135 -0.891809
0.090226 0.340676 -0.144672 -0.006929 -0.045353 -0.997793
0.045447 0.85936 0.038891 0.300834 0.78544 0.540055
-0.005005 -0.014928 0.136508 -0.026468 -0.614097 0.776174
0.076004 0.848588 0.024149 0.710321 0.613974 0.334688
-0.031368 0.745997 0.013282 -0.942777 -0.173365 0.281877
0.144985 -0.780454 -0.104201 0.394181 0.417584 -0.816876
-0.186855 0.366689 0.002419 0.496774 -0.677052 0.541861
-0.068216 -0.459051 -0.094194 -0.143031 0.103225 -0.981181
0.113539 -0.319153 0.079878 -0.14129 -0.088509 0.985095
0.079113 -0.749013 0.024069 0.074226 -0.378018 0.917819
-0.202169 0.478407 0.030323 -0.643788 0.281583 0.710646
-0.035136 -0.861192 -0.0818 0.305117 -0.933631 0.14402
-0.095555 0.55379 -0.077322 -0.404672 0.687302 -0.603131
0.178025 -0.607415 -0.076933 0.643014 -0.079736 -0.761351
0.20012 -0.438656 -0.020322 0.998118 -0.048394 -0.026609
0.195798 -0.427561 -0.048453 0.88768 0.099034 -0.442451
-0.025289 -0.857404 0.030175 0.746921 -0.646432 -0.093184
0.047509 0.094509 -0.143288 -0.10876 0.238836 -0.963974
0.084504 0.682077 0.017267 0.885594 -0.420557 0.168959
0.12849 -0.031721 0.117214 0.410682 -0.057293 0.909957
0.145905 -0.650931 0.03062 0.198749 0.01632 0.976162
0.566777 0.088622 0.047652 -0.855124 -0.43576 0.262627
0.37735 0.250401 -0.062976 -0.74553 -0.607738 0.273288
0.102843 0.746245 0.001974 0.821498 -0.116414 0.535512
0.227649 0.386015 -0.074967 -0.715768 -0.698185 0.011425
-0.192107 0.505376 0.022361 -0.653481 0.596555 0.465055
0.061316 0.684776 -0.066073 0.548163 -0.415586 -0.719918
0.206109 0.425619 0.016694 0.692454 -0.582116 0.406779
0.048319 -0.573597 -0.015738 -0.895595 -0.103972 0.431887
-0.072643 0.524313 0.048323 -0.112519 0.564919 0.816741
0.045993 -0.037361 -0.138319 -0.304233 -0.415154 -0.857133
0.046768 0.658442 0.062916 0.189098 -0.971361 0.143205
0.179214 -0.593691 0.026114 0.555434 -0.330273 0.762931
0.114888 -0.16343 0.104639 -0.120892 -0.305656 0.940182
-0.009647 -0.814627 0.00696 0.952584 0.034686 0.275284
0.126165 -0.756526 0.023593 -0.067908 -0.737908 0.670161
0.103201 0.238827 -0.134378 0.325733 -0.233016 -0.910436
0.197795 0.368061 -0.066195 0.970369 -0.186343 -0.125718
-0.136635 0.437813 -0.101199 -0.4833 -0.240894 -0.840914
-0.539285 0.096219 0.037646 -0.634292 0.753477 -0.170462
-0.123326 0.149967 0.025655 -0.941467 0.012713 0.329803
0.104617 -0.406283 -0.099693 -0.345187 0.019551 -0.935868
0.177152 0.414078 -0.127846 0.204515 -0.377135 -0.903095
-0.106827 0.419788 -0.112372 -0.442074 -0.229163 -0.86133
0.084272 -0.568927 0.025101 -0.615098 -0.03717 0.781916
0.189271 -0.031105 0.073524 0.77491 0.025525 0.631161
0.121115 -0.860374 0.178851 -0.098175 -0.94996 0.289352
0.016521 0.842489 0.055198 -0.349426 0.553762 0.753584
0.059566 0.667445 -0.060574 0.621636 -0.164523 -0.761523
0.106272 -0.734403 -0.094501 -0.462811 -0.029812 -0.884893
0.415543 0.220251 -0.110383 -0.046387 -0.593238 -0.777951
0.200008 0.394284 -0.061409 0.979001 -0.191031 0.016651
-0.007624 -0.828803 -0.11231 0.537073 -0.782491 -0.244865
-0.263363 0.339203 -0.09586 0.159742 -0.159903 -0.972905
0.124998 -0.27381 -0.09528 0.407543 -0.05557 -0.911464
0.006957 0.553297 -0.110194 -0.00736 0.430687 -0.902086
0.120261 0.030797 -0.144651 0.480903 0.101201 -0.870274
0.12109 -0.825784 0.146592 -0.021325 0.990769 0.093694
0.053829 -0.654126 0.006849 -0.88974 0.110374 0.415561
-0.049666 -0.369542 0.093463 0.301475 -0.278624 0.911673
0.025091 -0.641866 -0.047338 0.92393 0.083546 -0.365008
0.536205 0.159181 -0.030384 0.581929 -0.206856 -0.783295
0.0094 0.12266 0.131223 -0.122352 0.041195 0.989374
0.544157 0.122126 0.010657 -0.85909 -0.498613 0.044842
0.128249 -0.869612 0.103898 -0.008219 -0.999781 0.017704
0.089396 0.69038 -0.017612 0.988294 -0.140545 -0.054627
0.197594 0.456987 0.030497 0.594799 0.144663 0.788873
-0.093232 -0.551375 -0.095425 -0.465986 0.080106 -0.880313
