-0.104174 -0.336996 -0.059049 -0.739105 0.071752 -0.66821
0.13123 0.383134 0.084284 0.478795 0.057481 0.875869
0.165842 -0.705234 0.006983 0.39825 -0.571181 0.71656
0.130997 -0.69775 0.025067 0.278873 -0.335457 0.899101
0.025855 -0.183542 -0.031212 -0.650162 0.034635 -0.751626
0.019387 -0.351437 0.046431 0.921931 -0.121864 0.367416
-0.001778 0.124358 0.129435 -0.186172 0.014079 0.981135
0.192517 -0.280189 -0.042132 0.804697 -0.189227 -0.560184
0.177738 -0.204949 -0.0713 0.592493 -0.10484 -0.798377
0.010154 0.005888 -0.145747 -0.15356 -0.212669 -0.964344
-0.06206 0.197389 0.097898 -0.442968 0.047473 0.894875
-0.144093 -0.073752 0.005786 -0.999441 0.012054 -0.021688
0.019138 0.269255 -0.127235 0.105623 -0.057137 -0.991562
0.04169 -0.370968 -0.03506 -0.924055 -0.061636 -0.36893
0.210368 0.534812 -0.100194 0.280889 0.735894 -0.615955
0.12109 -0.825784 0.146592 -0.021325 0.990769 0.093694
0.641904 0.02255 0.051211 0.290368 -0.86191 -0.004194
0.193229 0.546522 -0.093473 0.301244 0.735307 -0.606628
-0.083761 -0.863185 0.012891 -0.04584 -0.998667 -0.019429
0.12945 -0.864855 0.157638 -0.026087 -0.984875 0.168905
0.065002 0.570391 -0.106598 -0.07193 0.577569 -0.812566
0.145591 0.370184 0.074853 0.640645 -0.030984 0.766873
-0.023353 0.740928 0.048536 -0.824803 0.031166 0.563557
0.093342 0.253472 -0.137673 0.042837 -0.100049 -0.993842
-0.105127 0.380209 0.062011 -0.731775 -0.206671 0.648235
0.224002 0.531934 -0.095756 0.401903 0.681204 -0.610562
0.2042 0.418153 -0.000106 0.669295 -0.712023 0.206336
0.049228 -0.128208 0.063816 -0.197137 -0.120481 0.904154
0.126817 -0.000389 -0.143595 0.408332 0.133951 -0.90115
0.082635 -0.548157 -0.08462 -0.699424 -0.087576 -0.709287
-0.04817 -0.24425 -0.092897 0.047289 0.049054 -0.995361
-0.100648 -0.21593 -0.065169 -0.7626 -0.039639 -0.645332
0.090327 0.723218 0.046638 0.984113 -0.005883 0.177207
-0.140748 0.4597 0.060301 -0.20148 -0.111504 0.972534
-0.042753 -0.86046 0.127657 0.344658 -0.91115 0.214509
0.109461 -0.646264 -0.091719 -0.408149 -0.076017 -0.909724
0.555011 0.103424 0.03623 -0.844597 -0.438493 0.301747
0.085841 -0.72459 0.036449 0.017691 -0.115084 0.992456
0.519529 0.176265 0.016108 -0.226474 0.49109 0.833339
-0.002772 -0.52018 -0.070606 0.792799 0.061386 -0.606235
0.150158 0.268865 0.070323 0.759476 0.08344 0.644894
0.214047 -0.078756 0.000755 0.99616 0.040293 -0.074317
0.185567 0.565798 -0.040913 0.319193 0.931489 0.153784
-0.225272 0.469956 -0.002318 -0.828716 0.479833 0.273915
-0.032987 0.833224 -0.049539 -0.719919 0.622978 -0.291588
0.072766 0.526676 0.050225 0.120676 0.524077 0.842666
0.582798 0.082496 -0.009265 0.589694 0.361285 -0.716335
0.207507 -0.049345 0.040784 0.945217 0.048204 0.320749
0.023432 0.294748 0.122819 -0.030689 0.106499 0.993712
-0.181003 0.470186 -0.082905 -0.380702 0.312707 -0.869075
-0.072234 -0.418805 0.088023 0.112874 -0.215161 0.969282
0.102665 0.781156 -0.057867 0.936732 0.017461 -0.337813
-0.081341 0.413824 0.083597 -0.641934 0.084037 0.761179
0.164958 -0.092232 -0.100261 0.749982 -0.125803 -0.649029
-0.461362 0.138642 -0.010758 0.361243 -0.850341 -0.380699
-0.010176 -0.58911 -0.077684 0.680914 -0.031434 -0.731442
0.089211 0.168819 0.118513 0.421051 0.052406 0.903155
-0.030793 -0.786419 0.037764 0.567686 0.519378 0.637624
-0.174876 0.510112 0.036046 -0.547721 0.518728 0.654257
0.447981 0.197409 -0.043424 -0.658346 -0.74569 0.099183
-0.048488 0.414533 -0.128524 -0.132443 -0.0617 -0.988857
0.602881 0.10508 0.023467 0.898925 0.409387 -0.102156
0.129614 -0.869274 0.119407 -0.005729 -0.999405 0.032541
-0.059341 -0.244379 0.112523 0.040532 -0.111884 0.99223
0.165069 -0.843961 -0.008852 0.994979 0.022884 -0.074292
-0.132032 -0.1823 -0.017521 -0.881811 -0.159836 -0.443316
0.564528 0.154372 -0.005705 0.849947 0.443712 -0.269119
0.126781 -0.789965 0.047083 0.304882 0.497156 0.806408
-0.248424 0.297932 -0.039487 0.772207 -0.633931 0.030954
-0.014686 0.854328 -0.007336 -0.481107 0.876075 0.02905
-0.060613 0.57173 -0.082086 -0.434052 0.659607 -0.611422
-0.02497 0.232584 0.113514 -0.340644 0.060351 0.938031
0.132999 -0.393565 0.072225 -0.22586 -0.186321 0.955783
0.039008 -0.105078 0.095582 0.482706 -0.589514 0.643932
0.122195 0.342941 0.090794 0.444166 0.0671 0.892454
-0.136051 -0.0088 -0.030866 -0.987313 0.035018 -0.154214
0.437031 0.263979 -0.117363 0.59755 -0.001949 -0.794563
0.185827 -0.110756 0.081934 0.727381 0.022698 0.685851
-0.05252 -0.062795 0.127592 -0.192865 -0.048181 0.979369
-0.080502 -0.318768 0.105714 0.034725 -0.065696 0.996202
-0.328339 0.322464 -0.003769 -0.462533 0.420485 0.77542
0.020239 -0.670602 -0.060451 0.6849 0.151549 -0.701043
0.046321 -0.411571 -0.002011 -0.89318 -0.180639 0.401153
-0.042144 -0.580724 0.039435 0.493784 -0.315709 0.809183
0.12234 -0.525042 0.045441 -0.474861 -0.107836 0.872138
-0.050577 -0.706358 0.014127 -0.285125 0.034803 0.953983
-0.402958 0.190527 -0.053063 0.250679 -0.726141 -0.629777
-0.048111 0.589831 -0.046369 -0.172487 0.980983 0.004007
0.006957 0.553297 -0.110194 -0.00736 0.430687 -0.902086
0.064235 -0.345166 0.049997 -0.694278 -0.241991 0.675452
0.33378 0.427901 -0.076754 0.816548 0.54846 0.167668
0.080827 -0.280558 0.076168 -0.475983 -0.181592 0.859721
-0.32479 0.336776 -0.069393 -0.569481 0.709982 -0.410307
0.054621 0.262898 -0.131233 -0.36624 -0.09593 -0.925329
0.128645 -0.86654 -0.020632 0.023644 -0.994379 0.088211
0.014147 0.262693 0.12623 -0.140387 0.099684 0.981659
-0.109925 0.280246 0.020307 -0.978569 -0.010173 0.201764
-0.047152 0.041807 -0.137936 -0.322575 0.223308 -0.919755
0.050146 -0.34678 -0.053563 -0.837127 -0.070481 -0.541866
0.052688 -0.700655 0.006622 -0.99301 0.01986 0.11055
0.051962 -0.310481 0.045421 -0.777042 -0.102057 0.619752
-0.216585 0.484433 0.001486 -0.784903 0.545804 0.291823
0.066152 0.098722 0.130778 0.192534 -0.031903 0.973751
-0.258016 0.409157 -0.078087 -0.465058 0.615891 -0.635904
-0.136742 -0.181897 0.051163 -0.994979 -0.045863 0.087697
0.081737 0.637997 -0.002887 0.963116 -0.061233 0.251355
0.034503 0.029351 -0.157246 -0.198376 0.032642 -0.965342
0.034689 -0.026409 0.133605 -0.186702 -0.220563 0.939909
0.586258 0.047146 0.031538 0.570563 -0.788359 0.167661
0.089636 -0.835866 0.070805 -0.959799 0.275254 0.052985
-0.415654 0.230715 0.011021 -0.268438 0.381596 0.880094
0.012323 -0.311546 0.070999 0.784017 -0.163851 0.598629
0.062491 0.82541 -0.095923 0.316594 0.692051 -0.642719
0.174253 -0.853738 0.05651 0.920611 0.200112 -0.041786
0.122107 -0.197702 -0.104308 0.099177 -0.144008 -0.982287
0.060692 -0.212076 -0.076356 -0.723192 -0.174621 -0.667856
0.112461 -0.371209 0.070062 -0.436702 -0.253012 0.862535
-0.044118 0.139997 0.112156 -0.484085 0.014402 0.873757
0.201411 -0.220666 0.038226 0.952656 0.02773 0.302666
-0.136175 -0.429834 0.016928 -0.986504 -0.012746 0.161321
0.100845 0.725462 -0.000753 0.989592 0.017348 0.108471
0.005001 -0.195845 -0.064806 0.727736 0.040632 -0.684231
0.026367 -0.341726 -0.012432 0.967245 -0.061433 -0.228841
-0.06392 -0.28129 -0.090249 -0.277349 -0.057593 -0.95628
0.042977 -0.170375 -0.06468 -0.870667 -0.197569 -0.449386
0.206414 0.01071 0.034718 0.993559 0.00218 0.105743
0.15526 0.019119 0.106522 0.508003 0.185595 0.840856
-0.083183 -0.083164 -0.099891 -0.589286 -0.210539 -0.779305
0.030921 0.122231 -0.130172 -0.137899 0.441952 -0.885804
0.198038 -0.098629 0.065176 0.861293 -0.028873 0.501947
-0.008904 0.737719 0.065878 -0.58822 0.034536 0.802171
0.179402 0.510223 0.023602 0.42238 0.444653 0.789215
-0.291792 0.255826 -0.065047 0.52592 -0.785861 -0.307576
-0.552045 0.05558 0.067187 0.819448 -0.557672 0.059888
-0.267794 0.337958 0.01007 -0.097836 -0.189376 0.974412
0.137337 -0.489585 0.058906 -0.419238 -0.142333 0.895445
0.050181 -0.251152 0.052688 -0.830265 -0.075458 0.551164
0.136779 0.140188 -0.101633 0.66831 0.175051 -0.72287
-0.035629 -0.316306 0.09727 0.249602 -0.071969 0.965447
0.023803 -0.036111 -0.133003 -0.098384 -0.479077 -0.871087
-0.073454 -0.601783 -0.104027 -0.087455 0.0464 -0.99324
-0.35872 0.305419 -0.013687 -0.500232 0.727771 0.461273
0.100209 0.71751 -0.01144 0.945671 -0.286041 -0.060172
0.07704 -0.68454 0.030811 -0.424005 0.282744 0.859809
0.00064 -0.809706 -0.114691 0.873495 -0.170934 -0.437075
-0.025543 -0.78105 0.028899 0.625055 0.5651 0.533327
0.009294 -0.636673 -0.061943 0.659237 0.11361 -0.742771
0.160912 0.234883 0.060623 0.747673 0.055419 0.661269
0.515619 0.153625 -0.006697 -0.654549 -0.755616 0.022728
0.133905 -0.316709 0.081145 0.034955 -0.056871 0.997394
-0.135406 0.412217 -0.078033 -0.184049 -0.82584 -0.381119
0.062173 0.693027 -0.07104 0.524037 -0.530111 -0.664741
0.510649 0.160834 0.017432 -0.559381 -0.632398 0.441305
-0.129296 -0.043182 0.071024 -0.847529 0.055313 0.525335
0.188912 -0.016432 -0.0722 0.872677 0.052108 -0.481691
0.190384 0.540083 0.00034 0.273573 0.642051 0.715042
-0.006961 0.447593 0.094991 -0.031949 0.303525 0.950106
0.166871 0.470506 0.04715 0.635065 0.18412 0.749254
0.004522 -0.813839 -0.043138 0.944843 -0.225255 0.224218
0.1134 0.34348 0.094898 0.428671 0.10265 0.893925
0.017433 -0.719423 -0.071151 0.883645 0.058245 -0.457121
-0.082278 -0.041431 -0.11333 -0.58247 -0.234046 -0.77694
-0.066012 -0.862502 -0.016716 0.007655 -0.998886 -0.045754
-0.257447 0.427133 -0.017932 -0.751627 0.624967 0.210845
-0.119723 0.318568 -0.02092 -0.995988 -0.043182 0.072571
-0.086313 -0.271097 -0.077288 -0.614166 -0.037345 -0.773187
-0.114089 0.016541 -0.080787 -0.87467 0.039602 -0.482283
0.090813 -0.624641 0.02229 -0.721437 -0.275065 0.634602
0.162995 0.458816 0.052711 0.670762 0.117279 0.73133
0.179758 -0.770954 -0.053721 0.769976 0.538651 -0.337642
-0.026557 -0.370016 0.08774 0.322734 -0.158514 0.930673
-0.135071 -0.247017 0.015334 -0.995896 -0.064458 -0.060549
0.059712 -0.380385 -0.064046 -0.771473 -0.030218 -0.635442
0.220987 0.464351 -0.133585 0.059397 0.064973 -0.994959
-0.091818 -0.053438 -0.101978 -0.632431 -0.229235 -0.739817
-0.112701 -0.458155 -0.065658 -0.720963 0.151745 -0.676034
0.071273 0.11607 -0.135166 0.067644 0.400206 -0.913335
0.24021 0.373243 -0.090129 -0.706433 -0.707477 -0.015694
-0.016508 -0.013161 0.138014 -0.053141 -0.721109 0.667213
0.30685 0.314796 -0.07723 -0.691508 -0.712386 0.101642
0.045993 -0.037361 -0.138319 -0.304233 -0.415154 -0.857133
0.197062 0.35796 -0.028936 0.986862 -0.10706 0.110122
0.088062 0.289378 0.108927 0.372334 0.139382 0.916127
0.049677 -0.447762 -0.050921 -0.829977 0.041195 -0.554256
-0.079365 -0.863637 0.077979 -0.051301 -0.998623 0.002045
0.158526 -0.842467 0.147852 0.688896 0.690498 0.205592
-0.029937 0.841192 -0.002019 -0.675804 0.713753 0.169583
0.045447 0.85936 0.038891 0.300834 0.78544 0.540055
-0.139533 -0.030025 0.02736 -0.969473 0.190302 0.14563
0.075261 -0.357382 -0.083295 -0.660805 -0.071997 -0.745255
-0.314573 0.351535 -0.054694 -0.666132 0.720762 -0.191715
-0.121533 -0.314523 -0.032044 -0.841312 0.068052 -0.535752
0.065165 -0.632484 0.003567 -0.211689 0.471715 0.851673
0.555443 0.150652 -0.013969 0.631642 0.118028 -0.758671
0.076311 0.434483 0.088979 0.082579 0.172627 0.981448
0.192531 0.340712 -0.03944 0.958088 -0.264909 -0.087525
-0.097325 -0.81382 0.014286 -0.952117 0.205157 0.220447
0.051092 0.50473 0.064359 0.062061 0.478784 0.875322
-0.024291 -0.857111 0.050071 0.847864 -0.49106 0.024418
-0.102276 -0.454508 0.078973 -0.597176 -0.142122 0.766933
-0.016086 -0.004532 -0.139799 -0.178963 -0.14126 -0.973061
0.265911 0.431016 -0.139739 -0.020462 0.202442 -0.97716
-0.128153 -0.624594 -0.06549 -0.975868 0.003149 -0.196469
-0.126364 -0.496443 0.020112 -0.845973 -0.200057 0.492734
0.189981 0.075561 -0.053345 0.886119 0.12737 -0.444221
-0.012566 0.293826 0.115102 -0.235902 0.079055 0.965736
0.173847 -0.686887 -0.060296 0.770005 -0.155051 -0.617786
0.411842 0.239022 -0.036409 -0.313997 -0.564248 0.745809
0.043793 -0.200041 0.048998 -0.962952 -0.04894 0.248466
0.017382 -0.267685 0.072592 0.895684 -0.078225 0.428586
0.168575 -0.10943 0.098463 0.650749 0.035907 0.758325
0.025255 -0.184526 0.055347 0.959346 -0.058343 0.270346
-0.114256 -0.255417 -0.040345 -0.890556 -0.013641 -0.454229
-0.118222 -0.731182 -0.016945 -0.713689 0.306915 0.620787
0.082951 -0.763415 0.011294 -0.04061 0.037829 0.918535
0.022364 -0.543471 -0.02504 0.951608 0.051592 -0.298457
0.083383 -0.781724 0.03706 -0.432272 0.367013 0.809484
-0.126337 -0.720625 -0.060626 -0.971593 -0.033028 -0.227565
0.095845 -0.322752 -0.098108 -0.304522 0.010749 -0.947878
-0.000522 0.337727 0.112824 -0.038208 0.055773 0.997252
-0.072135 0.021301 -0.130686 -0.476978 -0.33638 -0.802794
-0.016329 0.676326 -0.003767 -0.796199 -0.587405 -0.023641
-0.062235 0.273208 0.090686 -0.52263 0.035405 0.851771
0.398957 0.327554 -0.072424 0.578885 0.731345 0.354349
0.095183 -0.837288 0.122512 -0.788479 0.591838 0.1602
0.221172 0.395036 -0.100302 -0.549597 -0.795695 -0.139447
-0.1286 -0.371219 -0.00453 -0.999762 0.008286 -0.00936
-0.067302 0.189303 -0.091353 -0.577916 -0.155499 -0.800124
-0.522627 0.119867 0.074468 -0.725946 0.680918 0.084461
0.197231 -0.446758 0.013024 0.975705 -0.086426 0.198034
-0.073876 -0.175702 -0.090447 -0.482447 -0.157326 -0.857379
-0.091223 0.566961 -0.002604 -0.171433 0.906777 0.377524
-0.120002 0.151332 0.037539 -0.942959 0.014967 0.330645
-0.04201 -0.306659 0.099703 0.276382 -0.115386 0.952772
-0.297708 0.252438 -0.015671 0.697483 -0.661546 0.275237
0.195407 0.020875 -0.05316 0.921244 -0.030734 -0.386711
0.185443 0.135706 0.044196 0.820657 0.060518 0.56733
0.394612 0.231333 -0.094257 -0.650847 -0.732169 -0.158551
-0.135598 -0.24049 0.028702 -0.998974 -0.042522 0.008596
0.09377 0.308748 0.105095 0.205447 0.08691 0.97471
0.464899 0.251175 -0.089597 0.782667 -0.062195 -0.584043
0.180139 0.461344 -0.136932 0.150319 0.000928 -0.988601
0.079419 0.74815 0.062875 0.648852 0.133578 0.748751
0.072973 -0.626723 -0.066473 -0.660213 -0.098563 -0.744535
0.107536 -0.823841 -0.114127 -0.435583 -0.053061 -0.894314
0.068246 -0.508681 -0.074039 -0.719832 -0.039932 -0.692651
0.254636 0.360757 -0.100865 -0.640014 -0.741684 -0.19378
0.189463 -0.459822 -0.065814 0.813675 0.099476 -0.570706
-0.106827 0.419788 -0.112372 -0.442074 -0.229163 -0.86133
0.082668 0.845625 -0.032552 0.809094 0.572777 -0.091547
-0.270171 0.368225 0.013942 -0.578837 0.057118 0.810511
0.166365 -0.177264 0.092941 0.37633 -0.173817 0.908275
0.012964 -0.489289 -0.044911 0.842435 0.025234 -0.537595
0.015091 -0.301771 0.069761 0.802531 -0.166202 0.572267
-0.139419 -0.469151 -0.009144 -0.992821 0.05568 0.072527
-0.027184 0.490243 0.07484 -0.098416 0.446805 0.888421
0.114947 -0.658018 -0.093336 -0.380863 -0.044945 -0.923251
0.205007 0.000526 -0.024382 0.969388 0.095924 -0.214542
-0.10822 -0.722529 -0.088705 -0.818706 -0.058354 -0.57024
0.201909 -0.066822 -0.039507 0.929276 0.034359 -0.367062
-0.146993 0.518544 0.04579 -0.214672 0.475353 0.850624
-0.128468 -0.30704 -4e-05 -0.999585 -0.010013 -0.026606
0.073849 0.573858 -0.104691 -0.056975 0.634022 -0.770517
-0.043669 0.307083 -0.127085 -0.312825 0.014954 -0.945659
0.122569 0.071655 -0.132947 0.549369 0.244976 -0.798572
0.014511 0.442244 -0.126989 0.030713 0.002637 -0.999276
0.12036 0.046482 0.112259 0.167672 0.218395 0.943916
-0.506858 0.114554 0.008888 -0.132369 -0.7372 -0.66019
0.177106 0.071357 0.073892 0.843598 0.116298 0.48844
-0.081613 -0.61096 -0.103375 -0.224029 0.079457 -0.96756
0.156314 -0.831252 0.097896 0.631766 0.763626 0.126167
0.198654 0.385663 -0.039395 0.997155 -0.065056 0.022226
0.069583 -0.784124 -0.049953 -0.897064 0.123756 -0.421731
0.072635 -0.705056 0.034585 -0.160564 0.165781 0.970725
0.077402 -0.2923 -0.088076 -0.581414 0.007526 -0.81337
-0.040013 0.495408 -0.12716 -0.047594 0.238662 -0.968224
-0.056624 -0.798845 -0.146789 -0.358062 0.068957 -0.923434
0.07546 -0.673398 -0.061031 -0.788354 -0.084583 -0.609132
-0.092516 0.159401 -0.072835 -0.733983 0.181159 -0.636847
-0.038708 -0.057243 0.129694 -0.096313 -0.072687 0.992556
-0.103138 -0.86084 0.096778 -0.630921 -0.728469 0.065031
0.067145 0.37694 -0.141039 -0.400018 -0.005517 -0.914863
-0.005876 -0.2275 0.103548 0.510262 -0.143375 0.84455
-0.206946 0.451561 0.036085 -0.554694 0.270568 0.786184
-0.04622 0.062647 0.120233 -0.462601 0.145598 0.873459
-0.128791 -0.395864 0.039032 -0.969619 0.136205 0.202148
0.203719 -0.52478 -0.035728 0.96051 0.051026 -0.26896
-0.030706 0.176133 0.117055 -0.602163 0.129267 0.787298
-0.062489 -0.017844 -0.129315 -0.259031 -0.117997 -0.957764
-0.106169 0.406672 0.065215 -0.502001 -0.012797 0.860315
0.083535 -0.625349 -0.075498 -0.654646 -0.080849 -0.751357
0.127976 0.568031 -0.099472 0.306973 0.68319 -0.662191
0.162972 -0.758865 0.023775 0.126631 0.083463 0.980998
-0.120195 -0.190252 -0.037762 -0.850454 -0.101697 -0.515844
-0.124755 0.187103 -0.015351 -0.86619 0.183359 -0.463575
-0.1154 0.030263 0.086313 -0.859612 0.117404 0.496057
0.060989 -0.789528 -0.027975 -0.981138 -0.026643 -0.170638
0.204547 -0.221601 0.026853 0.981938 -0.011115 0.184166
-0.008124 0.442852 -0.129362 0.10155 -0.006782 -0.994772
0.035343 -0.319041 -0.021568 -0.992146 -0.016567 -0.119747
0.0855 0.637309 -0.02605 0.965766 0.194932 -0.070683
0.012961 -0.62647 -0.057201 0.684031 0.120311 -0.719378
-0.127095 -0.330183 0.031238 -0.992433 -0.014556 0.121881
0.205943 -0.344097 0.001183 0.998926 -0.012502 0.021317
-0.213289 0.493061 -0.025661 -0.753491 0.647363 -0.09236
0.146134 -0.210492 0.091768 0.076371 -0.22258 0.96887
0.139583 -0.616655 -0.097238 0.237505 -0.13887 -0.959977
-0.144295 -0.093384 0.010764 -0.999877 0.012485 0.000811
-0.02577 -0.025819 -0.135435 -0.097758 -0.22194 -0.969503
-0.066593 0.519553 -0.11419 -0.220625 0.42137 -0.879126
0.062541 -0.74016 0.033937 -0.271797 -0.366807 0.880694
-0.021068 0.091908 0.126188 -0.384502 -0.141966 0.908371
-0.13318 -0.050309 0.065025 -0.869005 0.034723 0.489524
-0.225707 0.378611 -0.096485 0.062012 -0.00356 -0.996938
0.099497 0.799866 -0.058165 0.936723 0.228967 -0.250023
-0.312091 0.354824 -0.031119 -0.662822 0.736607 0.13301
0.044198 0.448188 0.089453 0.113012 0.190281 0.974186
0.089297 0.702331 0.04266 0.965566 -0.206357 0.144299
-0.380185 0.19391 -0.000969 0.553271 -0.803237 0.200801
-0.043522 0.428536 -0.129928 -0.065852 -0.077701 -0.994441
0.183311 -0.784281 -0.038997 0.973212 -0.219445 -0.022563
-0.123195 -0.544759 -0.068203 -0.802109 0.110064 -0.586548
-0.126512 -0.330979 -0.02055 -0.977381 0.003709 -0.203939
0.186721 0.410272 0.038226 0.803811 -0.106116 0.580767
-0.128669 -0.458073 0.032737 -0.89509 -0.177924 0.407172
0.037052 -0.32548 -0.031121 -0.964007 -0.02143 -0.2645
0.195795 -0.358741 0.038692 0.906252 -0.09045 0.412288
-0.135649 -0.463206 0.012736 -0.962168 -0.077835 0.254039
0.068429 -0.585953 0.00864 -0.652358 -0.142186 0.744257
-0.036503 0.776456 -0.05661 -0.991728 0.041336 -0.12039
0.204091 -0.501744 -0.023103 0.978478 0.178118 -0.0912
0.049382 -0.616388 -0.03775 -0.926118 -0.123409 -0.341237
-0.044849 -0.731451 -0.120161 0.330763 0.223984 -0.913087
0.164779 0.349399 -0.102681 0.672061 -0.31149 -0.671069
-0.134055 -0.433474 -0.026449 -0.919873 0.168421 -0.347935
-0.002376 -0.510076 -0.069057 0.792357 0.059147 -0.607168
0.02674 -0.682051 -0.045723 0.995487 -0.016355 -0.065219
0.042173 -0.301465 0.016594 -0.974874 -0.011295 0.219277
0.023476 -0.127125 -0.045281 -0.157461 -0.650219 -0.721621
-0.000207 -0.352 0.074364 0.722402 -0.081375 0.686659
-0.136011 0.557766 -0.028627 -0.367304 0.917158 -0.115508
-0.068191 -0.462613 0.077734 0.307331 -0.231172 0.922807
0.11122 -0.742981 -0.096253 -0.404313 -0.062517 -0.907761
-0.09459 0.409125 -0.114707 -0.339991 -0.205423 -0.917421
-0.081465 0.555744 0.017686 -0.050221 0.767295 0.639241
-0.108846 -0.461045 0.06829 -0.805478 -0.195126 0.559342
0.021965 0.173863 -0.11673 -0.004115 0.212992 -0.973957
-0.001794 0.762915 0.068808 -0.361183 -0.220658 0.883096
0.180075 -0.693502 -0.050483 0.716652 -0.128235 -0.683806
0.081251 -0.395094 0.045273 -0.673927 -0.26986 0.687309
-0.145518 0.485643 -0.094875 -0.290499 0.119864 -0.94119
0.188916 0.042491 0.069412 0.771355 0.219657 0.596693
0.273793 0.412814 -0.141626 -0.050738 0.03654 -0.997383
0.471466 0.258396 -0.077674 0.792886 0.549163 -0.25386
-0.002117 -0.263674 -0.069058 0.744396 -0.106466 -0.659015
0.202976 -0.573431 -0.027383 0.961362 -0.23338 -0.11062
0.506629 0.181618 0.011077 -0.076805 0.34734 0.868598
-0.288332 0.365676 -0.003007 -0.726027 0.416125 0.545884
-0.049057 -0.75055 -0.128133 0.011563 0.368371 -0.927212
0.192358 0.156421 0.025606 0.872214 0.30207 0.37946
0.109437 -0.229247 -0.09997 -0.184717 -0.064355 -0.980533
-0.034483 0.583514 -0.010472 -0.360591 0.742205 0.558784
0.154049 -0.663766 -0.083136 0.567679 -0.110566 -0.815663
-0.124317 0.196408 -0.012087 -0.891475 0.202403 -0.403877
0.017153 -0.264617 -0.04348 0.870896 -0.085559 -0.47815
0.072132 -0.602053 0.007848 -0.763447 -0.189016 0.617576
0.008982 0.573695 -0.100267 -0.062623 0.533513 -0.843305
-0.073218 0.360314 0.088941 -0.579084 -0.050936 0.811801
-0.206312 0.49735 0.006821 -0.756871 0.589691 0.273561
0.111916 0.266839 0.102655 0.413699 0.050746 0.907255
-0.110346 0.121549 -0.058667 -0.850355 0.070229 -0.518524
0.191378 0.012062 0.074838 0.84699 -0.016305 0.512176
-0.319442 0.307552 0.003777 -0.206302 0.113678 0.971367
0.165329 -0.717924 -0.069523 0.811918 -0.051584 -0.581302
-0.063324 0.490485 0.06789 -0.142448 0.44015 0.885352
0.06651 0.097009 -0.143759 -0.0021 0.329735 -0.941435
0.121241 0.0195 0.12116 0.306419 0.26878 0.912208
0.031996 0.517304 -0.122713 -0.074673 0.157425 -0.984554
0.057357 0.498072 0.067287 0.051303 0.467943 0.881921
0.086388 0.524857 0.048793 0.188127 0.545747 0.816048
0.007468 -0.573246 -0.05857 0.790641 -0.005505 -0.612064
-0.136441 0.484481 -0.099512 -0.435573 0.181365 -0.881549
-0.143534 -0.065639 -0.002989 -0.994729 0.020388 -0.091272
0.091222 0.772084 0.042571 0.943933 0.105046 0.301731
-0.072578 -0.584758 -0.103535 -0.089295 0.036861 -0.994031
0.545857 0.122221 0.025337 -0.819095 -0.546739 0.168209
-0.111053 0.238913 0.03953 -0.942973 0.232013 0.2378
0.072318 0.718899 0.073892 0.649734 0.088672 0.75385
-0.128525 -0.370793 0.014226 -0.99954 -0.004626 0.024722
-0.018102 0.679539 -0.013322 -0.868651 -0.455097 -0.1667
-0.052159 0.231392 -0.115721 -0.581184 -0.23321 -0.779604
0.152292 -0.851207 0.174462 0.693249 0.150935 0.670785
-0.044362 -0.019528 0.130393 -0.21152 -0.27217 0.91385
-0.022231 0.848155 -0.01805 -0.592029 0.804226 -0.02292
-0.084218 -0.203872 -0.081794 -0.591593 -0.027843 -0.805607
0.022427 0.815124 -0.110921 -0.09545 0.544249 -0.827529
0.201106 0.071103 -0.009809 0.980574 0.190627 -0.036029
-0.556381 0.06979 0.012132 -0.901511 0.407346 -0.102231
0.051204 0.603907 -0.081868 0.100009 0.690904 -0.692399
0.005314 -0.691627 0.002428 0.827142 -0.233186 0.508563
-0.060603 -0.550888 0.055123 0.386796 -0.203578 0.898901
-0.173776 0.531896 0.006702 -0.642013 0.726618 0.242467
-0.004419 -0.579476 -0.072167 0.735431 -0.037189 -0.676261
0.129997 -0.867905 0.015024 0.051531 -0.993209 -0.095855
0.008438 -0.235446 -0.060549 0.768614 -0.07742 -0.634594
-0.022071 -0.846588 0.05003 0.985197 0.03575 0.062664
0.087667 -0.852673 -0.081469 -0.973432 0.044418 -0.169982
0.135239 -0.816702 0.071583 0.286286 0.896289 0.332671
-0.136859 -0.076519 -0.031048 -0.961906 -0.011097 -0.27306
0.016933 -0.049886 0.124943 0.45362 -0.354858 0.81483
0.035593 0.865631 -0.038024 -0.033771 0.956978 -0.27054
0.049354 0.732617 0.091158 0.855596 0.144142 0.492137
0.016082 -0.725496 -0.019885 0.858262 -0.003773 0.507684
0.069611 0.758948 -0.106727 0.531112 -0.164443 -0.830262
0.20622 -0.159318 -0.033228 0.983256 -0.007012 -0.170624
0.022658 -0.507243 -0.026678 0.858732 0.030782 -0.508609
0.425406 0.264288 -0.123855 0.400572 -0.046314 -0.910618
0.172485 -0.046293 -0.098054 0.800984 -0.126059 -0.584669
-0.340164 0.260534 -0.084304 0.056481 -0.404109 -0.910913
0.018585 0.183305 -0.115326 0.113812 0.02091 -0.99102
-0.057718 -0.233548 -0.092388 -0.116583 0.028203 -0.990181
0.135102 0.57789 -0.029392 0.341997 0.763059 0.546484
0.387509 0.31882 -0.0526 0.356524 0.499601 0.788331
-0.091397 0.018275 0.10969 -0.568845 0.296772 0.766289
-0.120488 -0.642361 0.009843 -0.962753 -0.075297 0.255999
0.127079 -0.484978 -0.107356 0.017318 0.059056 -0.996105
-0.098836 0.321594 0.049233 -0.885311 0.016106 0.461083
0.199785 0.550525 -0.084103 0.287516 0.813752 -0.502518
0.205483 -0.332192 -0.007133 0.993904 0.029203 -0.102592
-0.103757 0.494577 0.059162 0.008579 0.227402 0.973157
-0.018834 0.698642 0.046035 -0.930833 -0.211103 0.292665
0.199721 -0.231124 0.044662 0.947819 0.03567 0.316455
-0.030881 -0.836419 0.09901 0.833724 0.458364 0.290764
0.004637 -0.53758 0.021261 0.699786 -0.169095 0.693932
-0.082494 0.107661 -0.09583 -0.626046 0.263195 -0.733728
-0.005005 -0.014928 0.136508 -0.026468 -0.614097 0.776174
-0.090033 -0.004503 -0.113904 -0.704322 -0.041922 -0.707835
0.080006 -0.042547 0.128397 0.045332 -0.272539 0.954847
-0.044513 0.130209 0.111811 -0.473741 -0.032241 0.87957
0.153267 -0.439463 -0.093524 0.503726 0.204212 -0.838725
-0.018948 0.414857 0.102412 -0.10244 0.303436 0.945972
-0.06904 0.147151 -0.094432 -0.491628 0.302609 -0.811701
0.100624 0.792354 0.006095 0.916076 0.193807 0.346153
0.182092 0.337422 0.023353 0.89907 -0.108445 0.423973
0.064478 0.39121 0.100135 0.165928 0.257169 0.951281
-0.040223 -0.547099 -0.099245 0.319658 0.006087 -0.947188
0.346543 0.319597 -0.133341 -0.108137 -0.241163 -0.962793
0.19073 -0.391749 0.047706 0.93289 -0.027111 0.358396
0.031128 0.395793 -0.128992 -0.119382 0.004145 -0.992779
0.133547 -0.403043 0.070328 -0.287111 -0.212669 0.933925
0.376992 0.333668 -0.125103 0.577861 0.36018 -0.729833
0.090422 0.138792 -0.123138 0.215767 0.328236 -0.918141
0.01211 -0.132 -0.0575 0.783223 -0.203672 -0.586198
0.046022 0.162424 -0.119655 -0.093559 0.053126 -0.993688
0.105141 0.788681 -0.014247 0.998093 0.038798 0.03891
-0.138545 -0.172777 0.039647 -0.975566 -0.133241 0.170489
0.131575 -0.866138 -0.00849 0.065052 -0.996899 -0.022855
-0.054095 0.075104 0.11324 -0.453124 0.124497 0.881355
0.183069 0.255368 -0.001587 0.999881 -0.009962 0.002747
-0.083858 -0.863251 0.117282 -0.041848 -0.998868 0.020058
0.117636 0.202535 -0.111141 0.52995 -0.30768 -0.789818
0.092709 -0.567681 -0.090263 -0.61757 -0.120736 -0.777163
-0.134892 -0.070902 0.063363 -0.912172 0.022652 0.401089
0.153699 -0.209415 -0.08851 0.55828 -0.164423 -0.812756
0.023447 -0.024535 -0.138414 -0.108089 -0.421401 -0.90031
0.00037 -0.731951 -0.092209 0.700222 0.178162 -0.689896
0.107886 -0.494709 0.039167 -0.590316 -0.066246 0.804272
0.085304 -0.351101 -0.092997 -0.599166 -0.043335 -0.798869
-0.118935 0.516634 0.050921 -0.04819 0.475784 0.877579
0.145146 -0.851012 -0.106199 0.714917 -0.025195 -0.696436
0.467914 0.218314 -0.008693 -0.423655 0.25407 0.868904
0.027193 -0.656801 -0.02922 0.9966 -0.03226 0.041397
0.204768 -0.534009 -0.033087 0.983921 0.011353 -0.176348
0.559349 0.161747 0.016622 0.733562 0.67937 0.010078
0.032609 -0.125023 -0.074067 -0.839388 -0.296487 -0.455144
-0.054328 -0.849359 0.15455 0.601127 -0.145888 0.732455
0.183251 0.20263 0.013472 0.998123 0.046004 0.023788
0.169328 -0.75313 -0.058064 0.857023 0.176599 -0.471772
0.17206 -0.656542 -0.071767 0.58643 -0.222459 -0.77873
0.109586 0.256948 0.104261 0.365954 0.052253 0.928972
0.103099 0.35897 -0.144738 0.154649 -0.05768 -0.98389
0.108068 -0.396694 -0.100702 -0.246825 -0.018755 -0.966315
0.035477 -0.278308 -0.031757 -0.888293 -0.079008 -0.449346
0.05709 -0.4435 -0.060101 -0.757891 0.037785 -0.651096
-0.117495 -0.297736 -0.035573 -0.828172 0.048323 -0.558357
0.110081 -0.826257 0.119689 -0.263387 0.962929 0.033449
0.212605 -0.091806 0.030334 0.970785 -0.006727 0.236643
-0.032648 -0.837857 -0.137339 0.52855 -0.452672 -0.705186
0.183239 0.115766 0.050927 0.851017 0.192334 0.486897
-0.039995 -0.371988 -0.082963 0.335795 -0.177811 -0.923992
0.091814 -0.824751 -0.10121 -0.882766 -0.062406 -0.441885
0.045397 -0.481413 -0.043288 -0.950365 -0.006226 -0.286232
-0.019734 -0.383612 0.082131 0.397059 -0.210162 0.892472
0.162218 -0.051333 0.100136 0.602818 0.004982 0.797588
-0.105472 0.359375 0.052645 -0.831499 -0.259845 0.490377
0.147762 0.1225 -0.095339 0.635736 0.217161 -0.735893
0.17421 -0.772099 0.019144 0.702165 -0.060052 0.693315
-0.116636 0.356252 0.023283 -0.938185 -0.20414 0.278665
-0.020731 0.750836 0.050592 -0.799813 0.145976 0.580819
0.065677 -0.642641 0.008796 -0.239173 0.379812 0.890493
0.160248 -0.827548 0.023517 0.991846 0.046716 0.072304
0.06042 -0.273872 -0.069924 -0.810149 0.009547 -0.586134
0.20275 -0.558414 -0.036902 0.95674 -0.078986 -0.278978
0.041289 0.520722 0.055812 0.095192 0.557331 0.823176
-0.117285 0.333437 0.002191 -0.970099 -0.164204 0.17786
0.019147 0.554485 0.028471 -0.019572 0.414662 0.908279
0.019806 -0.537088 -0.033258 0.956195 0.025325 -0.286293
0.097859 -0.868539 -0.090598 -0.446356 -0.869598 -0.07294
-0.093824 -0.732645 -0.108111 -0.763911 0.088256 -0.63907
-0.076215 -0.253136 0.111584 -0.064848 -0.055131 0.99613
0.105153 0.769574 -0.029237 0.998958 -0.040419 -0.00072
0.13178 0.341981 -0.129018 0.580295 -0.157267 -0.799014
-0.0555 -0.714442 -0.120821 0.126053 0.261432 -0.954285
0.08603 -0.017109 -0.154456 0.036277 -0.23446 -0.971165
0.121424 -0.567145 -0.105241 -0.18623 -0.134569 -0.970546
-0.070574 -0.637866 0.038085 0.390418 -0.248066 0.886382
0.133848 -0.552133 0.046261 -0.21311 -0.175643 0.957612
-0.118148 -0.467172 -0.061577 -0.774438 0.117546 -0.621519
-0.132541 -0.069125 -0.042484 -0.858915 -0.03285 -0.51073
0.069369 0.594625 -0.086901 0.130811 0.689369 -0.712238
-0.090494 0.013072 -0.113823 -0.718647 -0.01792 -0.694815
-0.237797 0.330404 -0.078641 0.51767 -0.604261 -0.604178
0.108659 -0.100324 0.111923 -0.424205 -0.06179 0.901607
0.054018 0.030178 0.137115 0.034095 0.254618 0.966105
0.121289 0.525396 0.034931 0.281034 0.625776 0.725621
-0.395079 0.212217 0.013689 0.15358 0.131042 0.978519
0.077023 -0.155098 -0.10376 -0.429789 -0.210171 -0.877919
-0.042268 0.235863 0.106872 -0.506343 0.024883 0.860468
0.346368 0.392117 -0.089845 0.768801 -0.577178 0.193658
0.124335 -0.436157 0.060773 -0.491868 -0.269346 0.827776
0.044165 -0.375425 0.009097 -0.969889 -0.07887 0.21867
0.149636 0.493293 0.047808 0.323206 0.550362 0.768546
0.138386 -0.189006 -0.100753 0.449535 -0.084731 -0.889109
-0.070053 -0.615372 0.043384 0.437427 -0.192451 0.878206
0.262986 0.379059 -0.028154 -0.393149 -0.458437 0.790044
0.103772 -0.05051 0.123241 0.201197 -0.234758 0.946528
0.087916 -0.216485 -0.09376 -0.433315 -0.12438 -0.891278
0.188669 0.165717 0.027851 0.92609 0.212073 0.30588
0.207303 0.012308 0.017124 0.999594 0.019757 0.014576
0.117577 0.147599 0.105024 0.519202 0.0308 0.854082
0.076915 -0.069848 -0.133604 -0.199359 -0.401433 -0.893659
-0.02216 -0.647162 -0.088709 0.611593 0.028842 -0.789934
0.413546 0.216627 -0.087619 -0.61099 -0.790949 -0.024467
0.087814 0.795629 0.042789 0.894962 0.246111 0.358742
0.120488 0.370692 -0.140409 0.429036 -0.122744 -0.894705
0.003075 -0.223312 0.097696 0.621638 -0.109163 0.773605
0.16428 -0.81878 0.014624 0.867789 -0.453647 0.194664
-0.267689 0.277331 -0.034268 0.721279 -0.677269 0.136585
-0.021265 -0.703689 -0.099846 0.587735 0.214411 -0.779779
0.083789 -0.047885 -0.143725 -0.084063 -0.368315 -0.92496
-0.038004 0.045431 -0.140163 -0.294862 0.28896 -0.909797
0.084548 -0.82249 -0.084877 -0.740656 -0.6165 -0.2263
-0.01907 0.770816 0.048829 -0.879866 0.030134 0.465627
0.206878 0.027255 0.002142 0.999557 0.02285 -0.017644
-0.435549 0.204261 0.014328 -0.275894 0.357578 0.890804
0.077689 0.237589 0.119345 0.420951 0.080393 0.90275
0.018197 0.669141 -0.064439 -0.393321 -0.295728 -0.861571
0.30185 0.459242 -0.101497 0.598962 0.649025 -0.468715
-0.395751 0.21257 -0.066149 -0.240946 -0.336836 -0.909177
0.154543 0.335787 0.062443 0.715572 -0.063553 0.695604
-0.076882 -0.142581 -0.094549 -0.463854 -0.127165 -0.875078
0.065147 -0.70992 -0.03625 -0.801212 -0.283559 -0.526349
0.208849 -0.148736 -0.014527 0.966844 -0.247671 -0.045672
0.053307 -0.680965 -0.025201 -0.951135 -0.076868 -0.279925
0.090224 0.37338 0.098251 0.186956 0.104856 0.975217
0.225187 0.395285 -0.110376 -0.744371 -0.542393 -0.386266
0.174386 -0.142521 -0.079019 0.702444 -0.097888 -0.704823
0.581377 0.058647 0.029224 -0.891634 -0.426684 0.127588
0.125334 -0.1771 0.099916 0.085744 -0.299614 0.948159
0.176412 0.435138 0.046799 0.528111 0.106876 0.842196
0.209676 -0.078751 -0.020172 0.935158 0.099768 -0.338341
0.478453 0.210151 -0.069503 0.230129 -0.524965 -0.813063
0.164431 0.296041 -0.077596 0.855233 -0.22848 -0.464879
0.382627 0.337769 -0.117073 0.654913 0.519507 -0.548602
0.451935 0.246305 -0.100563 0.644945 -0.257342 -0.717663
-0.114587 0.238633 -0.027165 -0.961523 0.246785 -0.094153
0.198654 -0.166559 0.053486 0.959569 -0.086051 0.266567
0.200192 -0.59611 -0.012016 0.992084 -0.08126 0.092127
-0.027003 0.737391 -0.066216 -0.873929 -0.356149 -0.324711
-0.276878 0.374696 0.006857 -0.769918 0.155442 0.618351
0.156991 0.345194 0.061124 0.687176 -0.101808 0.718541
0.127173 0.269296 0.093832 0.5929 0.047255 0.803809
-0.126469 -0.41681 0.051556 -0.924235 -0.058792 0.375468
-0.001847 0.69451 -0.065161 -0.657428 -0.516563 -0.54798
-0.111511 0.174184 -0.043551 -0.886566 0.075443 -0.45589
0.140549 0.499712 0.046765 0.356638 0.525082 0.772473
0.027446 0.822337 -0.10535 -0.026117 0.643156 -0.764026
-0.113737 0.141001 -0.047397 -0.887879 0.134142 -0.439826
-0.14269 -0.135007 0.036825 -0.977529 -0.015917 0.202473
0.315041 0.306895 -0.098873 -0.684986 -0.706445 -0.157983
-0.121971 -0.654734 -0.008257 -0.985098 -0.122931 0.118323
0.568729 0.079354 0.009374 -0.887626 -0.45559 0.008996
-0.096315 -0.541919 0.059358 -0.848353 -0.079027 0.522735
-0.046201 -0.389143 0.088845 0.173747 -0.172666 0.969471
-0.064514 -0.155138 0.121 -0.112716 -0.050248 0.991577
-0.053972 0.053134 0.116501 -0.515258 0.215774 0.825622
-0.070602 -0.197831 -0.090033 -0.376963 -0.057039 -0.923347
0.097706 0.734428 -0.053133 0.962667 -0.179869 -0.201919
-0.092084 -0.208376 0.111066 -0.194697 -0.046828 0.979693
-0.463642 0.13245 0.01109 0.596312 -0.797114 -0.0262
0.118056 0.555384 0.009205 0.367482 0.681883 0.632229
-0.370868 0.297409 -0.01529 -0.568553 0.723495 0.389995
-0.26098 0.285336 -0.030665 0.70635 -0.673087 0.214892
-0.106866 -0.601178 -0.089852 -0.618049 0.055372 -0.78397
0.277834 0.489986 -0.088743 0.644534 0.62359 -0.440864
0.076196 -0.224988 0.082118 -0.47784 -0.132651 0.866573
0.179552 0.227203 -0.032142 0.911595 0.006683 -0.410695
0.024714 0.630888 -0.066433 -0.162401 0.280724 -0.943187
-0.072278 0.113535 0.095612 -0.561481 0.237384 0.78331
0.181633 0.253482 -0.023834 0.980166 -0.012323 -0.193958
0.440057 0.289518 -0.058028 0.406079 0.803944 0.415553
-0.243227 0.311592 -0.064656 0.708125 -0.578891 -0.39822
-0.287503 0.297021 0.00412 0.198777 -0.290523 0.93352
0.045463 -0.280779 -0.048928 -0.834477 0.008468 -0.550543
-0.035018 -0.777359 0.033075 0.410154 0.669996 0.603064
0.137649 0.395096 -0.136584 0.412494 -0.166587 -0.894784
0.079669 0.492506 -0.136218 -0.190954 0.160054 -0.968114
0.038808 -0.345154 -0.033036 -0.934537 -0.086976 -0.338678
-0.041191 0.827953 -0.03628 -0.935464 0.328727 -0.101399
0.14241 -0.20166 0.094132 0.02968 -0.151152 0.982693
0.185869 -0.328173 -0.044074 0.745006 0.025794 -0.666513
-0.140524 0.546538 -0.054065 -0.504788 0.726094 -0.466403
0.167904 -0.7502 0.021691 0.569041 0.374265 0.7238
-0.201973 0.403005 -0.096861 -0.085328 0.065853 -0.992388
0.124492 -0.234112 -0.098963 0.239974 -0.112672 -0.96295
0.127961 -0.119695 0.112126 0.148286 -0.063295 0.985909
0.156749 0.007125 0.107675 0.520913 -0.032808 0.8483
0.045122 -0.119025 0.071233 0.604852 -0.540639 0.578362
-0.009338 -0.304978 -0.06933 0.704353 -0.129944 -0.697597
0.083164 -0.766964 -0.067219 -0.840301 0.217613 -0.496031
-0.096457 0.383598 0.070382 -0.610649 -0.141649 0.778889
0.033088 -0.290875 -0.016003 -0.984544 -0.133281 -0.108451
-0.018837 -0.60238 -0.085449 0.690235 -0.015479 -0.723381
-0.426548 0.171791 0.031054 0.418008 0.179749 0.878226
-0.202169 0.478407 0.030323 -0.643788 0.281583 0.710646
0.075454 -0.818816 0.017143 -0.857745 -0.391683 0.300634
0.095378 -0.611981 -0.086361 -0.582198 -0.082344 -0.808492
0.001871 0.05715 -0.144707 -0.130737 0.193412 -0.972329
0.126357 -0.869945 0.075982 -0.007282 -0.999928 0.006864
0.062911 -0.307559 -0.073358 -0.787403 -0.009148 -0.616305
-0.046991 -0.833862 0.129193 0.443614 0.82482 0.308464
-0.067288 -0.8642 0.076068 -0.021705 -0.999688 -0.001253
0.001255 -0.792323 -0.020439 0.876257 -0.170063 0.446241
-0.116068 -0.152231 -0.052462 -0.793521 -0.153967 -0.588384
-0.006869 -0.696632 -0.086203 0.519432 0.266467 -0.811625
0.027498 -0.343875 0.007591 0.998847 -0.047642 0.002386
0.0771 0.384171 -0.14386 -0.201005 0.013546 -0.978548
-0.024595 -0.836866 0.053998 0.956867 0.281628 0.05477
0.195929 -0.662784 -0.010717 0.953097 0.00161 0.296825
0.544025 0.12692 -0.019371 -0.487447 -0.4107 -0.652083
0.057529 -0.740668 0.003395 -0.973523 -0.208392 -0.074136
0.626014 0.041555 0.055647 -0.828182 -0.559497 -0.031779
0.170282 -0.645576 -0.07578 0.574215 -0.19217 -0.795716
0.090486 -0.829546 0.062101 -0.97084 0.201011 0.116451
0.123752 -0.365835 -0.098288 0.363574 0.090238 -0.924084
-0.288298 0.380554 -0.066385 -0.898619 0.313124 -0.2827
-0.008921 0.701944 -0.063198 -0.704181 -0.512661 -0.489318
-0.073183 0.349019 0.087998 -0.542859 -0.112108 0.82763
0.189763 0.110203 0.04107 0.924846 0.115114 0.35278
-0.118004 0.182029 -0.029218 -0.880787 0.120687 -0.457702
-0.073247 -0.494172 0.073491 0.354173 -0.180481 0.917355
-0.128615 -0.362483 -0.008979 -0.999282 0.007854 -0.030555
-0.135785 -0.081214 0.061225 -0.945069 0.008927 0.322493
0.197782 -0.439432 -0.045242 0.963446 0.058091 -0.25047
-0.001382 -0.009596 0.143749 0.052632 -0.601696 0.744619
0.130405 0.08468 0.102703 0.316934 0.149645 0.928222
-0.029485 -0.548735 -0.094997 0.407386 -0.006614 -0.912984
0.051083 -0.598877 -0.015098 -0.885886 -0.052009 0.460466
-0.155775 0.383648 -0.047936 0.558654 -0.808624 -0.161764
-0.020138 -0.446387 0.068292 0.525841 -0.232969 0.811827
0.634708 0.044059 0.097189 0.930293 0.250762 0.229614
0.243328 0.533792 -0.048471 0.704198 0.709389 0.026307
0.092561 -0.033759 -0.149064 0.047994 -0.351059 -0.934738
0.147389 -0.289858 0.081465 0.136289 -0.068886 0.988069
0.191945 -0.738153 -0.031131 0.774506 -0.245146 -0.580903
0.02884 -0.264172 0.029839 0.984259 -0.048361 0.169864
-0.458323 0.201496 -0.017727 -0.846974 0.523435 -0.055063
0.103074 -0.392606 0.060108 -0.486702 -0.160871 0.858214
-0.096206 -0.565993 0.056353 -0.735217 -0.054654 0.65916
-0.372496 0.258893 -0.084531 -0.139062 -0.134337 -0.977503
0.475679 0.240723 -0.079195 0.569552 -0.1115 -0.811365
-0.096443 -0.219409 0.109608 -0.249629 -0.059914 0.966334
-0.001495 0.541044 0.04727 0.163865 0.806024 0.560129
-0.090041 -0.316132 0.105631 -0.105857 -0.04785 0.991511
0.089908 0.538002 0.040486 0.301733 0.502666 0.806143
-0.109044 -0.84138 0.004716 -0.840766 0.53198 -0.072996
0.03391 -0.07749 -0.109779 -0.578958 -0.471235 -0.664408
0.025754 -0.698252 -0.039073 0.983997 -0.109972 0.133905
-0.035005 0.433912 -0.130674 0.0024 -0.076402 -0.996376
0.182935 0.256799 -0.011765 0.998193 -0.008025 -0.05077
0.110104 -0.276467 -0.099425 0.025291 -0.009251 -0.996999
-0.068608 -0.364052 -0.084017 -0.310285 -0.048626 -0.948624
-0.116381 0.108687 0.054056 -0.850721 0.19833 0.48655
-0.455124 0.142556 0.026765 0.647981 -0.734543 0.18986
0.165382 -0.844911 0.127985 0.858158 0.494932 0.110406
-0.271079 0.366295 -0.094709 -0.475584 0.281212 -0.799801
-0.067994 -0.693113 0.019197 0.239608 -0.317656 0.91724
0.088913 0.685624 -0.005474 0.976179 -0.181779 0.03233
0.183789 -0.571231 -0.074159 0.742472 -0.032529 -0.66881
-0.55805 0.060068 0.001749 0.023523 0.151302 -0.755309
-0.087302 0.546521 0.02832 -0.037049 0.741444 0.669788
-0.029706 0.007094 -0.138532 -0.158194 -0.159334 -0.973623
-0.231065 0.327332 -0.009357 0.600692 -0.662895 0.443969
0.090433 0.736509 -0.075331 0.822798 -0.325334 -0.463617
0.20584 -0.382968 -0.01023 0.999073 0.010105 -0.012481
0.120745 -0.103502 -0.122927 0.138495 -0.266393 -0.952423
0.176438 -0.219262 -0.071176 0.605917 -0.001009 -0.795263
-0.107535 -0.022958 -0.091232 -0.816338 -0.061244 -0.574299
0.032028 0.869659 -0.006054 -0.203162 0.97365 0.068582
0.013462 0.176016 0.130365 -0.044702 0.018238 0.99852
0.042301 -0.322502 0.014943 -0.972513 -0.030493 0.224803
-0.212118 0.494441 -0.011088 -0.744052 0.664302 0.06054
-0.123187 -0.318183 0.062138 -0.986836 -0.065299 0.147139
-0.529379 0.107999 0.07881 -0.819826 0.468805 0.288142
0.058566 0.753658 0.072053 0.434446 0.140991 0.865627
-0.045315 -0.862361 0.004747 0.136035 -0.986971 -0.068217
0.63001 0.034697 0.089487 -0.872032 -0.445976 0.048461
-0.427207 0.160786 -0.013986 0.534259 -0.842891 -0.038785
-0.040667 -0.038029 0.131537 -0.182828 -0.036064 0.981268
0.042628 0.740618 0.097671 0.774202 0.267576 0.560181
-0.042336 -0.507274 -0.097999 0.218348 0.076207 -0.971556
0.043193 0.567726 0.024852 0.235889 0.021182 0.965883
0.01453 -0.575763 0.006105 0.633951 -0.044896 0.768125
0.16706 -0.651908 0.02541 0.395904 -0.017651 0.91418
0.203638 -0.007854 0.044902 0.928476 0.032143 0.366043
0.096977 0.186135 -0.11501 0.244785 -0.202098 -0.944509
-0.016412 -0.037637 -0.132459 -0.073565 -0.350065 -0.933547
-0.076086 0.555389 -0.088021 -0.4203 0.614172 -0.667598
0.162302 0.096536 -0.088195 0.756962 0.257862 -0.598851
0.096604 -0.057813 0.122074 0.036777 -0.284283 0.954415
-0.002064 -0.826232 -0.104324 0.62995 -0.679256 -0.34442
0.132252 0.410809 -0.14203 0.330628 -0.166499 -0.926173
0.027949 -0.301363 0.029046 0.994706 -0.00723 0.102479
-0.0317 0.020905 0.133576 -0.314321 0.216777 0.923251
0.151881 0.353295 0.067344 0.679782 -0.117357 0.723584
-0.109183 0.351809 0.041149 -0.861093 -0.245019 0.445466
0.088443 -0.030744 0.129349 0.113133 -0.063363 0.991328
0.052039 0.77284 0.080134 0.490223 -0.435128 0.738682
0.295824 0.338783 -0.049553 -0.392625 -0.665905 0.629471
0.192989 -0.231253 0.061901 0.898806 -0.022084 0.435614
0.060719 -0.548486 -0.061248 -0.779632 -0.049143 -0.624184
0.124228 0.324614 -0.130949 0.558121 -0.102629 -0.82311
-0.012649 0.473233 0.084321 -0.061815 0.454527 0.886606
0.29181 0.330707 -0.067703 -0.596874 -0.765652 0.217471
0.037485 -0.244783 -0.035059 -0.731007 -0.077284 -0.673332
-0.131392 0.029203 0.058089 -0.857574 0.179807 0.480166
0.042502 -0.278304 0.022006 -0.991091 -0.018251 0.124691
0.118403 0.429907 -0.146162 0.073074 -0.060705 -0.995191
-0.224449 0.442294 0.024198 -0.712084 0.287011 0.639302
0.166327 0.095794 0.07853 0.611815 0.23638 0.741742
-0.124032 -0.670596 -0.025137 -0.951164 -0.102435 0.290971
-0.084589 -0.085315 0.115167 -0.433935 0.000786 0.900535
0.146602 -0.867431 0.031062 0.181917 -0.977362 -0.104541
0.539072 0.129403 -0.011374 -0.742781 -0.65501 -0.116246
-0.024292 -0.834288 0.040916 0.975483 0.089622 0.082832
0.165138 0.087144 -0.088189 0.765264 0.206791 -0.608639
0.123373 -0.824425 0.116136 0.007295 0.996873 0.041451
0.181266 -0.221858 0.079164 0.623052 -0.179031 0.756235
0.070784 -0.715887 -0.041945 -0.84654 -0.221585 -0.481506
0.080282 -0.702992 -0.065005 -0.845025 -0.095674 -0.524666
0.195679 0.364779 -0.016922 0.973972 -0.1235 0.188994
-0.007165 -0.136351 0.118246 0.536859 -0.158072 0.822906
0.099052 -0.82675 0.093788 -0.53349 0.814163 0.191901
0.204672 0.012973 0.045744 0.967303 0.022494 0.243859
-0.014315 0.731509 -0.086149 -0.695766 -0.477377 -0.535962
-0.135797 0.001669 -0.027883 -0.987669 0.043303 -0.143525
-0.129548 0.039878 0.057023 -0.886889 0.230381 0.399491
0.42608 0.240009 -0.029579 -0.365163 -0.540657 0.698662
0.143343 -0.714232 -0.089064 0.529262 0.05339 -0.84307
-0.110448 0.458445 -0.115423 -0.444739 0.07308 -0.892157
0.01964 -0.338027 0.05008 0.892568 -0.140653 0.427451
0.022416 0.784111 -0.12003 -0.102263 0.112217 -0.987148
-0.094 -0.355442 -0.070298 -0.789316 0.042217 -0.576611
0.143843 0.214959 0.082831 0.72354 0.066087 0.686465
0.343719 0.371656 -0.132564 0.56826 0.289167 -0.769402
-0.116587 0.363853 -0.085224 -0.8064 -0.192536 -0.555455
0.152284 -0.838584 0.154856 0.651719 0.735678 0.183832
-0.022903 0.141533 -0.11146 -0.231412 0.514414 -0.823461
0.10549 -0.821491 0.085605 -0.360939 0.868184 0.325777
-0.023281 -0.847158 -0.069066 0.815893 -0.566274 0.063998
0.578174 0.137074 0.029196 0.746176 0.664736 0.02984
0.041994 0.083757 -0.144938 -0.14033 0.224561 -0.964171
-0.120793 -0.380307 0.071092 -0.972169 -0.031926 0.226382
0.173017 -0.687032 0.014982 0.463486 -0.423265 0.777337
0.213857 -0.0616 0.007646 0.997605 0.034541 -0.057598
-0.023023 0.603977 -0.057679 -0.638497 0.702094 -0.296267
0.047836 -0.526143 -0.043281 -0.879725 -0.062398 -0.471242
0.054452 0.843274 0.051935 0.49513 0.565955 0.658356
0.189483 -0.223365 0.069604 0.859756 -0.103481 0.495281
-0.104681 0.352124 -0.094134 -0.653585 -0.197977 -0.730154
0.228497 0.385448 -0.064335 -0.711178 -0.699611 0.06424
0.039686 0.074598 -0.146886 -0.185401 0.27312 -0.942724
0.234655 0.542472 -0.048976 0.66547 0.744537 0.042053
-0.159934 0.505253 -0.080772 -0.477225 0.396102 -0.783551
0.073657 -0.350552 0.056515 -0.574454 -0.32202 0.749371
-0.052846 0.022289 -0.138829 -0.286272 -0.232647 -0.921092
-0.328843 0.280342 -0.092012 -0.081095 -0.231956 -0.968912
0.23644 0.536152 -0.030893 0.683605 0.650673 0.321497
-0.097813 -0.849888 -0.056756 -0.920705 -0.38045 0.035026
-0.059676 -0.295389 -0.09026 -0.207885 -0.087226 -0.971926
-0.106649 -0.400774 -0.057471 -0.723603 -0.052129 -0.683517
0.328182 0.354278 -0.138264 0.035577 -0.103147 -0.992953
0.089816 0.49031 0.067424 0.15265 0.465537 0.870695
-0.069902 -0.379831 0.095547 0.164827 -0.228638 0.95914
0.011704 0.249909 -0.127345 0.149445 -0.043313 -0.987722
0.188409 -0.759682 -0.000897 0.927495 -0.247033 0.273377
0.139038 0.11152 0.092822 0.670022 0.089609 0.736176
0.161935 0.493019 0.04254 0.453016 0.391813 0.795738
0.001847 -0.438475 -0.055397 0.758098 0.040383 -0.650757
0.193281 -0.039652 -0.06247 0.905665 -0.027027 -0.423004
-0.046545 -0.298179 0.102749 0.258437 -0.155609 0.952571
-0.02402 -0.787884 -0.142487 0.392813 0.407445 -0.822547
-0.045031 -0.458488 0.072945 0.209484 -0.239716 0.947942
0.099057 -0.674226 0.034664 -0.001639 0.082913 0.994951
0.380847 0.242619 -0.070901 -0.727909 -0.67032 0.142588
0.536972 0.1579 0.030467 -0.526668 0.160462 0.822485
0.17613 -0.066303 0.088858 0.691685 0.040688 0.721003
0.088093 -0.863584 0.094362 -0.588652 -0.8069 -0.012287
-0.096899 0.438098 0.068069 -0.532518 0.073284 0.831786
0.091692 0.604454 -0.021724 0.831462 0.365866 0.376209
-0.039662 -0.14542 0.123517 -0.057336 -0.060461 0.996374
-0.047076 0.441257 0.089999 -0.155761 0.213384 0.964354
0.129162 0.515834 -0.13377 0.129148 0.43994 -0.886946
-0.043872 -0.183954 -0.094523 0.167482 -0.053264 -0.982528
-0.125282 -0.712187 -0.032343 -0.859804 0.102785 0.483725
-0.163677 0.372652 -0.024782 0.688924 -0.718364 0.08612
-0.083953 -0.222786 -0.081722 -0.592901 -0.011792 -0.804176
0.342878 0.333704 -0.042617 0.234011 0.118084 0.9548
-0.348262 0.213817 -0.013616 0.622944 -0.761866 0.158567
-0.058004 -0.21495 0.117435 -0.094418 -0.114848 0.983645
-0.014889 -0.708564 0.022129 0.631171 -0.212265 0.744302
0.187797 -0.721214 -0.040496 0.700885 -0.189593 -0.683911
0.090688 -0.780573 -0.08552 -0.781362 0.311149 -0.537562
0.531209 0.210324 -0.025561 -0.293198 0.91619 0.265046
-0.079297 0.493316 -0.121122 -0.261784 0.268512 -0.926905
0.023873 0.376758 -0.127806 -0.060639 -0.033512 -0.997387
0.170375 0.079111 -0.08356 0.790964 0.181941 -0.584111
-0.066409 0.354197 0.092551 -0.398061 -0.099412 0.901938
-0.028018 -0.466425 -0.087712 0.427547 0.115512 -0.896504
0.157319 -0.835309 0.121019 0.638617 0.75421 0.131952
0.059907 -0.768204 -0.01519 -0.994076 0.042076 -0.098062
-0.100955 0.018108 -0.102046 -0.741328 0.054477 -0.667145
0.045976 -0.558455 -0.037352 -0.928416 -0.025614 -0.347945
0.233737 0.531239 -0.088842 0.523201 0.670288 -0.525172
0.161831 -0.850957 -0.015838 0.88036 -0.461749 -0.095603
-0.332144 0.33529 -0.056308 -0.649776 0.749005 -0.119801
-0.052846 -0.331193 0.10019 0.257836 -0.137745 0.955471
-0.164071 0.496265 0.051003 -0.381174 0.277482 0.88088
0.206132 0.007018 -0.01441 0.991368 0.027412 -0.122058
-0.45356 0.167339 -0.049298 -0.426274 -0.094089 -0.804812
-0.134395 -0.482893 -0.039186 -0.922706 0.041106 -0.382459
-0.020522 0.745156 -0.085438 -0.808826 -0.296126 -0.507473
