-0.243865 0.39719 -0.092799 -0.230204 0.366603 -0.899205
0.07762 -0.790139 0.028102 -0.706721 -0.210279 0.665855
-0.047906 0.337833 -0.125397 -0.317664 -0.016376 -0.947871
-0.015475 -0.694924 0.025133 0.357213 -0.026095 0.932972
0.017429 -0.196062 0.081708 0.920752 -0.056765 0.367694
0.063774 -0.601667 -0.059145 -0.6962 -0.025363 -0.717385
0.027197 -0.223758 0.046293 0.974138 -0.027233 0.224151
0.198038 -0.098629 0.065176 0.861293 -0.028873 0.501947
-0.124783 0.370043 -0.058149 -0.931481 -0.343042 -0.113898
0.147114 0.313058 -0.108229 0.765955 -0.115344 -0.632337
0.205585 0.023834 0.038967 0.982935 0.059848 0.173289
0.183273 0.275173 -0.003888 0.999347 -0.019685 -0.003345
-0.045072 -0.049899 -0.124346 -0.15987 -0.417133 -0.89251
-0.096457 0.383598 0.070382 -0.610649 -0.141649 0.778889
0.18306 0.212341 0.008042 0.999487 0.027265 0.015505
0.073657 -0.350552 0.056515 -0.574454 -0.32202 0.749371
0.030852 0.251416 0.12755 0.011093 0.036737 0.999186
0.000695 0.794406 -0.112624 -0.367486 0.202627 -0.906088
-0.063965 0.507292 0.059871 -0.14437 0.444227 0.884133
-0.093656 -0.065999 0.110195 -0.544132 0.045844 0.837687
-0.041714 -0.864034 0.063119 0.05064 -0.998572 -0.002296
-0.035748 0.519346 -0.120318 -0.109117 0.302853 -0.945981
0.07546 -0.673398 -0.061031 -0.788354 -0.084583 -0.609132
-0.364198 0.267038 -0.086412 -0.128637 -0.127497 -0.981109
-0.076918 0.38314 -0.117318 -0.420898 -0.15217 -0.893728
0.584522 0.065701 -0.02117 0.400165 0.473816 -0.684584
0.040576 0.822798 -0.10437 0.09626 0.643025 -0.759037
0.093467 -0.225557 0.089153 -0.189094 -0.126756 0.972803
0.087771 -0.843941 -0.030974 -0.991391 -0.11441 0.042744
0.137114 -0.705642 0.01938 0.327496 -0.404124 0.853451
-0.053909 -0.639305 0.030899 0.366695 -0.187108 0.910959
0.065479 0.125385 -0.131214 0.030312 0.400772 -0.914832
0.129721 0.399048 -0.140575 0.363949 -0.174862 -0.914421
-0.018868 -0.46403 -0.080884 0.664609 0.103327 -0.732802
0.144591 -0.803064 0.043172 0.500134 0.565268 0.654222
-0.036233 0.512699 0.062522 -0.160202 0.531349 0.831779
0.001033 -0.819177 -0.031353 0.963139 -0.069913 0.257988
-0.109745 -0.060707 0.096886 -0.705673 0.029429 0.707858
-0.038698 0.81047 -0.027433 -0.958049 -0.261381 0.070932
0.060917 -0.749682 -0.016001 -0.976767 0.019187 -0.205095
0.033762 -0.062016 -0.120324 -0.404792 -0.477471 -0.779058
-0.00242 0.175782 0.129002 -0.151399 -0.001911 0.986447
-0.035114 0.11281 0.117435 -0.486476 0.1671 0.854997
0.204923 0.034162 -0.018885 0.975319 0.087262 -0.197217
0.243167 0.526398 -0.083786 0.606848 0.643784 -0.464531
0.11244 -0.194008 0.097105 -0.044531 -0.128765 0.990064
0.084673 -0.518485 0.024344 -0.610509 0.037781 0.789594
0.337521 0.391049 -0.134666 0.569476 0.010265 -0.816245
0.12424 -0.825077 0.134689 0.037517 0.996568 0.055331
0.094643 -0.865756 0.058666 -0.614922 -0.780104 -0.065575
-0.121734 -0.342906 0.068761 -0.981334 0.028327 0.189237
-0.033847 0.838627 -0.019883 -0.735166 0.676631 -0.025612
0.067915 -0.772318 -0.042391 -0.894017 0.164011 -0.414789
0.196329 -0.139283 0.065734 0.882821 -0.065273 0.46436
0.103809 -0.329101 -0.100169 -0.089361 0.018237 -0.989263
0.467418 0.206675 -0.005015 -0.511976 0.327507 0.790332
-0.407387 0.265002 -0.042214 -0.788872 0.609069 -0.058378
0.099922 0.052612 -0.150466 0.400186 0.225991 -0.885451
0.578162 0.078856 0.058451 -0.03277 -0.753921 0.634401
0.401577 0.22795 -0.065155 -0.599507 -0.782311 0.167857
-0.037862 0.254864 0.109013 -0.419227 0.029494 0.905252
-0.043872 -0.183954 -0.094523 0.167482 -0.053264 -0.982528
-0.090041 -0.316132 0.105631 -0.105857 -0.04785 0.991511
0.12109 -0.825784 0.146592 -0.021325 0.990769 0.093694
0.225848 0.485573 -0.128013 0.235674 0.287058 -0.92737
-0.039403 0.540476 0.042999 -0.207686 0.622547 0.754301
-0.090767 -0.406094 -0.06978 -0.573365 -0.018746 -0.819031
-0.056446 -0.672157 0.024114 0.209106 -0.323142 0.922513
0.110048 -0.869239 0.118226 0.01097 -0.998565 0.050382
-0.376671 0.297539 -0.055571 -0.702364 0.70059 -0.118213
-0.061942 0.341996 0.093095 -0.642515 -0.081722 0.759769
0.198795 -0.289671 0.045485 0.924927 -0.073362 0.371327
0.204611 -0.510947 -0.027475 0.977346 0.101321 -0.159216
-0.038592 0.27892 0.106968 -0.509448 0.076582 0.856773
-0.32479 0.336776 -0.069393 -0.569481 0.709982 -0.410307
-0.087177 -0.844175 0.149542 -0.750695 0.386581 0.511284
0.337843 0.361478 -0.136908 0.280504 0.056796 -0.945767
0.149353 0.371525 -0.122832 0.587435 -0.244837 -0.770309
0.19 0.319326 -0.018556 0.993436 -0.109149 0.012706
0.105434 0.094537 0.113603 0.476969 -0.181003 0.85837
0.065104 -0.250613 0.070421 -0.708708 -0.108718 0.696689
0.022516 0.85413 -0.069431 -0.145966 0.844797 -0.512979
0.014814 0.783464 0.083395 -0.289618 0.082272 0.943637
-0.282466 0.383387 -0.004059 -0.882531 0.148245 0.434754
0.018256 -0.565357 0.002491 0.82312 -0.022167 0.553291
0.209664 -0.06751 -0.015921 0.952001 0.109358 -0.284623
-0.02132 -0.2686 -0.085532 0.624586 -0.060697 -0.778354
0.159863 -0.164735 -0.08863 0.571901 -0.075732 -0.814734
-0.072578 -0.584758 -0.103535 -0.089295 0.036861 -0.994031
0.086978 0.700388 0.052326 0.891911 -0.253838 0.363311
-0.496401 0.154262 -0.003396 -0.778545 0.625418 -0.047935
-0.020015 0.271466 -0.130919 -0.054523 -0.050983 -0.996473
-0.03658 -0.005288 -0.137016 -0.161896 -0.080986 -0.983024
-0.19213 0.43755 0.041907 0.088498 -0.299231 0.946293
0.126762 0.415308 0.082864 0.326698 0.131393 0.935261
0.174689 -0.489481 0.057672 0.570345 -0.176821 0.798482
-0.070526 0.571637 -0.074364 -0.467521 0.7315 -0.492241
0.553619 0.128914 -0.017813 0.369936 0.056919 -0.885668
0.051619 -0.674224 -0.012403 -0.998836 -0.033689 -0.022064
0.060662 0.506374 0.062907 0.056072 0.51329 0.855779
-0.061263 -0.440269 -0.090411 -0.092363 0.258438 -0.960835
-0.081391 0.364497 -0.111901 -0.474505 -0.140968 -0.868134
0.20742 -0.170774 -0.022871 0.997831 -0.003661 -0.064031
0.043823 -0.396573 -0.00442 -0.974585 -0.115303 0.178856
0.177223 0.169718 0.048466 0.816184 0.099542 0.567883
0.165842 0.378342 0.056233 0.74307 -0.023983 0.667841
0.253772 0.422489 -0.011039 0.095743 -0.273158 0.950239
0.506178 0.161641 -0.001065 -0.601594 -0.794325 0.080775
0.10546 0.57602 -0.009126 0.327253 0.751863 0.572008
0.008612 -0.160344 -0.05816 0.811739 -0.016532 -0.58302
0.212605 -0.091806 0.030334 0.970785 -0.006727 0.236643
0.004125 -0.359459 0.068579 0.750125 -0.126829 0.648331
0.034325 0.747975 -0.117355 0.057697 -0.465671 -0.87737
-0.095635 -0.857688 -0.064879 -0.775268 -0.559714 0.110612
0.194521 -0.561838 0.01471 0.920064 0.019278 0.390677
-0.0856 -0.707597 0.019009 -0.011413 -0.397025 0.914814
-0.113136 -0.726973 -0.080135 -0.8209 -0.092936 -0.561683
-0.129783 0.068623 0.020029 -0.948415 0.287257 0.096149
-0.108954 -0.63554 0.033472 -0.837982 -0.056941 0.542433
-0.083628 0.042555 0.10548 -0.451443 0.165906 0.87207
0.0448 -0.268835 0.03928 -0.949453 -0.054378 0.305706
0.484604 0.186123 -0.053572 -0.113516 -0.457688 -0.866236
-0.091223 0.566961 -0.002604 -0.171433 0.906777 0.377524
0.125219 0.14203 0.100899 0.52905 0.044001 0.847422
0.23376 0.448311 0.008564 0.614773 -0.076359 0.776689
-0.014689 0.677391 0.032428 -0.761641 -0.613174 0.190898
-0.159534 0.448132 0.050611 -0.429117 -0.402372 0.80586
-0.007873 0.516287 0.063806 -0.000768 0.444075 0.895372
-0.027339 0.352999 -0.128666 -0.0361 -0.01085 -0.99919
0.087098 0.815191 0.030914 0.812999 0.330088 0.478933
-0.1282 -0.150989 0.078702 -0.887733 0.019233 0.45845
-0.10822 -0.722529 -0.088705 -0.818706 -0.058354 -0.57024
0.099146 0.01419 -0.153978 0.305107 -0.069614 -0.949362
0.164751 -0.43358 0.070734 0.368986 -0.107596 0.917978
0.04956 -0.627121 -0.016326 -0.959229 0.090302 0.24686
-0.053233 0.395268 -0.126442 -0.255353 -0.076385 -0.962565
-0.085949 -0.243336 0.110959 -0.180316 -0.03651 0.982867
-0.402958 0.190527 -0.053063 0.250679 -0.726141 -0.629777
0.130076 0.336423 0.087199 0.496064 0.033933 0.866818
-0.1242 0.383512 0.016535 -0.936455 -0.277008 0.213096
-0.112977 0.159036 0.049913 -0.838558 0.033748 0.541215
-0.112701 -0.458155 -0.065658 -0.720963 0.151745 -0.676034
0.144832 0.287199 -0.106774 0.802821 -0.098437 -0.587075
0.207596 0.429884 -0.12761 0.030218 -0.425754 -0.894297
0.025067 -0.083598 0.112287 0.290831 -0.326459 0.88641
0.021809 -0.457929 0.012597 0.899251 -0.029787 0.435342
0.155664 0.504518 0.038397 0.291501 0.527398 0.796829
0.089922 0.460166 0.081251 0.124593 0.286522 0.949396
0.014214 -0.339765 0.05959 0.8033 -0.154687 0.573849
-0.177311 0.480135 -0.081225 -0.434983 0.317381 -0.842593
-0.129227 -0.567086 -0.060355 -0.945261 0.029003 -0.322494
0.176823 -0.773873 -0.063857 0.769082 0.50142 -0.392668
0.043325 0.71518 -0.09713 0.176149 -0.617344 -0.76354
0.182328 0.244001 -0.017905 0.992707 -0.007882 -0.110978
0.158019 -0.802551 -0.103421 0.670951 0.137519 -0.727222
0.07148 0.751016 0.068499 0.416352 0.125829 0.89404
-0.419403 0.22662 -0.057393 -0.586644 0.00617 -0.807353
-0.154407 0.525308 0.038365 -0.261067 0.438865 0.841644
-0.020885 0.697223 -0.014877 -0.867665 -0.38338 -0.052037
0.17446 -0.792307 0.000409 0.790201 -0.541414 0.278072
-0.000927 0.551066 0.031047 0.074277 0.777192 0.62269
0.024241 0.653456 0.046196 -0.248428 -0.821699 0.492439
0.360498 0.320603 -0.044583 0.217082 0.277859 0.934805
0.014248 -0.754974 -0.027689 0.7246 -0.384421 0.570871
0.20398 -0.35134 0.013672 0.97446 -0.103804 0.194192
0.138136 -0.385724 0.074377 -0.145953 -0.139638 0.977868
0.21024 -0.127473 -0.026226 0.915483 -0.047572 -0.396372
-0.124923 0.015369 -0.059661 -0.893396 0.034078 -0.447903
0.140658 -0.866656 -0.026121 0.152315 -0.976582 0.150182
0.20758 -0.149997 0.022825 0.983335 -0.162516 0.071427
-0.15713 0.514318 0.045033 -0.313071 0.494931 0.808548
0.083834 0.101108 0.124548 0.458304 0.00751 0.887809
-0.13328 0.550743 0.01603 -0.241704 0.864891 0.439349
-0.036932 -0.661947 -0.099745 0.757951 0.159794 -0.595509
0.172029 -0.198015 0.088915 0.381977 -0.11627 0.916143
-0.011852 -0.269342 -0.077821 0.644674 -0.104519 -0.75701
0.438426 0.252095 -0.114379 0.571989 -0.233926 -0.781353
0.180191 0.389284 0.041413 0.773303 -0.152634 0.613198
-0.09162 -0.759955 -0.110938 -0.691303 -0.028132 -0.717506
-0.101406 -0.434051 -0.070494 -0.652431 0.272452 -0.706709
0.277034 0.338939 -0.089082 -0.62714 -0.767013 -0.119777
0.051346 -0.388125 0.017275 -0.692802 -0.35201 0.627344
0.003315 0.632364 0.016478 -0.725485 -0.188583 0.660641
-0.034192 0.316199 0.104808 -0.527109 0.125237 0.837699
0.003259 -0.281886 -0.058931 0.77418 -0.119107 -0.621561
-0.068933 0.00908 -0.129513 -0.400206 -0.089797 -0.906644
-0.045521 0.452804 0.087527 -0.193665 0.318442 0.926899
-0.111412 -0.592291 -0.085858 -0.655028 0.025847 -0.75515
0.110767 -0.869883 0.091003 0.025648 -0.999601 0.009717
0.341339 0.378624 -0.065437 0.742945 0.498062 0.424624
-0.260109 0.295224 -0.07131 0.60686 -0.61337 -0.497924
0.182826 0.321003 0.016626 0.909254 -0.099772 0.403301
-0.25603 0.422039 -0.065473 -0.612688 0.626733 -0.479189
0.005164 0.82423 -0.098962 -0.351773 0.624 -0.693308
0.328182 0.354278 -0.138264 0.035577 -0.103147 -0.992953
-0.143856 -0.104485 0.027647 -0.995372 0.007321 0.090342
-0.10376 -0.809326 -0.096282 -0.883868 -0.248847 -0.382261
0.021145 0.836307 -0.091368 -0.159037 0.715193 -0.679902
0.126043 0.201475 -0.104756 0.558481 -0.20588 -0.801815
0.185188 -0.49388 0.044538 0.861303 -0.114563 0.494355
0.185092 -0.072249 0.08074 0.706289 0.068975 0.704335
0.132984 0.199666 0.094802 0.552231 0.057682 0.829939
0.633188 0.023 0.058562 -0.409104 -0.905143 0.004873
0.181432 -0.207204 0.081717 0.596658 -0.148598 0.785067
0.112942 -0.580821 0.035747 -0.285924 -0.187311 0.939345
0.239061 0.379465 -0.114022 -0.698372 -0.575665 -0.408451
0.009719 -0.792942 -0.094235 0.950802 -0.023118 -0.297042
0.205736 -0.220999 -0.030443 0.994222 -0.048771 -0.092538
-0.134029 -0.522376 -0.044414 -0.908158 0.030624 -0.395364
0.194153 -0.34718 0.04423 0.910461 -0.066847 0.407291
-0.108218 0.063161 -0.077701 -0.826217 0.123671 -0.54933
-0.034951 0.80695 0.002187 -0.97601 0.004784 0.202835
-0.099311 -0.285609 -0.062597 -0.745105 -0.004891 -0.66687
-0.056752 -0.396689 0.089457 0.164515 -0.151044 0.974658
0.21864 0.534678 -0.006895 0.363605 0.674192 0.642305
-0.118937 0.154478 -0.033414 -0.886418 0.128006 -0.441
0.023902 -0.708777 -0.053672 0.954297 -0.088269 -0.267879
-0.017955 -0.75934 -0.006138 0.530609 0.027646 0.818472
0.116695 -0.607868 -0.09835 -0.264603 -0.097982 -0.958686
0.001831 -0.195469 0.102776 0.615997 -0.10081 0.781229
-0.134763 -0.163679 -0.018504 -0.908799 -0.132052 -0.385711
0.082312 0.128247 0.123405 0.409234 0.050325 0.908474
0.161461 -0.447208 0.069589 0.174216 -0.11602 0.970686
0.194087 -0.542143 0.016455 0.929927 -0.063246 0.361637
0.115529 0.28042 -0.133877 0.476909 -0.04345 -0.874472
-0.240585 0.36201 0.01749 0.11879 -0.226574 0.965877
0.054406 -0.073889 -0.124458 -0.365865 -0.40798 -0.836394
-0.128197 -0.643927 -0.043077 -0.996766 -0.053571 0.050284
0.195458 -0.718416 -0.008378 0.965608 0.007835 0.25759
0.286465 0.337172 -0.060426 -0.503562 -0.757409 0.395671
-0.068674 -0.863937 0.040523 -0.022792 -0.99964 -0.012926
0.033557 -0.227112 0.021813 0.866866 -0.151864 0.472105
0.109507 0.027104 -0.150942 0.451432 0.031572 -0.889959
-0.225272 0.469956 -0.002318 -0.828716 0.479833 0.273915
-0.278836 0.401954 -0.015695 -0.672771 0.682873 0.280955
0.057992 -0.73582 0.026137 -0.923396 -0.207634 0.303854
-0.021063 -0.073344 -0.115369 0.168925 -0.44014 -0.881151
-0.102878 0.297876 0.050401 -0.893696 0.197866 0.394482
-0.113408 -0.089769 -0.068134 -0.763679 -0.123223 -0.633665
-0.041998 0.28452 -0.12749 -0.323757 -0.025456 -0.942035
-0.002337 -0.384522 -0.054881 0.605975 0.080985 -0.791022
-0.134315 -0.23946 0.050653 -0.985457 -0.050234 0.155532
-0.298707 0.278298 0.002268 0.46095 -0.19598 0.859759
0.204207 -0.505635 -0.012075 0.975323 0.103064 0.158638
0.12921 0.485339 0.059611 0.234071 0.521062 0.820673
0.04568 -0.506477 -0.019095 -0.766091 -0.000546 0.526244
0.006901 -0.814482 -0.053975 0.885178 -0.376619 0.248877
0.575696 0.135319 0.001012 0.662454 0.422978 -0.557683
0.454839 0.280366 -0.089567 0.772626 0.543022 -0.293828
0.205068 -0.356551 0.0056 0.987458 -0.050171 0.134833
0.016706 -0.420067 -0.034061 0.888504 -0.024468 -0.444102
0.093342 0.253472 -0.137673 0.042837 -0.100049 -0.993842
-0.192673 0.491952 -0.062543 -0.607438 0.508246 -0.61046
0.052339 -0.17131 -0.079625 -0.77278 -0.17752 -0.606757
-0.287503 0.297021 0.00412 0.198777 -0.290523 0.93352
-0.128072 0.079942 0.022295 -0.992754 0.07063 0.091854
-0.103451 0.066943 -0.085173 -0.826514 0.146527 -0.543091
0.325411 0.438176 -0.102214 0.614285 0.699179 -0.363673
-0.522627 0.119867 0.074468 -0.725946 0.680918 0.084461
-0.293635 0.373466 -0.053192 -0.879249 0.448449 -0.116403
-0.485011 0.167893 0.025764 -0.649874 0.745208 0.130071
0.202939 -0.125926 -0.044609 0.871205 0.021491 -0.490361
0.055498 0.852063 0.042035 0.425449 0.65904 0.61867
0.034613 -0.016282 0.135648 -0.053771 -0.331845 0.931185
-0.120302 -0.78449 -0.04121 -0.995683 -0.070517 0.026627
-0.012576 0.687704 -0.038967 -0.887475 -0.32933 -0.317643
-0.07854 0.225676 0.083967 -0.595825 0.118869 0.794187
-0.053344 0.531941 0.046105 -0.200849 0.612149 0.764791
0.001064 -0.364671 -0.051576 0.687397 -0.044608 -0.724495
0.121827 0.00923 -0.14457 0.427662 0.063819 -0.901135
-0.134395 -0.482893 -0.039186 -0.922706 0.041106 -0.382459
0.586544 0.053785 0.041427 -0.039802 -0.6098 0.634075
-0.131808 -0.169992 0.072286 -0.824047 0.015682 0.564347
-0.50506 0.140474 -0.006882 -0.947377 0.192488 -0.235897
-0.134332 -0.130095 -0.029388 -0.890376 -0.111897 -0.436999
-0.113966 -0.561954 0.024343 -0.886584 -0.117521 0.447229
0.620834 0.049358 0.070828 -0.815481 -0.574335 0.000689
0.154101 -0.859568 -0.091135 0.742673 -0.510634 -0.394857
-0.087365 0.30657 -0.101234 -0.659445 -0.071481 -0.748215
0.089759 0.713164 0.048948 0.962038 -0.07143 0.246107
0.076641 0.601339 0.005267 0.746173 0.039203 0.664451
-0.043018 -0.554486 0.046735 0.460582 -0.201994 0.86419
0.45936 0.212855 -0.011573 -0.474992 0.17458 0.850895
0.018197 0.669141 -0.064439 -0.393321 -0.295728 -0.861571
0.092976 0.706356 -0.003757 0.786615 -0.591984 0.03113
-0.106933 0.077307 -0.076539 -0.825548 0.162012 -0.539836
0.101006 0.402463 -0.145917 0.006957 0.001789 -0.999736
-0.529379 0.107999 0.07881 -0.819826 0.468805 0.288142
0.078637 -0.03171 0.13004 0.059248 -0.082595 0.994356
-0.148947 0.545626 -0.045481 -0.502251 0.754578 -0.422003
0.052322 0.36896 0.106442 0.13339 0.22593 0.963591
0.010373 -0.395083 0.050201 0.851821 -0.184969 0.489377
0.152669 0.096149 0.083251 0.388363 0.224604 0.881435
-0.12786 0.187136 -0.003071 -0.987677 0.077363 -0.112341
-0.016863 -0.115605 0.123498 0.255652 -0.13361 0.956356
0.152425 -0.362833 0.076076 0.178062 -0.08094 0.979825
-0.526307 0.088939 0.026352 0.214491 -0.132127 -0.879401
-0.013176 0.612387 -0.010164 -0.884035 0.237851 0.396733
0.067462 0.861281 -0.029529 0.450448 0.867181 -0.137915
0.257329 0.374286 -0.035858 -0.546418 -0.558739 0.622434
0.066601 0.082896 0.13024 0.050815 0.017261 0.991979
-0.064458 -0.793162 0.045631 -0.347186 0.514298 0.76929
-0.021027 0.43897 0.095911 -0.130638 0.232855 0.96285
-0.273804 0.355419 0.0114 -0.469286 -0.051819 0.875406
-0.081835 -0.863434 0.103367 -0.029135 -0.999511 0.006899
0.197544 -0.672163 -0.014224 0.976858 0.041666 0.20789
0.059299 0.731165 0.078646 0.532484 0.341777 0.768187
-0.131363 -0.015525 -0.047006 -0.936286 0.015904 -0.350871
-0.00604 -0.19361 0.109192 0.62534 -0.096122 0.774219
-0.235231 0.456638 -0.010297 -0.80731 0.546289 0.216327
0.38608 0.325454 -0.122526 0.540334 0.406208 -0.736052
0.101805 -0.483104 -0.102444 -0.393088 0.015719 -0.919086
0.118565 -0.823385 0.104463 -0.077653 0.985407 0.136573
0.041777 0.629871 -0.068017 0.032298 0.331934 -0.937887
-0.085931 -0.739656 -0.116812 -0.662003 0.079269 -0.744406
0.203469 -0.140449 -0.043739 0.890157 -0.019142 -0.452975
0.272043 0.344808 -0.059832 -0.515367 -0.770856 0.356503
-0.08512 0.337179 -0.105904 -0.58331 -0.087704 -0.807456
0.035212 0.230806 -0.125855 -0.045067 -0.048385 -0.99548
0.075527 -0.719722 0.035795 -0.056303 -0.040943 0.995748
-0.120284 0.324483 -0.030312 -0.999277 -0.024692 0.022066
0.198925 -0.630879 -0.037444 0.999787 -0.011239 -0.01519
0.131849 -0.376047 -0.095939 0.471545 0.110117 -0.873189
0.096294 -0.316829 0.075479 -0.33243 -0.116499 0.935675
0.11561 -0.757261 0.02175 -0.170835 -0.265878 0.932807
0.008769 -0.465865 -0.049737 0.821349 0.066438 -0.564749
-0.14061 -0.147497 0.043139 -0.950555 -0.044844 0.307154
0.142661 0.131745 -0.097963 0.705421 0.198913 -0.679906
-0.523381 0.074378 0.092547 -0.022615 -0.92145 0.375428
-0.095088 0.214985 -0.063825 -0.784618 -0.185255 -0.581735
0.20653 -0.001725 0.033079 0.986288 0.050729 0.141228
0.154591 -0.129438 -0.100533 0.62209 -0.229947 -0.748242
0.200771 -0.485995 -0.009882 0.98467 0.122191 0.115589
-0.109329 -0.854396 0.018437 -0.722344 -0.687753 -0.071147
0.204286 -0.409171 -0.015951 0.981297 -0.143417 -0.124376
-0.027321 0.770006 -0.086093 -0.84297 -0.114377 -0.52375
0.219589 0.514755 -0.115818 0.369282 0.576634 -0.727701
0.602044 0.108897 0.0456 0.838322 0.543764 0.037587
-0.049736 -0.678743 0.020955 0.080472 -0.285075 0.953188
-0.229953 0.465649 -0.009818 -0.833337 0.515671 0.189905
0.066065 -0.47275 -0.07156 -0.727066 0.039463 -0.685301
0.055194 0.765467 0.072178 0.538929 -0.240103 0.804362
0.001007 -0.80524 -0.025015 0.921553 -0.170728 0.347229
-0.276545 0.396402 -0.004575 -0.676863 0.554548 0.483369
0.266728 0.48285 -0.108778 0.522872 0.575052 -0.628232
-0.208215 0.453605 -0.077278 -0.467502 0.531934 -0.70545
0.082668 0.845625 -0.032552 0.809094 0.572777 -0.091547
-0.052607 -0.315052 -0.089983 -0.070397 -0.061715 -0.993453
-0.128393 -0.441601 0.03957 -0.921059 -0.100883 0.375906
0.12898 0.388687 -0.139148 0.389385 -0.140392 -0.910159
0.020343 -0.323113 0.053803 0.909793 -0.12481 0.395338
0.075886 -0.528399 0.01675 -0.678072 -0.003351 0.734888
0.02491 -0.386036 -0.011959 0.972165 -0.047525 -0.214071
-0.073668 0.526124 -0.10881 -0.319684 0.492647 -0.808127
0.025255 -0.184526 0.055347 0.959346 -0.058343 0.270346
-0.051433 -0.648277 0.028351 0.296652 -0.164117 0.93962
-0.447848 0.216469 -0.027291 -0.742681 0.653167 -0.095283
0.188205 -0.269516 0.066784 0.745483 -0.013989 0.662463
0.092007 0.732755 0.03814 0.973824 -0.067167 0.21407
0.064229 -0.115441 -0.106167 -0.471863 -0.319488 -0.814546
0.043647 -0.444181 -0.027516 -0.998456 -0.010906 0.010767
-0.037941 -0.863011 0.101095 0.204793 -0.968176 0.065625
0.04445 -0.558586 -0.027209 -0.990856 -0.029253 0.015692
-0.123409 -0.5772 -0.073258 -0.777581 0.043492 -0.626562
0.009035 -0.108063 0.114302 0.577349 -0.294933 0.760489
-0.044595 -0.477146 0.06721 0.288495 -0.259622 0.921308
-0.113605 0.314644 -0.068873 -0.910667 -0.161752 -0.377348
0.198082 -0.189007 0.050494 0.958644 -0.044499 0.279599
-0.491133 0.09862 0.049717 0.76132 -0.619262 0.040781
0.09848 -0.3611 -0.099313 -0.317098 -0.018 -0.941582
-0.147507 0.389985 -0.032305 0.743739 -0.665265 -0.05792
-0.106795 0.52727 0.044555 -0.016804 0.577041 0.816269
0.248295 0.375945 -0.043123 -0.586557 -0.672201 0.448592
0.170502 0.339783 -0.090667 0.74912 -0.322698 -0.578321
0.136135 -0.04201 0.113848 0.321994 -0.033849 0.945933
0.207038 0.022099 0.016066 0.999392 0.030886 0.01411
-0.071227 -0.453559 0.080354 0.163313 -0.164652 0.97258
0.02628 -0.270827 0.045618 0.977668 -0.021364 0.206834
0.135119 -0.866318 0.148742 0.02311 -0.985387 0.167015
-0.110292 -0.624756 0.03234 -0.868623 -0.016739 0.494877
0.010857 0.054898 0.138241 0.047249 0.027029 0.994332
0.041418 -0.323397 -0.040985 -0.875462 -0.0248 -0.482449
-0.095967 0.129836 -0.077417 -0.734004 0.138129 -0.664345
0.225291 0.445315 0.014853 0.428475 -0.221405 0.870899
-0.074049 -0.036427 0.121535 -0.436708 0.020278 0.897821
0.045095 0.306488 -0.130045 -0.323286 0.002057 -0.943288
0.079789 -0.358367 0.057437 -0.50789 -0.328182 0.796294
0.080668 -0.608782 -0.074562 -0.677346 -0.053734 -0.733625
-0.021117 -0.474853 -0.084556 0.691329 0.096119 -0.716107
0.067145 0.37694 -0.141039 -0.400018 -0.005517 -0.914863
-0.128191 -0.55083 -0.060673 -0.91675 0.070196 -0.391021
0.178272 0.170485 -0.040288 0.902475 0.103278 -0.417199
0.19073 -0.391749 0.047706 0.93289 -0.027111 0.358396
-0.046714 0.107789 0.112226 -0.491975 0.180216 0.851681
-0.034821 0.571665 0.005353 -0.143508 0.778392 0.609402
0.134601 -0.499755 0.056177 -0.44935 -0.139432 0.880833
-0.545085 0.062401 0.038336 0.550552 -0.831292 -0.059447
-0.366651 0.201587 -0.008 0.640058 -0.758948 0.116598
-0.071078 -0.604295 0.046776 0.481544 -0.240266 0.842681
0.212367 -0.107308 -0.018767 0.953279 0.062221 -0.277926
-0.197847 0.394515 0.025993 0.228862 -0.368011 0.899856
0.153767 -0.60025 0.037322 0.244955 -0.362444 0.885363
0.186431 0.452932 -0.135752 0.146803 -0.052993 -0.9877
0.14087 -0.69045 0.024819 0.23563 -0.342101 0.907247
0.021949 0.332382 -0.125912 0.002394 0.001265 -0.998671
0.578673 0.105537 0.064803 -0.345843 0.149932 0.915355
0.166906 -0.817365 -0.087653 0.891005 -0.343478 -0.246938
0.177701 0.126488 -0.04958 0.852457 0.232215 -0.465637
-0.01195 -0.816511 0.020167 0.962302 -0.069405 0.187652
0.043515 -0.404488 -0.011668 -0.989934 -0.07092 0.109865
-0.137478 0.019118 -0.0184 -0.984664 -0.005525 -0.168635
-0.021555 -0.775124 0.012221 0.709814 0.586503 0.385187
-0.0142 -0.792209 -0.137261 0.572847 0.252514 -0.759731
0.055766 -0.594483 -0.006396 -0.781583 -0.13364 0.607063
0.160504 -0.406764 -0.082828 0.551901 0.094619 -0.827823
0.193098 0.41921 0.028507 0.836803 -0.300934 0.437212
0.093428 -0.584073 -0.088169 -0.605225 -0.12686 -0.785862
-0.150492 0.394322 0.002493 0.659313 -0.670512 0.336496
-0.045487 0.090431 0.115912 -0.471229 0.123058 0.873217
-0.111509 0.257593 -0.051474 -0.995589 -0.006881 -0.084602
0.082731 -0.529355 -0.086899 -0.693581 -0.073118 -0.716189
0.17655 0.048747 -0.085157 0.819307 0.196127 -0.537873
0.200934 -0.482728 -0.023745 0.993019 0.112581 -0.026402
0.129422 0.366375 -0.135972 0.457646 -0.16131 -0.872057
-0.076961 -0.464406 -0.092244 -0.361768 0.136069 -0.922196
0.196987 -0.175344 0.057599 0.960072 -0.050423 0.273181
-0.075924 0.220054 -0.090276 -0.754871 -0.236495 -0.610973
0.207548 -0.193821 -0.015208 0.998735 -0.033624 -0.034281
-0.025671 -0.056758 -0.122729 -0.010373 -0.403846 -0.913568
-0.10654 -0.684041 0.021651 -0.679152 -0.322152 0.658655
-0.122114 -0.060618 0.082839 -0.78791 0.029879 0.614902
0.041472 0.870463 -0.014373 0.027355 0.995957 -0.013724
-0.079177 0.184939 -0.081887 -0.648513 -0.019114 -0.760383
0.084973 -0.123326 0.093926 -0.5805 -0.052472 0.81165
-0.096246 -0.353732 0.101656 -0.174329 -0.141959 0.974149
-0.082817 -0.820976 -0.122987 -0.771511 -0.124237 -0.622438
0.158125 -0.164599 0.097715 0.245844 -0.144869 0.956929
0.415543 0.220251 -0.110383 -0.046387 -0.593238 -0.777951
0.341629 0.282174 -0.079218 -0.621142 -0.757841 0.187339
0.206894 0.007023 -0.004235 0.996531 0.031937 -0.05945
-0.038639 -0.686188 0.019359 -0.220728 -0.15301 0.962195
0.161935 0.493019 0.04254 0.453016 0.391813 0.795738
-0.002772 -0.52018 -0.070606 0.792799 0.061386 -0.606235
0.180779 0.329196 -0.066957 0.830903 -0.354141 -0.427145
-0.309831 0.325597 0.002489 -0.260196 0.25777 0.927419
-0.003231 0.714614 -0.083027 -0.571666 -0.566372 -0.590175
-0.239956 0.32137 -0.071245 0.638916 -0.586645 -0.495571
-0.135905 -0.193249 0.05631 -0.987601 -0.044245 0.140451
0.18287 0.274551 -0.014806 0.996931 -0.023736 -0.071456
-0.079055 0.240577 -0.096757 -0.662095 -0.313759 -0.680304
0.010919 0.007517 0.143107 -0.017964 0.135951 0.990017
0.105507 -0.869832 0.057198 -0.130965 -0.982711 -0.022548
-0.191685 0.518044 -0.010162 -0.6541 0.746404 0.095236
0.15526 0.019119 0.106522 0.508003 0.185595 0.840856
0.013834 -0.651477 0.007362 0.767235 -0.143544 0.623796
0.292282 0.413571 -0.016044 0.472875 0.11558 0.872887
-0.015973 0.84548 -0.050998 -0.529165 0.788038 -0.312306
-0.119577 0.329125 -0.01623 -0.993598 -0.036516 0.104323
-0.136374 -0.030124 0.048208 -0.984648 0.069194 0.153357
0.072318 0.718899 0.073892 0.649734 0.088672 0.75385
-0.013123 0.800802 -0.102918 -0.563798 0.272799 -0.774821
-0.018987 0.164218 0.123282 -0.442801 -0.014764 0.894722
0.151925 -0.08171 0.107591 0.68642 0.03938 0.677733
0.545857 0.122221 0.025337 -0.819095 -0.546739 0.168209
0.358076 0.363424 -0.123504 0.717849 0.484848 -0.493684
0.034169 -0.156178 -0.052678 -0.918622 -0.206511 -0.336619
-0.008781 -0.436453 -0.066993 0.736597 0.046804 -0.674584
0.21076 -0.022783 -0.00713 0.959021 0.047784 -0.27777
0.263437 0.419616 -0.01165 -0.035632 -0.186061 0.981211
0.154555 0.024046 -0.118597 0.746545 0.063484 -0.646662
-0.325949 0.271146 -0.089216 -0.01909 -0.372554 -0.926193
-0.013334 0.853279 0.006438 -0.537061 0.825099 0.153067
0.027517 0.093089 0.134854 0.080656 -0.185543 0.975805
-0.125113 -0.524204 0.013864 -0.845021 -0.123701 0.519629
0.157448 -0.684582 -0.078833 0.667694 -0.039237 -0.743113
-0.1054 -0.83552 0.013217 -0.853755 0.515393 0.030616
-0.289606 0.380378 -0.027594 -0.867438 0.470353 0.156189
0.035837 0.458048 -0.127757 -0.135373 0.042473 -0.989425
-0.022027 0.737188 -0.07667 -0.789576 -0.401399 -0.457048
-0.009925 -0.829949 -0.008419 0.441941 -0.884368 0.139497
0.019804 -0.435166 0.017419 0.951401 0.026622 0.297493
0.175726 0.019309 -0.091999 0.828477 0.00876 -0.558942
0.270728 0.35492 -0.113096 -0.49969 -0.727682 -0.460242
-0.038207 0.591487 -0.060476 -0.435217 0.873933 -0.17235
0.200978 -0.504476 -0.001391 0.951436 0.056086 0.295391
0.021638 0.735782 0.096639 -0.873846 0.110532 0.442815
0.546604 0.194526 -0.02836 0.967461 -0.232494 0.069082
-0.019785 -0.835084 -0.028897 0.77086 -0.572513 0.013474
-0.45356 0.167339 -0.049298 -0.426274 -0.094089 -0.804812
0.182585 0.245143 0.015213 0.998002 -0.013531 0.060852
-0.113737 0.141001 -0.047397 -0.887879 0.134142 -0.439826
0.166322 -0.220431 -0.078388 0.559878 -0.06218 -0.825844
0.12921 0.502598 0.04947 0.256834 0.483213 0.836003
0.044 -0.509228 -0.029605 -0.996795 -0.009305 0.018902
0.528795 0.158537 0.025445 -0.523287 0.063701 0.845131
-0.012894 -0.428514 -0.070783 0.719044 0.087352 -0.688673
0.132169 0.539651 -0.121549 0.176901 0.476272 -0.86107
-0.07989 -0.783271 0.02228 -0.5398 0.678165 0.497023
0.023494 -0.724898 -0.045397 0.985316 -0.061947 0.145931
0.052283 -0.311484 -0.0585 -0.814982 0.005868 -0.579392
0.087589 0.585295 -0.003818 0.689775 0.30238 0.655318
-0.031174 -0.28292 -0.089237 0.36281 -0.077165 -0.928407
0.056106 -0.724767 0.025641 -0.919669 -0.069475 0.356836
-0.125836 -0.291116 -0.02102 -0.95099 0.022092 -0.296343
-0.363836 0.210274 -0.056993 0.457828 -0.735623 -0.495186
-0.093342 -0.094403 -0.089069 -0.67511 -0.137986 -0.723633
0.019201 -0.426685 -0.025966 0.970895 0.018489 -0.224488
-0.035363 -0.458001 0.070597 0.298771 -0.337113 0.892205
0.11708 -0.670697 -0.093891 -0.165344 0.004554 -0.983032
0.040715 0.468444 0.083441 0.135682 0.346437 0.928043
-0.083392 -0.123998 -0.092254 -0.601546 -0.070985 -0.795252
0.109708 0.081927 0.110545 0.549363 0.106279 0.823283
-0.086811 0.574205 -0.041774 -0.342549 0.934356 -0.06991
-0.076284 -0.184911 -0.08788 -0.52054 -0.097952 -0.845042
-0.066335 0.325245 -0.117086 -0.499772 -0.022602 -0.865814
-0.081166 -0.857638 0.150648 -0.37993 -0.681944 0.542709
0.115501 0.591294 -0.061374 0.417198 0.886268 -0.065355
-0.082654 0.035521 -0.118181 -0.67276 0.254038 -0.694727
0.204768 -0.534009 -0.033087 0.983921 0.011353 -0.176348
0.008883 -0.705882 -0.008497 0.76838 -0.1838 0.612479
0.070066 -0.263467 0.073661 -0.606104 -0.119147 0.785584
0.025855 -0.183542 -0.031212 -0.650162 0.034635 -0.751626
0.198738 -0.651647 -0.03417 0.998684 -0.031492 -0.029203
0.194859 -0.638036 0.000866 0.934452 -0.117832 0.334581
-0.341058 0.320103 -0.078429 -0.469431 0.638116 -0.609071
0.127339 -0.178376 -0.105533 0.205718 -0.10385 -0.97009
0.171477 0.467478 -0.138059 0.162674 0.064952 -0.984186
-0.081613 -0.61096 -0.103375 -0.224029 0.079457 -0.96756
0.552548 0.1034 0.024015 -0.922212 -0.36336 0.122016
-0.091802 0.511734 -0.110293 -0.310966 0.42358 -0.848789
0.233374 0.469084 0.007851 0.768857 0.003712 0.639338
0.004293 -0.45722 -0.054436 0.771568 0.082407 -0.630585
0.15284 -0.451626 0.069274 -0.08698 -0.123105 0.981656
-0.014802 0.699553 0.055224 -0.746382 -0.334232 0.572975
0.202499 0.06121 0.014328 0.948473 0.298751 0.100266
0.167773 -0.035656 0.095564 0.655153 0.018676 0.75464
0.011496 0.112936 -0.131384 -0.172312 0.40359 -0.898402
0.013708 0.750853 -0.115702 -0.290918 -0.359491 -0.884321
0.177159 -0.654445 0.020103 0.485644 -0.043077 0.872497
0.188409 -0.759682 -0.000897 0.927495 -0.247033 0.273377
0.186623 -0.474852 0.043623 0.915407 -0.075051 0.395123
-0.009343 0.660632 0.012248 -0.849594 -0.386644 0.348778
-0.319367 0.326852 -0.086292 -0.37971 0.490142 -0.784556
0.190017 0.329149 -0.041687 0.971983 -0.176432 -0.136479
-0.057343 0.31845 0.094621 -0.490943 -0.055695 0.866108
-0.069424 -0.832697 -0.138387 -0.579757 -0.098733 -0.799934
0.344296 0.320545 -0.041708 0.018013 -0.080304 0.993221
0.184093 -0.77126 -0.042963 0.943456 0.147696 -0.272496
0.002177 0.853716 -0.057102 -0.376653 0.849669 -0.364459
-0.125731 0.403776 0.040063 -0.811618 -0.49575 0.297298
0.190306 0.357271 -0.074453 0.819676 -0.436207 -0.369359
0.002582 -0.625224 0.018601 0.426811 0.099143 0.889979
-0.125308 -0.344921 0.047458 -0.990218 0.052007 0.128615
-0.194329 0.350891 -0.016571 0.567267 -0.76223 0.308182
-0.126875 -0.610168 -0.00829 -0.981208 0.023794 0.189093
0.078582 0.466102 0.080749 0.106273 0.342279 0.931188
0.263638 0.442319 -0.136494 0.065074 0.316763 -0.940445
-0.444184 0.167584 -0.052436 -0.049762 -0.381064 -0.838775
0.034225 -0.286412 0.0027 -0.29001 -0.486708 0.485328
0.302484 0.320615 -0.069246 -0.655125 -0.700333 0.265036
-0.126212 0.447481 0.061382 -0.06934 -0.017847 0.994713
0.123469 -0.566572 0.041561 -0.229365 -0.162877 0.958995
0.183261 0.129479 -0.037473 0.858139 0.205746 -0.468623
-0.152807 0.550416 -0.024476 -0.441653 0.890331 -0.094634
0.158543 -0.560191 -0.09651 0.536 -0.048146 -0.841261
0.141306 -0.089048 0.112314 0.259136 -0.028205 0.9633
-0.250935 0.328257 0.004844 0.260728 -0.472077 0.8405
0.171494 0.036538 -0.096892 0.790373 0.125181 -0.597883
0.2062 -0.024958 -0.025566 0.972042 0.023135 -0.231221
-0.152695 0.432436 0.044567 -0.506551 -0.492244 0.703801
0.040627 -0.226209 -0.041884 -0.9357 -0.015511 -0.350014
0.07605 -0.568191 0.017206 -0.69774 -0.008397 0.716202
0.295543 0.459976 -0.034557 0.740453 0.328911 0.582393
0.262919 0.51237 -0.076629 0.676506 0.696313 -0.231804
-0.121283 -0.28613 -0.029481 -0.830399 0.031672 -0.554689
0.008476 -0.748005 -0.016227 0.601276 -0.431177 0.665431
0.105684 -0.869885 0.102011 -0.062133 -0.993006 0.018686
0.148883 0.549469 -0.109712 0.251197 0.653315 -0.713781
0.171189 -0.812944 -0.080219 0.810848 -0.501578 -0.25519
-0.087685 0.0254 -0.117127 -0.731941 0.136911 -0.661183
-0.046997 -0.824718 0.099003 0.182404 0.961021 0.204029
0.120868 0.460794 0.074137 0.21527 0.338173 0.915834
-0.057185 -0.861096 -0.040008 0.085399 -0.995725 -0.006737
0.021306 -0.224794 -0.039794 0.946776 -0.0153 -0.319176
0.054472 -0.236644 0.061877 -0.7642 -0.164167 0.62366
-0.114288 -0.28095 -0.040118 -0.879099 0.01137 -0.47629
-0.049267 -0.544727 -0.10172 0.19052 0.03726 -0.980101
0.097618 0.813452 -0.033054 0.952213 0.299886 -0.01947
-0.072774 -0.506771 0.070698 0.365537 -0.227252 0.902365
0.101584 0.774926 0.008283 0.940977 -0.030953 0.328181
0.143771 0.577094 -0.034038 0.310664 0.856802 0.398161
-0.426548 0.171791 0.031054 0.418008 0.179749 0.878226
-0.131243 -0.059835 -0.045197 -0.888661 -0.036974 -0.456417
-0.002774 -0.445151 -0.061034 0.739194 0.064595 -0.670301
0.254474 0.521364 -0.072822 0.670305 0.711786 -0.197721
0.000853 0.6871 0.07162 -0.747654 -0.056095 0.6606
0.619368 0.073805 0.090307 0.813783 0.442558 0.329556
-0.174153 0.391234 0.017656 0.298535 -0.581563 0.749859
-0.109303 -0.380705 -0.057126 -0.710106 -0.026587 -0.703342
0.207188 -0.157506 0.016663 0.995591 -0.068123 0.05532
0.0473 0.576772 0.023983 0.356106 0.001832 0.934271
-0.06973 -0.072243 -0.111491 -0.366171 -0.252518 -0.894689
0.01373 -0.788937 -0.046789 0.894102 -0.37085 0.250343
0.03926 -0.179114 0.034385 -0.499437 -0.384226 0.726167
0.192485 0.563126 -0.053245 0.551342 0.821239 -0.034377
0.171591 -0.199145 -0.077074 0.627465 -0.099152 -0.771927
0.019887 0.105218 0.135106 -0.015516 0.150608 0.987097
-0.114896 -0.239233 0.096079 -0.686909 -0.022999 0.72632
0.185615 0.303917 -0.028772 0.926533 -0.316343 -0.195937
0.074799 -0.72704 -0.045568 -0.903954 -0.130545 -0.406294
-0.492593 0.157104 0.045392 -0.653615 0.729532 0.189752
0.108423 -0.571664 0.035765 -0.339681 -0.141016 0.929756
0.272796 0.447577 -0.132837 0.230299 0.524359 -0.819326
0.322448 0.321158 -0.126759 -0.417165 -0.508842 -0.740898
0.180638 0.241007 -0.027701 0.960391 0.00726 -0.264868
-0.104174 -0.336996 -0.059049 -0.739105 0.071752 -0.66821
0.216553 0.552505 -0.045831 0.52902 0.832968 0.07783
0.202898 0.403381 -0.073161 0.924442 -0.379451 0.019221
-0.16902 0.381402 -0.07288 0.612595 -0.655731 -0.44102
0.208849 -0.148736 -0.014527 0.966844 -0.247671 -0.045672
-0.136679 -0.212934 0.029766 -0.996742 -0.075549 0.00295
0.033658 0.314084 -0.127477 -0.138159 0.031322 -0.988289
0.186163 -0.246849 -0.060193 0.718236 -0.124762 -0.684218
0.156314 -0.831252 0.097896 0.631766 0.763626 0.126167
0.133281 0.355749 0.084711 0.568511 0.037603 0.821371
0.007573 -0.015165 0.13636 0.037602 -0.570678 0.813735
0.199785 0.550525 -0.084103 0.287516 0.813752 -0.502518
0.247569 0.401347 -0.134545 -0.381205 -0.239933 -0.892238
0.08117 0.595264 -0.083455 0.161136 0.861048 -0.448179
-0.117548 -0.442379 0.060714 -0.83402 -0.186753 0.518991
-0.071191 0.563361 -0.084089 -0.405409 0.628669 -0.660495
0.340063 0.41859 -0.075382 0.777015 0.569497 0.250784
0.008012 -0.117757 0.111972 0.596958 -0.219265 0.770679
-0.012373 -0.726719 0.014343 0.640514 -0.259426 0.720793
0.185488 0.425175 -0.130421 0.199327 -0.346849 -0.916381
0.007416 0.851566 -0.066114 -0.366745 0.77934 -0.507539
-0.076882 -0.142581 -0.094549 -0.463854 -0.127165 -0.875078
0.095792 -0.30437 -0.097809 -0.279765 0.012875 -0.955937
-0.025289 -0.857404 0.030175 0.746921 -0.646432 -0.093184
0.081919 -0.727647 -0.061454 -0.923346 -0.107977 -0.367197
0.027822 0.756666 -0.119866 -0.045186 -0.201208 -0.974792
0.063853 -0.175059 -0.090123 -0.655962 -0.158064 -0.737538
0.19315 -0.095851 0.073168 0.746162 0.002897 0.665735
0.020546 -0.722088 -0.031818 0.957674 -0.044305 0.283121
0.031996 0.517304 -0.122713 -0.074673 0.157425 -0.984554
-0.108022 0.158555 -0.053144 -0.839609 0.136222 -0.525598
0.114947 -0.658018 -0.093336 -0.380863 -0.044945 -0.923251
-0.08781 -0.727127 -0.113297 -0.620512 0.134077 -0.770171
-0.342791 0.254728 0.00789 0.053183 0.031448 0.997347
0.076365 -0.34216 0.061586 -0.534727 -0.284271 0.792765
-0.121646 0.359655 -0.01295 -0.974158 -0.220468 0.042273
0.240576 0.499363 0.001249 0.651174 0.280998 0.702218
0.067017 0.777602 0.07541 0.47953 -0.286123 0.788033
-0.23603 0.314588 -0.047954 0.748451 -0.656605 -0.084785
0.05063 0.211156 -0.122223 -0.111384 -0.402728 -0.906053
-0.09459 0.409125 -0.114707 -0.339991 -0.205423 -0.917421
-0.113667 -0.383723 0.085132 -0.728483 -0.089501 0.677772
-0.115899 -0.420439 0.071305 -0.756409 -0.252207 0.602878
0.140453 -0.068744 0.11232 0.328391 0.022211 0.944147
-0.132313 -0.403666 0.028714 -0.962525 0.138218 0.229997
0.166247 -0.256205 0.080345 0.334563 -0.094287 0.934131
0.027446 0.822337 -0.10535 -0.026117 0.643156 -0.764026
0.351463 0.408063 -0.106503 0.744243 0.658568 -0.100563
-0.104681 0.352124 -0.094134 -0.653585 -0.197977 -0.730154
0.309514 0.333212 -0.046866 -0.383223 -0.532929 0.753017
0.085304 -0.351101 -0.092997 -0.599166 -0.043335 -0.798869
0.132871 0.582305 -0.072328 0.323512 0.912106 -0.246089
-0.125742 0.171671 -0.016511 -0.920757 0.008529 -0.384461
0.172424 0.395175 -0.119781 0.333859 -0.448492 -0.827332
-0.129259 0.074182 0.003355 -0.978035 0.175066 0.008372
0.180678 0.378304 -0.10489 0.510188 -0.4784 -0.713416
0.044001 -0.451802 -0.035168 -0.990537 -0.003881 -0.111804
0.180173 -0.683957 -0.052951 0.713923 -0.236883 -0.657727
0.044778 0.776458 0.085944 0.474981 -0.238317 0.833935
-0.096702 -0.849263 0.132243 -0.898977 0.070211 0.370452
0.165297 -0.501067 -0.094867 0.605283 -0.010402 -0.793785
0.194057 0.396438 -0.108965 0.605445 -0.559009 -0.561379
0.155353 0.039563 0.100435 0.457005 0.308872 0.831856
-0.010633 -0.44838 0.05961 0.696779 -0.204145 0.686095
0.155362 0.062055 -0.107164 0.709642 0.193083 -0.677292
0.200207 0.553799 -0.021455 0.387633 0.782629 0.483662
0.105261 0.782726 -0.036624 0.999528 0.013537 -0.021896
0.029537 0.225032 0.12836 -0.005146 0.035808 0.999335
-0.08961 0.296726 -0.097886 -0.543226 -0.063092 -0.816336
-0.259922 0.362562 0.018299 -0.175689 -0.121238 0.964327
0.077595 -0.767281 -0.05819 -0.847133 0.224677 -0.480699
0.180013 0.195682 0.039814 0.925597 0.051149 0.36922
0.018031 -0.61959 0.004872 0.765738 0.016392 0.641269
-0.024761 -0.849182 -0.007991 0.749797 -0.641799 -0.127324
0.07622 0.67032 -0.04407 0.790182 -0.111366 -0.60098
-0.071621 0.170203 0.093887 -0.63155 0.002607 0.774598
0.066895 -0.551812 0.008736 -0.627266 0.018071 0.778364
-0.076719 0.203659 -0.085554 -0.760818 -0.076364 -0.644282
0.082737 0.309799 0.108327 0.443064 0.110204 0.885344
0.188579 -0.199632 0.076115 0.830807 -0.10942 0.531388
0.044483 -0.045945 -0.133702 -0.33013 -0.437063 -0.835694
0.12234 -0.525042 0.045441 -0.474861 -0.107836 0.872138
0.002498 0.862155 0.005396 -0.346895 0.920907 0.071467
0.151194 -0.693697 -0.083929 0.640532 -0.018544 -0.767345
-0.241329 0.374255 0.019774 -0.023914 -0.16646 0.984794
-0.398102 0.181015 -0.003586 0.561205 -0.824734 0.059373
-0.070842 0.180345 0.094454 -0.547396 0.017319 0.833755
-0.103217 0.112312 -0.072141 -0.808597 0.123659 -0.572392
0.017425 0.795495 -0.116743 -0.21342 0.258116 -0.94152
0.106621 -0.692964 -0.091215 -0.431614 0.077175 -0.894498
-0.116081 -0.067083 0.090528 -0.743278 0.02436 0.668257
0.290696 0.439715 -0.130848 0.381199 0.489881 -0.780977
0.437031 0.263979 -0.117363 0.59755 -0.001949 -0.794563
0.088596 -0.835876 -0.051236 -0.999104 0.018507 -0.000412
0.204029 0.503752 -0.126966 0.169242 0.393449 -0.899882
-0.023272 -0.853322 0.020893 0.799993 -0.585078 -0.103762
0.082953 -0.675133 -0.070929 -0.778793 -0.016594 -0.626165
0.212557 -0.118577 0.026944 0.975501 -0.052316 0.203431
0.144464 0.335382 0.073065 0.758824 -0.033065 0.649891
0.187769 -0.358617 0.057211 0.865923 -0.048466 0.49695
0.447795 0.221804 -0.09494 0.717883 -0.144799 -0.676576
-0.237519 0.456416 -0.031525 -0.836687 0.544867 -0.044314
0.143758 -0.252644 -0.087542 0.511266 -0.09379 -0.85422
-0.087322 -0.840036 -0.114066 -0.902608 -0.018211 -0.428341
0.187797 -0.721214 -0.040496 0.700885 -0.189593 -0.683911
0.108659 -0.100324 0.111923 -0.424205 -0.06179 0.901607
0.019789 -0.599989 -0.044829 0.78811 0.11052 -0.602929
0.111624 -0.806007 0.060873 -0.08921 0.708077 0.695139
-0.099288 -0.130375 0.111301 -0.472103 0.055817 0.873278
-0.102917 0.110581 0.072583 -0.69696 0.344086 0.62197
0.207781 -0.170414 -0.004386 0.999918 0.003633 0.002006
-0.054095 0.075104 0.11324 -0.453124 0.124497 0.881355
0.004675 0.504388 0.068717 0.034087 0.476354 0.877035
-0.512839 0.129875 0.014799 -0.85126 0.473552 -0.135522
0.195065 0.347304 -0.032171 0.953445 -0.298807 0.009777
-0.276766 0.274094 -0.070765 0.622292 -0.556481 -0.549734
0.08651 0.023156 0.130087 0.307776 0.22376 0.923762
0.120942 0.333719 -0.134531 0.510272 -0.125163 -0.848641
0.142949 -0.434058 -0.097522 0.402849 0.166218 -0.899958
0.008111 -0.278493 0.08404 0.692933 -0.153862 0.702827
0.001366 -0.354234 -0.052362 0.720102 -0.071135 -0.690015
-0.12749 -0.240025 -0.015737 -0.926973 -0.011726 -0.374577
-0.030658 -0.227571 0.112569 0.135659 -0.158082 0.977273
0.196581 -0.213422 0.051805 0.939993 -0.009471 0.339933
-0.018837 -0.60238 -0.085449 0.690235 -0.015479 -0.723381
0.023859 -0.593012 -0.003718 0.877897 0.045975 0.467561
0.090383 0.805076 0.03008 0.920985 0.157898 0.352987
-0.52369 0.117479 0.084257 -0.683053 0.696967 0.115224
-0.020112 -0.801956 0.036225 0.924365 0.274787 0.263993
0.641578 0.029044 0.01345 0.568803 -0.563762 -0.287157
-0.337868 0.269335 -0.087907 -0.039538 -0.34878 -0.93452
0.182746 0.063396 0.069126 0.788929 0.230535 0.568377
0.331792 0.422524 -0.062364 0.770958 0.461695 0.438304
0.520783 0.208766 -0.019701 0.18128 0.9387 0.283552
0.096369 0.728224 0.019338 0.970929 -0.018839 0.228839
0.043449 -0.0216 0.134692 0.077497 -0.220281 0.967699
0.084719 0.601958 -0.005483 0.76595 0.207484 0.603349
0.008215 -0.349009 -0.045318 0.745441 -0.054853 -0.663918
0.158084 -0.84799 -0.085146 0.936446 -0.065927 -0.339343
0.18864 -0.538201 0.029634 0.88104 -0.080544 0.464423
0.177745 0.278834 0.029268 0.937893 0.009934 0.3449
0.182878 0.082213 0.063777 0.82528 0.160401 0.539093
-0.094315 0.385213 -0.109896 -0.420101 -0.222439 -0.879261
-0.13336 -0.189965 -0.011671 -0.922482 -0.128519 -0.36007
-0.118378 -0.736205 -0.072133 -0.754081 -0.036543 -0.655239
-0.098298 0.274845 -0.087177 -0.756555 -0.068343 -0.649971
0.106634 0.744678 -0.027175 0.964035 0.076536 -0.235533
0.132464 -0.771747 0.033971 -0.038902 0.707778 0.688819
-0.073472 -0.841562 -0.132727 -0.709672 -0.128446 -0.691084
-0.046075 -0.398792 0.086925 0.218673 -0.192813 0.956481
0.163693 -0.840918 -0.019559 0.981435 0.187244 -0.006261
-0.082991 -0.692112 -0.108076 -0.49843 0.15425 -0.850726
-0.025003 0.183974 0.119939 -0.526976 0.075243 0.843792
-0.476333 0.131786 0.057278 0.717395 -0.537134 0.440677
-0.138747 0.032438 -0.00131 -0.955527 0.264319 -0.118149
0.120243 0.16894 0.102919 0.532804 0.024232 0.845105
0.093331 -0.848555 -0.10284 -0.84067 -0.022113 -0.529651
0.123373 -0.824425 0.116136 0.007295 0.996873 0.041451
0.003525 0.580209 0.018911 -0.468653 0.218731 0.852965
-0.118927 -0.652589 0.012289 -0.955662 -0.104291 0.268912
0.12003 0.060654 -0.137369 0.508785 0.214301 -0.832723
-0.441501 0.223806 -0.02625 -0.720872 0.69045 -0.040238
0.280959 0.372771 -0.137881 -0.215509 -0.508817 -0.828454
-0.067734 -0.8642 0.0858 -0.023582 -0.99963 0.006246
-0.019456 -0.514704 -0.087472 0.638685 0.05413 -0.764898
-0.214399 0.333132 -0.038117 0.565072 -0.823714 -0.018474
-0.040064 -0.189343 0.120925 0.107262 -0.122268 0.986522
0.344016 0.382968 -0.128857 0.817646 0.078695 -0.564368
-0.116953 -0.104545 0.092928 -0.786851 0.086244 0.610321
-0.360854 0.2584 0.008759 0.056543 0.13525 0.988678
-0.103604 0.189531 0.065468 -0.769571 -0.045226 0.634338
-0.003527 -0.827573 -0.016887 0.850571 -0.456754 0.236632
0.104981 0.792363 -0.035313 0.987225 0.11682 -0.028909
-0.150372 0.405736 -0.07951 0.591638 -0.605229 -0.531582
-0.067005 0.425378 -0.126354 -0.241739 -0.155933 -0.957033
0.074785 -0.496002 -0.080985 -0.698033 -0.012331 -0.715877
-0.134128 -0.567231 -0.039507 -0.994838 -0.075763 -0.028558
-0.529345 0.094966 0.084405 -0.576682 0.073805 0.743853
-0.024292 -0.834288 0.040916 0.975483 0.089622 0.082832
-0.001148 -0.293152 -0.062352 0.756522 -0.123305 -0.642233
-0.102827 -0.813535 -0.010337 -0.952781 -0.117993 0.25005
0.176383 0.473179 0.038698 0.586499 0.255978 0.766953
0.066529 -0.809737 -0.014467 -0.9626 -0.248474 0.056507
-0.07817 -0.112678 0.118209 -0.360184 0.003996 0.932491
0.199572 -0.490734 -0.043284 0.98715 0.046669 -0.150861
-0.007734 0.48174 0.080857 -0.029358 0.462247 0.88557
0.088443 -0.030744 0.129349 0.113133 -0.063363 0.991328
0.013299 0.672246 0.086138 -0.654293 -0.062662 0.751901
0.086269 -0.827947 -0.029545 -0.766569 -0.609726 -0.001973
0.154341 0.31354 -0.099246 0.778458 -0.164061 -0.605328
-0.074328 -0.234912 0.112851 -0.103076 -0.086357 0.99045
-0.554246 0.060339 0.085981 0.191314 -0.489365 0.762522
-0.13479 0.01564 -0.032742 -0.965427 -0.00373 -0.25048
-0.005374 -0.709017 0.012348 0.771478 -0.259598 0.577329
0.313621 0.324841 -0.051642 -0.467799 -0.59893 0.64762
-0.274206 0.305812 0.004264 0.245883 -0.347735 0.902272
0.015329 0.631876 -0.063718 -0.317037 0.322812 -0.890595
-0.041753 0.257047 -0.126462 -0.41479 -0.06611 -0.900162
0.05102 -0.654196 -0.014051 -0.997339 -0.062788 -0.003642
0.158859 0.294423 -0.086304 0.841643 -0.178135 -0.509201
-0.135649 -0.463206 0.012736 -0.962168 -0.077835 0.254039
-0.100389 -0.710196 0.012789 -0.49521 -0.528825 0.682381
0.060528 -0.728559 -0.018774 -0.878 -0.173417 -0.435973
0.115856 0.25338 -0.131031 0.505418 -0.1414 -0.849512
0.139616 -0.826072 0.106374 0.226982 0.965136 0.126
-0.046567 -0.213529 -0.092108 0.083001 -0.053077 -0.994478
0.145146 -0.851012 -0.106199 0.714917 -0.025195 -0.696436
-0.086884 -0.694169 0.024519 0.040074 -0.415511 0.905395
-0.130602 -0.393539 0.028212 -0.954623 0.216226 0.196219
0.076713 -0.425733 0.025142 -0.697524 -0.349624 0.625356
0.035917 0.062504 -0.149854 -0.18592 0.267492 -0.945039
-0.129377 -0.618519 -0.046427 -0.999819 -0.017896 0.000207
-0.121114 0.194351 0.032313 -0.92675 0.098595 0.359315
0.132228 -0.544027 -0.108511 0.106252 -0.035842 -0.991722
-0.077552 0.008544 -0.123847 -0.573574 -0.040004 -0.817585
-0.125448 -0.523035 -0.061156 -0.841147 0.109713 -0.528629
0.189271 -0.031105 0.073524 0.77491 0.025525 0.631161
-0.111071 -0.784321 -0.006777 -0.854211 0.004566 0.516428
-0.102013 0.014334 0.104456 -0.516158 0.23097 0.8238
0.036355 0.337748 0.115834 0.077478 0.238443 0.965945
0.164779 0.349399 -0.102681 0.672061 -0.31149 -0.671069
-0.026908 0.745716 -0.074177 -0.869612 -0.310084 -0.377977
0.038221 0.077177 0.133039 0.083904 0.086825 0.991697
0.507179 0.1717 -0.046202 0.101159 -0.538774 -0.831411
-0.131795 -0.502721 -0.046569 -0.85297 0.065109 -0.51769
0.048113 -0.135364 -0.0864 -0.649966 -0.302722 -0.694521
0.641193 0.033147 0.07814 0.898715 0.065376 0.306811
-0.042346 0.295302 0.102477 -0.546421 0.125141 0.828009
-0.033642 0.735674 -0.0028 -0.931619 -0.208921 0.291371
0.028417 -0.318993 0.010232 0.999677 -0.017299 0.013658
0.113475 -0.250225 0.087309 0.032993 -0.144372 0.988608
-0.04223 0.503369 0.066169 -0.166555 0.418065 0.892712
0.56719 0.08396 0.036701 -0.85675 -0.495178 0.131507
0.303708 0.356602 -0.034617 0.107678 -0.494348 0.853993
0.037994 0.761074 0.091093 0.32784 0.364044 0.822622
-0.046508 -0.172643 -0.095496 0.172131 -0.060431 -0.982894
-0.27023 0.325392 0.008223 0.093909 -0.169958 0.977223
