-0.076054 -0.217427 -0.086531 -0.493526 0.004083 -0.866717
-0.085391 0.327511 -0.10464 -0.591559 -0.088423 -0.800545
-0.06351 -0.007642 -0.129949 -0.25392 -0.078596 -0.962301
-0.178522 0.418158 -0.09541 0.048621 0.050059 -0.996235
0.099643 0.59289 -0.079994 0.352047 0.736793 -0.566989
0.177076 0.28327 -0.041427 0.933453 -0.140752 -0.32939
-0.35558 0.24363 0.009463 0.063173 0.038681 0.996906
-0.097803 -0.801458 0.010279 -0.854465 -0.132458 0.464736
0.171957 -0.259311 -0.069397 0.527697 -0.204098 -0.824161
0.077217 -0.520123 -0.082353 -0.708969 -0.061344 -0.702432
0.022658 -0.507243 -0.026678 0.858732 0.030782 -0.508609
0.010109 -0.810988 -0.064381 0.955831 -0.254452 0.113989
0.126546 -0.345409 -0.095409 0.409206 0.059642 -0.910477
0.054452 0.843274 0.051935 0.49513 0.565955 0.658356
0.189948 0.560586 -0.069465 0.395789 0.845547 -0.32667
-0.008859 0.007626 -0.143172 -0.169995 -0.193267 -0.966006
0.087479 -0.484585 -0.093215 -0.59168 -0.004398 -0.804779
-0.117861 0.324488 -0.006337 -0.98273 -0.043928 0.176587
0.145186 -0.865458 0.15098 0.131998 -0.977601 0.151893
0.0044 -0.245675 0.093301 0.591984 -0.154302 0.786872
0.093428 -0.584073 -0.088169 -0.605225 -0.12686 -0.785862
0.096777 -0.857955 0.013158 -0.759663 -0.634511 -0.136704
-0.078811 -0.459772 0.080478 0.139529 -0.123508 0.980881
0.052944 0.49756 -0.128455 -0.162534 0.059707 -0.984618
0.055263 -0.011024 -0.152265 -0.235569 -0.234141 -0.940321
0.151335 -0.831651 -0.103633 0.633633 -0.229483 -0.736588
0.198863 0.39351 -0.018075 0.984143 -0.152581 0.064346
-0.075857 -0.596183 0.051212 0.469807 -0.207123 0.857686
0.076555 -0.801605 0.025643 -0.880569 -0.169385 0.441714
0.063702 0.721998 -0.093806 0.44104 -0.54089 -0.716111
-0.126722 -0.36547 -0.028719 -0.97453 0.042314 -0.212576
-0.072504 -0.801959 0.051564 -0.425506 0.768693 0.462342
-0.00669 -0.812877 -0.127306 0.80662 -0.282142 -0.515662
-0.070168 -0.863903 0.104164 -0.026518 -0.999391 0.022389
0.088627 0.616763 -0.048328 0.729393 0.598187 -0.319888
-0.126745 -0.679842 -0.070022 -0.961536 -0.036959 -0.270346
0.44354 0.23503 -0.020448 -0.390232 0.109784 0.886345
0.093488 -0.328118 0.073183 -0.365234 -0.11022 0.918252
0.54543 0.180058 0.001937 0.832126 0.533495 0.119673
-0.270781 0.410946 -0.015426 -0.729358 0.647648 0.217741
-0.08815 -0.787609 0.019399 -0.634174 0.551463 0.505639
0.205717 -0.316069 0.011375 0.996141 -0.004046 0.070134
-0.437215 0.156902 0.019999 0.531427 -0.822511 0.185877
-0.043863 -0.640681 0.026956 0.28911 -0.112894 0.949274
0.026509 -0.368497 0.010496 0.995206 -0.048662 0.06921
0.096841 0.605385 -0.03652 0.888124 0.430645 0.137532
-0.026356 -0.853379 0.003931 0.70111 -0.689945 -0.162499
0.032606 0.297505 0.122167 0.051186 0.09796 0.993805
-0.128234 0.098237 -0.016209 -0.992031 0.005991 -0.118154
-0.124269 -0.728708 -0.065703 -0.867284 -0.037041 -0.486891
0.052975 -0.489132 -0.004094 -0.849323 -0.025576 0.521555
0.198173 -0.373687 -0.041792 0.902323 0.049811 -0.425902
0.241303 0.373604 -0.060606 -0.674407 -0.713656 0.17995
-0.125875 -0.308228 0.051491 -0.982733 -0.116061 0.140375
-0.010633 -0.44838 0.05961 0.696779 -0.204145 0.686095
0.039906 -0.367067 -0.008571 -0.956959 -0.161783 0.240432
0.005001 -0.195845 -0.064806 0.727736 0.040632 -0.684231
0.199869 -0.447517 -0.013201 0.99948 -0.014534 0.018843
0.01425 -0.599657 0.007141 0.606934 0.087965 0.789279
-0.089552 0.333096 0.068783 -0.882214 -0.010321 0.469173
0.014972 -0.212531 0.084287 0.85674 -0.062492 0.511641
0.231937 0.492259 -0.123512 0.364763 0.42695 -0.827353
-0.238325 0.345464 -0.090199 0.323208 -0.472939 -0.817367
-0.12589 -0.268962 0.071497 -0.939438 -0.117485 0.321423
-0.030113 -0.607759 -0.093475 0.506157 -0.001671 -0.861724
0.00928 -0.449802 -0.046839 0.857385 0.061662 -0.510749
-0.07137 -0.672773 0.028221 0.289587 -0.329043 0.898701
0.075459 0.857028 -0.010882 0.692681 0.720615 0.020834
-0.024739 -0.407848 0.078556 0.439541 -0.198989 0.873746
0.087276 0.838082 0.002866 0.838635 0.521006 0.090335
-0.057823 -0.093212 0.123919 -0.285212 -0.020644 0.957764
-0.307238 0.302224 -0.096682 -0.053869 -0.068308 -0.995728
-0.082358 -0.863482 0.05518 -0.036709 -0.999247 -0.001984
-0.050085 -0.296802 -0.091408 -0.035195 -0.088176 -0.99279
0.07033 0.334141 -0.141838 -0.341383 -0.032399 -0.939273
0.044706 -0.519024 -0.035885 -0.976905 -0.035274 -0.184927
-0.070481 -0.854941 -0.131071 -0.391943 -0.61816 -0.668313
-0.542451 0.094823 0.068063 -0.737022 0.670807 0.077114
-0.015857 -0.320337 0.089417 0.478546 -0.079196 0.874354
0.137337 -0.489585 0.058906 -0.419238 -0.142333 0.895445
-0.491165 0.160616 -0.008794 -0.789094 0.610451 -0.062566
-0.01526 -0.693983 -0.092594 0.609352 0.22055 -0.761479
-0.382521 0.192103 -0.011438 0.472119 -0.880106 0.040914
-0.035972 0.751736 0.001123 -0.965178 -0.106512 0.232266
-0.215378 0.350808 -0.082391 0.442991 -0.630599 -0.629176
0.557007 0.095042 -0.011205 -0.732316 -0.670177 -0.096188
0.181815 -0.136795 -0.072075 0.715662 -0.071453 -0.694733
-0.045315 -0.862361 0.004747 0.136035 -0.986971 -0.068217
-0.042268 0.235863 0.106872 -0.506343 0.024883 0.860468
0.173892 -0.813854 -0.055943 0.867301 -0.476296 -0.010696
0.05983 -0.243848 0.065839 -0.732229 -0.140601 0.666098
-0.094315 0.385213 -0.109896 -0.420101 -0.222439 -0.879261
0.095688 -0.118275 -0.118732 -0.228479 -0.224832 -0.945276
0.147297 -0.389507 0.075314 -0.067174 -0.107731 0.990676
-0.010104 -0.784463 -0.129585 0.687049 0.387032 -0.606426
-0.06392 -0.28129 -0.090249 -0.277349 -0.057593 -0.95628
0.044001 -0.451802 -0.035168 -0.990537 -0.003881 -0.111804
0.153865 -0.413042 -0.087357 0.592846 0.108712 -0.795084
0.022697 -0.37838 0.025721 0.927798 -0.12719 0.348211
0.162239 -0.062279 -0.107901 0.709621 -0.116056 -0.693944
-0.014336 -0.162691 -0.082046 0.589245 -0.088914 -0.802269
-0.2195 0.436338 -0.081505 -0.437107 0.455725 -0.775032
-0.137451 -0.052773 0.050201 -0.97827 0.038566 0.202265
-0.095807 -0.542367 -0.093004 -0.426437 0.077305 -0.889433
0.155512 0.474336 -0.140536 0.281471 0.192058 -0.939617
0.124683 0.316573 0.091723 0.5519 0.080743 0.829865
-0.091231 0.532546 0.04109 -0.013268 0.591674 0.805678
0.187273 -0.589646 0.021691 0.628398 -0.181353 0.752886
0.08651 0.023156 0.130087 0.307776 0.22376 0.923762
0.148404 0.00511 -0.126814 0.677191 0.120987 -0.725704
0.166925 0.57154 -0.039428 0.469654 0.814945 0.305842
-0.109998 -0.59994 0.032234 -0.912395 0.034326 0.407639
-0.141371 0.021615 0.026853 -0.968056 0.151203 0.186951
0.177048 0.146057 -0.045485 0.888638 0.017607 -0.456603
0.202686 0.493969 -0.130375 0.14727 0.269389 -0.951235
-0.036503 0.776456 -0.05661 -0.991728 0.041336 -0.12039
0.186765 0.16159 -0.02707 0.86979 0.099599 -0.481256
-0.013176 0.612387 -0.010164 -0.884035 0.237851 0.396733
0.193307 -0.277024 0.058457 0.86616 -0.055266 0.492809
0.138319 -0.215962 -0.096408 0.416742 -0.144921 -0.894466
0.201647 -0.492815 -0.027683 0.986537 0.127101 -0.094864
-0.421716 0.244611 -0.012905 -0.703169 0.699978 0.11321
0.212672 -0.049597 0.000805 0.985619 0.021328 -0.163683
-0.035398 0.729647 -0.011519 -0.924826 -0.210799 0.300518
-0.482245 0.17172 -0.002797 -0.690746 0.721293 -0.038075
-0.45356 0.167339 -0.049298 -0.426274 -0.094089 -0.804812
-0.120288 0.344382 -0.062965 -0.994024 -0.059925 -0.087826
0.245609 0.368143 -0.069649 -0.700339 -0.710467 0.058795
0.180191 0.389284 0.041413 0.773303 -0.152634 0.613198
0.056829 -0.10458 -0.1073 -0.431662 -0.469283 -0.76853
0.421375 0.274035 -0.12524 0.370131 0.122608 -0.920276
-0.485443 0.141066 -0.028824 -0.123487 -0.741208 -0.596772
0.114975 -0.173334 0.101454 -0.135782 -0.329499 0.931383
0.21207 0.43659 0.019015 0.574328 -0.288938 0.75737
0.427318 0.226277 -0.038263 -0.290817 -0.397246 0.857801
0.155417 0.532545 0.018294 0.129975 0.657389 0.741775
0.448578 0.288368 -0.086251 0.720578 0.682798 -0.105588
-0.013572 -0.401188 0.074214 0.489635 -0.202059 0.846279
-0.128636 0.12158 -0.015121 -0.98209 0.030212 -0.181981
-0.187927 0.35299 -0.025702 0.57399 -0.803118 0.146518
-0.144041 -0.144957 0.019327 -0.998974 -0.032497 0.021114
-0.053927 0.262851 0.096495 -0.59543 0.034486 0.802147
0.001869 -0.233792 0.096974 0.566056 -0.134042 0.812844
0.149968 0.44119 0.067764 0.601079 0.14409 0.784016
0.042169 0.348383 -0.13001 -0.339128 -0.067957 -0.932919
0.166315 0.331782 0.05083 0.766071 -0.013395 0.639446
-0.378147 0.296857 -0.038055 -0.716562 0.695641 0.044615
-0.013953 -0.548986 0.034045 0.505173 -0.191723 0.841432
-0.57023 0.032539 0.067467 0.037286 -0.153798 0.859404
-0.115118 -0.104753 -0.062906 -0.771095 -0.106479 -0.62747
0.201133 0.126344 -0.002059 0.934048 -0.243754 -0.194788
0.071433 -0.047664 0.126795 0.046685 -0.404309 0.912633
0.038315 -0.269058 -0.036564 -0.860294 -0.003463 -0.508085
0.193864 -0.108336 -0.059346 0.812116 0.008367 -0.583108
-0.034395 -0.791714 0.046603 0.540915 0.640116 0.544509
0.451207 0.252836 -0.027966 0.03606 0.568572 0.821373
0.053229 -0.684633 0.006997 -0.976395 -0.000411 0.210536
0.274249 0.444331 -0.010792 0.323113 0.103152 0.936899
-0.511668 0.090361 0.031258 0.551755 -0.549651 -0.624201
-0.125675 -0.693793 -0.03685 -0.938824 0.031647 0.336224
0.302484 0.320615 -0.069246 -0.655125 -0.700333 0.265036
0.070563 -0.50484 0.011802 -0.603518 0.030286 0.796613
-0.027653 -0.718005 0.027303 0.082372 -0.104803 0.959313
0.01432 -0.533162 -0.045655 0.84724 0.046832 -0.528643
-0.106507 -0.260413 -0.053629 -0.822324 -0.025956 -0.568357
0.071051 -0.227629 -0.083312 -0.616442 -0.085379 -0.782063
0.193405 0.100556 -0.028572 0.96725 0.123332 -0.211587
0.139583 -0.616655 -0.097238 0.237505 -0.13887 -0.959977
0.199053 -0.62294 -0.031058 0.999721 -0.021117 -0.004374
0.157054 -0.422528 -0.086909 0.518861 0.173311 -0.836988
0.076222 -0.547661 0.017041 -0.70823 0.01221 0.705863
0.200956 -0.053294 -0.041793 0.940889 -0.013512 -0.337227
0.201823 -0.168463 0.040745 0.94508 -0.116024 0.299078
-0.140105 -0.059723 -0.01919 -0.94556 0.015299 -0.323552
-0.087832 -0.164235 -0.082145 -0.652298 -0.147833 -0.742897
-0.437562 0.177347 -0.053379 -0.151061 0.055582 -0.950098
-0.243865 0.39719 -0.092799 -0.230204 0.366603 -0.899205
-0.079538 0.261678 0.080425 -0.600353 0.065898 0.796909
-0.477266 0.176383 0.004849 -0.683476 0.728568 0.032126
-0.127458 0.377869 -0.046167 -0.982656 -0.172867 -0.001507
0.181921 0.288895 -0.029423 0.963977 -0.155649 -0.211397
-0.033642 0.735674 -0.0028 -0.931619 -0.208921 0.291371
0.150384 -0.469156 0.066616 -0.173092 -0.116855 0.973829
-0.09333 -0.581063 -0.097046 -0.462496 0.044429 -0.884939
0.067556 -0.689272 -0.047573 -0.789758 -0.143092 -0.595986
0.039008 -0.105078 0.095582 0.482706 -0.589514 0.643932
-0.554873 0.071356 0.081939 -0.840831 0.35038 0.342611
-0.076553 -0.81059 0.053402 -0.683177 0.510789 0.52001
-0.223745 0.356362 -0.090785 0.323319 -0.452533 -0.82853
-0.070028 -0.848534 0.163106 -0.035002 -0.379474 0.908732
0.114057 -0.472138 0.046283 -0.654064 -0.06829 0.753267
0.213022 -0.019659 0.016302 0.990873 0.087607 0.078716
-0.494031 0.151152 -0.024612 -0.8115 0.319683 -0.449838
0.010919 0.007517 0.143107 -0.017964 0.135951 0.990017
-0.003499 0.129803 -0.122014 -0.11753 0.417787 -0.89976
0.19003 -0.318448 -0.039252 0.771821 -0.00825 -0.635551
0.301251 0.465465 -0.093753 0.677076 0.654447 -0.336287
0.060721 0.072938 -0.151087 -0.083773 0.240639 -0.965844
0.114753 0.566581 -0.106493 0.250777 0.642079 -0.723024
0.096835 -0.265668 0.083652 -0.163918 -0.151085 0.97391
-0.042218 0.458296 -0.131973 -0.019217 0.038629 -0.99763
0.069922 -0.217449 0.080227 -0.558089 -0.111189 0.821098
-0.129128 0.10019 0.007689 -0.995269 -0.091249 0.02078
-0.058748 -0.855361 -0.134433 -0.11877 -0.604275 -0.760921
0.054538 -0.20584 -0.071638 -0.739992 -0.16409 -0.651858
0.066264 0.648539 -0.055353 0.545777 0.163732 -0.821058
0.183141 0.265544 -0.004509 0.999745 -0.008427 -0.010096
0.059419 -0.627533 -0.052435 -0.79041 -0.115266 -0.60029
0.052075 0.106255 -0.139514 -0.055066 0.437456 -0.896605
-0.142749 -0.107787 0.036668 -0.977675 0.006021 0.202703
-0.058346 0.320835 -0.120825 -0.414261 -0.012634 -0.909827
0.100053 -0.154329 -0.111174 -0.092232 -0.228391 -0.967672
0.002498 0.862155 0.005396 -0.346895 0.920907 0.071467
-0.065023 -0.059123 -0.11646 -0.307026 -0.317676 -0.894769
0.254598 0.453724 -0.004494 0.365146 -0.229483 0.901776
0.142495 -0.793382 0.038238 0.570181 0.407781 0.71133
0.063737 -0.801004 -0.028769 -0.92235 -0.366374 -0.099916
0.142861 -0.371413 -0.087569 0.587798 0.124088 -0.799284
-0.021204 0.694486 0.004417 -0.945309 -0.319656 -0.027407
-0.033283 -0.08155 0.128415 -0.034896 -0.055022 0.997453
0.146134 -0.210492 0.091768 0.076371 -0.22258 0.96887
0.09026 0.70161 0.018305 0.955255 -0.294068 0.014425
-0.267078 0.301396 -0.084521 0.571607 -0.432647 -0.691489
0.012813 0.863451 0.005532 -0.08452 0.996039 0.023342
-0.012212 0.088178 0.128479 -0.371187 -0.03958 0.925679
0.11563 0.315221 -0.135743 0.456745 -0.060439 -0.886176
0.218438 0.414288 -0.120608 -0.679298 -0.444002 -0.580898
0.022772 0.577485 0.026686 -0.122364 0.040289 0.991053
0.052477 0.590894 0.021821 0.376843 -0.001355 0.926215
0.641578 0.029044 0.01345 0.568803 -0.563762 -0.287157
0.030646 -0.239813 0.026597 0.953786 -0.021688 0.292954
0.130064 0.580671 -0.081706 0.326317 0.845458 -0.408573
0.017425 0.795495 -0.116743 -0.21342 0.258116 -0.94152
0.193209 0.533006 -0.108614 0.239351 0.650956 -0.719675
0.180011 0.13844 -0.040284 0.847901 0.091908 -0.517895
0.103756 0.141122 -0.119029 0.345397 0.275201 -0.894871
-0.09198 -0.105527 -0.08802 -0.633592 -0.162742 -0.753993
0.202499 0.06121 0.014328 0.948473 0.298751 0.100266
0.205421 -0.271778 0.004228 0.999941 0.00327 -0.004064
-0.106733 -0.270236 0.102248 -0.631316 -0.040943 0.768211
-0.112266 -0.337538 -0.04918 -0.796748 0.077413 -0.598255
-0.02193 -0.202868 -0.0862 0.532719 -0.014321 -0.844212
-0.024645 0.838909 -0.052232 -0.563301 0.763016 -0.314495
-0.397206 0.185957 -0.041537 0.389319 -0.870047 -0.300765
-0.025836 -0.425737 0.075198 0.367519 -0.192376 0.908578
0.056867 -0.127186 -0.096879 -0.576788 -0.250615 -0.776991
0.182878 0.082213 0.063777 0.82528 0.160401 0.539093
-0.040064 -0.189343 0.120925 0.107262 -0.122268 0.986522
0.270405 0.370098 -0.132391 -0.332287 -0.59481 -0.728699
-0.168459 0.472923 -0.087453 -0.385841 0.236435 -0.891272
0.179634 0.178848 0.043333 0.84871 0.082894 0.522204
-0.06054 -0.455571 0.077225 0.284513 -0.276079 0.917219
0.097538 -0.813574 0.060573 -0.682462 0.518431 0.510655
0.088699 -0.419428 -0.091383 -0.584025 0.00109 -0.808987
0.199285 -0.07284 -0.046934 0.930421 0.022949 -0.365445
-0.01884 0.808011 0.037444 -0.90439 0.234216 0.352225
0.195795 -0.358741 0.038692 0.906252 -0.09045 0.412288
-0.554746 0.071228 0.001518 -0.617818 0.51995 -0.274083
-0.125448 -0.523035 -0.061156 -0.841147 0.109713 -0.528629
0.191823 0.470304 -0.135282 0.114176 0.022108 -0.993019
0.131873 0.062833 -0.129412 0.595361 0.174274 -0.783793
0.368441 0.337174 -0.129673 0.497711 0.251903 -0.82495
0.055012 0.337345 -0.135349 -0.39352 -0.028287 -0.918856
-0.096899 0.438098 0.068069 -0.532518 0.073284 0.831786
-0.122701 0.436167 0.061012 -0.10718 -0.085752 0.988684
-0.048964 0.160175 -0.09781 -0.320936 0.123754 -0.931551
-0.015416 0.450614 -0.130013 0.111944 0.010803 -0.993473
0.080827 -0.280558 0.076168 -0.475983 -0.181592 0.859721
-0.191977 0.504118 -0.051832 -0.680842 0.536794 -0.495176
-0.011715 -0.601574 0.024452 0.280521 -0.128029 0.949929
0.141359 0.279767 0.079733 0.742948 0.047948 0.667447
0.435853 0.205214 -0.063969 -0.542315 -0.826847 0.130954
-0.123104 -0.034993 0.07894 -0.781917 0.099364 0.615064
0.143771 0.577094 -0.034038 0.310664 0.856802 0.398161
0.538858 0.193955 -0.054132 0.158967 -0.802524 -0.565735
0.131575 -0.866138 -0.00849 0.065052 -0.996899 -0.022855
0.046739 -0.431329 -0.00753 -0.846098 -0.115582 0.510526
-0.010157 0.780593 -0.108963 -0.708102 0.010969 -0.704998
0.066271 -0.272402 -0.077542 -0.779259 0.014118 -0.626468
0.324274 0.345469 -0.038317 0.143502 -0.106482 0.975905
0.042476 0.725777 0.098404 0.702855 -0.280489 0.640522
0.177116 -0.718063 -0.052266 0.793472 -0.097571 -0.596838
-0.096808 -0.822827 0.032215 -0.859151 0.468024 0.187304
-0.085826 -0.395002 0.094654 0.064316 -0.201428 0.977217
0.062399 0.063478 -0.15303 -0.06801 0.191597 -0.979092
-0.127991 -0.585625 -0.015987 -0.977568 -0.044606 0.205516
0.036054 -0.342819 -0.014491 -0.99397 -0.086644 0.009142
0.098607 -0.151293 0.100909 -0.53177 -0.080909 0.842009
-0.031209 -0.55982 -0.095572 0.397771 -0.026328 -0.917078
0.605658 0.100892 0.039835 0.835292 0.547533 0.003513
0.005034 -0.100241 -0.084576 0.68022 -0.42073 -0.590924
0.417393 0.28416 -0.042902 0.173119 0.441473 0.871912
0.0434 -0.41707 -0.02408 -0.999646 -0.012648 0.012239
-0.201096 0.506662 -0.007466 -0.762688 0.641995 0.076476
-0.073348 -0.350976 -0.082631 -0.398614 -0.019675 -0.915051
-0.075423 -0.062386 -0.111047 -0.268039 -0.219617 -0.934182
0.084602 -0.560881 -0.084852 -0.580784 -0.070413 -0.801148
0.192824 0.079013 0.042622 0.908126 0.309146 0.272761
-0.103582 -0.626992 -0.095084 -0.550349 0.075971 -0.829956
0.115869 -0.156681 -0.110643 0.091602 -0.165284 -0.98112
0.366953 0.292866 -0.040249 -0.276237 -0.03815 0.946878
0.06884 0.370013 0.1042 0.178679 0.165763 0.969357
-0.073388 -0.158874 0.119466 -0.21044 -0.089115 0.971437
0.199212 -0.612267 -0.038231 0.998285 -0.036114 -0.042465
-0.037999 0.812603 -0.0503 -0.958246 -0.21594 -0.170354
0.021481 0.770554 0.083913 -0.532336 -0.222966 0.789137
0.039104 0.219967 0.128655 0.02112 0.040044 0.998974
0.20653 -0.001725 0.033079 0.986288 0.050729 0.141228
-0.084441 0.453699 0.074891 -0.52494 0.225961 0.818241
0.096831 -0.49293 -0.099356 -0.549511 -0.012977 -0.835271
0.163664 0.43441 -0.137415 0.188411 -0.19639 -0.962069
0.041209 0.660454 0.08242 0.11787 -0.955777 0.253366
0.216287 0.404441 -0.101555 -0.823449 -0.489928 -0.1565
0.187837 -0.217173 -0.06253 0.630232 -0.036345 -0.774672
-0.019523 -0.52637 0.042764 0.505398 -0.225402 0.830161
-0.073876 -0.175702 -0.090447 -0.482447 -0.157326 -0.857379
-0.068194 -0.725871 0.014097 -0.324213 0.371339 0.867876
0.144953 0.071274 0.095911 0.741587 0.210319 0.635031
0.466742 0.264811 -0.07095 0.81127 0.577926 -0.050905
-0.013208 -0.488054 -0.078804 0.694328 0.096355 -0.713155
-0.048111 0.589831 -0.046369 -0.172487 0.980983 0.004007
0.121006 -0.531034 -0.107844 -0.132027 -0.010322 -0.988029
-0.094978 0.184203 -0.066284 -0.728594 0.112823 -0.675231
0.044271 -0.438535 -0.038775 -0.978035 9.9e-05 -0.205449
0.243878 0.509996 -0.102367 0.519772 0.602307 -0.605719
0.099129 0.451126 -0.146245 -0.108852 0.026312 -0.993322
0.537989 0.169624 -0.032151 0.592675 -0.322705 -0.735737
0.610755 0.060741 0.066729 -0.721892 -0.689752 -0.025285
0.639031 0.023566 0.025692 -0.384012 -0.892877 -0.199351
-0.451061 0.143949 -0.015295 0.448509 -0.832166 -0.298376
0.198119 0.361722 -0.04887 0.989983 -0.130112 -0.029321
-0.024936 0.604267 -0.04038 -0.722996 0.690315 0.019413
0.117492 -0.126343 -0.118689 0.098015 -0.202587 -0.973022
-0.127162 -0.399811 0.04866 -0.959196 0.095106 0.259265
0.157733 -0.219379 -0.08421 0.567078 -0.105826 -0.816601
-0.03538 0.825669 -0.057725 -0.80715 0.390242 -0.377601
0.068504 0.286226 -0.137861 -0.238292 -0.048605 -0.968953
0.055152 0.441769 0.089703 0.083709 0.192799 0.977652
0.064462 -0.723843 -0.027357 -0.822113 -0.218055 -0.524038
0.005378 0.357628 0.112218 -0.034019 0.125531 0.990726
-0.237842 0.449773 -0.003604 -0.753434 0.587432 0.29429
-0.385244 0.282923 -0.015104 -0.658331 0.671128 0.340361
-0.032039 -0.862957 0.08402 0.342552 -0.933372 0.046114
0.069822 0.37977 0.102221 0.240963 0.220252 0.944126
0.111026 0.173525 -0.109942 0.399734 0.086065 -0.910709
0.634662 0.053334 0.076044 0.920041 0.379845 0.091634
-0.101756 0.28116 0.058064 -0.859292 0.062976 0.504457
0.058821 -0.748653 0.011574 -0.983263 -0.16101 0.054206
0.18175 0.148857 -0.036665 0.853083 0.014649 -0.521308
-0.120826 -0.497777 0.02816 -0.81019 -0.241753 0.533923
-0.094804 0.398587 0.07324 -0.613785 -0.025522 0.788967
-0.249681 0.324835 -0.083664 0.59125 -0.49427 -0.636635
-0.123029 0.387661 0.027744 -0.931889 -0.276838 0.219138
-0.050908 -0.827517 0.121367 0.424869 0.866796 0.197699
0.309951 0.370415 -0.141259 -0.044874 -0.246393 -0.967444
0.046278 0.815583 -0.109024 0.1706 0.610029 -0.773397
0.082731 -0.529355 -0.086899 -0.693581 -0.073118 -0.716189
0.051434 0.231567 -0.127901 -0.181588 -0.13249 -0.973185
0.171814 0.115385 -0.065718 0.792567 0.270199 -0.546421
-0.035272 -0.817861 -0.147416 0.163843 -0.241645 -0.950221
-0.113325 -0.073631 -0.071633 -0.77238 -0.163032 -0.613084
0.427119 0.301101 -0.104856 0.599956 0.672556 -0.425937
0.41751 0.245286 -0.030697 -0.310949 -0.186136 0.890909
0.158664 0.004789 -0.116107 0.724355 0.110365 -0.680191
0.10766 -0.340281 0.075989 -0.266107 -0.174759 0.94726
0.145617 0.486415 0.053761 0.32842 0.526864 0.783119
0.178025 -0.607415 -0.076933 0.643014 -0.079736 -0.761351
0.132507 0.229912 -0.109614 0.682336 -0.298854 -0.667034
-0.010176 -0.58911 -0.077684 0.680914 -0.031434 -0.731442
-0.023405 -0.136723 -0.094622 0.50954 -0.257988 -0.818439
-0.475985 0.139307 -0.022372 0.235202 -0.891249 -0.386635
-0.105871 0.280091 0.044266 -0.98304 -0.004485 0.180219
-0.518393 0.09678 0.024239 0.111562 -0.382191 -0.895564
0.205265 -0.294826 0.020148 0.991138 -0.01287 0.116307
0.12048 0.247781 0.099293 0.527057 0.057294 0.847683
0.025909 0.342003 -0.126395 -0.068449 -0.043638 -0.995383
-0.051863 0.274104 -0.122309 -0.458556 -0.052591 -0.886676
0.014385 0.113566 0.132699 -0.095767 0.281059 0.953927
0.104135 -0.048848 -0.143111 0.106938 -0.3346 -0.935274
0.053357 -0.673061 0.009291 -0.916856 0.000191 0.36065
0.102507 0.596909 -0.040806 0.587362 0.770804 0.229612
-0.090767 -0.406094 -0.06978 -0.573365 -0.018746 -0.819031
0.154543 0.335787 0.062443 0.715572 -0.063553 0.695604
0.07481 0.104367 0.128384 0.330515 0.05576 0.939415
0.017814 -0.539447 0.006763 0.895699 -0.084451 0.433197
0.180831 0.300782 0.021015 0.92678 0.023628 0.360211
-0.122114 -0.060618 0.082839 -0.78791 0.029879 0.614902
0.027765 0.676546 -0.069981 -0.132355 -0.458286 -0.870514
0.11486 -0.85469 -0.119133 -0.315506 -0.022466 -0.923348
-0.047977 0.306512 0.098284 -0.404582 0.023934 0.913336
-0.125709 -0.618683 -0.003406 -0.919026 -0.062347 0.354519
-0.006426 0.730627 -0.094875 -0.550991 -0.489243 -0.670384
-0.002895 0.595147 -0.083973 -0.206321 0.62199 -0.749609
-0.009065 -0.825808 0.001226 0.705616 -0.53664 0.33874
0.082668 0.845625 -0.032552 0.809094 0.572777 -0.091547
-0.01907 0.770816 0.048829 -0.879866 0.030134 0.465627
0.093811 0.362089 -0.145369 0.005302 -0.030914 -0.99946
-0.037412 0.778912 -0.046432 -0.989907 0.078346 -0.116556
-0.129273 0.012411 -0.048286 -0.937241 0.04456 -0.344884
-0.133033 -0.514341 0.001382 -0.854079 -0.174862 0.484466
0.127966 -0.622255 -0.098063 0.00773 -0.118157 -0.989921
-0.072462 0.532226 0.042321 -0.086921 0.612407 0.785442
-0.038172 -0.744283 0.012012 0.405228 -0.703197 0.580219
-0.109788 0.550132 0.023014 -0.069546 0.783153 0.611108
0.05392 -0.369217 0.028362 -0.725593 -0.276432 0.628608
-0.103338 -0.337638 0.100689 -0.672876 -0.081123 0.735111
0.00198 0.485153 0.079244 0.003706 0.512476 0.857776
-0.084214 -0.227724 0.111938 -0.189475 -0.047682 0.980596
0.20301 0.051328 0.030948 0.951774 0.238192 0.192666
-0.102485 0.250927 -0.075721 -0.793711 -0.251417 -0.550196
0.417858 0.216627 -0.058025 -0.546444 -0.800906 0.230881
0.066277 0.303911 -0.138177 -0.297875 -0.06834 -0.95118
0.001926 0.621381 0.013545 -0.729854 -0.053191 0.68097
-0.415988 0.192963 0.02148 -0.042705 0.321593 0.944435
0.328243 0.40742 -0.044954 0.635995 0.4422 0.631217
0.016409 -0.33028 0.059817 0.843468 -0.200523 0.494524
-0.111619 0.439684 0.062841 -0.163926 0.019417 0.986114
0.513232 0.155658 -0.021437 -0.632031 -0.772906 -0.050478
0.140886 -0.471401 0.063168 -0.439769 -0.125089 0.887924
-0.113684 -0.58071 0.022098 -0.905724 -0.018246 0.421027
0.213374 -0.132117 0.010899 0.987027 -0.13049 0.082302
-0.036552 0.786894 -0.010475 -0.993343 0.063005 0.094929
0.019201 -0.426685 -0.025966 0.970895 0.018489 -0.224488
0.105102 0.771041 -0.039245 0.998403 -0.037861 -0.036478
-0.162682 0.543356 -0.030695 -0.619773 0.765098 -0.16921
0.135513 0.086218 -0.118764 0.639282 0.235116 -0.731575
0.186256 0.10239 -0.049109 0.836717 0.290733 -0.463627
0.198942 -0.065853 0.062682 0.868127 0.067108 0.491279
0.124519 -0.245638 -0.09759 0.29021 -0.085164 -0.951806
0.055707 -0.1924 -0.076897 -0.746109 -0.22091 -0.62749
-0.011852 -0.269342 -0.077821 0.644674 -0.104519 -0.75701
0.0443 -0.544757 -0.026764 -0.993768 -0.007885 0.019296
0.006479 -0.115102 -0.071783 0.744035 -0.356809 -0.556681
0.198765 -0.129438 -0.052651 0.854372 0.00893 -0.518848
-0.189437 0.512329 -0.046052 -0.69801 0.582867 -0.414431
0.185567 0.565798 -0.040913 0.319193 0.931489 0.153784
0.074487 -0.81957 -0.064029 -0.825655 -0.479049 -0.252213
0.106852 -0.305885 -0.099428 0.015045 0.016019 -0.994056
0.186718 -0.279937 0.068776 0.700122 0.016988 0.708403
-0.328843 0.280342 -0.092012 -0.081095 -0.231956 -0.968912
-0.031812 0.793051 0.016567 -0.899108 0.117161 0.420102
-0.020877 0.426423 -0.129954 0.041705 -0.020016 -0.998772
0.149929 0.389968 0.072222 0.634508 -0.004636 0.770717
0.547363 0.126118 0.038183 -0.748527 -0.456554 0.458896
-0.208686 0.463526 -0.068904 -0.623423 0.467748 -0.593467
0.174573 0.095222 -0.071595 0.807193 0.209387 -0.551037
0.016405 -0.641603 0.006116 0.802762 -0.087082 0.586676
0.097911 -0.542884 0.033047 -0.468776 0.009661 0.881984
0.196758 -0.456494 0.011444 0.972964 -0.059435 0.220424
0.006102 -0.812207 -0.096119 0.917085 -0.277161 -0.281242
0.201815 -0.086624 -0.042451 0.894536 0.048164 -0.442586
-0.068885 -0.808408 -0.13929 -0.566189 -0.136326 -0.80997
-0.1361 -0.222712 0.015626 -0.997732 -0.035009 -0.057373
-0.022516 -0.217684 0.112761 0.250232 -0.140204 0.956656
0.302736 0.43215 -0.027738 0.615433 0.326721 0.708867
-0.042476 -0.304536 -0.090445 0.141093 -0.088228 -0.98107
0.024324 -0.400887 -0.004417 0.974755 -0.195177 -0.027015
-0.113656 0.371233 -0.091067 -0.683704 -0.232855 -0.691056
-0.043961 0.315867 0.099386 -0.398262 0.020363 0.913601
-0.104401 -0.708145 -0.094208 -0.71911 -0.009487 -0.693586
-0.135491 -0.017616 0.049456 -0.972403 0.072751 0.211495
-0.192107 0.505376 0.022361 -0.653481 0.596555 0.465055
0.100117 0.261641 0.107186 0.357214 0.071592 0.930179
-0.407387 0.265002 -0.042214 -0.788872 0.609069 -0.058378
-0.048399 0.127786 -0.110299 -0.415722 0.363004 -0.833385
0.038102 -0.105455 -0.095034 -0.668456 -0.42895 -0.605159
-0.096763 0.364876 -0.103277 -0.50021 -0.22467 -0.835384
-0.059768 -0.178259 0.121252 -0.249923 -0.021645 0.962786
0.193155 -0.116711 0.07249 0.824849 -0.01528 0.563258
-0.098584 -0.364329 -0.067298 -0.629815 0.041856 -0.773073
0.198512 -0.351537 0.032603 0.934924 -0.108073 0.336404
0.074113 -0.794254 -0.062445 -0.910978 0.10736 -0.395847
-0.136615 -0.410296 0.007675 -0.995194 0.08369 0.048467
0.447795 0.221804 -0.09494 0.717883 -0.144799 -0.676576
0.018197 0.669141 -0.064439 -0.393321 -0.295728 -0.861571
0.02244 -0.405874 0.004215 0.975273 -0.18411 0.113096
-0.025184 0.703951 -0.008951 -0.847727 -0.511057 -0.093411
0.0876 0.725281 0.056799 0.879446 0.009919 0.454289
-0.425458 0.16395 0.024953 0.522039 -0.79486 0.295983
0.026085 -0.214727 0.051272 0.957474 -0.027553 0.281493
0.046096 0.31072 0.119688 0.118158 0.111081 0.98665
0.108872 0.013934 0.127719 0.353418 0.233463 0.902495
0.099833 0.15218 -0.117377 0.326824 0.247724 -0.911489
0.128249 -0.869612 0.103898 -0.008219 -0.999781 0.017704
0.142311 0.205567 -0.090688 0.746216 -0.078741 -0.659903
0.009298 0.678172 -0.064121 -0.489925 -0.417981 -0.763542
-0.086396 -0.543025 0.06695 -0.057733 -0.195331 0.973456
0.199937 -0.45843 -0.028532 0.999214 0.002459 -0.033975
-0.001915 -0.817411 -0.02022 0.96136 -0.079468 0.26155
0.631648 0.03015 0.06976 -0.94918 -0.309245 -0.003048
-0.061263 -0.440269 -0.090411 -0.092363 0.258438 -0.960835
0.075374 -0.655588 0.018592 -0.61168 0.31995 0.723089
0.027621 -0.626924 -0.021385 0.996698 -0.016588 0.052317
0.054803 -0.478841 -5.4e-05 -0.664656 0.00107 0.740114
0.138513 -0.12231 0.110824 0.167965 -0.082318 0.981578
-0.130106 -0.589841 -0.029676 -0.985969 -0.097114 0.129951
-0.239956 0.32137 -0.071245 0.638916 -0.586645 -0.495571
-0.422561 0.200095 0.01815 -0.117309 0.278184 0.952449
0.182328 0.244001 -0.017905 0.992707 -0.007882 -0.110978
0.0771 0.384171 -0.14386 -0.201005 0.013546 -0.978548
-0.121827 -0.296407 0.079245 -0.945398 -0.064406 0.314233
0.00693 0.383505 -0.128265 0.046362 -0.017339 -0.998745
-0.101099 -0.002967 0.108693 -0.635463 -0.034793 0.748639
-0.128459 -0.350986 -0.001385 -0.999153 0.037326 -0.01186
-0.050673 0.300536 -0.124102 -0.4568 -0.016447 -0.888912
-0.044008 -0.62445 -0.100822 0.39225 0.037005 -0.917172
0.037612 0.577988 0.026274 0.132396 -0.005173 0.990064
0.074544 0.360278 0.104538 0.21983 0.154612 0.962478
0.104617 -0.406283 -0.099693 -0.345187 0.019551 -0.935868
0.01199 0.162375 0.130537 -0.072352 0.018884 0.996908
-0.114587 0.238633 -0.027165 -0.961523 0.246785 -0.094153
-0.126025 0.046346 -0.048992 -0.914092 0.144791 -0.377307
0.00028 -0.110973 -0.083139 0.733515 -0.350509 -0.581391
0.05437 0.329432 0.114563 0.205354 0.187192 0.960264
-0.101698 -0.101845 -0.079761 -0.709023 -0.106408 -0.696755
0.044265 -0.216651 -0.052101 -0.917747 -0.055489 -0.391402
0.076171 0.452221 -0.141621 -0.350849 0.038362 -0.934745
0.187064 0.421969 0.039574 0.678428 -0.051705 0.732336
-0.081785 -0.762742 0.01978 -0.300139 -0.262275 0.910491
-0.257447 0.427133 -0.017932 -0.751627 0.624967 0.210845
-0.031133 0.356134 0.105791 -0.009797 -0.075602 0.996988
0.194998 -0.553287 -0.060041 0.834381 -0.013287 -0.55097
-0.314014 0.237891 -0.015035 0.623225 -0.763237 0.163349
0.235559 0.378136 -0.068342 -0.696656 -0.713836 0.053588
0.158019 -0.802551 -0.103421 0.670951 0.137519 -0.727222
-0.011242 0.122005 0.127171 -0.343827 0.043905 0.931015
-0.038964 0.759916 -0.022784 -0.993273 -0.067559 0.061941
0.334377 0.373625 -0.050712 0.688244 0.364613 0.620502
-0.078598 -0.132532 -0.094951 -0.552077 -0.097666 -0.827694
0.198473 -0.059498 -0.049262 0.933454 -0.014264 -0.355054
0.165015 0.510728 -0.128872 0.139772 0.350379 -0.924411
0.084546 0.706861 0.059693 0.830318 -0.136281 0.538779
0.209334 0.479356 0.020635 0.357155 0.104662 0.925708
-0.071665 -0.614041 -0.105022 -0.047412 0.065465 -0.995923
0.310935 0.314723 -0.06636 -0.577403 -0.673188 0.461275
0.169003 -0.846026 0.051535 0.788524 0.613074 -0.019284
-0.115276 0.428834 0.062197 -0.267216 -0.002889 0.962236
0.028061 -0.330452 0.017447 0.997886 -0.036037 0.048799
0.097552 0.519038 0.049595 0.241632 0.54416 0.803275
0.109536 -0.104652 -0.123652 0.024966 -0.312455 -0.948183
-0.063895 -0.654239 0.03118 0.363374 -0.272989 0.890716
-0.227322 0.415332 0.029736 -0.525194 0.074497 0.844188
-0.408521 0.175058 -0.003206 0.571021 -0.817167 0.008442
0.156496 -0.652362 0.028495 0.197483 -0.009389 0.978304
-0.131602 0.06636 0.00876 -0.894719 0.428214 0.030377
-0.183498 0.418633 0.031557 0.135439 -0.403018 0.902437
-0.131203 -0.387646 -0.010075 -0.955069 0.271439 -0.092998
-0.395079 0.212217 0.013689 0.15358 0.131042 0.978519
0.129851 0.566858 -0.010829 0.267255 0.753588 0.600206
0.065426 -0.457294 0.005317 -0.51113 -0.002876 0.856429
-0.128602 0.135412 -0.002441 -0.998263 0.045994 -0.017051
-0.038526 0.587387 -0.019676 -0.387492 0.813629 0.418415
0.048232 0.747312 0.08593 0.836227 0.222576 0.494675
0.039983 0.735761 0.105803 0.418256 0.124026 0.839287
-0.072624 0.0781 -0.113853 -0.573609 0.269501 -0.77256
0.037589 0.808129 0.079033 0.035603 0.353196 0.93207
0.039315 -0.203617 0.023654 -0.975866 -0.098285 0.194846
0.143675 0.529045 -0.124438 0.212246 0.518888 -0.827406
0.290028 0.458639 -0.11491 0.498472 0.637164 -0.587371
0.052928 0.265419 0.123836 0.213147 0.129689 0.968296
0.196858 -0.708303 -0.028008 0.973289 -0.010029 -0.200592
-0.090052 0.573982 -0.020595 -0.188381 0.972378 0.109224
-0.072278 0.113535 0.095612 -0.561481 0.237384 0.78331
-0.451189 0.142337 -0.002934 0.523205 -0.837692 -0.055466
0.026811 -0.359582 -0.00284 0.99576 -0.028308 -0.07352
0.173349 0.329285 0.040671 0.87612 -0.00286 0.478648
0.065444 -0.157426 0.080279 -0.620456 0.02994 0.782447
0.049048 -0.528802 -0.011555 -0.829055 0.006236 0.558505
0.088596 -0.835876 -0.051236 -0.999104 0.018507 -0.000412
0.075061 0.181304 0.123712 0.467644 0.035395 0.880403
0.088012 0.299135 0.107571 0.383907 0.126795 0.907108
-0.042346 0.295302 0.102477 -0.546421 0.125141 0.828009
0.520726 0.161102 -0.038074 0.049835 -0.455104 -0.781132
-0.099164 -0.500922 -0.085341 -0.539507 0.133696 -0.830296
0.010118 -0.80436 -0.053816 0.960382 -0.236901 0.139011
0.231854 0.397028 -0.028902 -0.482724 -0.625991 0.56024
-0.071076 0.507284 -0.119326 -0.231716 0.352148 -0.906281
0.15284 -0.451626 0.069274 -0.08698 -0.123105 0.981656
0.159983 -0.859514 -0.076464 0.848474 -0.489701 -0.17974
0.013462 0.176016 0.130365 -0.044702 0.018238 0.99852
-0.250827 0.409706 0.013742 -0.610177 0.401156 0.680223
0.051242 0.612652 -0.075472 0.126218 0.544557 -0.822141
-0.094301 0.496268 -0.115017 -0.353172 0.303454 -0.884312
-0.077686 -0.531136 0.06606 0.394957 -0.203432 0.895863
0.041222 0.091306 0.132606 0.136351 -0.416088 0.894898
-0.301942 0.358067 -0.016054 -0.670093 0.662413 0.333319
0.203555 -0.057661 0.051793 0.88357 0.081055 0.458997
0.415821 0.228605 -0.04184 -0.43054 -0.49379 0.727139
0.151879 -0.193412 0.095007 0.160597 -0.135897 0.975254
-0.06665 -0.393559 -0.081581 -0.207028 -0.079529 -0.973175
-0.116622 0.338582 -0.074727 -0.878083 -0.207602 -0.427669
-0.002803 0.250659 -0.129285 0.099639 -0.045684 -0.99341
-0.039594 -0.537491 -0.098899 0.306061 0.026598 -0.951335
-0.065047 -0.334775 0.10243 0.178262 -0.135507 0.974335
0.45936 0.212855 -0.011573 -0.474992 0.17458 0.850895
0.134746 0.547481 -0.115904 0.264762 0.549159 -0.790755
0.088233 -0.615501 -0.080498 -0.63937 -0.083332 -0.76328
0.273793 0.412814 -0.141626 -0.050738 0.03654 -0.997383
0.065104 -0.250613 0.070421 -0.708708 -0.108718 0.696689
-0.048704 -0.853434 0.14528 0.766251 -0.320825 0.498553
-0.098556 -0.814889 -0.102662 -0.800752 -0.338301 -0.490693
0.131418 0.43345 0.078744 0.386283 0.190157 0.900409
-0.093486 -0.030841 -0.106348 -0.679861 -0.116949 -0.723896
-0.098529 0.296479 0.058976 -0.809782 0.189427 0.553369
-0.482078 0.160274 0.05003 -0.205514 0.803951 0.509682
-0.560689 0.064863 0.055287 -0.813184 0.551101 0.119828
-0.057152 -0.036263 -0.127101 -0.265407 -0.287891 -0.918827
-0.322357 0.342543 -0.019618 -0.64002 0.704152 0.294277
0.00066 -0.602654 0.017561 0.549708 0.052458 0.833285
0.399756 0.330111 -0.096803 0.700664 0.706172 -0.075722
-0.067264 0.066059 -0.121457 -0.521178 0.214142 -0.824649
0.240489 0.436404 -0.00061 0.651634 -0.210013 0.720062
0.205535 -0.290387 -0.007118 0.996453 -0.002294 -0.081659
-0.046154 0.257675 0.103434 -0.613832 0.046559 0.786473
-0.021397 0.817793 -0.088345 -0.503709 0.560017 -0.645837
0.190017 0.329149 -0.041687 0.971983 -0.176432 -0.136479
0.106272 -0.734403 -0.094501 -0.462811 -0.029812 -0.884893
-0.289517 0.318833 0.007771 -0.123821 -0.073604 0.98804
-0.233192 0.317159 -0.039095 0.733919 -0.679136 -0.000893
0.458848 0.19382 -0.05156 -0.144167 -0.966755 -0.142453
0.182572 -0.354178 0.066311 0.828498 -0.064243 0.554675
0.093487 -0.866849 -0.07517 -0.693609 -0.719076 -0.025526
0.296396 0.377488 -0.142388 -0.062395 -0.293492 -0.950879
0.165598 0.162628 0.063655 0.712677 0.071283 0.697828
-0.110601 -0.136091 0.101919 -0.688459 0.066482 0.722127
-0.376671 0.297539 -0.055571 -0.702364 0.70059 -0.118213
-0.104548 -0.271352 -0.055944 -0.809765 -0.014796 -0.586269
-0.128309 0.394815 -0.06268 -0.963728 -0.206655 -0.080995
0.017536 0.319208 0.119477 -0.158142 0.170631 0.970088
-0.080865 0.145092 -0.086952 -0.578471 0.235818 -0.780777
-0.121754 0.539541 -0.076446 -0.360412 0.680278 -0.637725
0.30113 0.320009 -0.088369 -0.700898 -0.713008 -0.00617
-0.090494 0.013072 -0.113823 -0.718647 -0.01792 -0.694815
0.175182 0.272283 0.036733 0.918276 0.062906 0.38874
0.132984 0.199666 0.094802 0.552231 0.057682 0.829939
-0.073959 0.053961 -0.119682 -0.646213 0.236 -0.723227
-0.030624 0.132336 -0.114963 -0.278269 0.474815 -0.834806
-0.011237 0.710847 0.062743 -0.704291 -0.109623 0.701168
-0.113502 -0.218385 0.098661 -0.681589 -0.054065 0.729236
0.086115 -0.857901 0.124902 -0.914283 0.289765 0.281155
-0.124822 -0.216219 -0.0239 -0.856223 -0.094473 -0.507617
0.017297 -0.134323 -0.049491 0.811851 -0.249086 -0.522864
0.026108 -0.115778 -0.065983 -0.899462 -0.302708 -0.311797
0.596751 0.066822 0.036813 0.286549 -0.899303 0.124408
0.257845 0.355773 -0.076727 -0.70627 -0.707794 0.000665
0.105735 0.555848 0.016559 0.414945 0.644746 0.635409
-0.07854 0.225676 0.083967 -0.595825 0.118869 0.794187
-0.036539 -0.371266 0.089893 0.206563 -0.149094 0.966691
0.077242 0.194977 -0.120437 -0.029942 -0.249486 -0.966806
0.181814 0.239085 0.022795 0.989926 -0.013276 0.139153
0.097073 0.71434 0.016317 0.840971 -0.369334 0.220763
0.13927 -0.098791 0.112266 0.203403 -0.054933 0.976165
-0.50095 0.093051 0.042829 0.527892 -0.808911 -0.226018
0.106189 0.596522 -0.050225 0.488473 0.860292 0.114055
-0.019114 -0.289864 0.095354 0.343395 -0.178692 0.920291
-0.125567 0.371491 -0.012883 -0.953533 -0.288785 0.066445
0.106033 -0.491649 -0.103907 -0.346873 0.008386 -0.935923
0.190135 -0.47625 -0.066741 0.842351 0.048048 -0.535827
0.111242 0.332596 -0.139216 0.415223 -0.108148 -0.902887
0.053977 0.182242 -0.116835 -0.17889 0.189798 -0.963885
0.535503 0.168283 0.026985 -0.352675 0.373077 0.835227
-0.103134 0.048434 -0.090267 -0.797945 0.208029 -0.563033
0.063858 0.324825 0.113234 0.240408 0.127643 0.961699
0.30808 0.315941 -0.106588 -0.6413 -0.691102 -0.307677
0.106299 0.50424 0.05619 0.306645 0.484043 0.817184
0.088226 -0.062693 0.120451 -0.034597 -0.313944 0.948199
0.083389 -0.587555 0.022927 -0.699455 -0.07358 0.710621
0.024884 -0.369171 0.022282 0.963544 -0.112017 0.233979
0.045546 -0.569035 -0.034437 -0.948334 -0.041841 -0.252215
0.065226 0.174532 -0.119202 -0.024573 0.110309 -0.991475
0.425579 0.307338 -0.085465 0.587616 0.808551 0.016499
-0.127923 0.160689 0.0095 -0.993149 -0.05342 0.084208
-0.087486 0.31626 -0.101875 -0.63769 -0.069394 -0.766949
0.239572 0.459791 0.003353 0.537515 -0.033971 0.827201
-0.030666 0.726896 0.008092 -0.993442 0.037985 0.105436
0.185092 -0.072249 0.08074 0.706289 0.068975 0.704335
-0.10638 0.043365 0.095646 -0.515046 0.191782 0.824342
0.139908 0.349416 -0.124013 0.641218 -0.211227 -0.7374
-0.065049 0.393197 0.095114 -0.361778 0.048197 0.929749
-0.071037 -0.003565 0.12836 -0.412661 0.061941 0.871799
0.115566 -0.49777 0.044175 -0.577333 -0.107595 0.809009
-0.028812 -0.853678 -0.074009 0.69995 -0.672489 0.227391
-0.46727 0.189472 -0.000239 -0.747624 0.66116 0.041256
0.10273 -0.091129 0.109446 -0.498674 -0.194692 0.842698
-0.276878 0.374696 0.006857 -0.769918 0.155442 0.618351
-0.180441 0.45266 -0.089038 -0.228176 0.268298 -0.935653
-0.044513 0.130209 0.111811 -0.473741 -0.032241 0.87957
-0.445391 0.14753 0.004083 0.687065 -0.724432 0.028167
0.596874 0.073466 0.064505 -0.716059 -0.623734 0.261176
0.580185 0.069209 0.041562 -0.802601 -0.41281 0.411179
-0.261059 0.35094 0.014985 -0.250289 -0.323698 0.910486
0.098072 0.810048 -0.003427 0.960907 0.257153 0.085881
-0.030156 0.804373 0.015635 -0.858301 0.204832 0.470374
0.198931 0.140359 0.01988 0.878443 0.135405 0.44889
0.165535 -0.311471 -0.06596 0.67832 -0.00893 -0.734249
0.162988 0.261747 0.05495 0.741651 0.064328 0.667587
0.254474 0.521364 -0.072822 0.670305 0.711786 -0.197721
0.061597 -0.780231 0.025109 -0.781874 -0.136704 0.491585
-0.570829 0.028771 -0.003031 -0.409352 -0.688613 -0.146925
0.130132 -0.864897 -0.111382 0.360245 -0.677969 -0.627026
0.130003 0.110669 -0.115054 0.564697 0.300896 -0.766308
-0.039181 -0.748916 -0.126734 0.211511 0.429502 -0.877096
0.121289 0.525396 0.034931 0.281034 0.625776 0.725621
-0.109378 -0.003996 -0.089735 -0.824812 -0.001154 -0.565103
-0.351626 0.244326 -0.079549 0.202468 -0.39003 -0.89732
-0.109149 0.285562 -0.07221 -0.909563 -0.077943 -0.403539
-0.120758 0.02963 0.077228 -0.851333 0.140312 0.504712
0.022209 -0.728711 -0.057409 0.975388 -0.009101 -0.210124
0.106475 -0.704125 -0.092093 -0.447023 0.090316 -0.885329
-0.211768 0.39015 -0.096378 -0.028119 -0.022251 -0.999117
0.020835 -0.65783 -0.006869 0.871304 -0.188496 0.452473
-0.142713 -0.168295 0.016426 -0.986848 -0.145767 -0.010371
0.553469 0.16757 0.022471 0.696643 0.711083 0.073981
0.196526 0.07877 0.028942 0.903614 0.387282 0.177554
-0.016988 0.449413 0.093187 -0.133244 0.371587 0.918094
-0.007624 -0.828803 -0.11231 0.537073 -0.782491 -0.244865
0.193048 -0.211852 0.062841 0.947836 -0.035588 0.314216
-0.09169 -0.290847 -0.070565 -0.714029 -0.023442 -0.699574
0.042781 0.842993 0.057928 0.213148 0.606033 0.757013
0.074531 -0.807727 0.01815 -0.906813 -0.166786 0.383835
-0.129139 -0.276409 -0.003828 -0.989102 -0.070111 -0.122026
0.022491 -0.069932 0.118055 0.246723 -0.282287 0.924443
-0.125043 -0.169282 0.084098 -0.820964 0.003508 0.570828
0.077111 0.220587 0.12084 0.383904 0.077837 0.919854
0.16731 0.405876 -0.126938 0.282292 -0.399096 -0.869938
-0.163911 0.543162 -0.019722 -0.644565 0.763365 -0.028213
0.001659 0.520004 0.061099 0.069855 0.502826 0.861344
-0.1294 0.033431 -0.044321 -0.936586 0.117408 -0.329216
-0.076719 0.203659 -0.085554 -0.760818 -0.076364 -0.644282
0.081779 0.122523 -0.130655 0.151417 0.399424 -0.900527
0.090188 0.559997 -0.11564 0.011627 0.592998 -0.803747
-0.076298 -0.020994 -0.122443 -0.563243 -0.15517 -0.811208
0.085409 -0.007078 -0.156984 0.089208 -0.136915 -0.98553
0.141169 0.318333 -0.115803 0.750891 -0.120328 -0.649165
0.148294 -0.027179 0.109322 0.562472 0.018213 0.822952
-0.526212 0.074152 0.038777 0.553705 -0.724374 -0.403247
0.010041 0.765767 0.072354 -0.318657 -0.353375 0.870491
-0.127641 -0.322504 -0.014705 -0.99066 -0.002259 -0.132886
-0.289702 0.282694 -0.087261 0.372552 -0.459181 -0.802942
-0.01247 -0.353907 0.083967 0.587871 -0.123774 0.782251
0.030921 0.122231 -0.130172 -0.137899 0.441952 -0.885804
0.632885 0.060215 0.032226 0.823299 0.565734 -0.034346
-0.419001 0.166488 -0.012355 0.596266 -0.799438 -0.031389
0.198795 -0.289671 0.045485 0.924927 -0.073362 0.371327
-0.307699 0.3578 -0.052177 -0.654554 0.728269 -0.187443
0.484153 0.242612 -0.072978 0.638438 0.481253 -0.580527
0.064207 0.314127 0.11446 0.285555 0.14814 0.946446
0.009037 -0.670292 0.008147 0.780793 -0.230987 0.578782
-0.069851 -0.318077 0.105108 0.099048 -0.081767 0.991612
-0.021265 -0.703689 -0.099846 0.587735 0.214411 -0.779779
-0.122999 -0.084089 0.08245 -0.788892 0.018508 0.61414
0.17196 -0.152298 0.093013 0.583445 -0.083106 0.805719
-0.084201 -0.176965 -0.083437 -0.607579 -0.095846 -0.787966
0.169585 0.298521 -0.068284 0.858898 -0.248885 -0.446404
0.005091 0.273743 0.122936 -0.277218 0.116776 0.952381
0.180678 0.378304 -0.10489 0.510188 -0.4784 -0.713416
0.095408 0.603509 -0.062356 0.653119 0.718732 -0.220412
-0.075807 0.127716 0.091852 -0.647944 -0.014014 0.7613
0.078494 -0.34656 -0.087176 -0.680973 -0.05457 -0.729005
0.099581 -0.868233 -0.051831 -0.369511 -0.910793 0.109876
0.035968 -0.197119 -0.037952 -0.677585 -0.281438 -0.624623
-0.174153 0.391234 0.017656 0.298535 -0.581563 0.749859
-0.139319 -0.111971 -0.019943 -0.923929 -0.063421 -0.375782
0.116804 -0.141386 0.112211 -0.112532 -0.155626 0.976801
0.248968 0.481396 -0.000943 0.493925 0.091364 0.860484
-0.059911 -0.049925 0.126582 -0.293867 -0.08196 0.949137
-0.133283 -0.265242 0.029938 -0.976071 -0.214132 0.025864
0.073987 -0.149858 0.086291 -0.562247 0.006708 0.826755
-0.045004 0.333637 0.100069 -0.305509 -0.148795 0.936475
0.097296 0.380971 -0.145821 0.011821 -0.012958 -0.99887
-0.093249 -0.046822 0.110019 -0.601623 -0.035707 0.797615
0.015705 0.658316 0.055077 -0.279103 -0.953611 0.112156
0.060704 0.854787 -0.059541 0.37436 0.820052 -0.427434
-0.120431 0.353259 -0.067628 -0.985025 -0.098891 -0.130142
0.177097 -0.802178 -0.053348 0.916622 -0.368406 0.00054
-0.094084 0.338276 -0.099503 -0.618645 -0.136826 -0.773461
-0.035114 0.11281 0.117435 -0.486476 0.1671 0.854997
-0.128874 0.111948 -0.014258 -0.980258 -0.030804 -0.189711
-0.114896 -0.239233 0.096079 -0.686909 -0.022999 0.72632
-0.091273 0.556483 0.016129 -0.042326 0.793082 0.606856
-0.04698 0.522333 0.054127 -0.169503 0.591218 0.788471
0.033831 0.615266 0.027435 0.01878 -0.147675 0.987006
0.128257 -0.159289 0.105666 0.102943 -0.281906 0.95263
-0.095786 -0.661772 0.03637 -0.176664 -0.33185 0.916813
-0.291656 0.393251 -0.043651 -0.957084 0.166897 0.027924
-0.125005 0.098585 0.035511 -0.934869 -0.001253 0.354174
-0.070748 -0.861351 -0.119945 -0.142172 -0.966367 -0.199976
-0.020049 0.061625 -0.139945 -0.244617 0.272426 -0.929935
0.194222 -0.423052 0.033192 0.959124 -0.064018 0.275578
-0.035962 0.786782 -0.056209 -0.995389 0.02769 -0.089258
-0.068437 -0.826999 0.121345 -0.144544 0.980681 0.126113
0.164751 -0.775205 0.027086 0.446219 -0.023672 0.86896
-0.111164 -0.644922 0.029092 -0.858874 -0.06878 0.506864
-0.118316 0.353102 -0.077414 -0.933606 -0.145886 -0.322949
-0.135796 0.047216 0.02309 -0.993637 0.093489 0.061174
-0.007165 -0.136351 0.118246 0.536859 -0.158072 0.822906
-0.081185 -0.826807 0.098573 -0.235821 0.961079 0.116881
-0.37323 0.2905 -0.075196 -0.536442 0.585702 -0.599765
-0.015973 0.84548 -0.050998 -0.529165 0.788038 -0.312306
-0.017638 0.494011 0.073658 -0.041173 0.455062 0.889194
0.153895 0.249069 -0.084074 0.861855 -0.074752 -0.499848
0.177936 -0.784563 -0.07134 0.866866 0.169356 -0.435475
0.026778 -0.579786 -0.01528 0.990837 0.032118 0.124341
0.201504 0.484645 0.023276 0.411855 0.234687 0.880212
0.185908 -0.534409 -0.073636 0.750518 -0.030293 -0.659917
-0.108181 -0.809228 -0.085981 -0.873513 -0.372314 -0.308526
-0.004615 0.622815 0.006335 -0.776865 -0.001235 0.628554
-0.056746 0.444588 -0.130477 -0.122259 -0.09356 -0.987858
0.105822 -0.808989 -0.115131 -0.504286 0.057394 -0.848806
-0.291266 0.387951 -0.051927 -0.993539 0.008097 -0.091411
0.145715 0.255637 -0.099428 0.803044 -0.113416 -0.584272
0.003472 0.622515 -0.062704 -0.513656 0.507018 -0.68743
0.132921 -0.669852 0.030124 0.117184 -0.133023 0.984109
0.520525 0.167177 0.020706 -0.296205 0.214673 0.916179
-0.013783 -0.757831 -0.115046 0.68199 0.337133 -0.647987
0.177106 0.071357 0.073892 0.843598 0.116298 0.48844
0.14043 -0.406358 -0.094815 0.510147 0.069662 -0.856997
0.189483 -0.223365 0.069604 0.859756 -0.103481 0.495281
0.099037 -0.510139 0.032357 -0.52435 0.012772 0.85124
0.043295 -0.273028 0.030271 -0.988553 -0.021979 0.14867
0.11476 -0.064517 0.119165 0.162733 -0.124613 0.97095
-0.214686 0.481045 0.011506 -0.787698 0.473255 0.387239
-0.119529 0.098501 0.051504 -0.924557 0.08213 0.367485
0.19465 0.431001 -0.130659 0.216317 -0.329145 -0.917853
0.090927 -0.162524 0.095994 -0.479561 -0.064264 0.870662
-0.129715 -0.005703 0.063974 -0.888957 -0.199257 0.400819
0.088821 0.76026 0.050095 0.849158 0.065438 0.510681
0.192277 -0.249227 -0.052806 0.766577 -0.145258 -0.624526
0.197639 -0.273177 -0.035757 0.880086 -0.155662 -0.446375
0.079002 0.272677 -0.138869 -0.116481 -0.068759 -0.990174
0.191778 -0.228692 -0.05793 0.698756 -0.088018 -0.709433
0.032002 0.658853 0.077038 -0.008532 -0.981867 0.186135
0.216352 0.445915 -0.132765 -0.084379 -0.180613 -0.979352
0.074294 0.665206 0.026948 0.830033 -0.411285 0.366096
-0.123474 -0.329042 -0.029761 -0.900264 0.011704 -0.432169
0.176631 0.230618 0.040204 0.900549 0.042149 0.429885
0.529859 0.206229 -0.011815 -0.071928 0.95088 0.283591
-0.035447 -0.334072 -0.085927 0.480231 -0.083281 -0.872813
-0.04001 0.550775 0.033332 -0.201067 0.7017 0.683244
0.087569 -0.859455 0.065884 -0.779278 -0.599353 -0.176779
0.372116 0.348826 -0.119833 0.648487 0.487528 -0.582994
0.059401 -0.781293 0.010633 -0.989034 -0.117864 0.071356
-0.06904 0.147151 -0.094432 -0.491628 0.302609 -0.811701
0.016582 -0.588904 -0.04763 0.795185 0.067356 -0.601787
0.02672 -0.592714 -0.013245 0.981886 0.025299 0.16362
0.039514 0.167328 0.130651 0.063479 0.059143 0.996205
-0.034821 0.571665 0.005353 -0.143508 0.778392 0.609402
0.171953 -0.802051 -0.004583 0.938431 -0.209427 0.239829
-0.095516 -0.34516 -0.068366 -0.64088 0.076512 -0.762531
-0.137478 0.019118 -0.0184 -0.984664 -0.005525 -0.168635
0.450436 0.28285 -0.059293 0.58073 0.727806 0.336995
