0.207781 -0.170414 -0.004386 0.999918 0.003633 0.002006
-0.016988 0.449413 0.093187 -0.133244 0.371587 0.918094
-0.124479 -0.419796 -0.036375 -0.796207 0.190637 -0.568497
-0.388261 0.280162 -0.069907 -0.652313 0.608585 -0.450396
0.032754 -0.064528 0.119484 -0.120824 -0.287262 0.948606
0.561299 0.093315 0.038292 -0.829007 -0.514272 0.213675
-0.016329 0.676326 -0.003767 -0.796199 -0.587405 -0.023641
0.053357 0.547074 -0.118682 -0.1543 0.450829 -0.876316
0.023877 0.765692 -0.121196 -0.072494 -0.050631 -0.995851
0.187435 -0.257567 -0.056813 0.723986 -0.183114 -0.664963
-0.123215 -0.362795 -0.037767 -0.877284 0.075064 -0.469613
0.031562 0.038652 -0.155154 -0.192364 0.226279 -0.954612
0.092678 0.517315 -0.133228 -0.104942 0.393243 -0.911609
-0.036664 -0.526545 -0.097496 0.319446 0.036504 -0.945527
0.161391 -0.265809 -0.074743 0.521297 -0.177099 -0.834306
0.133555 -0.866686 0.005142 0.079438 -0.992941 -0.08021
-0.121114 0.194351 0.032313 -0.92675 0.098595 0.359315
-0.168684 0.487685 0.050286 -0.456677 0.170591 0.868501
0.064207 0.314127 0.11446 0.285555 0.14814 0.946446
-0.016763 0.028219 0.135988 -0.209906 0.187955 0.959007
0.178288 -0.061063 -0.086168 0.818266 -0.078946 -0.569136
0.461794 0.250518 -0.026611 0.047342 0.621607 0.776172
0.436316 0.221873 -0.035808 -0.657044 -0.372672 0.639169
0.039697 0.065346 0.134168 0.154016 0.070662 0.984894
0.372736 0.308519 -0.043603 0.144625 0.294161 0.939527
-0.119629 -0.690412 -0.080435 -0.776294 -0.124266 -0.614309
0.504499 0.222123 -0.025636 0.743416 0.627487 0.205191
0.055766 -0.594483 -0.006396 -0.781583 -0.13364 0.607063
-0.121676 0.214236 0.007439 -0.955861 0.280603 0.041155
0.062013 -0.209866 0.07406 -0.681164 -0.09123 0.726385
0.203336 -0.251756 0.034693 0.976016 0.042939 0.210479
-0.053386 0.284179 -0.122074 -0.44468 -0.048465 -0.894102
-0.102229 -0.25691 0.106433 -0.44299 -0.020457 0.893615
0.199884 0.393281 -0.071593 0.97901 -0.191897 0.002138
0.388845 0.251667 -0.042855 -0.601165 -0.419574 0.679636
0.183239 0.115766 0.050927 0.851017 0.192334 0.486897
-0.029988 0.105452 0.121743 -0.425069 0.183571 0.885364
0.125115 0.294499 -0.12839 0.584609 -0.044736 -0.810056
0.180047 0.310361 0.02158 0.900995 0.013732 0.427352
-0.04001 0.550775 0.033332 -0.201067 0.7017 0.683244
-0.097007 -0.199363 0.110599 -0.295761 -0.048614 0.94572
0.127592 0.009017 0.121557 0.348464 0.128524 0.927355
-0.077619 0.56163 0.010669 -0.066638 0.778157 0.624492
-0.115822 -0.004988 0.088645 -0.77537 -0.247905 0.576458
0.184651 0.34882 -0.07607 0.775238 -0.430206 -0.460336
0.205365 -0.272046 -0.007234 0.999351 0.017208 -0.03036
-0.446548 0.149326 0.025745 0.759204 -0.615045 0.192322
0.188579 -0.747234 0.002251 0.659281 0.232995 0.61604
0.15486 -0.748417 0.026097 0.310118 0.541508 0.668946
-0.144279 -0.128891 0.007396 -0.999102 -0.008644 -0.037537
-0.288332 0.365676 -0.003007 -0.726027 0.416125 0.545884
0.107513 -0.213166 -0.101038 -0.199472 -0.113371 -0.970912
-0.000364 0.861612 -0.026542 -0.440972 0.888572 -0.083352
0.197645 -0.534265 0.007674 0.952498 -0.044616 0.301067
0.068237 -0.663617 -0.054241 -0.766908 -0.146425 -0.624685
0.055138 0.314284 0.117736 0.320481 0.182991 0.927631
-0.089595 -0.44823 0.082257 -0.075057 -0.140071 0.985289
0.111759 -0.399008 0.063918 -0.428314 -0.172147 0.884727
0.026717 0.859559 -0.060307 -0.091852 0.875127 -0.470163
0.118779 -0.70529 0.026252 0.366685 -0.292636 0.881545
0.062911 -0.307559 -0.073358 -0.787403 -0.009148 -0.616305
0.162915 -0.154297 0.097791 0.38053 -0.110723 0.916686
-0.154701 0.547533 -0.035318 -0.506775 0.786297 -0.337674
0.090248 -0.52398 -0.093924 -0.58147 -0.054707 -0.8117
-0.112273 0.255258 -0.017544 -0.99876 0.037693 -0.007319
0.064256 0.403784 -0.138865 -0.353922 0.04667 -0.932598
0.085472 -0.826879 -0.049251 -0.524998 -0.849082 -0.046222
-0.041286 0.005847 -0.136826 -0.18609 -0.124006 -0.973282
-0.129569 -0.140657 -0.035195 -0.858134 -0.131939 -0.495885
0.068188 0.107639 -0.13907 0.033557 0.460295 -0.886335
0.063858 0.324825 0.113234 0.240408 0.127643 0.961699
-0.118316 0.353102 -0.077414 -0.933606 -0.145886 -0.322949
0.572806 0.135376 0.050786 0.173015 0.576195 0.535325
0.017816 -0.770197 -0.069785 0.987582 -0.000895 -0.153175
0.144376 -0.869427 0.080789 0.170865 -0.978299 0.002252
-0.005724 -0.797396 -0.009104 0.867851 0.011109 0.492957
0.132984 0.199666 0.094802 0.552231 0.057682 0.829939
0.155313 0.0335 -0.116659 0.717426 0.121028 -0.685004
-0.136351 -0.182096 -0.0049 -0.965891 -0.13517 -0.214798
0.041797 0.271035 0.125276 0.14797 0.171675 0.973007
-0.12815 0.504678 -0.097488 -0.383207 0.320884 -0.865329
-0.089488 -0.33406 0.104527 -0.087072 -0.077944 0.99109
-0.135491 -0.017616 0.049456 -0.972403 0.072751 0.211495
-0.034429 -0.093674 0.128021 -0.038004 -0.035188 0.997577
-0.113584 0.021129 0.091883 -0.80325 0.157402 0.573569
0.226013 0.54954 -0.046702 0.443198 0.885426 0.134673
0.097733 -0.098572 -0.125151 -0.127089 -0.371718 -0.918073
-0.122946 -0.380001 0.058501 -0.983651 -0.025738 0.176039
0.194521 -0.561838 0.01471 0.920064 0.019278 0.390677
-0.427094 0.188313 0.021767 -0.048964 0.348303 0.934937
0.154654 -0.816187 -0.106623 0.651931 -0.181164 -0.729185
-0.008262 -0.805517 0.000126 0.929604 0.137887 0.341007
0.201399 -0.571951 -0.037188 0.974641 -0.100356 -0.194925
0.197887 0.05917 -0.038337 0.959562 0.077922 -0.269251
0.019313 -0.363204 0.041505 0.918856 -0.149925 0.362132
0.103099 0.35897 -0.144738 0.154649 -0.05768 -0.98389
-0.131895 -0.237957 -0.003902 -0.936132 -0.037094 -0.349405
0.176244 0.248015 0.040002 0.876762 0.039104 0.477382
0.010624 0.595055 -0.086861 -0.107448 0.624061 -0.772969
0.103181 0.791101 -0.054439 0.947179 0.153802 -0.266405
-0.105127 0.380209 0.062011 -0.731775 -0.206671 0.648235
0.084119 0.637848 -0.016529 0.980827 0.005288 0.170091
-0.30545 0.254434 -0.076072 0.29698 -0.753167 -0.568147
0.145042 0.507987 -0.134079 0.210585 0.368546 -0.903083
0.193176 0.503454 0.020908 0.308993 0.269616 0.910999
0.196754 -0.397623 0.029687 0.942555 -0.036666 0.331636
-0.066654 -0.861407 -0.046922 0.013565 -0.999776 0.007666
-0.043669 0.307083 -0.127085 -0.312825 0.014954 -0.945659
0.076102 0.211598 -0.127393 -0.083155 -0.369389 -0.924706
-0.291288 0.37024 -0.069066 -0.854723 0.41723 -0.293211
-0.069542 0.471722 0.075323 -0.232766 0.351023 0.906369
-0.089374 -0.8264 0.077377 -0.444074 0.871225 0.161708
0.444269 0.261653 -0.110816 0.663388 -0.001858 -0.740353
-0.018918 0.234655 -0.12831 -0.081768 -0.108866 -0.990263
0.503122 0.194458 -0.057605 0.188698 -0.409666 -0.89129
0.538321 0.129973 0.009362 -0.762595 -0.645686 0.02984
-0.046895 -0.748809 0.014746 0.558155 -0.472446 0.658607
0.081922 0.847345 0.000367 0.871389 0.484734 0.068199
-0.159763 0.383051 -0.058266 0.709609 -0.655371 -0.257743
-0.09431 0.326105 -0.097304 -0.652571 -0.118734 -0.748266
0.198082 -0.189007 0.050494 0.958644 -0.044499 0.279599
0.175234 -0.377251 0.069691 0.442097 -0.044337 0.887667
0.07227 -0.205465 -0.088313 -0.515367 -0.220848 -0.825616
-0.119144 0.084664 -0.05228 -0.863816 0.171114 -0.465667
0.40422 0.316937 -0.062646 0.526624 0.675289 0.51607
0.08784 0.361211 0.1006 0.370824 0.165707 0.906339
-0.082795 0.417122 -0.120221 -0.274166 -0.160787 -0.94813
-0.031902 -0.496289 0.057012 0.316484 -0.270203 0.9089
0.135824 0.365306 0.082365 0.574376 0.029168 0.816216
-0.382353 0.277326 -0.003118 -0.515067 0.566616 0.635121
0.115885 0.100298 -0.128924 0.508951 0.286701 -0.811001
-0.070304 0.025609 0.118341 -0.384783 0.36477 0.845615
-0.12833 0.560553 -0.013451 -0.409483 0.889226 0.112015
0.012744 -0.293434 -0.045213 0.79688 -0.092364 -0.595729
0.228205 0.422645 -0.004269 -0.029003 -0.753504 0.639671
0.056609 -0.390481 -0.059883 -0.769527 -0.014754 -0.638361
-0.090033 -0.004503 -0.113904 -0.704322 -0.041922 -0.707835
0.169689 -0.533953 -0.089747 0.672269 -0.03788 -0.739226
-0.055569 -0.386363 0.09084 0.173949 -0.184501 0.966853
-0.09261 -0.798356 -0.116547 -0.798257 -0.040411 -0.599159
-0.053801 0.430268 0.091059 -0.187075 0.228252 0.955035
-0.011385 -0.831892 -0.054696 0.179404 -0.971893 0.004878
0.050146 -0.34678 -0.053563 -0.837127 -0.070481 -0.541866
-0.402958 0.190527 -0.053063 0.250679 -0.726141 -0.629777
-0.122451 0.002355 0.083806 -0.799879 -0.144246 0.558149
-0.071078 -0.604295 0.046776 0.481544 -0.240266 0.842681
0.019147 0.554485 0.028471 -0.019572 0.414662 0.908279
0.171979 -0.043825 0.091949 0.690366 0.017241 0.723249
0.395778 0.256785 -0.036724 -0.361249 -0.129599 0.912399
0.132689 -0.198901 -0.102471 0.274611 -0.1365 -0.951026
-0.122668 -0.761625 -0.034591 -0.951295 -0.281799 0.097284
-0.015644 -0.809007 0.029019 0.871188 0.348319 0.345685
-0.303788 0.285792 0.005582 0.206191 -0.072718 0.971346
0.158102 0.106843 0.079251 0.39833 0.169502 0.898221
-0.451996 0.186888 0.019161 -0.169094 0.600699 0.7806
0.029287 0.426954 0.095735 0.133385 0.186081 0.973053
-0.042753 -0.86046 0.127657 0.344658 -0.91115 0.214509
0.154555 0.024046 -0.118597 0.746545 0.063484 -0.646662
0.175412 0.415372 0.048933 0.593998 0.00252 0.803283
0.045463 -0.280779 -0.048928 -0.834477 0.008468 -0.550543
0.01145 -0.546216 0.012695 0.68227 -0.137426 0.717306
0.319249 0.41302 -0.13552 0.330826 0.513845 -0.789519
0.134979 0.300193 0.085746 0.734479 0.047427 0.676959
0.031085 0.569692 0.026484 0.052027 -0.014504 0.997964
0.016083 -0.319394 -0.037992 0.886819 -0.021999 -0.457958
0.501266 0.189576 0.005867 -0.319394 0.609549 0.698658
-0.104261 -0.82418 -0.053921 -0.962905 -0.190687 -0.017053
0.185908 -0.534409 -0.073636 0.750518 -0.030293 -0.659917
-0.558471 0.066782 0.064469 -0.905694 0.400898 0.107587
-0.025301 -0.596315 -0.090967 0.55302 -0.025357 -0.830253
0.198473 -0.059498 -0.049262 0.933454 -0.014264 -0.355054
-0.048938 -0.239185 0.112445 0.093976 -0.161743 0.982013
0.329036 0.437902 -0.081517 0.794773 0.590356 0.110691
0.328243 0.40742 -0.044954 0.635995 0.4422 0.631217
0.295543 0.459976 -0.034557 0.740453 0.328911 0.582393
0.02154 0.604619 -0.080499 -0.08821 0.617679 -0.781203
-0.01181 0.354151 0.110022 -0.374593 0.168602 0.905184
-0.063324 0.490485 0.06789 -0.142448 0.44015 0.885352
-0.072624 0.0781 -0.113853 -0.573609 0.269501 -0.77256
0.105095 -0.866438 0.138872 -0.135549 -0.968328 0.187098
0.086241 -0.845931 0.048113 -0.980224 0.173219 -0.053259
0.437698 0.201197 -0.089517 -0.449096 -0.880301 -0.015118
0.260025 0.453928 -0.132053 0.164669 0.492114 -0.85372
0.000567 -0.13285 -0.073211 0.793951 -0.172734 -0.582893
-0.272346 0.33467 -0.096384 0.059222 -0.070227 -0.992724
0.365264 0.302771 -0.041747 -0.028361 0.095207 0.969908
0.157551 -0.864544 0.096394 0.285235 -0.955725 0.011864
0.417858 0.216627 -0.058025 -0.546444 -0.800906 0.230881
-0.032451 -0.136191 0.124367 -0.004558 -0.06992 0.997327
0.129748 -0.857667 0.183372 -0.012526 -0.445647 0.835843
0.209305 0.521171 -0.114832 0.245391 0.64384 -0.723602
-0.049178 -0.863475 0.019704 0.046989 -0.998038 -0.037137
-0.042027 -0.222986 -0.091688 0.126328 0.008242 -0.991018
-0.045315 -0.862361 0.004747 0.136035 -0.986971 -0.068217
0.191778 -0.228692 -0.05793 0.698756 -0.088018 -0.709433
0.144179 -0.227596 -0.091353 0.505335 -0.147473 -0.850185
0.108146 -0.142349 0.108037 -0.521463 -0.145734 0.839894
0.011065 -0.328863 0.067675 0.753291 -0.218505 0.619837
-0.007148 -0.632244 0.023018 0.149437 0.150328 0.975111
0.157319 -0.835309 0.121019 0.638617 0.75421 0.131952
-0.12743 -0.052425 0.074679 -0.818847 0.029794 0.570909
-0.095088 0.214985 -0.063825 -0.784618 -0.185255 -0.581735
0.247973 0.392491 -0.02435 -0.275865 -0.605557 0.74413
0.020425 -0.030537 0.128633 0.094951 -0.17431 0.956621
-0.126144 -0.324246 0.039144 -0.992542 -0.031696 0.116957
0.083765 0.028673 -0.159729 0.165039 0.008027 -0.98093
0.170991 0.256611 0.047411 0.744779 0.079365 0.662169
0.088821 0.76026 0.050095 0.849158 0.065438 0.510681
0.161661 0.283654 -0.076917 0.868282 -0.162366 -0.467412
-0.004846 0.741597 -0.101968 -0.524842 -0.415056 -0.74239
-0.089815 -0.831552 -0.109961 -0.893952 -0.066121 -0.441834
-0.060448 -0.528821 0.059064 0.368828 -0.196976 0.907967
-0.043083 -0.860496 -0.013146 0.281458 -0.949352 -0.114401
-0.238561 0.391412 0.023096 -0.330543 -0.163054 0.927201
0.194147 -0.36822 0.040715 0.932171 -0.062014 0.356499
-0.103632 -0.366231 0.096598 -0.540005 -0.125532 0.81573
-0.084637 0.283191 -0.101714 -0.669065 -0.05936 -0.740822
-0.093454 0.225968 0.073341 -0.608672 0.128748 0.782802
-0.018896 -0.781739 -0.135448 0.512889 0.453198 -0.721597
0.187273 -0.589646 0.021691 0.628398 -0.181353 0.752886
0.006948 -0.803589 -0.040907 0.879056 -0.326971 0.345008
0.044296 0.863111 0.029944 0.098912 0.963057 0.239833
0.049612 0.401984 -0.134401 -0.358241 0.032585 -0.931293
-0.062003 -0.86277 0.134395 0.039031 -0.990549 0.116539
0.051386 0.835634 0.05877 0.420331 0.524441 0.73633
0.396646 0.237654 -0.049082 -0.521057 -0.732198 0.428949
-0.090627 -0.858225 -0.033471 -0.596337 -0.794897 -0.064427
0.012668 0.30849 0.120262 -0.153877 0.127571 0.979251
0.07217 -0.796836 0.017273 -0.868396 -0.248586 0.426854
-0.071037 -0.003565 0.12836 -0.412661 0.061941 0.871799
0.087688 0.200908 0.117939 0.443115 0.058446 0.893207
0.09634 0.142778 0.117075 0.480779 0.080241 0.873019
-0.058586 0.540566 -0.106002 -0.271178 0.435736 -0.858197
0.172016 0.011734 -0.097591 0.810498 0.037355 -0.583785
0.041712 -0.136915 0.058042 -0.088778 -0.531095 0.806929
0.483978 0.179624 0.005501 -0.689339 -0.666678 0.260032
0.069122 0.154619 -0.121558 -0.007761 0.168618 -0.983206
-0.105921 -0.280863 0.102427 -0.621137 -0.036397 0.774445
0.205664 -0.203612 -0.035328 0.98364 -0.020323 -0.167376
0.192945 0.348961 -0.00962 0.984332 -0.084698 0.152142
0.109259 0.270395 -0.136053 0.352108 -0.057287 -0.933784
0.162291 0.465089 -0.140054 0.232594 0.089494 -0.967512
0.080637 -0.577317 0.021316 -0.684338 -0.05154 0.727253
-0.083797 0.481856 0.066291 -0.294905 0.309651 0.902557
-0.040042 -0.273102 -0.092588 0.176028 -0.051986 -0.981746
-0.081969 -0.103904 0.116284 -0.426134 0.009471 0.902782
-0.199541 0.381461 -0.094476 0.163752 -0.334376 -0.919283
0.111405 -0.86433 0.153754 -0.084489 -0.9844 0.152992
0.199194 0.389878 -0.052353 0.993627 -0.109211 0.01721
0.193127 -0.378784 -0.049822 0.738538 0.093102 -0.660878
0.172245 -0.809819 -0.01124 0.937239 -0.263228 0.176056
0.125062 -0.327723 -0.095259 0.419557 0.032131 -0.907159
0.137623 -0.826568 0.118059 0.271141 0.95804 0.063528
-0.001546 -0.740589 -0.096369 0.725288 0.160144 -0.668704
-0.120457 -0.664295 -0.007087 -0.977033 -0.156245 0.144268
-0.069486 -0.203186 0.116392 -0.305921 -0.087896 0.947883
-0.012072 0.665444 -0.007248 -0.985952 -0.107132 0.003977
0.000434 0.813474 0.061301 -0.578261 0.45912 0.674316
0.179381 -0.007429 -0.088848 0.820829 0.073279 -0.566262
0.182566 0.494789 -0.132125 0.077023 0.31352 -0.945708
0.152217 -0.332295 0.077894 0.240139 -0.052761 0.969287
0.196601 0.405521 0.006971 0.932315 -0.196553 0.301707
0.093927 -0.865091 0.127366 -0.4889 -0.860885 0.136957
0.10549 -0.821491 0.085605 -0.360939 0.868184 0.325777
-0.134289 -0.250129 0.048953 -0.983992 -0.084308 0.147075
0.142185 0.431641 -0.142583 0.253718 -0.166488 -0.952602
0.460534 0.196712 -0.005707 -0.724683 -0.328387 0.538554
-0.20051 0.353429 -0.072894 0.528534 -0.690635 -0.490498
0.050884 -0.637527 -0.033113 -0.953587 -0.139419 -0.255911
-0.045329 -0.19893 0.119987 0.076226 -0.141523 0.986816
0.141395 -0.274048 0.082918 0.057953 -0.058227 0.996462
-0.238325 0.345464 -0.090199 0.323208 -0.472939 -0.817367
-0.112105 -0.553692 0.031006 -0.882434 -0.105679 0.458206
-0.091253 -0.776849 -0.114362 -0.757211 0.163633 -0.632017
0.501108 0.164726 -0.025417 -0.592547 -0.803578 -0.051217
-0.003618 0.649213 0.012431 -0.837001 -0.220926 0.496581
0.001188 -0.694117 -0.080791 0.492092 0.241801 -0.836211
0.205478 -0.227499 0.01788 0.995705 -0.044748 0.074839
-0.092192 -0.177021 -0.076408 -0.693359 -0.078524 -0.716159
-0.121694 -0.456745 -0.054841 -0.771402 0.13561 -0.621447
-0.032803 0.214395 -0.121246 -0.3261 -0.300028 -0.893583
0.149313 -0.866783 -0.044287 0.46763 -0.875647 0.087363
0.190426 0.358042 0.006216 0.95791 -0.107315 0.263193
0.207872 -0.136789 0.037866 0.964572 -0.125119 0.231007
0.102448 -0.294788 0.081136 -0.185288 -0.122517 0.97367
-0.15526 0.409562 -0.087637 0.471312 -0.480002 -0.728078
-0.122164 -0.150957 -0.044048 -0.80497 -0.159355 -0.570734
0.065226 0.174532 -0.119202 -0.024573 0.110309 -0.991475
-0.236596 0.444049 0.005019 -0.791561 0.438439 0.423404
0.122127 0.493833 0.056238 0.23275 0.533419 0.812644
0.075399 -0.205489 0.084698 -0.530383 -0.116918 0.838414
0.006462 -0.181987 0.100559 0.681643 -0.084089 0.722224
0.120367 0.517686 0.041551 0.264979 0.621621 0.735418
0.037485 -0.244783 -0.035059 -0.731007 -0.077284 -0.673332
-0.103217 0.112312 -0.072141 -0.808597 0.123659 -0.572392
0.205736 -0.220999 -0.030443 0.994222 -0.048771 -0.092538
0.027347 -0.309864 0.034036 0.991784 -0.029897 0.121055
0.16849 -0.858195 0.026333 0.809825 -0.491255 -0.218998
0.073822 0.784539 0.070749 0.759123 0.074296 0.632908
-0.133086 -0.499557 0.005936 -0.883229 -0.178883 0.429662
-0.122412 -0.613405 0.005634 -0.915495 0.052415 0.396466
0.085313 0.245543 -0.137025 -0.037416 -0.128106 -0.990717
-0.033168 0.746446 -0.054088 -0.8169 -0.374858 -0.364361
0.080764 0.793115 0.057615 0.802805 0.27015 0.52576
-0.014802 0.699553 0.055224 -0.746382 -0.334232 0.572975
0.110957 -0.526511 0.039582 -0.520071 -0.017752 0.852238
-0.020015 0.271466 -0.130919 -0.054523 -0.050983 -0.996473
-0.082949 -0.825312 0.085001 -0.239557 0.954312 0.148841
-0.132519 -0.117788 -0.035245 -0.851157 -0.100422 -0.51517
0.280959 0.372771 -0.137881 -0.215509 -0.508817 -0.828454
0.155369 -0.740612 0.012591 0.283751 0.774132 0.565306
-0.110081 0.314613 0.023801 -0.942233 -0.023272 0.333101
-0.0555 -0.714442 -0.120821 0.126053 0.261432 -0.954285
-0.059054 -0.198172 -0.093065 -0.287274 -0.107509 -0.951679
0.354779 0.330562 -0.045768 0.31529 0.250222 0.913548
0.612721 0.091072 0.074706 0.734993 0.672519 0.079104
0.045965 -0.162484 -0.073254 -0.825626 -0.196376 -0.527618
-0.381731 0.279198 -0.078201 -0.47518 0.466106 -0.744708
0.017809 -0.527841 0.009113 0.865203 -0.106533 0.480621
0.097073 0.71434 0.016317 0.840971 -0.369334 0.220763
0.596407 0.116295 0.027287 0.7637 0.64364 -0.039619
-0.115492 -0.172943 -0.048529 -0.814564 -0.137916 -0.563025
-0.039324 -0.195968 -0.09306 0.242662 -0.081416 -0.966344
0.175726 0.019309 -0.091999 0.828477 0.00876 -0.558942
0.293895 0.480394 -0.076648 0.69479 0.672288 -0.245474
0.325411 0.438176 -0.102214 0.614285 0.699179 -0.363673
0.055382 0.827564 0.063273 0.392713 0.540802 0.741916
-0.080595 0.369703 0.082925 -0.720695 -0.048105 0.688987
0.138838 0.409774 0.078169 0.533544 0.080017 0.841597
-0.026435 0.110822 -0.125403 -0.243661 0.350909 -0.903502
0.089881 -0.000428 0.134894 0.274377 -0.153306 0.946469
-0.056721 -0.459949 -0.094738 0.025057 0.118729 -0.991924
0.580273 0.132576 0.009119 0.778341 0.612145 -0.136843
0.063838 0.204543 0.12685 0.22507 0.037344 0.973232
0.454425 0.239659 -0.019743 -0.121768 0.46022 0.876034
0.482521 0.246936 -0.058708 0.75577 0.652068 -0.039558
-0.057137 -0.589343 0.043853 0.409402 -0.276292 0.869264
-0.104559 0.033384 0.098254 -0.497529 0.139955 0.845351
0.195433 -0.431277 0.027267 0.957156 -0.080905 0.277112
0.142891 0.330071 -0.116778 0.694551 -0.174295 -0.697879
0.167507 -0.820752 -0.02035 0.810535 -0.583139 0.048311
-0.051592 -0.189437 0.121652 -0.016154 -0.110909 0.991624
0.277606 0.499221 -0.068702 0.713788 0.695291 -0.076677
0.023494 -0.724898 -0.045397 0.985316 -0.061947 0.145931
0.019949 0.280649 -0.127573 0.082425 -0.019892 -0.995375
-0.056929 -0.838292 0.151701 0.559575 0.532347 0.610622
0.102643 0.527304 -0.129772 0.007374 0.302641 -0.950747
0.197004 -0.554975 0.006941 0.945233 0.011221 0.326023
0.174448 -0.4463 -0.079497 0.651158 0.181981 -0.736791
0.026108 -0.115778 -0.065983 -0.899462 -0.302708 -0.311797
-0.329508 0.260762 -0.084117 0.0154 -0.478144 -0.877618
-0.095108 -0.784924 0.010732 -0.739467 0.21365 0.573045
-0.242579 0.446877 -0.013206 -0.759961 0.618385 0.189191
0.154074 -0.092006 0.106685 0.485229 0.002862 0.873919
0.089509 -0.171894 0.094166 -0.43579 -0.131794 0.889871
0.032169 0.269023 0.126256 0.040285 0.127302 0.990021
0.342963 0.41767 -0.108835 0.69046 0.701319 -0.172548
-0.127789 0.382931 -0.012504 -0.99265 -0.114323 0.034823
0.031562 -0.089787 0.107612 0.25131 -0.411289 0.8733
0.205717 -0.316069 0.011375 0.996141 -0.004046 0.070134
-0.02424 -0.848125 0.073444 0.981106 0.016773 0.148499
-0.286919 0.257634 -0.034585 0.695621 -0.703835 0.133914
-0.0786 -0.861797 -0.028556 -0.065825 -0.995656 -0.045674
0.142022 0.20518 0.085809 0.717351 0.05985 0.694052
-0.163924 0.446425 -0.093492 -0.231142 0.137379 -0.962944
0.387123 0.336719 -0.071889 0.577487 0.697333 0.415215
0.016409 -0.33028 0.059817 0.843468 -0.200523 0.494524
0.163868 0.134768 0.068788 0.676485 0.15948 0.718273
0.051212 -0.281787 -0.057191 -0.820188 0.014517 -0.571792
0.151799 0.075897 -0.107247 0.678567 0.240406 -0.69199
0.138259 0.026056 0.113792 0.396146 0.14871 0.904797
-0.141404 -0.041333 0.030461 -0.964702 0.144036 0.212941
0.006105 0.528141 0.055826 0.097724 0.572599 0.812135
-0.105616 -0.818875 -0.063095 -0.874819 -0.459186 -0.030788
0.37042 0.320591 -0.047455 0.296251 0.403919 0.865382
-0.12558 -0.253605 0.076884 -0.900536 -0.08541 0.421961
0.05211 0.250443 -0.129476 -0.289056 -0.070131 -0.954136
-0.038056 0.779065 -0.016307 -0.983631 0.123311 0.127787
0.008652 -0.762311 -0.02447 0.696228 -0.248533 0.668393
0.147805 -0.559629 -0.102919 0.407809 -0.070126 -0.90944
-0.113396 -0.279832 0.095218 -0.726831 -0.051373 0.6845
0.097338 -0.816077 -0.107921 -0.732015 0.002199 -0.676251
-0.130173 -0.229728 -0.008821 -0.92821 -0.048139 -0.368594
0.310405 0.439086 -0.118373 0.491035 0.639553 -0.591214
-0.119352 0.228106 -0.002937 -0.971816 0.21761 0.015534
0.148699 -0.865613 0.021838 0.280551 -0.953345 -0.10976
-0.024761 -0.849182 -0.007991 0.749797 -0.641799 -0.127324
0.150022 0.342976 0.067558 0.727101 -0.089682 0.680541
0.153767 -0.60025 0.037322 0.244955 -0.362444 0.885363
-0.293986 0.37088 -0.024631 -0.827858 0.518448 0.193998
0.138319 -0.215962 -0.096408 0.416742 -0.144921 -0.894466
-0.108954 -0.63554 0.033472 -0.837982 -0.056941 0.542433
0.188313 -0.407545 -0.057685 0.79091 0.023299 -0.610953
-0.026722 0.779417 0.032132 -0.895553 0.100097 0.428395
-0.124198 0.390655 -0.084283 -0.86646 -0.245659 -0.428994
0.095706 -0.75897 0.016192 -0.371579 -0.211318 0.856215
-0.120288 0.344382 -0.062965 -0.994024 -0.059925 -0.087826
-0.128234 0.098237 -0.016209 -0.992031 0.005991 -0.118154
-0.057104 -0.252028 -0.092953 -0.154101 0.020314 -0.98491
-0.134873 -0.209066 0.000512 -0.976014 -0.084272 -0.199691
0.431262 0.211892 -0.04918 -0.534363 -0.741962 0.39389
-0.011715 -0.601574 0.024452 0.280521 -0.128029 0.949929
-0.006676 -0.035484 -0.133849 -0.026209 -0.330292 -0.943115
-0.011237 0.710847 0.062743 -0.704291 -0.109623 0.701168
0.151194 -0.693697 -0.083929 0.640532 -0.018544 -0.767345
0.032493 -0.140125 0.069304 0.810922 -0.390334 0.434915
0.072796 -0.464559 0.010321 -0.584973 0.03936 0.806624
0.142661 0.131745 -0.097963 0.705421 0.198913 -0.679906
0.625344 0.064172 0.095202 0.698331 0.621021 0.318905
0.095445 -0.129874 0.100237 -0.558427 -0.036708 0.828712
-0.299392 0.339612 -0.088807 -0.408066 0.438908 -0.798074
-0.029619 -0.339758 0.092603 0.297203 -0.09662 0.946517
0.19889 0.008691 -0.041823 0.955152 0.029937 -0.292598
-0.115158 -0.132224 -0.059184 -0.76922 -0.101614 -0.630795
0.019806 -0.537088 -0.033258 0.956195 0.025325 -0.286293
0.122047 -0.701939 -0.095283 0.016633 0.070023 -0.992293
0.042331 0.610066 -0.078175 0.045651 0.709194 -0.668976
0.109702 -0.414554 0.058748 -0.458053 -0.233012 0.857773
-0.152536 0.526079 -0.070487 -0.456163 0.621128 -0.63708
0.165704 -0.56502 -0.091596 0.617497 -0.054409 -0.783639
0.114753 0.566581 -0.106493 0.250777 0.642079 -0.723024
-0.039662 -0.14542 0.123517 -0.057336 -0.060461 0.996374
0.194754 -0.159831 0.065473 0.908295 -0.036372 0.413268
0.074294 0.665206 0.026948 0.830033 -0.411285 0.366096
0.061428 -0.67387 0.018688 -0.532413 0.310157 0.780062
-0.121533 -0.314523 -0.032044 -0.841312 0.068052 -0.535752
-0.535266 0.102251 0.070283 -0.736792 0.66833 0.096375
-0.013286 0.673884 0.018072 -0.803295 -0.584089 0.059738
-0.049871 -0.495831 -0.098229 0.111006 0.097827 -0.987269
0.124804 -0.753174 -0.100488 -0.181264 0.087684 -0.977673
0.360663 0.327547 -0.133785 0.169599 0.011015 -0.98506
-0.094804 0.398587 0.07324 -0.613785 -0.025522 0.788967
0.181691 -0.270202 -0.058344 0.680237 -0.231071 -0.693947
-0.08781 -0.727127 -0.113297 -0.620512 0.134077 -0.770171
-0.082777 -0.792161 -0.12859 -0.7005 0.10736 -0.698866
0.151197 -0.13996 0.105322 0.312475 -0.152008 0.934734
0.048532 0.042703 0.134643 0.091223 0.136366 0.985732
0.013064 -0.153321 -0.051697 0.834556 -0.051419 -0.547598
0.120192 -0.870272 -0.081921 0.025632 -0.999629 0.006577
-0.14269 -0.135007 0.036825 -0.977529 -0.015917 0.202473
-0.129639 0.517299 0.04957 -0.099497 0.474258 0.872944
-0.132319 -0.255788 0.001567 -0.966219 -0.112581 -0.230884
0.049172 -0.272716 0.047008 -0.85201 -0.088551 0.515617
0.162257 -0.846657 -0.065666 0.992102 -0.015985 -0.114958
-0.017239 0.81728 0.034806 -0.826053 0.362399 0.427926
0.193558 0.090057 0.018576 0.949535 0.239836 0.165017
0.185488 0.425175 -0.130421 0.199327 -0.346849 -0.916381
-0.049792 0.032334 -0.1393 -0.313315 0.170733 -0.933913
-0.016474 0.108792 -0.128126 -0.174814 0.299769 -0.937728
0.292131 0.48399 -0.06013 0.772224 0.621296 0.111053
0.024884 -0.369171 0.022282 0.963544 -0.112017 0.233979
0.008732 -0.644024 0.014644 0.688278 -0.126726 0.712289
-0.044362 -0.019528 0.130393 -0.21152 -0.27217 0.91385
-0.054108 0.558773 0.018675 -0.190923 0.778828 0.597332
0.157357 -0.640173 -0.085492 0.517392 -0.180604 -0.8364
0.123682 -0.866498 -3e-05 -0.020606 -0.997735 -0.05316
0.008974 -0.277406 -0.05265 0.756636 -0.122566 -0.641392
0.106925 0.119448 0.112637 0.510598 0.032485 0.858356
0.19046 -0.445208 0.039911 0.955277 -0.090511 0.279172
0.152171 -0.835552 0.14074 0.602884 0.78482 0.1351
0.033678 0.837399 0.063049 0.004494 0.574443 0.809261
0.201028 -0.515419 -0.001203 0.935295 -0.007491 0.352952
0.129614 -0.869274 0.119407 -0.005729 -0.999405 0.032541
0.075329 -0.717317 -0.050663 -0.889171 -0.173864 -0.423079
-0.136635 0.437813 -0.101199 -0.4833 -0.240894 -0.840914
-0.083001 -0.820608 0.067298 -0.381827 0.867806 0.29706
0.203431 -0.409439 0.004035 0.939869 -0.213972 0.250896
0.022934 -0.568144 -0.031972 0.873031 0.155744 -0.459091
0.211535 0.412928 -0.051608 -0.458375 -0.797533 0.107016
-0.052204 -0.26785 0.108375 0.176266 -0.212305 0.960761
-0.009567 -0.599913 -0.07684 0.683205 -0.008619 -0.729995
-0.289702 0.282694 -0.087261 0.372552 -0.459181 -0.802942
0.2117 -0.128828 0.025902 0.965191 -0.155903 0.202832
-0.052489 -0.797664 0.05347 -0.235307 0.739337 0.621642
0.18732 -0.757359 -0.032292 0.843739 -0.067709 -0.529343
0.205794 -0.355094 -0.005415 0.998652 -0.006752 -0.003499
0.181628 0.295685 -0.036633 0.936546 -0.21894 -0.270213
0.01294 -0.691547 -0.071614 0.626792 0.157739 -0.761955
0.54543 0.180058 0.001937 0.832126 0.533495 0.119673
-0.002644 0.008992 0.141674 -0.157718 0.201752 0.965366
0.027295 -0.604301 -0.015392 0.992691 0.008128 0.116553
0.058385 0.237824 -0.130216 -0.269598 -0.128345 -0.951754
0.019878 -0.158451 -0.037569 0.943469 -0.016059 -0.32968
0.014224 0.186839 0.130099 -0.02908 0.028925 0.998986
0.041165 -0.337496 -0.039355 -0.875981 -0.063964 -0.477742
0.012295 -0.124961 0.105663 0.677368 -0.216394 0.702827
0.158543 -0.560191 -0.09651 0.536 -0.048146 -0.841261
0.158859 0.294423 -0.086304 0.841643 -0.178135 -0.509201
-0.082654 0.035521 -0.118181 -0.67276 0.254038 -0.694727
-0.191871 0.370662 0.010902 0.371081 -0.613663 0.694391
-0.09202 -0.844194 -0.102512 -0.946985 -0.034396 -0.317514
0.042748 -0.063713 0.120612 0.008848 -0.385539 0.919703
0.009037 -0.670292 0.008147 0.780793 -0.230987 0.578782
-0.079237 0.403476 0.085898 -0.649478 0.01786 0.759542
-0.025435 -0.297149 0.096222 0.304212 -0.138037 0.942289
0.062311 0.474689 0.078844 0.099932 0.392213 0.913088
-0.035972 0.751736 0.001123 -0.965178 -0.106512 0.232266
0.521165 0.148922 -0.022663 -0.709848 -0.699269 -0.076934
-0.126429 -0.344504 0.035812 -0.993995 0.033366 0.103105
0.078523 0.08238 0.127105 0.471138 0.02626 0.880806
-0.050529 -0.861955 -0.068597 0.073227 -0.993525 0.074199
-0.098841 0.009111 -0.10486 -0.85095 0.00017 -0.492384
-0.03652 0.520976 0.057421 -0.169213 0.536322 0.826282
0.100134 -0.081621 0.112131 -0.244794 -0.442764 0.850925
0.610394 0.085226 0.084968 0.00689 0.486454 0.82993
-0.128085 0.38924 -0.004644 -0.993259 -0.098448 0.038343
-0.117251 -0.288398 0.089993 -0.813666 -0.048669 0.578778
0.192419 -0.434915 0.036641 0.957186 -0.08866 0.275226
0.056867 -0.127186 -0.096879 -0.576788 -0.250615 -0.776991
-0.060367 0.563447 0.010878 -0.120429 0.791229 0.59843
0.063853 -0.175059 -0.090123 -0.655962 -0.158064 -0.737538
0.038647 -0.28886 -0.037225 -0.91426 -0.014755 -0.403374
0.070557 -0.24392 0.07671 -0.588166 -0.118528 0.798688
0.200845 -0.152531 0.051858 0.928237 -0.145111 0.340308
0.17769 -0.102931 -0.0825 0.787673 -0.088546 -0.609626
0.097784 -0.566445 0.0322 -0.411119 -0.090295 0.906272
0.095324 -0.684794 -0.083257 -0.644279 0.027692 -0.76394
0.096835 -0.265668 0.083652 -0.163918 -0.151085 0.97391
-0.142749 -0.107787 0.036668 -0.977675 0.006021 0.202703
0.052944 0.49756 -0.128455 -0.162534 0.059707 -0.984618
0.211404 0.557402 -0.05475 0.46213 0.879379 -0.055536
0.107567 -0.825932 0.106362 -0.280568 0.946991 0.131807
0.09479 0.74556 0.034235 0.931567 -0.12824 0.331394
-0.036932 -0.661947 -0.099745 0.757951 0.159794 -0.595509
-0.063492 0.537712 0.039454 -0.172156 0.613798 0.769928
-0.089175 0.208194 0.07903 -0.624431 0.074362 0.777323
-0.107128 0.361927 -0.094612 -0.636089 -0.210969 -0.740117
0.040217 0.373091 -0.130368 -0.317308 -0.028126 -0.945793
0.053144 -0.549964 -0.005499 -0.814058 -0.002293 0.579869
0.219842 0.394718 -0.088719 -0.73358 -0.676031 -0.056132
0.198333 -0.279375 0.048373 0.919895 -0.064443 0.383851
-0.121364 -0.674952 -0.016791 -0.972431 -0.052925 0.221495
-0.031945 0.261399 -0.129 -0.153333 -0.049461 -0.985589
0.088929 -0.560058 0.028513 -0.542858 -0.021492 0.837759
0.341629 0.282174 -0.079218 -0.621142 -0.757841 0.187339
0.045243 -0.344625 -0.045386 -0.871732 -0.079583 -0.483238
-0.041048 0.46295 0.08442 -0.187845 0.438603 0.869035
0.002811 -0.644728 -0.068503 0.605668 0.112183 -0.787162
0.08553 0.355312 -0.145133 -0.085257 -0.022963 -0.995811
-0.019832 0.341037 0.107817 -0.430694 0.127924 0.888258
-0.079888 0.516952 0.05162 -0.11856 0.504461 0.854461
0.086145 -0.289535 0.076886 -0.390437 -0.215584 0.89491
0.061597 -0.780231 0.025109 -0.781874 -0.136704 0.491585
0.113475 -0.250225 0.087309 0.032993 -0.144372 0.988608
-0.092188 0.236354 0.072342 -0.636982 0.141177 0.757166
-0.030939 0.597243 -0.033896 -0.677807 0.710749 0.168695
-0.011477 0.643059 -0.027852 -0.985059 0.068034 -0.124811
-0.019392 -0.749623 -0.004161 0.300419 -0.520239 0.784038
-0.123962 -0.306196 -0.026945 -0.878655 0.049973 -0.470131
-0.034328 -0.126 0.125234 0.011221 -0.090735 0.995149
-0.067005 0.425378 -0.126354 -0.241739 -0.155933 -0.957033
-0.084813 -0.728067 0.009121 -0.436681 -0.182402 0.846775
0.01355 -0.282726 0.076321 0.804681 -0.090016 0.585938
0.098607 -0.151293 0.100909 -0.53177 -0.080909 0.842009
-0.307699 0.3578 -0.052177 -0.654554 0.728269 -0.187443
-0.0305 0.262065 0.111479 -0.299499 0.022561 0.953599
-0.000927 0.551066 0.031047 0.074277 0.777192 0.62269
-0.131561 -0.004031 -0.045861 -0.935002 0.05729 -0.348609
0.279737 0.461315 -0.119505 0.412902 0.605173 -0.6799
-0.094623 0.44301 -0.121087 -0.266843 -0.109923 -0.956986
0.103074 -0.392606 0.060108 -0.486702 -0.160871 0.858214
0.055264 -0.139816 -0.09159 -0.661817 -0.224713 -0.714723
0.174306 -0.852005 0.066722 0.906061 0.388292 -0.014048
-0.1341 -0.139745 0.065732 -0.90119 0.03083 0.419245
0.181953 -0.516878 -0.078653 0.742753 -0.009102 -0.669075
-0.134581 -0.411583 -0.014745 -0.958384 0.083125 -0.269854
0.553443 0.119536 0.045565 -0.862321 -0.16286 0.456973
0.020991 0.476823 0.082298 0.058218 0.411982 0.909038
0.204091 -0.501744 -0.023103 0.978478 0.178118 -0.0912
0.012325 -0.425698 0.035042 0.851148 -0.147254 0.503483
0.409282 0.298964 -0.049343 0.333641 0.582297 0.736802
0.20542 -0.270083 0.014008 0.999766 0.00225 0.019563
0.205613 -0.212011 0.020864 0.989936 -0.019524 0.133207
0.140059 0.405255 -0.137271 0.380212 -0.180047 -0.907134
0.198726 0.147608 -0.005262 0.947106 0.220946 -0.202242
0.089816 0.49031 0.067424 0.15265 0.465537 0.870695
0.153281 -0.76717 -0.092571 0.671411 0.315575 -0.668123
0.100162 -0.03117 0.127605 0.233872 -0.072807 0.968521
-0.015218 0.602032 -0.071172 -0.399754 0.73981 -0.53818
0.460508 0.275279 -0.073247 0.741908 0.667596 -0.022682
0.017433 -0.719423 -0.071151 0.883645 0.058245 -0.457121
-0.255489 0.414471 0.005812 -0.663762 0.51421 0.542059
0.057278 0.576209 0.020057 0.377563 0.031803 0.923588
0.064566 0.542384 -0.121654 -0.140027 0.31044 -0.939076
0.526437 0.14964 0.022338 -0.722636 -0.316111 0.586618
-0.479237 0.173661 0.016911 -0.598653 0.788664 0.124867
-0.111412 -0.592291 -0.085858 -0.655028 0.025847 -0.75515
0.181656 -0.429586 -0.068262 0.736852 0.154311 -0.657843
0.075886 -0.528399 0.01675 -0.678072 -0.003351 0.734888
0.01011 0.384097 0.106478 0.002775 0.205569 0.978245
-0.091223 0.566961 -0.002604 -0.171433 0.906777 0.377524
-0.185942 0.524208 -0.01855 -0.699812 0.710579 -0.005411
0.178609 -0.386459 0.06744 0.606967 -0.051667 0.790316
-0.102215 0.431791 -0.117331 -0.411932 -0.108531 -0.903768
-0.042959 -0.139951 -0.101013 0.238768 -0.303842 -0.920977
0.089923 0.275805 0.109885 0.394849 0.107925 0.912336
-0.119653 -0.372054 0.076257 -0.938603 -0.01786 0.339778
-0.206312 0.49735 0.006821 -0.756871 0.589691 0.273561
0.151686 0.455142 -0.142868 0.186132 -0.007366 -0.981701
0.14878 -0.229904 0.087679 0.113111 -0.230592 0.966199
-0.039186 0.122556 0.114116 -0.466235 0.025965 0.882916
0.068519 0.216702 0.12432 0.342404 0.09699 0.934502
-0.079832 -0.579242 0.057532 0.369465 -0.188144 0.897564
-0.027471 0.040288 -0.144015 -0.163477 0.183941 -0.968952
0.190717 -0.541569 -0.066829 0.814771 -0.028456 -0.578745
-0.123332 -0.603033 0.001209 -0.921819 0.083871 0.37804
0.215517 0.426637 0.003868 0.289329 -0.852687 0.407562
0.548282 0.112258 0.003972 -0.948945 -0.3143 0.022893
0.049354 0.732617 0.091158 0.855596 0.144142 0.492137
0.178862 0.547258 -0.098995 0.289444 0.731733 -0.616945
-0.028392 -0.097766 -0.106945 0.238599 -0.290223 -0.92577
0.165498 -0.637169 -0.081223 0.545087 -0.16913 -0.820597
-0.506251 0.143109 0.037551 -0.783188 0.621724 0.00578
0.170282 -0.645576 -0.07578 0.574215 -0.19217 -0.795716
0.089215 0.098515 -0.140618 0.253526 0.396948 -0.879847
-0.108794 -0.736873 -0.087077 -0.842953 0.128346 -0.522022
0.005758 0.858459 -0.049242 -0.410585 0.824788 -0.385714
0.103756 0.141122 -0.119029 0.345397 0.275201 -0.894871
0.01425 -0.599657 0.007141 0.606934 0.087965 0.789279
-0.130207 -0.036734 -0.05019 -0.922869 -0.030928 -0.383795
0.171983 -0.674413 -0.066377 0.683244 -0.20884 -0.699012
0.032028 0.869659 -0.006054 -0.203162 0.97365 0.068582
-0.05493 0.193974 -0.10024 -0.526635 -0.234407 -0.816872
0.186719 0.557976 -0.079266 0.286772 0.860894 -0.41574
0.091144 0.506631 -0.1359 -0.101233 0.164799 -0.980363
-0.118107 -0.758037 -0.007154 -0.826818 -0.319592 0.435915
-0.112154 0.259897 0.001465 -0.999457 0.027922 0.0136
0.096369 0.728224 0.019338 0.970929 -0.018839 0.228839
0.352154 0.297704 -0.045344 -0.4228 -0.375698 0.809602
0.087098 0.815191 0.030914 0.812999 0.330088 0.478933
-0.033283 -0.08155 0.128415 -0.034896 -0.055022 0.997453
0.107665 -0.242071 0.088472 -0.029051 -0.130905 0.989946
-0.021708 0.563907 0.017742 -0.058363 0.74928 0.65071
0.183549 -0.248255 0.071665 0.612045 -0.060726 0.785313
-0.012411 0.688922 0.05272 -0.801479 -0.302884 0.510329
-0.119976 -0.67686 -0.082125 -0.796782 -0.062659 -0.598075
0.427318 0.226277 -0.038263 -0.290817 -0.397246 0.857801
-0.118232 0.302349 -0.031529 -0.965139 -0.250521 0.011001
0.162299 -0.515933 -0.09634 0.541795 -0.033428 -0.839013
0.03187 -0.1155 -0.078763 -0.789577 -0.34486 -0.506137
-0.128848 0.558482 -0.000976 -0.220122 0.953867 0.196498
0.006024 -0.790842 -0.029044 0.829451 -0.292469 0.47098
-0.104196 0.560735 -0.060355 -0.462209 0.745553 -0.47933
-0.105306 0.431863 0.064166 -0.300782 0.045944 0.94588
0.114384 0.113027 -0.123725 0.484054 0.379033 -0.78783
-0.066024 -0.663902 0.029472 0.293937 -0.255678 0.920713
-0.381982 0.196433 0.009002 0.581659 -0.538483 0.598017
0.1291 0.040479 -0.137862 0.522144 0.228364 -0.819446
-0.562238 0.037852 0.008006 0.903763 -0.419808 -0.019179
0.392542 0.247544 -0.117321 -0.593317 -0.542525 -0.591146
0.121115 -0.860374 0.178851 -0.098175 -0.94996 0.289352
0.169003 -0.846026 0.051535 0.788524 0.613074 -0.019284
-0.097083 -0.298508 -0.064777 -0.722719 -0.011422 -0.690931
0.365056 0.356187 -0.121305 0.635399 0.516226 -0.564745
-0.018102 0.679539 -0.013322 -0.868651 -0.455097 -0.1667
0.185571 0.302377 0.003123 0.976883 -0.119651 0.173896
-0.061908 0.496739 -0.123961 -0.150991 0.341443 -0.927001
-0.419529 0.200988 -0.056704 -0.31362 -0.065008 -0.944297
-0.034523 -0.288262 0.100573 0.340555 -0.20899 0.915866
0.196189 -0.663346 -0.041865 0.914569 -0.20752 -0.335662
0.120046 -0.795878 -0.117032 -0.08803 0.512664 -0.848568
0.21227 -0.04024 0.024026 0.976519 0.025056 0.211784
0.00028 -0.110973 -0.083139 0.733515 -0.350509 -0.581391
0.12921 0.502598 0.04947 0.256834 0.483213 0.836003
0.148409 0.569935 -0.086321 0.420774 0.689345 -0.588375
-0.11988 -0.78281 -0.05893 -0.992088 -0.04555 -0.104842
-0.040196 0.74585 -0.02975 -0.991682 -0.018482 -0.088411
0.041847 -0.215852 0.030335 -0.986387 -0.069409 0.145777
0.003184 0.237676 0.125318 -0.391454 0.094842 0.911702
0.174721 -0.510555 0.052437 0.621406 -0.202578 0.752766
0.113382 0.377629 -0.143681 0.256314 -0.066588 -0.962615
0.271375 0.389332 -0.020458 -0.199269 -0.404279 0.890243
-0.501365 0.141881 -0.016016 -0.878272 0.097557 -0.40046
-0.127508 0.405642 -0.084742 -0.912896 -0.290865 -0.278724
0.031844 -0.030024 -0.137666 -0.195583 -0.428175 -0.881781
0.070445 0.831494 0.047417 0.636177 0.561846 0.525314
0.222111 0.540199 -0.015744 0.436376 0.739634 0.510344
-0.047557 -0.050483 0.128886 -0.160152 -0.07243 0.984167
0.198654 -0.166559 0.053486 0.959569 -0.086051 0.266567
0.169586 -0.81851 -0.030035 0.785233 -0.617429 0.039205
0.122288 0.588744 -0.072078 0.365516 0.88227 -0.279029
-0.030485 -0.768535 0.01298 0.531211 0.764215 0.358177
0.010125 -0.529017 -0.053239 0.863493 0.05676 -0.501103
0.137005 -0.742641 0.025542 0.247847 0.692716 0.666396
-0.128681 -0.573277 -0.015208 -0.969988 -0.083693 0.227768
0.567178 0.098098 -0.016575 0.526947 0.171618 -0.776965
-0.112836 -0.075611 0.094382 -0.72935 0.034556 0.683128
0.101536 0.021609 0.128401 0.264268 0.260953 0.927509
-0.040284 0.74663 -0.020028 -0.993273 0.02061 0.057494
0.100245 -0.577005 0.032021 -0.387601 -0.151759 0.908678
-0.108923 -0.796514 -0.00464 -0.841009 -0.309597 0.432992
0.045287 0.51178 0.060742 0.064456 0.530964 0.844425
0.075053 0.345046 0.106526 0.270369 0.145752 0.949957
-0.143027 -0.08035 -0.009368 -0.984039 0.00977 -0.16873
0.012784 -0.213051 -0.055931 0.803666 0.008507 -0.594063
0.072847 -0.775766 -0.0534 -0.866028 0.194886 -0.459933
0.014214 -0.339765 0.05959 0.8033 -0.154687 0.573849
0.169167 0.192387 -0.056771 0.879544 0.045099 -0.473221
-0.0456 0.347279 -0.126278 -0.27109 -0.017764 -0.96093
-0.112983 0.193807 -0.037051 -0.893895 0.086814 -0.439583
-0.13861 -0.062006 0.046459 -0.967729 0.042516 0.248163
0.477418 0.252056 -0.070646 0.793424 0.5832 -0.167728
0.037027 0.381271 0.105734 0.0592 0.179113 0.981717
-0.081638 -0.519154 -0.096903 -0.295264 0.090866 -0.948838
0.053475 -0.321184 -0.060205 -0.820548 -0.008254 -0.571408
0.040568 -0.329231 0.007691 -0.939182 -0.087336 0.33056
-0.011515 0.648225 -0.006869 -0.987165 -0.037786 0.130098
-0.126443 0.398045 0.028272 -0.921388 -0.329888 0.194425
0.277528 0.497071 -0.078732 0.688007 0.663955 -0.287139
0.206317 -0.21256 0.010966 0.998044 -0.031481 0.052224
0.110156 0.584357 -0.088814 0.312408 0.743002 -0.585428
0.059291 0.214947 0.127176 0.199807 0.06965 0.974002
-0.120285 -0.662883 -0.08239 -0.81176 -0.007445 -0.582837
0.097722 -0.016882 0.12858 0.206181 -0.029499 0.976473
0.046126 -0.208614 0.055142 -0.872734 -0.083095 0.473836
-0.082586 -0.482056 0.0791 0.137767 -0.118778 0.95815
-0.162829 0.522231 -0.066722 -0.517775 0.594865 -0.614388
-0.109689 0.260099 0.027529 -0.963076 0.113866 0.240739
-0.082745 -0.456112 -0.088698 -0.418597 0.154344 -0.892472
0.115869 -0.156681 -0.110643 0.091602 -0.165284 -0.98112
0.618117 0.08283 0.078726 0.873816 0.469491 0.113525
0.142059 0.428552 0.074211 0.457978 0.12508 0.878795
0.027408 -0.646479 -0.030536 0.999572 -0.013806 -0.007664
0.158546 0.071198 -0.101573 0.704124 0.210834 -0.675997
0.016017 0.165595 -0.117205 -0.093499 0.0173 -0.993902
-0.110886 -0.20631 -0.050211 -0.851204 -0.06299 -0.519983
-0.194825 0.347694 -0.031607 0.593841 -0.803581 0.031954
-0.001733 0.308462 0.116373 -0.307089 0.180621 0.932229
-0.118609 0.224378 0.01674 -0.950911 0.269479 0.147991
0.197718 -0.054907 0.063413 0.867091 0.043743 0.493108
-0.114959 0.150638 -0.042613 -0.883465 0.14446 -0.445152
0.206894 0.007023 -0.004235 0.996531 0.031937 -0.05945
0.026286 -0.221219 -0.03241 0.1454 -0.073256 -0.901562
-0.048951 0.263087 -0.122906 -0.502699 -0.091259 -0.859514
0.254343 0.404787 -0.016336 -0.176697 -0.376693 0.908298
-0.135077 0.422985 -0.093244 -0.386428 -0.603065 -0.676532
0.019732 0.509139 0.065125 0.092515 0.497087 0.861453
0.025819 -0.642585 -0.012278 0.950507 -0.083033 0.280439
-0.103716 0.41019 -0.111722 -0.438929 -0.213688 -0.866658
0.094554 0.481915 0.071119 0.198592 0.475482 0.854662
0.287135 0.482788 -0.085308 0.651248 0.656746 -0.379425
0.095521 -0.652946 -0.083125 -0.599036 -0.060333 -0.798265
-0.109149 0.285562 -0.07221 -0.909563 -0.077943 -0.403539
-0.024979 -0.826006 0.050199 0.920476 -0.194735 0.262127
0.105434 0.094537 0.113603 0.476969 -0.181003 0.85837
0.142184 0.438433 0.072822 0.436839 0.135284 0.888043
0.103337 -0.315817 -0.099883 -0.095239 0.028977 -0.989855
-0.303876 0.249508 -0.067887 0.387064 -0.842036 -0.36816
-0.054336 -0.152413 0.122028 -0.088471 -0.021919 0.994848
0.182585 0.245143 0.015213 0.998002 -0.013531 0.060852
-0.089472 0.209579 -0.069869 -0.783559 -0.067003 -0.615631
0.061344 -0.415197 -0.064545 -0.751078 -0.011051 -0.660114
-0.098171 0.305634 0.055256 -0.871009 0.191555 0.451151
-0.112379 -0.701236 0.00185 -0.849764 -0.391012 0.344305
-0.006452 0.109493 -0.12969 -0.159975 0.344242 -0.925026
0.068133 0.559736 -0.1142 -0.120111 0.510938 -0.849422
-0.007496 0.854205 -0.041737 -0.492041 0.844725 -0.202759
-0.000684 0.686139 -0.059154 -0.6934 -0.426199 -0.579793
0.114513 -0.044841 0.121178 0.282137 -0.100809 0.953536
-0.084441 0.453699 0.074891 -0.52494 0.225961 0.818241
0.21024 -0.127473 -0.026226 0.915483 -0.047572 -0.396372
0.1808 -0.792988 -0.04276 0.923438 -0.36634 0.025516
-0.223497 0.476273 -0.027036 -0.850436 0.518803 -0.060108
-0.511935 0.098095 0.085694 0.827683 -0.040304 0.5523
-0.100083 -0.488332 0.066002 -0.728357 -0.347458 0.587618
-0.144195 -0.138819 0.011632 -0.999158 -0.025296 -0.022284
-0.115899 -0.420439 0.071305 -0.756409 -0.252207 0.602878
0.097859 -0.868539 -0.090598 -0.446356 -0.869598 -0.07294
0.073976 0.625784 -0.057483 0.589237 0.462365 -0.650006
-0.014689 0.677391 0.032428 -0.761641 -0.613174 0.190898
-0.049736 -0.678743 0.020955 0.080472 -0.285075 0.953188
0.101606 0.251446 0.107205 0.368339 0.074168 0.926665
0.083655 0.752468 -0.093137 0.682216 -0.237526 -0.689903
0.019789 -0.599989 -0.044829 0.78811 0.11052 -0.602929
0.089938 -0.849507 0.011542 -0.85161 -0.476672 -0.084855
0.152575 -0.544197 0.050376 0.022534 -0.303006 0.950703
0.08144 0.730642 -0.083862 0.686398 -0.418906 -0.593565
-0.287759 0.361214 -0.083605 -0.645439 0.424343 -0.630854
0.204987 -0.24194 -0.016122 0.997516 -0.046677 -0.052007
0.181249 0.35252 -0.084646 0.77855 -0.425793 -0.457671
0.017081 -0.086316 -0.09049 -0.060257 -0.700715 -0.691666
-0.556381 0.06979 0.012132 -0.901511 0.407346 -0.102231
-0.123255 -0.044647 0.080079 -0.767097 0.06397 0.637988
-0.103184 -0.846617 0.111697 -0.889894 0.320088 0.218201
-0.048708 0.14926 -0.100678 -0.396731 0.517367 -0.721735
-0.073874 0.274919 0.083407 -0.577316 0.040707 0.814535
0.415543 0.220251 -0.110383 -0.046387 -0.593238 -0.777951
0.107667 0.10521 -0.131139 0.437576 0.380285 -0.812313
0.021598 -0.366912 0.032859 0.929982 -0.160029 0.330395
0.072955 0.855932 -0.03671 0.599034 0.776913 -0.188928
0.610405 0.063994 0.084241 -0.772822 -0.545327 0.288422
0.048232 0.747312 0.08593 0.836227 0.222576 0.494675
0.058136 -0.107457 0.076238 -0.013799 -0.566437 0.699581
-0.039085 -0.859459 -0.125159 0.145549 -0.927287 -0.331524
-0.000299 -0.488135 0.038551 0.66647 -0.226691 0.709915
0.019608 -0.168392 0.078905 0.943568 -0.107895 0.308333
0.199212 -0.612267 -0.038231 0.998285 -0.036114 -0.042465
0.421754 0.264216 -0.034228 -0.020985 0.348677 0.93581
0.418967 0.21915 -0.048464 -0.58187 -0.726876 0.363653
-0.11395 0.304034 -0.062287 -0.954707 -0.153053 -0.253848
0.104562 -0.671195 -0.088558 -0.458756 0.038343 -0.885949
-0.036641 0.085117 -0.130291 -0.267148 0.264479 -0.925816
0.019214 0.865098 -0.0252 -0.256421 0.95897 -0.075623
0.525413 0.187143 0.023299 -0.109029 -0.243031 0.923295
0.099384 -0.189954 0.095926 -0.173159 -0.080186 0.981104
0.181486 -0.041686 -0.085607 0.850297 -0.090553 -0.517215
0.287254 0.432173 -0.135926 0.263285 0.366416 -0.889944
0.192655 0.117355 0.031719 0.918676 -0.002435 0.392059
-0.123017 0.406424 0.049664 -0.785416 -0.448779 0.411609
0.19359 -0.131349 0.071687 0.865296 -0.016703 0.499269
-0.0619 -0.644498 0.033102 0.357516 -0.221159 0.907104
-0.071408 0.371023 0.091014 -0.603594 -0.049903 0.794812
0.188268 -0.686702 0.006325 0.64901 -0.258146 0.701449
0.095307 0.406777 0.092088 0.169443 0.210602 0.96227
0.478614 0.21995 -0.073539 0.264479 -0.295877 -0.916122
-0.033965 0.4211 0.098024 -0.144252 0.229991 0.962158
-0.018834 0.698642 0.046035 -0.930833 -0.211103 0.292665
-0.129029 -0.150625 -0.033341 -0.857352 -0.134041 -0.496203
0.15284 -0.451626 0.069274 -0.08698 -0.123105 0.981656
-0.035696 0.741034 -0.04177 -0.893746 -0.261455 -0.362467
-0.12088 -0.42981 -0.046068 -0.752726 0.2807 -0.595301
0.632311 0.024392 0.049055 -0.895663 -0.434347 -0.008128
0.017806 0.724514 0.08884 -0.800357 0.080997 0.58572
0.123054 -0.471185 0.052891 -0.576481 -0.101452 0.810695
0.352573 0.288952 -0.050783 -0.604875 -0.521805 0.600889
0.037203 0.094932 -0.141793 -0.138827 0.213244 -0.96598
0.005568 0.744238 -0.109958 -0.496821 -0.367943 -0.783149
0.280265 0.496602 -0.059338 0.718775 0.694009 0.022466
0.005034 -0.100241 -0.084576 0.68022 -0.42073 -0.590924
0.002498 -0.047365 -0.127323 0.044378 -0.554169 -0.830922
0.187616 0.513155 0.019578 0.259914 0.390908 0.881427
-0.447848 0.216469 -0.027291 -0.742681 0.653167 -0.095283
0.041109 -0.096478 -0.103619 -0.535891 -0.468577 -0.700135
-0.042366 -0.114539 0.126272 -0.092922 -0.090334 0.988998
-0.069644 0.098747 -0.109543 -0.569049 0.299664 -0.764524
0.1414 0.102552 -0.108701 0.672582 0.297916 -0.677125
0.052383 -0.291281 0.048962 -0.768758 -0.090996 0.631531
-0.02516 0.717802 0.039867 -0.942677 -0.16272 0.283651
0.19125 0.036654 -0.062303 0.905534 0.0649 -0.418483
0.136636 -0.869902 0.07494 0.035581 -0.999088 -0.000505
0.464216 0.268645 -0.060894 0.787236 0.607304 0.094527
0.172485 -0.046293 -0.098054 0.800984 -0.126059 -0.584669
-0.216711 0.415805 0.034834 -0.282747 -0.120149 0.945755
0.194263 -0.332002 -0.034419 0.800863 0.085522 -0.590462
-0.056665 -0.093273 -0.109894 -0.229268 -0.195598 -0.95043
-0.035363 -0.458001 0.070597 0.298771 -0.337113 0.892205
0.001064 -0.364671 -0.051576 0.687397 -0.044608 -0.724495
0.136293 -0.568252 0.042991 -0.052339 -0.197313 0.977716
0.178283 0.039953 0.084682 0.729729 0.214509 0.648545
-0.128585 0.394215 -0.025174 -0.958686 -0.217164 0.003491
-0.288931 0.269509 -0.078692 0.517957 -0.525627 -0.674052
0.032997 0.413072 -0.128908 -0.133278 0.031317 -0.988791
