0.182585 0.245143 0.015213 0.998002 -0.013531 0.060852
0.02382 -0.34703 0.037545 0.890521 -0.21137 0.391947
-0.08781 -0.727127 -0.113297 -0.620512 0.134077 -0.770171
-0.003575 0.169608 -0.115158 -0.145353 -0.161434 -0.970678
0.131575 -0.866138 -0.00849 0.065052 -0.996899 -0.022855
-0.095592 -0.622832 -0.099103 -0.464127 0.100198 -0.879558
0.084992 -0.822536 0.032593 -0.756779 -0.598319 0.202382
-0.094702 -0.554563 0.059473 -0.717303 -0.108604 0.680979
-0.111572 0.505695 0.05643 0.022731 0.351223 0.933707
0.192824 0.079013 0.042622 0.908126 0.309146 0.272761
-0.125064 -0.12795 0.081882 -0.827533 0.030109 0.560224
-0.128336 -0.290172 0.04122 -0.995067 -0.089692 0.040481
-0.018631 -0.216125 -0.084108 0.533609 0.013637 -0.845415
-0.222035 0.430814 0.03085 -0.626118 0.185687 0.755211
0.230936 0.485156 0.010844 0.62688 0.042097 0.767839
0.0892 0.688605 0.003715 0.982088 -0.16859 0.066516
0.239826 0.519328 -0.009713 0.658672 0.521883 0.537277
-0.134892 -0.070902 0.063363 -0.912172 0.022652 0.401089
0.154052 -0.826133 0.075745 0.505983 0.847483 0.148557
0.003315 0.632364 0.016478 -0.725485 -0.188583 0.660641
-0.058184 -0.864255 0.08164 0.000203 -0.999972 0.003031
0.065426 -0.457294 0.005317 -0.51113 -0.002876 0.856429
0.208227 0.501481 0.016768 0.262118 0.267077 0.925708
0.043944 -0.499602 -0.031981 -0.998167 -0.003307 -0.022715
0.299735 0.472238 -0.059628 0.831019 0.529887 0.161633
-0.142134 0.016221 0.015445 -0.990548 -0.115877 -0.015321
-0.006473 -0.217495 0.105314 0.507326 -0.131716 0.850475
0.198409 0.372021 -0.043338 0.999509 -0.0156 0.02527
0.212662 -0.077103 -0.009687 0.973706 0.081996 -0.202778
0.32036 0.44854 -0.084583 0.713071 0.697194 -0.056847
-0.293635 0.373466 -0.053192 -0.879249 0.448449 -0.116403
-0.104514 -0.832185 -0.039155 -0.997877 -0.030748 -0.021191
0.171179 -0.460121 0.064704 0.400066 -0.109466 0.908078
0.013479 0.360454 -0.127295 0.039585 -0.036876 -0.998417
-0.119984 0.346959 -0.005485 -0.991973 -0.099176 0.069603
0.328727 0.389615 -0.139077 0.414871 0.024392 -0.908868
0.183053 -0.403939 0.061532 0.816009 -0.056223 0.575124
-0.092874 -0.835118 0.116508 -0.639203 0.706237 0.278847
-0.40854 0.176131 -0.026328 0.525047 -0.838356 -0.122923
0.170502 0.339783 -0.090667 0.74912 -0.322698 -0.578321
0.126554 -0.580144 0.039424 -0.217462 -0.234326 0.947118
0.620649 0.050275 0.037397 -0.835001 -0.543941 -0.05787
0.330798 0.425252 -0.115352 0.586158 0.631802 -0.497422
-0.037183 0.202645 0.110804 -0.49198 0.021688 0.869794
-0.113251 -0.317299 -0.045335 -0.861317 0.05252 -0.490157
-0.057718 -0.233548 -0.092388 -0.116583 0.028203 -0.990181
0.276034 0.435493 -0.137553 0.162371 0.328562 -0.925432
-0.505138 0.087904 0.050756 0.660358 -0.738534 -0.053814
0.206102 0.445987 -0.132541 0.058446 -0.173591 -0.980887
-0.143986 -0.133361 0.026403 -0.996543 -0.010604 0.074889
0.177564 -0.077556 0.088533 0.599919 0.073991 0.777727
-0.00976 -0.803055 -0.134167 0.709128 -0.122904 -0.692435
0.055116 0.177452 0.128744 0.091402 0.031624 0.995243
0.149009 -0.110401 0.109179 0.422743 -0.016616 0.904958
0.172466 -0.803794 -0.083214 0.887449 -0.184579 -0.408374
-0.162391 0.544159 -0.006817 -0.644393 0.760094 0.076181
0.039514 0.167328 0.130651 0.063479 0.059143 0.996205
-0.007916 0.631287 0.001336 -0.819469 -0.017043 0.570671
0.14814 -0.495048 0.062491 -0.287469 -0.197981 0.935319
0.18822 0.36221 -0.083956 0.746044 -0.473963 -0.466934
-0.079098 -0.194427 -0.085319 -0.535454 -0.037804 -0.842997
0.145715 0.255637 -0.099428 0.803044 -0.113416 -0.584272
-0.135765 -0.439444 0.018166 -0.97853 -0.023122 0.197303
-0.073204 -0.038427 -0.120392 -0.482479 -0.247083 -0.833014
-0.129478 -0.471979 -0.046482 -0.837231 0.068082 -0.542377
0.080878 -0.367577 0.054194 -0.547662 -0.305598 0.778811
0.108068 -0.396694 -0.100702 -0.246825 -0.018755 -0.966315
0.066399 -0.80526 -0.004015 -0.91961 -0.355877 0.153181
-0.032039 -0.862957 0.08402 0.342552 -0.933372 0.046114
0.16625 -0.115222 -0.094455 0.729902 -0.153307 -0.664729
0.036655 0.105015 -0.138634 -0.108076 0.313172 -0.940496
0.220405 0.491324 0.016629 0.270069 0.165901 0.947514
-0.046497 0.364713 -0.126592 -0.266229 -0.034919 -0.962729
0.097552 0.519038 0.049595 0.241632 0.54416 0.803275
0.014814 0.783464 0.083395 -0.289618 0.082272 0.943637
-0.041998 0.28452 -0.12749 -0.323757 -0.025456 -0.942035
-0.128426 0.087833 -0.016087 -0.997468 0.02522 -0.057682
0.088325 0.83129 -0.056669 0.884758 0.420319 -0.176387
-0.140995 -0.118053 0.042849 -0.947262 -0.007273 0.317566
-0.074068 -0.012577 0.123259 -0.420822 -0.429745 0.7828
-0.007839 0.702006 0.064725 -0.710156 -0.16081 0.682842
0.031223 -0.26885 -0.025781 -0.596384 -0.243697 -0.762576
-0.080097 -0.668356 -0.106999 -0.236044 0.029478 -0.969241
-0.088619 -0.80748 0.03342 -0.843197 0.393865 0.363138
0.199896 -0.426683 0.008112 0.981428 -0.105393 0.159193
0.136859 -0.861764 0.173757 0.062356 -0.966272 0.247895
0.05635 -0.01563 0.134444 0.073287 -0.332184 0.940278
0.062636 0.820744 0.062759 0.491013 0.514938 0.70218
0.099803 -0.172183 -0.106765 -0.193212 -0.196182 -0.960843
-0.537754 0.089011 0.020989 0.169989 0.431847 -0.726845
0.097538 -0.813574 0.060573 -0.682462 0.518431 0.510655
-0.439292 0.224611 -0.036341 -0.722435 0.628248 -0.236593
0.126736 -0.725758 -0.097482 0.145287 0.170077 -0.969907
-0.103716 0.41019 -0.111722 -0.438929 -0.213688 -0.866658
0.154978 0.540157 0.011302 0.146255 0.687067 0.710759
0.145498 -0.844627 0.17881 0.430396 0.48315 0.730824
0.066601 0.082896 0.13024 0.050815 0.017261 0.991979
0.296014 0.38839 -0.144611 -0.01987 -0.102346 -0.991745
0.150401 0.1568 0.079774 0.706535 0.040966 0.706444
0.19315 -0.095851 0.073168 0.746162 0.002897 0.665735
0.000288 -0.74194 -0.005278 0.546352 -0.490832 0.676771
-0.13479 0.01564 -0.032742 -0.965427 -0.00373 -0.25048
0.256007 0.519908 -0.03746 0.701293 0.682637 0.192984
0.082769 0.663998 0.000173 0.986722 -0.064722 0.147375
0.111311 0.321687 0.097877 0.357632 0.110174 0.926575
0.083839 -0.851193 0.094127 -0.946396 0.313462 0.021791
0.046096 0.31072 0.119688 0.118158 0.111081 0.98665
0.343064 0.293008 -0.115361 -0.529849 -0.636547 -0.556942
0.184782 0.528097 -0.114989 0.189977 0.613516 -0.766213
0.569283 0.15004 0.005325 0.80425 0.574044 -0.094688
0.039486 -0.244707 0.010229 -0.353262 -0.083387 0.820741
0.098327 -0.793041 -0.104108 -0.735811 0.3135 -0.596132
0.150062 -0.757229 0.02522 0.005457 -0.180905 0.967178
0.107637 -0.271644 0.08377 -0.034355 -0.13953 0.988803
-0.11364 -0.02496 -0.081817 -0.831215 -0.055447 -0.553014
0.20466 -0.339725 0.017052 0.980352 -0.073285 0.175628
-0.042144 -0.580724 0.039435 0.493784 -0.315709 0.809183
-0.120396 -0.2151 0.090957 -0.823212 -0.041974 0.564276
-0.035903 0.781011 9.4e-05 -0.992589 0.061799 0.104387
-0.011071 0.748869 -0.100226 -0.711677 -0.287529 -0.6379
0.036616 -0.340399 -0.024787 -0.986122 -0.061492 -0.143641
0.281813 0.393861 -0.016351 -0.136354 -0.311467 0.937147
0.024068 -0.236598 -0.030064 0.422184 -0.084907 -0.886368
0.089321 -0.845326 0.115044 -0.874964 0.457006 0.152345
-0.00944 0.547742 -0.113181 -0.021849 0.363119 -0.9301
0.078283 -0.770741 0.017424 -0.000495 0.812229 0.581828
0.020618 -0.580889 -0.000462 0.799813 0.062589 0.594591
0.011401 -0.241265 0.086606 0.813057 -0.073659 0.575876
0.510649 0.160834 0.017432 -0.559381 -0.632398 0.441305
-0.127759 -0.728613 -0.044148 -0.998095 -0.010014 0.030408
-0.017474 0.261051 -0.130343 -0.02972 -0.055526 -0.997596
-0.043143 -0.571075 0.042916 0.42851 -0.230367 0.873355
-0.081199 -0.848273 0.156554 -0.532125 0.011169 0.760314
-0.273804 0.355419 0.0114 -0.469286 -0.051819 0.875406
0.103933 0.397773 0.092074 0.243326 0.171753 0.953766
0.024945 -0.196523 0.056444 0.95982 0.009093 0.279503
0.390002 0.309458 -0.048209 0.271292 0.481939 0.831804
0.181432 -0.207204 0.081717 0.596658 -0.148598 0.785067
0.064235 -0.345166 0.049997 -0.694278 -0.241991 0.675452
0.205697 -0.105626 -0.036562 0.915772 0.070463 -0.39408
-0.125549 -0.640255 -0.074452 -0.89051 0.008962 -0.443032
0.093094 -0.401715 -0.093816 -0.471373 -0.009953 -0.881489
-0.024331 0.78237 -0.093172 -0.801959 -0.084847 -0.588942
0.129749 -0.313937 -0.092594 0.468847 0.029641 -0.881723
-0.122999 -0.084089 0.08245 -0.788892 0.018508 0.61414
-0.039727 0.765021 -0.031491 -0.997342 -0.061997 -0.016306
-0.11125 0.135451 0.056128 -0.808901 0.076129 0.581267
0.037994 0.761074 0.091093 0.32784 0.364044 0.822622
-0.089301 0.050814 0.101328 -0.463654 0.179164 0.866388
0.199572 -0.490734 -0.043284 0.98715 0.046669 -0.150861
-0.058277 0.241738 -0.114338 -0.543251 -0.190176 -0.817022
0.271375 0.389332 -0.020458 -0.199269 -0.404279 0.890243
-0.121224 -0.233771 0.087777 -0.848977 -0.053502 0.52199
0.125105 0.583664 -0.035898 0.379799 0.835045 0.388745
-0.068352 0.26199 -0.11198 -0.524245 -0.15577 -0.836958
-0.124317 0.196408 -0.012087 -0.891475 0.202403 -0.403877
0.085656 0.836945 0.015936 0.76144 0.580805 0.280647
-0.538281 0.10002 0.058581 -0.733342 0.678895 0.005021
0.090544 0.576991 -0.102284 0.138573 0.670491 -0.728463
0.322985 0.396462 -0.035009 0.646266 0.17957 0.726277
0.087519 -0.758797 -0.071434 -0.80943 0.133608 -0.570913
0.118974 -0.780561 0.040229 0.076343 0.673379 0.728709
-0.096808 -0.822827 0.032215 -0.859151 0.468024 0.187304
0.111419 -0.218578 0.092134 -0.028396 -0.193925 0.979845
-0.133199 -0.156176 -0.024978 -0.85447 -0.133606 -0.499118
0.149968 0.44119 0.067764 0.601079 0.14409 0.784016
-0.067825 -0.793109 -0.141039 -0.455297 0.277299 -0.842508
0.024324 -0.400887 -0.004417 0.974755 -0.195177 -0.027015
0.01011 0.384097 0.106478 0.002775 0.205569 0.978245
0.002582 -0.625224 0.018601 0.426811 0.099143 0.889979
0.073088 0.310463 0.11248 0.334548 0.120061 0.932742
0.180573 -0.197632 0.084195 0.574797 -0.107579 0.807876
-0.047456 -0.663851 -0.104993 0.365811 0.123904 -0.921352
0.027392 -0.598662 -0.024697 0.994474 0.036142 -0.059696
-0.39352 0.260748 -0.075604 -0.639291 0.109285 -0.743094
-0.048951 0.263087 -0.122906 -0.502699 -0.091259 -0.859514
0.165915 -0.419842 0.071745 0.315175 -0.101045 0.937613
-0.023914 0.160831 -0.105907 -0.332831 -0.104645 -0.926744
-0.264149 0.31188 -0.08768 0.530597 -0.342998 -0.773968
-0.437313 0.154793 0.00631 0.604681 -0.793128 0.069337
0.159662 0.155322 0.070589 0.709172 0.059772 0.702482
-0.145606 0.551629 -0.033816 -0.434878 0.868552 -0.211291
0.274249 0.444331 -0.010792 0.323113 0.103152 0.936899
-0.020206 0.796996 0.04027 -0.910527 0.186292 0.367778
0.119942 -0.454353 -0.104961 -0.045403 0.071541 -0.993954
0.088823 -0.539187 0.02787 -0.561758 0.037607 0.825152
0.065226 0.174532 -0.119202 -0.024573 0.110309 -0.991475
0.029761 0.803876 -0.115969 -0.046988 0.304984 -0.950245
0.042748 -0.063713 0.120612 0.008848 -0.385539 0.919703
0.118796 -0.053774 0.11913 0.285336 -0.083608 0.953654
-0.030268 0.753441 0.02131 -0.963482 -0.091839 0.245168
0.061808 0.670879 0.082679 0.6772 -0.30662 0.637717
0.065444 -0.157426 0.080279 -0.620456 0.02994 0.782447
-0.12803 -0.667559 -0.047616 -0.997768 -0.016026 0.061821
-0.123326 0.149967 0.025655 -0.941467 0.012713 0.329803
0.054406 -0.073889 -0.124458 -0.365865 -0.40798 -0.836394
0.203261 0.028014 -0.02795 0.948725 0.091298 -0.298141
-0.136947 -0.103231 -0.028383 -0.937735 -0.054575 -0.342829
-0.072421 0.207716 0.091117 -0.561189 0.116801 0.819004
0.165331 -0.185614 -0.08312 0.62593 -0.05213 -0.778043
-0.26098 0.285336 -0.030665 0.70635 -0.673087 0.214892
-0.001959 -0.303385 -0.061379 0.755633 -0.108534 -0.645876
-0.013205 0.799694 0.053182 -0.872787 0.2257 0.429921
0.046638 0.852464 0.04682 0.317498 0.692857 0.646394
-0.114159 -0.412843 -0.047765 -0.784789 0.070356 -0.613922
0.522939 0.189846 -0.050337 0.149106 -0.493265 -0.851541
0.01475 0.654679 0.038984 -0.586057 -0.673136 0.446697
-0.307699 0.3578 -0.052177 -0.654554 0.728269 -0.187443
-0.131448 -0.481807 0.016903 -0.844555 -0.223785 0.485506
-0.024739 0.387192 0.105816 -0.051186 0.0653 0.996533
-0.041219 -0.419929 0.081463 0.237244 -0.188196 0.95275
0.175489 0.554913 -0.090872 0.322389 0.750306 -0.576304
0.205227 -0.258616 0.017758 0.998701 0.016653 0.044483
-0.027388 -0.830005 0.066569 0.939948 0.285335 0.168129
0.011704 0.249909 -0.127345 0.149445 -0.043313 -0.987722
0.064207 0.314127 0.11446 0.285555 0.14814 0.946446
0.197032 -0.403483 -0.043866 0.924181 -0.038703 -0.376184
-0.127514 -0.477234 0.02619 -0.869775 -0.197272 0.45188
-0.121533 -0.314523 -0.032044 -0.841312 0.068052 -0.535752
0.204828 -0.248441 0.02052 0.997833 0.018374 0.060621
0.191852 0.501197 -0.129534 0.080243 0.327224 -0.939963
0.01627 -0.222228 -0.050572 0.866274 -0.016774 -0.497505
-0.191121 0.498823 0.030148 -0.649979 0.481533 0.585015
-0.037412 0.778912 -0.046432 -0.989907 0.078346 -0.116556
-0.138296 -0.008056 0.005708 -0.996375 0.083768 -0.012905
0.640311 0.023019 0.07699 0.091638 -0.986991 0.0821
0.099917 -0.621682 -0.088803 -0.549828 -0.073683 -0.830287
-0.067374 -0.410065 0.089063 0.132075 -0.169598 0.976344
0.066635 0.861555 0.006066 0.461856 0.869068 0.125429
-0.016202 -0.671527 -0.087078 0.637868 0.172492 -0.750015
-0.428199 0.238762 -0.026103 -0.730992 0.682101 0.005039
0.515619 0.153625 -0.006697 -0.654549 -0.755616 0.022728
0.18151 -0.144007 0.087171 0.636126 -0.012046 0.771128
0.14041 -0.029644 -0.135964 0.601411 -0.111559 -0.790269
0.00304 -0.828255 -0.058027 0.84886 -0.510748 0.03142
0.182738 0.279385 0.00854 0.994849 -0.018377 0.094147
0.200051 -0.564546 -0.045506 0.972543 -0.040013 -0.22784
-0.107197 0.05275 -0.082315 -0.804088 0.184378 -0.561881
-0.016598 -0.795262 0.019147 0.884404 0.268595 0.37928
0.164535 0.239522 -0.065116 0.846787 -0.000135 -0.53081
-0.037632 -0.240991 -0.091642 0.195435 0.044775 -0.978894
0.070683 0.043039 0.134409 0.227805 0.185021 0.953461
0.186256 0.10239 -0.049109 0.836717 0.290733 -0.463627
0.022904 0.54174 0.038517 0.09037 0.71702 0.690122
0.066616 0.410202 0.095814 0.132704 0.240991 0.959355
0.257926 0.506365 -0.093816 0.558381 0.62988 -0.539796
-0.12408 0.20542 -0.005172 -0.918213 0.311223 -0.215079
0.089189 0.192241 -0.118931 0.197133 -0.329391 -0.921072
0.065524 0.7022 0.078344 0.603264 -0.071456 0.793876
0.162714 -0.131086 0.101366 0.526416 -0.122484 0.84019
0.173843 -0.395815 0.069584 0.496751 -0.022621 0.863866
-0.015318 0.295922 -0.131334 0.020356 0.034311 -0.999053
0.046021 -0.291052 0.039706 -0.898014 -0.058783 0.426065
0.606645 0.0758 0.08593 -0.756586 0.004896 0.608116
0.486077 0.195888 0.007986 0.558435 0.671347 0.43537
-0.233192 0.317159 -0.039095 0.733919 -0.679136 -0.000893
-0.082084 -0.62163 0.048428 0.357044 -0.257411 0.88527
0.086269 -0.827947 -0.029545 -0.766569 -0.609726 -0.001973
0.634202 0.056117 0.066368 0.893888 0.440182 0.052649
0.187921 0.532713 0.007236 0.268589 0.604161 0.750091
-0.081638 -0.519154 -0.096903 -0.295264 0.090866 -0.948838
0.203742 0.060322 0.003023 0.962428 0.264049 0.034929
0.197785 0.3939 -0.097876 0.893431 -0.362028 -0.259275
0.157475 -0.792153 -0.101274 0.651328 0.232738 -0.720012
0.015085 0.432239 0.096688 0.107962 0.148707 0.982937
-0.050004 0.506039 -0.122523 -0.118966 0.294962 -0.947674
0.005597 -0.264213 -0.059698 0.774686 -0.116953 -0.621326
0.091518 -0.253235 0.084441 -0.254247 -0.131898 0.957473
0.022121 0.214704 0.128791 -0.009324 0.055848 0.99832
-0.067288 -0.8642 0.076068 -0.021705 -0.999688 -0.001253
-0.137451 -0.052773 0.050201 -0.97827 0.038566 0.202265
0.249282 0.452229 -0.133631 0.045678 0.290205 -0.954128
0.095244 0.609549 -0.048349 0.802033 0.552057 -0.180165
-0.025977 -0.004036 -0.138344 -0.140851 -0.087583 -0.98588
0.119642 0.582637 -0.084868 0.337414 0.824599 -0.453015
0.072973 -0.332676 0.062445 -0.515827 -0.25148 0.818105
0.139038 0.11152 0.092822 0.670022 0.089609 0.736176
-0.083217 -0.739411 0.01375 -0.50209 0.588883 0.630568
0.196581 -0.213422 0.051805 0.939993 -0.009471 0.339933
-0.14259 -0.058852 0.029819 -0.986291 0.049421 0.154393
0.016111 -0.044394 -0.128428 0.050758 -0.549419 -0.832668
0.053784 -0.369178 -0.056785 -0.8081 -0.026975 -0.588133
0.102882 0.74946 -0.041434 0.945613 -0.204182 -0.2466
0.198646 0.081583 -0.000313 0.973386 0.222651 0.049197
0.009389 -0.499128 -0.051411 0.844473 0.032224 -0.534144
0.019194 0.863678 0.013428 -0.091472 0.994067 0.047933
0.204603 -0.19497 0.029388 0.967319 -0.032596 0.246784
-0.113131 -0.793826 -0.012905 -0.893096 -0.27925 0.335671
0.140549 0.499712 0.046765 0.356638 0.525082 0.772473
-0.243865 0.39719 -0.092799 -0.230204 0.366603 -0.899205
0.175177 -0.859614 0.077893 0.912912 -0.360451 -0.006477
-0.001733 0.308462 0.116373 -0.307089 0.180621 0.932229
-0.132863 -0.124064 0.066964 -0.857966 0.024829 0.512187
0.17929 -0.647083 -0.068992 0.60763 -0.210703 -0.765516
0.182092 0.337422 0.023353 0.89907 -0.108445 0.423973
-0.313814 0.353606 -0.045234 -0.673934 0.735856 -0.054712
0.324274 0.345469 -0.038317 0.143502 -0.106482 0.975905
-0.098938 -0.838948 -0.07748 -0.961837 -0.179518 -0.198184
-0.076918 0.38314 -0.117318 -0.420898 -0.15217 -0.893728
-0.088934 0.435675 0.074492 -0.621665 0.11372 0.774831
0.048991 0.025172 -0.15951 -0.111571 -0.132648 -0.979395
0.323795 0.297655 -0.08453 -0.700786 -0.710514 0.037656
0.076162 -0.144992 -0.105456 -0.433169 -0.201883 -0.877918
0.212163 0.447217 0.019951 0.485437 -0.025242 0.86749
-0.052563 0.465756 -0.131041 -0.080465 0.078151 -0.992916
0.158546 0.071198 -0.101573 0.704124 0.210834 -0.675997
-9.3e-05 0.212232 0.127426 -0.198554 0.11138 0.972734
-0.120288 0.344382 -0.062965 -0.994024 -0.059925 -0.087826
0.170403 0.492514 0.036252 0.599154 0.309311 0.736826
-0.098893 -0.850722 -0.029736 -0.731901 -0.660651 -0.162816
0.413573 0.246086 -0.12247 0.125417 -0.413711 -0.898125
0.044248 -0.459188 -0.021596 -0.98192 -0.036983 0.157625
-0.065452 0.161187 0.097176 -0.490274 0.026122 0.869306
0.032028 0.869659 -0.006054 -0.203162 0.97365 0.068582
0.145878 0.226328 -0.09134 0.784932 -0.141922 -0.60296
0.542443 0.201202 0.000833 0.84999 0.34757 0.346949
0.189763 0.110203 0.04107 0.924846 0.115114 0.35278
0.021445 -0.42661 -0.010385 0.987306 0.102831 -0.102993
0.194435 -0.531794 0.017777 0.912377 -0.061199 0.404409
-0.038391 -0.131202 -0.10243 0.241686 -0.197593 -0.948951
0.053218 -0.71753 0.009077 -0.997608 -0.046503 0.042978
-0.077772 -0.264544 0.110702 -0.037958 -0.091028 0.995033
0.200877 0.057851 -0.023927 0.977776 0.091795 -0.187096
0.114019 0.360059 0.092848 0.411808 0.080894 0.90665
-0.024702 -0.22809 -0.087603 0.390205 0.014703 -0.918849
0.543766 0.162907 -0.02396 0.649883 -0.203803 -0.729114
0.104592 -0.481481 0.037512 -0.635379 -0.039548 0.770969
0.117679 0.181078 0.104175 0.483195 0.027984 0.874607
-0.212267 0.344953 -0.072438 0.50224 -0.702697 -0.501462
0.08144 0.730642 -0.083862 0.686398 -0.418906 -0.593565
0.203959 -0.543791 -0.035653 0.96652 -0.027113 -0.249112
0.098531 0.787184 0.014745 0.943276 0.109736 0.310861
-0.014806 0.747069 0.058871 -0.752973 0.103358 0.649761
0.003977 -0.803523 -0.106894 0.936173 -0.097888 -0.333811
-0.12629 0.11823 -0.024573 -0.949996 0.000175 -0.309964
0.142331 -0.174088 -0.100066 0.503329 -0.073206 -0.860363
-0.11529 -0.365027 -0.050035 -0.769383 0.087503 -0.628789
-0.111412 -0.592291 -0.085858 -0.655028 0.025847 -0.75515
0.161267 0.250106 0.058416 0.721345 0.084445 0.68586
-0.309801 0.239177 -0.031544 0.548438 -0.835056 0.02937
0.122218 -0.113914 -0.120331 0.125264 -0.19894 -0.971102
0.177097 -0.802178 -0.053348 0.916622 -0.368406 0.00054
-0.112416 -0.126493 0.099486 -0.692277 0.041219 0.719895
0.18363 0.081375 -0.06276 0.838401 0.156318 -0.521626
0.037767 -0.126902 0.070251 0.759774 -0.499333 0.405849
-0.087322 -0.840036 -0.114066 -0.902608 -0.018211 -0.428341
-0.015287 0.067777 0.1297 -0.252618 0.124435 0.958787
0.06574 0.862886 -0.018157 0.371135 0.923647 -0.030867
-0.014989 -0.193995 0.113273 0.391303 -0.096354 0.914648
0.182752 0.23573 0.005035 0.999664 -0.012964 0.02014
0.127285 0.39594 0.084959 0.427837 0.103187 0.897286
-0.025208 -0.454752 0.068448 0.393064 -0.290348 0.869581
0.295778 0.427649 -0.135317 0.271055 0.432752 -0.856766
-0.081132 0.298569 -0.105723 -0.527518 -0.05775 -0.827416
0.019145 0.350303 -0.126668 0.003819 -0.039996 -0.99776
-0.127339 0.196438 8.7e-05 -0.986014 0.138888 -0.063883
0.052264 -0.460535 -0.055632 -0.796051 0.034491 -0.603182
-0.079177 0.184939 -0.081887 -0.648513 -0.019114 -0.760383
-0.027347 0.34653 0.10516 -0.159092 -0.033276 0.983591
-0.06054 -0.455571 0.077225 0.284513 -0.276079 0.917219
-0.027695 0.340594 -0.12862 -0.051045 0.012486 -0.998454
-0.371285 0.300933 -0.025995 -0.629356 0.746326 0.207146
-0.096763 0.364876 -0.103277 -0.50021 -0.22467 -0.835384
0.174623 -9.5e-05 -0.095298 0.836081 0.09158 -0.540047
0.237226 0.522821 -0.094959 0.549434 0.6245 -0.554368
0.184336 0.294907 -0.022068 0.970089 -0.206414 -0.11878
-0.116945 0.079494 0.064816 -0.872041 0.290108 0.391405
0.089205 -0.253537 -0.092925 -0.450763 0.043185 -0.891391
0.06042 -0.273872 -0.069924 -0.810149 0.009547 -0.586134
-0.007859 -0.624683 -0.075545 0.667048 0.016909 -0.744819
0.10095 0.80023 -0.001106 0.915101 0.323745 0.228527
0.011489 0.863272 -0.032226 -0.155983 0.98436 -0.065878
-0.017098 -0.636704 -0.084073 0.666561 0.01737 -0.745167
0.092151 -0.737363 -0.079184 -0.841794 -0.072152 -0.534516
0.0044 -0.245675 0.093301 0.591984 -0.154302 0.786872
-0.114896 -0.239233 0.096079 -0.686909 -0.022999 0.72632
-0.002683 0.840328 0.041513 -0.616276 0.362643 0.690883
0.010477 0.847666 0.047853 -0.420132 0.596967 0.677535
0.177076 0.28327 -0.041427 0.933453 -0.140752 -0.32939
0.076679 -0.569631 -0.075529 -0.698423 -0.136661 -0.702347
0.169945 -0.854025 0.127715 0.895115 0.176381 0.185734
-0.056741 -0.020155 0.127256 -0.286002 -0.171575 0.916807
0.117793 -0.027114 -0.146969 0.272588 -0.182927 -0.942817
0.203602 0.435396 0.026912 0.690214 -0.16087 0.685938
-0.014857 -0.62199 -0.081843 0.677192 0.009944 -0.735725
-0.030787 -0.41676 0.078989 0.335294 -0.180218 0.924484
0.16983 -0.294034 0.075604 0.251877 -0.07965 0.964237
-0.010131 -0.659795 -0.079757 0.633523 0.106626 -0.766088
0.409425 0.319206 -0.07487 0.649137 0.724805 0.207001
0.00693 0.383505 -0.128265 0.046362 -0.017339 -0.998745
0.198931 -0.449558 -0.041074 0.987534 0.033317 -0.138156
0.064094 0.60702 -0.07655 0.205508 0.644317 -0.7357
-0.031279 0.729776 -0.04324 -0.820109 -0.425459 -0.367145
-0.13943 0.031568 0.020294 -0.93684 0.334831 0.087994
-0.080821 -0.050756 -0.111325 -0.559532 -0.262436 -0.785366
-0.024504 -0.12477 0.124881 0.14515 -0.064559 0.985524
0.106697 -0.869518 0.045683 -0.11089 -0.983481 -0.047521
0.632407 0.027239 0.033808 -0.913039 -0.348647 -0.113104
0.18665 0.400892 0.036092 0.816825 -0.168196 0.549225
0.014063 0.862353 -0.045263 -0.185075 0.958014 -0.186986
-0.111092 0.26955 -0.058997 -0.988008 -0.04835 -0.14001
0.070784 -0.715887 -0.041945 -0.84654 -0.221585 -0.481506
-0.117916 0.233851 -0.015882 -0.930971 0.357567 -0.028127
-0.077552 0.008544 -0.123847 -0.573574 -0.040004 -0.817585
-0.136401 -0.53115 -0.029628 -0.998933 -0.022814 -0.021332
-0.22113 0.33243 -0.061801 0.644137 -0.66424 -0.33012
0.106843 0.126208 -0.122304 0.40017 0.33595 -0.850934
0.518964 0.212973 -0.02893 0.481884 0.822039 0.30019
-0.02387 -0.465171 0.064835 0.428695 -0.275813 0.858484
-0.115908 -0.205859 -0.041595 -0.851762 -0.098907 -0.513364
0.193155 -0.116711 0.07249 0.824849 -0.01528 0.563258
0.203336 -0.251756 0.034693 0.976016 0.042939 0.210479
-0.213011 0.347029 -0.001227 0.460254 -0.645131 0.603501
-0.44226 0.18463 0.023022 -0.082581 0.486468 0.861627
0.431003 0.271328 -0.037544 0.09192 0.520348 0.847786
0.09421 -0.70888 0.035894 0.160747 -0.029435 0.985446
-0.123474 -0.329042 -0.029761 -0.900264 0.011704 -0.432169
0.147308 -0.738634 -0.090069 0.703929 0.178008 -0.679613
0.018275 0.419108 0.098363 0.133386 0.182971 0.97341
-0.001523 0.468671 -0.127881 0.129967 0.046877 -0.990324
0.140453 -0.068744 0.11232 0.328391 0.022211 0.944147
0.198367 0.419605 0.020231 0.716519 -0.599682 0.345855
0.129721 0.399048 -0.140575 0.363949 -0.174862 -0.914421
-0.288125 0.262603 -0.01994 0.737554 -0.554103 0.383343
0.234836 0.403606 -0.128249 -0.520077 -0.371716 -0.768106
0.186121 -0.385672 0.057898 0.840527 -0.029315 0.539688
-0.100177 -0.773157 -0.10298 -0.733484 0.110833 -0.670207
0.412403 0.258822 -0.127 0.094893 -0.17696 -0.974511
-0.428351 0.227558 -0.050039 -0.662865 0.2252 -0.708142
0.037395 0.714913 0.096812 0.211747 -0.331041 0.911856
0.183054 -0.393644 0.062295 0.812768 -0.033486 0.581514
-0.123874 -0.205358 -0.027832 -0.855755 -0.09832 -0.507717
-0.047922 -0.685991 -0.10983 0.320598 0.228684 -0.917923
0.006875 -0.604297 -0.060356 0.735037 0.054385 -0.67556
0.278654 0.340016 -0.066032 -0.466686 -0.850285 0.221641
0.053389 -0.584088 -0.007608 -0.86922 -0.107798 0.480836
-0.022804 -0.06236 0.130449 0.021162 -0.102465 0.994158
0.188579 -0.747234 0.002251 0.659281 0.232995 0.61604
-0.482245 0.17172 -0.002797 -0.690746 0.721293 -0.038075
-0.570355 0.028389 0.057912 -0.158307 -0.882704 0.149873
-0.518393 0.09678 0.024239 0.111562 -0.382191 -0.895564
-0.128242 -0.347599 0.015685 -0.999059 0.026152 0.0316
0.003374 0.522835 -0.121301 0.001588 0.185517 -0.982623
-0.064828 -0.51124 0.066057 0.375503 -0.226934 0.898198
0.088012 0.299135 0.107571 0.383907 0.126795 0.907108
0.092948 0.289338 -0.140113 0.114194 -0.06987 -0.990974
0.072766 0.526676 0.050225 0.120676 0.524077 0.842666
0.051883 -0.262755 0.053581 -0.804067 -0.101372 0.58355
-0.112367 0.276159 -0.012896 -0.99894 -0.030122 0.026032
-0.113125 -0.533414 0.032137 -0.872795 -0.058444 0.48448
-0.091223 0.566961 -0.002604 -0.171433 0.906777 0.377524
0.029558 0.749189 0.097217 -0.31895 0.453026 0.810062
0.190757 -0.419274 -0.0549 0.827227 0.066893 -0.556931
-0.187635 0.352415 -0.037457 0.608478 -0.788817 -0.06087
-0.047995 -0.613833 0.033681 0.394063 -0.129885 0.909817
-0.037915 -0.856081 -0.042404 0.544893 -0.833058 0.061257
-0.092757 -0.863254 0.043305 -0.032427 -0.999421 -0.007365
0.080396 -0.221607 -0.089472 -0.469199 -0.09276 -0.877702
-0.05375 -0.275699 -0.093011 -0.103086 -0.061968 -0.991227
0.077183 0.513108 0.057839 0.147073 0.487114 0.860659
0.132994 0.095954 -0.118376 0.610336 0.259366 -0.747251
-0.122451 0.002355 0.083806 -0.799879 -0.144246 0.558149
-0.011749 0.671446 -0.025147 -0.991658 -0.100714 -0.070454
-0.012874 0.482506 -0.128171 0.083292 0.09096 -0.99217
0.030329 0.60094 -0.084124 -0.069373 0.593849 -0.801537
0.062311 0.474689 0.078844 0.099932 0.392213 0.913088
-0.094007 -0.385011 0.096067 -0.07248 -0.183869 0.979104
-0.106018 0.481394 0.061767 -0.0875 0.155787 0.981371
-0.067633 -0.863774 0.029184 -0.012545 -0.999836 -0.01212
0.203431 -0.409439 0.004035 0.939869 -0.213972 0.250896
-0.176497 0.461805 -0.087386 -0.308988 0.272243 -0.91007
-0.072537 -0.287626 -0.086634 -0.546999 -0.065775 -0.829597
-0.126809 -0.748478 -0.037788 -0.984435 -0.140467 0.085193
0.005536 -0.742802 -0.089139 0.732058 0.10934 -0.671533
0.028703 0.868301 -0.02417 -0.250642 0.948864 -0.174697
-0.128525 -0.370793 0.014226 -0.99954 -0.004626 0.024722
0.205624 0.041114 0.027229 0.983565 0.128668 0.117502
0.26917 0.362359 -0.122867 -0.376437 -0.739094 -0.553032
0.137649 0.395096 -0.136584 0.412494 -0.166587 -0.894784
0.30311 0.337195 -0.126969 -0.498046 -0.481092 -0.719939
0.132228 -0.544027 -0.108511 0.106252 -0.035842 -0.991722
0.086016 0.483856 -0.139821 -0.285981 0.294484 -0.911387
-0.1063 -0.3205 0.0995 -0.662487 -0.046262 0.747217
0.133262 0.167461 0.095801 0.56504 0.023126 0.822539
0.075068 0.057622 -0.154552 0.057332 0.247084 -0.965051
0.138515 0.45899 -0.144714 0.115028 0.034315 -0.992719
-0.451996 0.186888 0.019161 -0.169094 0.600699 0.7806
0.132984 0.199666 0.094802 0.552231 0.057682 0.829939
0.075113 -0.646812 0.014233 -0.488135 0.396817 0.766072
0.097296 0.380971 -0.145821 0.011821 -0.012958 -0.99887
-0.002803 0.250659 -0.129285 0.099639 -0.045684 -0.99341
-0.02019 -0.834579 0.003773 0.865138 -0.442381 0.072404
0.033039 0.647607 0.042299 -0.110293 -0.604134 0.783754
0.19312 -0.44697 0.02867 0.96175 -0.099126 0.253962
-0.005024 0.655774 -0.041372 -0.841898 0.028484 -0.536638
0.13242 0.52742 0.02971 0.255498 0.634123 0.729655
0.201674 -0.587399 -0.021578 0.995869 -0.077451 0.002958
0.013094 -0.383423 0.049377 0.856066 -0.131577 0.499366
0.106224 -0.539163 -0.103124 -0.405108 -0.065732 -0.910478
0.140759 0.419192 -0.140101 0.386021 -0.232387 -0.89243
-0.013309 -0.440399 0.064255 0.647242 -0.173638 0.740768
0.026539 -0.288835 0.043419 0.979047 -0.005477 0.189207
-0.045104 -0.234521 -0.092168 0.104738 0.040836 -0.993056
-0.073247 -0.494172 0.073491 0.354173 -0.180481 0.917355
0.344653 0.309346 -0.044157 -0.296128 -0.282344 0.888663
-0.072504 -0.801959 0.051564 -0.425506 0.768693 0.462342
-0.416015 0.24736 -0.003361 -0.614974 0.662536 0.399028
0.039629 0.704601 -0.089373 0.134398 -0.644417 -0.752251
-0.08267 -0.494723 0.077329 0.460056 -0.151037 0.869896
0.009892 -0.79393 -0.039461 0.896134 -0.305652 0.32098
-0.098288 0.261666 0.062906 -0.758915 0.031767 0.648846
-0.021454 -0.127023 -0.09577 0.499273 -0.214745 -0.837075
0.095936 -0.412015 -0.095681 -0.475468 0.019272 -0.877783
-0.11031 -0.426988 0.075548 -0.725799 -0.236821 0.644944
-0.504807 0.137338 0.074217 -0.482877 0.657073 0.400318
0.065347 -0.201083 0.078105 -0.653153 -0.080028 0.752969
0.13627 -0.581621 0.040665 -0.132807 -0.168654 0.973739
0.121241 0.0195 0.12116 0.306419 0.26878 0.912208
0.044282 -0.406834 -0.040118 -0.974813 -0.016715 -0.209013
-0.064418 -0.403188 -0.081565 -0.188789 0.028245 -0.978464
0.141198 0.049284 -0.125534 0.636644 0.291456 -0.713516
-0.120262 0.038405 -0.064326 -0.875035 0.142124 -0.462122
0.027272 -0.346359 -0.002535 0.995894 -0.050246 -0.061063
-0.114247 -0.684817 0.009552 -0.868981 -0.172997 0.450557
-0.234415 0.357936 -0.094963 0.192026 -0.29449 -0.934988
0.149451 0.191761 0.078921 0.721574 0.050996 0.690428
-0.127766 0.002296 -0.055295 -0.925333 0.073116 -0.371174
0.168646 -0.730106 -0.062168 0.843406 -0.125642 -0.521691
-0.21076 0.477578 -0.054526 -0.64909 0.536086 -0.539514
-0.105314 0.497752 -0.110373 -0.404849 0.28683 -0.86573
0.183726 0.293495 0.007579 0.985457 -0.088713 0.141163
0.136548 -0.869288 -0.094419 0.185246 -0.967915 -0.124098
-0.411777 0.255065 -0.012512 -0.72648 0.664208 0.169198
0.111206 -0.356003 -0.100864 0.068741 0.046998 -0.991108
0.315686 0.339067 -0.04057 -0.217127 -0.401102 0.885434
0.083771 0.782136 0.059481 0.766457 0.149337 0.605514
-0.06888 -0.547344 0.058759 0.354262 -0.188446 0.915902
0.112035 0.454866 0.078686 0.268658 0.383373 0.881138
0.420735 0.274742 -0.038844 0.056223 0.456851 0.886543
0.008215 -0.349009 -0.045318 0.745441 -0.054853 -0.663918
-0.031008 0.569928 -0.097613 -0.157146 0.590434 -0.79161
-0.229953 0.465649 -0.009818 -0.833337 0.515671 0.189905
-0.046152 -0.629137 0.029999 0.375165 -0.25094 0.890927
0.160761 0.260466 -0.072544 0.891627 -0.058823 -0.448383
-0.143551 -0.107786 -0.005753 -0.98852 -0.023738 -0.141929
0.020152 -0.107536 0.105506 0.541181 -0.379107 0.744638
0.192103 0.10605 0.03192 0.977292 -0.075144 0.191258
0.399411 0.306303 -0.123681 0.319221 0.282171 -0.885984
-0.017914 -0.274702 0.098021 0.366525 -0.220961 0.902918
0.067291 0.777615 -0.109493 0.513295 0.008022 -0.857933
0.590984 0.122108 0.035866 0.727253 0.685714 0.010974
0.162299 -0.515933 -0.09634 0.541795 -0.033428 -0.839013
0.175726 0.019309 -0.091999 0.828477 0.00876 -0.558942
-0.005224 -0.28622 0.090083 0.402572 -0.157027 0.901215
-0.014336 -0.162691 -0.082046 0.589245 -0.088914 -0.802269
-0.128197 -0.643927 -0.043077 -0.996766 -0.053571 0.050284
-0.101071 -0.159595 -0.070277 -0.727078 -0.166802 -0.665229
0.023636 -0.446635 0.009147 0.920135 0.064788 0.382589
-0.032648 -0.837857 -0.137339 0.52855 -0.452672 -0.705186
0.156522 0.216019 0.067617 0.77764 0.081035 0.62345
-0.104245 0.203844 -0.050118 -0.81787 0.072408 -0.567085
0.468688 0.261713 -0.049181 0.669134 0.731248 0.125348
0.116513 0.533545 0.030411 0.370273 0.586024 0.720414
-0.037584 -0.526836 0.050435 0.332371 -0.216798 0.917447
-0.015218 0.729289 0.060348 -0.73869 0.003252 0.672665
0.001036 -0.83009 -0.080233 0.582817 -0.757178 -0.052895
0.063733 -0.649147 -0.052607 -0.759785 -0.159267 -0.629338
-0.030929 0.424218 -0.130086 0.000711 -0.038245 -0.999144
0.198796 -0.227747 -0.049761 0.821995 -0.117012 -0.550566
-0.023635 -0.006757 0.144726 -0.186647 -0.092311 0.94257
0.060479 0.864418 -0.006705 0.375081 0.920311 0.058755
0.01145 -0.546216 0.012695 0.68227 -0.137426 0.717306
-0.125829 -0.334717 0.040771 -0.992056 -9.7e-05 0.124931
0.059401 -0.781293 0.010633 -0.989034 -0.117864 0.071356
0.212367 -0.107308 -0.018767 0.953279 0.062221 -0.277926
0.144832 0.287199 -0.106774 0.802821 -0.098437 -0.587075
0.350111 0.361402 -0.058309 0.594179 0.543322 0.587732
-0.014148 0.600066 -0.003355 -0.76299 0.293799 0.570825
-0.002774 -0.445151 -0.061034 0.739194 0.064595 -0.670301
-0.482078 0.160274 0.05003 -0.205514 0.803951 0.509682
0.041994 0.083757 -0.144938 -0.14033 0.224561 -0.964171
-0.109077 -0.583055 0.032691 -0.905633 0.020846 0.42225
-0.065356 -0.170504 0.120057 -0.240354 -0.074055 0.966152
0.032493 -0.140125 0.069304 0.810922 -0.390334 0.434915
-0.035347 -0.515002 -0.096589 0.333193 0.050823 -0.938711
0.154883 -0.860043 -0.025111 0.554949 -0.818891 0.125869
-0.052068 -0.573677 -0.102562 0.195918 -0.006592 -0.978127
0.066264 0.648539 -0.055353 0.545777 0.163732 -0.821058
-0.216585 0.484433 0.001486 -0.784903 0.545804 0.291823
-0.12348 0.120529 0.034456 -0.902715 0.116272 0.412132
-0.024057 0.794982 -0.094485 -0.775329 0.02983 -0.621612
0.347075 0.382926 -0.09573 0.900768 0.408874 0.105868
0.101972 -0.795086 0.051786 -0.293341 0.476778 0.82558
0.019553 -0.751787 -0.062153 0.982228 -0.100723 -0.152065
0.162749 -0.826029 -0.081091 0.829512 -0.53495 -0.095426
-0.110859 -0.726644 -0.012583 -0.675576 0.066237 0.724226
0.320022 0.447686 -0.069642 0.743009 0.641738 0.177656
0.01741 0.385685 -0.128051 0.002256 -0.020665 -0.999332
-0.028065 -0.798814 0.048205 0.635824 0.572744 0.51332
-0.060083 0.582418 -0.028933 -0.235331 0.953659 0.163666
-0.079237 0.403476 0.085898 -0.649478 0.01786 0.759542
0.59136 0.121303 0.020362 0.744753 0.66471 -0.051214
0.171497 0.069472 0.081636 0.734288 0.21044 0.645032
-0.087567 -0.655168 -0.105143 -0.31963 0.015282 -0.944322
-0.012432 -0.389816 0.07671 0.569101 -0.218962 0.792533
-0.280772 0.355724 -0.092062 -0.510336 0.247403 -0.818989
0.087959 -0.682223 0.034706 -0.199459 0.143725 0.964793
0.313857 0.364004 -0.034028 0.363767 -0.244914 0.882142
-0.355184 0.235932 -0.076332 0.213457 -0.461771 -0.858178
0.159983 -0.859514 -0.076464 0.848474 -0.489701 -0.17974
-0.087301 0.366927 0.075023 -0.710215 -0.12836 0.691875
0.069369 0.594625 -0.086901 0.130811 0.689369 -0.712238
0.170375 0.079111 -0.08356 0.790964 0.181941 -0.584111
0.18864 -0.538201 0.029634 0.88104 -0.080544 0.464423
-0.137333 -0.171822 0.049248 -0.990528 -0.048485 0.126409
-0.09714 -0.412323 -0.065384 -0.55866 0.107106 -0.819449
0.029927 0.547356 -0.114116 -0.089663 0.381158 -0.919898
0.187456 0.130699 -0.028693 0.847817 0.20014 -0.488599
-0.092475 -0.826645 0.068053 -0.576205 0.792169 0.152966
-0.037852 0.787254 -0.034911 -0.995272 0.076332 -0.041884
0.019279 0.22534 0.128259 -0.01999 0.039342 0.998971
-0.029789 0.715643 -0.013729 -0.946934 -0.301646 -0.079186
-0.026081 0.722396 -0.047588 -0.763762 -0.5336 -0.332427
-0.092141 -0.736178 0.00318 -0.620372 0.239035 0.729845
-0.014513 -0.344134 -0.069306 0.692938 -0.074313 -0.716996
-0.007029 0.132919 0.128706 -0.243455 -0.001267 0.969435
-0.011242 0.122005 0.127171 -0.343827 0.043905 0.931015
-0.142001 -0.068459 -0.013787 -0.968083 0.020162 -0.242904
0.017536 0.319208 0.119477 -0.158142 0.170631 0.970088
-0.168977 0.430806 0.036543 -0.091204 -0.473428 0.871293
-0.03652 0.520976 0.057421 -0.169213 0.536322 0.826282
0.177745 0.278834 0.029268 0.937893 0.009934 0.3449
0.21207 0.43659 0.019015 0.574328 -0.288938 0.75737
-0.407387 0.265002 -0.042214 -0.788872 0.609069 -0.058378
-0.062287 -0.472056 0.07405 0.266189 -0.173562 0.948065
-0.010176 -0.58911 -0.077684 0.680914 -0.031434 -0.731442
0.061194 -0.757994 0.017514 -0.749097 -0.248091 0.413789
0.205567 -0.369559 -0.003248 0.997747 0.001053 0.054723
-0.021077 -0.526533 -0.089588 0.593361 0.040882 -0.800865
-0.269059 0.284537 -0.071897 0.667503 -0.565839 -0.481203
-0.121639 0.160914 0.031798 -0.938361 -0.050011 0.338017
0.079406 -0.753781 -0.055688 -0.862625 0.161545 -0.474061
0.191823 0.470304 -0.135282 0.114176 0.022108 -0.993019
0.132903 0.056115 0.110579 0.172573 0.297355 0.935471
0.05102 -0.654196 -0.014051 -0.997339 -0.062788 -0.003642
0.12898 0.388687 -0.139148 0.389385 -0.140392 -0.910159
-0.31993 0.285864 -0.093888 -0.03579 -0.208142 -0.976946
0.113225 0.532674 -0.128005 0.068971 0.328365 -0.938725
-0.121734 -0.342906 0.068761 -0.981334 0.028327 0.189237
0.093308 -0.855562 0.146383 -0.888905 0.228136 0.391043
0.177339 -0.237405 0.077748 0.512538 -0.18741 0.835893
0.072979 -0.740537 -0.039846 -0.911749 0.026088 -0.408743
0.203905 -0.355626 -0.023121 0.961963 0.079228 -0.256817
0.176364 0.520858 -0.121851 0.181818 0.519594 -0.834713
0.095324 -0.684794 -0.083257 -0.644279 0.027692 -0.76394
0.025764 -0.606861 -0.036657 0.934045 0.082262 -0.323056
-0.129851 -0.246719 -0.008548 -0.948646 -0.017986 -0.314285
-0.117616 -0.4321 0.063966 -0.82028 -0.193776 0.537362
0.062425 0.329024 -0.137796 -0.382017 -0.028351 -0.923717
-0.006098 -0.039309 0.134113 0.017115 -0.155956 0.984738
0.195458 -0.718416 -0.008378 0.965608 0.007835 0.25759
-0.059302 0.549271 -0.101118 -0.363196 0.517816 -0.774344
-0.090479 -0.522342 -0.093483 -0.511948 0.109602 -0.851963
-0.097835 -0.753075 -0.105379 -0.756828 -0.087804 -0.641558
-0.508662 0.13897 0.05523 -0.869723 0.490447 0.040143
-0.09459 0.409125 -0.114707 -0.339991 -0.205423 -0.917421
0.400977 0.226017 -0.100367 -0.549359 -0.813586 -0.167101
0.229943 0.526781 -0.005748 0.504433 0.590363 0.622604
-0.118222 -0.731182 -0.016945 -0.713689 0.306915 0.620787
0.047995 0.221674 -0.125515 -0.127791 -0.270098 -0.951907
-0.125742 0.171671 -0.016511 -0.920757 0.008529 -0.384461
-0.068117 -0.270553 0.10987 0.061306 -0.144277 0.987467
-0.127755 -0.481867 -0.050661 -0.839927 0.07326 -0.537341
0.032674 0.462471 0.087449 0.142434 0.348276 0.924511
0.638785 0.038391 0.088263 0.959385 0.116743 0.193504
0.205104 -0.551092 -0.029046 0.986384 -0.053709 -0.135199
0.129538 0.176095 -0.100915 0.510548 0.045572 -0.857822
0.062716 0.615138 -0.070587 0.304059 0.599802 -0.739733
0.093896 0.815423 0.014437 0.805333 0.52757 0.26258
0.087524 0.692824 0.040955 0.919085 -0.335662 0.136035
0.077447 0.55755 -0.116548 -0.095422 0.564917 -0.819197
0.196583 -0.466598 0.010561 0.967023 -0.04315 0.249223
0.199295 -0.470387 -0.040265 0.995802 0.01211 -0.084943
0.031617 0.14927 -0.117759 -0.134047 0.177177 -0.971743
0.146184 -0.336315 -0.082085 0.616599 0.023613 -0.786907
-0.106018 -0.1859 -0.0602 -0.800925 -0.05954 -0.595139
-0.51668 0.079498 0.046138 0.620846 -0.763881 -0.166252
0.199101 0.393003 -0.028231 0.985849 -0.150742 0.022502
-0.267689 0.277331 -0.034268 0.721279 -0.677269 0.136585
-0.024902 -0.847335 -0.057444 0.686267 -0.721167 0.059357
0.112461 -0.371209 0.070062 -0.436702 -0.253012 0.862535
0.204279 -0.563547 -0.027337 0.985633 -0.097643 -0.106122
0.086805 0.790159 -0.091834 0.846425 0.091246 -0.523762
-0.035005 0.433912 -0.130674 0.0024 -0.076402 -0.996376
0.098501 -0.83849 0.142 -0.864959 0.445605 0.21369
-0.100181 -0.802704 -0.10514 -0.83212 -0.116541 -0.539897
-0.439803 0.219833 0.001444 -0.647026 0.634498 0.403689
-0.189437 0.512329 -0.046052 -0.69801 0.582867 -0.414431
0.054034 -0.301406 0.049145 -0.740168 -0.097663 0.66464
-0.109745 -0.060707 0.096886 -0.705673 0.029429 0.707858
-0.393766 0.239381 0.011194 -0.037558 0.185891 0.98123
0.092696 -0.661708 0.031614 -0.295345 0.170882 0.938273
-0.022071 -0.846588 0.05003 0.985197 0.03575 0.062664
0.601087 0.068228 0.056874 -0.511714 -0.850211 0.02418
0.178446 -0.635549 0.019324 0.36937 0.02549 0.927443
0.204394 -0.273923 0.028263 0.986489 -0.022233 0.154431
-0.398102 0.181015 -0.003586 0.561205 -0.824734 0.059373
-0.497968 0.097085 0.034081 0.284106 -0.867246 -0.333369
0.138789 0.292988 -0.115296 0.767043 -0.067358 -0.637983
-0.027057 0.744747 0.038802 -0.969462 -0.005247 0.239333
-0.013887 -0.47975 0.052879 0.589015 -0.257232 0.76535
0.073188 0.020935 -0.160046 0.021273 -0.151857 -0.986515
0.071913 0.816041 0.05954 0.727111 0.380618 0.558224
0.138249 -0.161138 0.103775 0.184069 -0.285426 0.938756
0.096835 -0.265668 0.083652 -0.163918 -0.151085 0.97391
0.359397 0.307485 -0.131606 -0.098337 -0.243004 -0.962558
0.161544 0.481958 -0.137784 0.17403 0.192785 -0.964369
0.378164 0.35151 -0.091221 0.703024 0.701785 0.090654
0.11479 0.094202 0.1081 0.504619 -0.153047 0.846001
0.184091 -0.661649 0.015009 0.641174 -0.116416 0.753942
-0.298707 0.278298 0.002268 0.46095 -0.19598 0.859759
0.065291 0.423987 -0.138079 -0.297763 0.0454 -0.953017
0.434793 0.298856 -0.071217 0.499339 0.828314 0.245278
0.06244 -0.620513 -0.002019 -0.391785 0.164028 0.881759
-0.113737 0.141001 -0.047397 -0.887879 0.134142 -0.439826
-0.123114 -0.333935 0.05849 -0.987323 0.005174 0.15749
-0.123451 0.377696 -0.076129 -0.906571 -0.27508 -0.313957
-0.189228 0.51909 -0.031684 -0.70677 0.682802 -0.181863
-0.013572 -0.401188 0.074214 0.489635 -0.202059 0.846279
-0.027587 0.525879 0.056143 -0.147609 0.539879 0.828215
-0.127251 0.141427 -0.016698 -0.97523 0.096366 -0.188497
-0.035748 0.519346 -0.120318 -0.109117 0.302853 -0.945981
-0.181003 0.470186 -0.082905 -0.380702 0.312707 -0.869075
-0.066081 0.286203 0.088237 -0.395413 -0.000926 0.908206
0.168672 -0.410536 0.071415 0.3342 -0.073708 0.934685
0.013776 0.696221 0.084089 -0.557795 0.046866 0.825908
0.099195 -0.591089 -0.091596 -0.576484 -0.11387 -0.808732
0.027347 -0.309864 0.034036 0.991784 -0.029897 0.121055
0.147618 -0.841452 -0.103733 0.672975 -0.124015 -0.725066
0.585952 0.048656 -0.025665 -0.03311 -0.589285 -0.732151
-0.004419 -0.579476 -0.072167 0.735431 -0.037189 -0.676261
0.115955 -0.308503 0.081132 -0.090033 -0.080239 0.992141
-0.118083 -0.790364 -0.066721 -0.957647 -0.162929 -0.215811
0.076915 -0.069848 -0.133604 -0.199359 -0.401433 -0.893659
0.17053 -0.237565 -0.074209 0.525877 -0.117816 -0.842074
0.08297 -0.709461 0.0366 -0.062363 0.037232 0.995517
0.198418 -0.662001 -0.031888 0.995289 -0.0371 -0.080794
0.140394 -0.835984 0.170708 0.436383 0.792295 0.423426
-0.070995 -0.001457 -0.128315 -0.420807 -0.052613 -0.903207
0.154654 -0.816187 -0.106623 0.651931 -0.181164 -0.729185
0.029166 0.131721 -0.125604 -0.147301 0.440014 -0.885727
0.044728 -0.295941 -0.047449 -0.848255 -0.016171 -0.529268
0.031705 -0.21975 0.027716 0.916205 -0.079899 0.385387
0.154083 0.27108 -0.087904 0.875125 -0.112178 -0.470259
-0.030064 0.276341 0.11118 -0.351054 0.027767 0.934682
-0.50961 0.085449 0.042071 0.590014 -0.748159 -0.257844
0.128611 -0.349047 0.078761 -0.127205 -0.156843 0.969132
-0.072462 0.532226 0.042321 -0.086921 0.612407 0.785442
0.077217 -0.520123 -0.082353 -0.708969 -0.061344 -0.702432
-0.114904 -0.157467 0.098848 -0.706911 -0.044735 0.704684
0.007915 -0.722654 -0.009501 0.791664 0.001039 0.610764
0.133419 0.438335 -0.144961 0.141611 -0.077771 -0.986814
-0.263363 0.339203 -0.09586 0.159742 -0.159903 -0.972905
-0.098854 -0.857541 -0.009049 -0.613255 -0.758839 -0.216419
0.15033 -0.389502 -0.085994 0.546366 0.174354 -0.819177
-0.001431 0.70195 -0.072596 -0.637215 -0.5322 -0.557024
0.201604 -0.02319 0.05314 0.890146 0.065418 0.450429
0.111242 0.332596 -0.139216 0.415223 -0.108148 -0.902887
0.091402 -0.578374 0.028099 -0.409331 -0.094934 0.903592
-0.060341 0.466546 0.079267 -0.202561 0.390859 0.895021
0.11134 0.447123 -0.147002 -0.011208 -0.002434 -0.999439
-0.042218 0.458296 -0.131973 -0.019217 0.038629 -0.99763
-0.506858 0.114554 0.008888 -0.132369 -0.7372 -0.66019
0.046812 -0.007168 0.138297 0.067364 -0.425604 0.901066
0.115553 -0.804652 -0.118776 -0.21803 0.167168 -0.956494
-0.101864 0.16221 0.066152 -0.748089 -0.032424 0.662221
-0.120002 0.151332 0.037539 -0.942959 0.014967 0.330645
-0.051637 0.219603 -0.112288 -0.577729 -0.283345 -0.765174
0.064854 -0.498037 0.007644 -0.586729 0.040261 0.808427
0.174975 0.166724 -0.049057 0.927665 0.048397 -0.35934
0.034532 -0.31567 -0.009577 -0.998679 -0.032973 0.002815
0.018648 -0.206047 0.07701 0.95275 -0.031032 0.301368
0.187516 -0.553263 -0.070755 0.733078 -0.030456 -0.679183
0.198644 -0.671849 -0.02585 0.994306 -0.021511 -0.043897
-0.065676 0.238926 -0.108116 -0.593541 -0.249793 -0.764651
0.484948 0.227044 -0.006231 0.289627 0.096408 0.939027
-0.036731 0.548301 -0.109331 -0.24615 0.492963 -0.833515
0.001157 0.5432 -0.114761 0.007791 0.386267 -0.922252
0.162721 -0.0519 -0.109687 0.721455 -0.192953 -0.664007
-0.067168 -0.861621 -0.036951 0.023424 -0.998936 -0.033716
-0.011477 0.643059 -0.027852 -0.985059 0.068034 -0.124811
0.186103 -0.087827 0.081244 0.714637 0.030081 0.698744
-0.108938 -0.747566 -0.00252 -0.454209 0.491036 0.735119
0.248077 0.413082 -0.014113 0.026714 -0.355587 0.931173
-0.11988 -0.78281 -0.05893 -0.992088 -0.04555 -0.104842
-0.01884 0.808011 0.037444 -0.90439 0.234216 0.352225
0.042331 0.610066 -0.078175 0.045651 0.709194 -0.668976
-0.29938 0.277952 -0.088704 0.272182 -0.385226 -0.878734
-0.131071 -0.095713 0.070075 -0.841258 0.003425 0.540521
0.137027 0.569972 -0.092695 0.369978 0.693704 -0.615917
0.032609 -0.125023 -0.074067 -0.839388 -0.296487 -0.455144
-0.118654 -0.388107 0.077997 -0.911992 -0.066229 0.402898
0.040508 0.406567 0.098567 0.065995 0.251694 0.965331
0.047025 0.657662 -0.064655 0.189294 -0.102551 -0.975481
-0.03237 0.204855 -0.117858 -0.319492 -0.363162 -0.873125
-0.090041 -0.316132 0.105631 -0.105857 -0.04785 0.991511
0.075761 -0.494751 0.015565 -0.644061 0.048689 0.763393
-0.118004 0.182029 -0.029218 -0.880787 0.120687 -0.457702
0.025548 -0.67512 -0.052895 0.962051 0.041309 -0.252695
0.018707 -0.295449 -0.034463 0.924951 -0.053067 -0.369356
0.034365 0.684467 0.089982 0.027365 0.099879 0.977287
-0.092318 -0.484896 0.075955 -0.568423 -0.198923 0.795718
0.471466 0.258396 -0.077674 0.792886 0.549163 -0.25386
0.205399 -0.301157 -0.008406 0.991607 -0.009876 -0.123847
0.025249 -0.008481 0.143298 0.139748 -0.544657 0.80486
-0.03988 -0.721674 -0.116122 0.465311 0.22354 -0.855899
-0.10613 -0.507756 0.047463 -0.8025 -0.192923 0.56453
0.095 -0.534535 -0.096539 -0.585179 -0.065189 -0.808039
0.241534 0.49678 -0.115796 0.469243 0.533194 -0.703433
0.130282 -0.201713 0.094743 0.087214 -0.219967 0.971236
0.15271 -0.058301 0.106282 0.506724 0.000949 0.861992
-0.141944 0.469843 -0.098703 -0.425586 0.077806 -0.900629
-0.380476 0.235811 -0.077109 -0.154154 -0.304069 -0.938354
0.136636 -0.869902 0.07494 0.035581 -0.999088 -0.000505
0.014105 -0.773079 -0.035359 0.888502 -0.129514 0.435754
-0.163197 0.424747 -0.09472 0.075527 -0.04168 -0.994894
0.020828 -0.402507 -0.021335 0.96849 -0.093375 -0.225165
0.100209 0.71751 -0.01144 0.945671 -0.286041 -0.060172
0.252127 0.518419 -0.025564 0.686223 0.607458 0.399642
0.042814 -0.400801 -0.021115 -0.994339 -0.096524 0.009708
-0.227322 0.415332 0.029736 -0.525194 0.074497 0.844188
0.197062 0.35796 -0.028936 0.986862 -0.10706 0.110122
-0.03478 0.482274 -0.12929 0.016887 0.129088 -0.991395
0.110446 0.576134 -0.099027 0.206925 0.703306 -0.678239
0.190714 0.327873 -0.029751 0.992757 -0.113647 -0.03618
0.192487 -0.595121 -0.062325 0.804321 -0.026466 -0.593416
0.195795 -0.358741 0.038692 0.906252 -0.09045 0.412288
-0.001634 -0.799704 -0.12123 0.862981 0.014482 -0.49651
-0.292337 0.336195 0.005457 -0.286997 0.181797 0.938606
-0.023267 0.221483 0.114905 -0.422548 0.106862 0.89918
-0.012928 -0.030476 0.133426 -0.053797 0.112403 0.992068
-0.475985 0.139307 -0.022372 0.235202 -0.891249 -0.386635
0.142184 0.438433 0.072822 0.436839 0.135284 0.888043
0.641904 0.02255 0.051211 0.290368 -0.86191 -0.004194
-0.140371 -0.079474 0.042123 -0.950806 0.016251 0.308787
0.167489 0.507835 0.031965 0.489165 0.439478 0.74854
0.158906 0.116982 0.07666 0.575583 0.176429 0.797391
-0.106213 -0.51468 -0.081969 -0.680993 0.119687 -0.72173
0.046278 0.815583 -0.109024 0.1706 0.610029 -0.773397
0.026855 0.381302 0.106211 0.056747 0.181229 0.981408
-0.089085 0.356752 0.071641 -0.750209 -0.107956 0.650284
-0.444184 0.167584 -0.052436 -0.049762 -0.381064 -0.838775
0.258639 0.510697 -0.025443 0.728532 0.556391 0.395541
