0.0964 0.804901 -0.06742 0.935505 0.197813 -0.282088
-0.126666 -0.703331 -0.063496 -0.964779 -0.074123 -0.243364
0.086269 -0.827947 -0.029545 -0.766569 -0.609726 -0.001973
0.110534 -0.148413 -0.112368 0.043525 -0.24171 -0.968896
-0.028287 -0.240262 -0.088879 0.340283 0.020918 -0.937277
-0.081132 0.298569 -0.105723 -0.527518 -0.05775 -0.827416
0.135464 -0.008349 0.114307 0.413341 -0.200896 0.885195
0.017081 -0.086316 -0.09049 -0.060257 -0.700715 -0.691666
0.186103 -0.087827 0.081244 0.714637 0.030081 0.698744
-0.52825 0.079291 0.030897 0.458817 -0.637062 -0.61742
-0.128147 -0.65086 -0.063549 -0.993159 -0.011381 -0.094628
-0.021454 0.372789 -0.129172 -0.012021 -0.023014 -0.999581
-0.037915 -0.856081 -0.042404 0.544893 -0.833058 0.061257
0.077111 0.220587 0.12084 0.383904 0.077837 0.919854
-0.1256 -0.665208 -0.073805 -0.909857 -0.013929 -0.403139
0.157114 -0.590251 0.039668 0.164105 -0.167709 0.969538
-0.133948 0.057823 0.023708 -0.92811 0.317161 0.16071
0.131418 0.43345 0.078744 0.386283 0.190157 0.900409
0.580273 0.132576 0.009119 0.778341 0.612145 -0.136843
0.087558 -0.841762 -0.070207 -0.98385 0.15142 -0.079325
0.138553 0.047734 0.109557 0.48967 0.260681 0.824251
-0.100083 -0.488332 0.066002 -0.728357 -0.347458 0.587618
0.328182 0.354278 -0.138264 0.035577 -0.103147 -0.992953
-0.07041 0.222365 -0.097907 -0.691818 -0.251838 -0.676081
-0.055345 -0.815514 0.07282 -0.037551 0.896715 0.433602
-0.119808 -0.781983 -0.031436 -0.99229 -0.040749 0.108652
-0.105419 -0.441472 0.077159 -0.742801 -0.112946 0.65934
-0.121902 0.358637 -0.049588 -0.980917 -0.189921 -0.0167
0.037395 0.714913 0.096812 0.211747 -0.331041 0.911856
-0.028641 -0.504082 -0.092855 0.548863 0.065826 -0.830935
0.169393 -0.173853 -0.080421 0.663384 -0.035396 -0.747002
-0.024747 -0.846814 -0.118615 0.94537 -0.107016 -0.286364
-0.000684 0.686139 -0.059154 -0.6934 -0.426199 -0.579793
0.614869 0.056432 0.078699 -0.780643 -0.615541 0.064349
-0.082637 0.505612 0.057194 -0.157219 0.398859 0.902063
0.372677 0.314786 -0.131441 0.225711 0.03113 -0.965413
0.082951 -0.763415 0.011294 -0.04061 0.037829 0.918535
0.191021 -0.416289 0.045383 0.933484 -0.037558 0.355101
-0.314546 0.336761 -0.080706 -0.499692 0.605031 -0.617952
-0.118654 -0.388107 0.077997 -0.911992 -0.066229 0.402898
0.184024 0.289108 -0.004782 0.99116 -0.127976 0.014482
0.005196 -0.323468 0.074957 0.646849 -0.201144 0.735495
-0.087948 0.161596 0.080003 -0.678081 -0.025103 0.734394
0.329104 0.367296 -0.043284 0.609721 0.183446 0.767825
-0.135239 -0.220512 0.054072 -0.988233 -0.052523 0.14111
0.019313 -0.363204 0.041505 0.918856 -0.149925 0.362132
0.054784 -0.496783 -0.059724 -0.801591 -0.0269 -0.59692
-0.129095 -0.283958 0.002675 -0.995954 -0.065141 -0.054528
-0.340243 0.219855 -0.037717 0.616023 -0.776089 -0.07983
0.146332 0.311263 0.071235 0.774297 0.047137 0.630873
0.189828 -0.473294 0.03458 0.957738 -0.051352 0.278325
-0.037733 -0.830675 0.106557 0.66442 0.666919 0.272819
-0.120509 0.336245 -0.041014 -0.99984 -0.015754 0.003086
-0.399563 0.180414 -0.022259 0.487029 -0.867398 -0.089083
0.277138 0.455977 -0.014377 0.57964 0.147663 0.798706
-0.086125 -0.544966 -0.098121 -0.35159 0.086356 -0.931826
0.127665 -0.355485 -0.095657 0.404695 0.074301 -0.911415
0.353005 0.398192 -0.099727 0.941317 -0.318244 0.016208
-0.094978 0.184203 -0.066284 -0.728594 0.112823 -0.675231
-0.307238 0.302224 -0.096682 -0.053869 -0.068308 -0.995728
0.205164 0.052532 -0.0043 0.98199 0.156065 -0.085262
-0.067767 0.58218 -0.048967 -0.303802 0.942608 -0.0712
0.098672 0.197237 -0.118378 0.320599 -0.432339 -0.837433
0.055848 0.512188 -0.127912 -0.15403 0.119909 -0.979511
-0.246618 0.419355 0.011846 -0.707054 0.391978 0.581205
0.067574 -0.405035 -0.071746 -0.728674 -0.025091 -0.683925
0.155139 -0.145115 -0.095544 0.479127 -0.153704 -0.847266
-0.056746 0.444588 -0.130477 -0.122259 -0.09356 -0.987858
0.043429 0.608082 0.025772 0.199707 -0.113289 0.968894
-0.027474 0.279697 -0.130511 -0.129709 -0.037016 -0.990167
0.10026 0.555253 -0.118643 0.112314 0.546364 -0.82873
-0.127467 -0.64417 -0.03259 -0.988832 -0.089348 0.110469
-0.142438 -0.037932 0.020746 -0.980824 0.155637 0.103964
0.066264 0.648539 -0.055353 0.545777 0.163732 -0.821058
0.06435 0.66676 0.072547 0.64357 -0.698387 0.303171
-0.31993 0.285864 -0.093888 -0.03579 -0.208142 -0.976946
0.423138 0.211839 -0.102999 -0.630933 -0.635819 -0.413028
0.003775 -0.438735 0.044779 0.77841 -0.136966 0.612255
-0.030525 0.597181 -0.062496 -0.551437 0.792925 -0.253888
-0.005076 -0.341648 -0.060265 0.713165 -0.067265 -0.697625
0.055111 0.083291 -0.147331 -0.139252 0.314984 -0.938114
0.192896 -0.552925 0.018215 0.9247 -0.022725 0.378178
-0.05506 -0.694305 -0.114148 0.130425 0.267005 -0.953686
-0.106561 0.29908 0.037619 -0.972158 0.060626 0.223182
-0.009065 -0.825808 0.001226 0.705616 -0.53664 0.33874
0.163937 -0.545104 0.048971 0.24762 -0.310323 0.917377
0.344653 0.309346 -0.044157 -0.296128 -0.282344 0.888663
0.152887 0.494874 -0.136139 0.154501 0.268319 -0.950276
0.165069 -0.843961 -0.008852 0.994979 0.022884 -0.074292
-0.000207 -0.352 0.074364 0.722402 -0.081375 0.686659
-0.118848 -0.262658 -0.032444 -0.827851 0.003763 -0.560436
-0.127833 0.100313 0.024357 -0.984968 -0.036489 0.164842
-0.038095 -0.632631 -0.098315 0.461734 0.025466 -0.886476
0.043454 -0.426137 -0.030107 -0.998768 -0.010824 -0.037042
0.065226 0.174532 -0.119202 -0.024573 0.110309 -0.991475
0.133262 -0.826319 0.141038 0.235313 0.965877 0.087421
0.022672 -0.22566 0.059519 0.928857 -0.023083 0.366322
0.132015 0.526991 -0.128107 0.141175 0.414776 -0.89692
-0.164071 0.496265 0.051003 -0.381174 0.277482 0.88088
-0.042145 0.373585 0.105171 -0.22105 0.063813 0.968609
0.144924 -0.29923 0.081152 0.133669 -0.065922 0.988111
-0.072767 0.566912 0.003374 -0.119898 0.827052 0.547535
-0.27023 0.325392 0.008223 0.093909 -0.169958 0.977223
0.125579 -0.305496 0.081749 -0.012809 -0.0644 0.997756
-0.017474 0.261051 -0.130343 -0.02972 -0.055526 -0.997596
0.009835 -0.304332 -0.047044 0.768608 -0.091005 -0.633203
0.103453 0.799631 -0.014028 0.953154 0.282046 0.072526
-0.12348 0.120529 0.034456 -0.902715 0.116272 0.412132
0.155313 0.0335 -0.116659 0.717426 0.121028 -0.685004
0.192475 -0.050235 -0.062788 0.902803 -0.050733 -0.426798
-0.429866 0.229301 0.002818 -0.629988 0.577843 0.504003
0.315732 0.442179 -0.108751 0.551953 0.679862 -0.481489
0.128249 -0.869612 0.103898 -0.008219 -0.999781 0.017704
-0.023267 0.221483 0.114905 -0.422548 0.106862 0.89918
0.171497 0.069472 0.081636 0.734288 0.21044 0.645032
0.198043 -0.458693 -0.048148 0.966609 0.039069 -0.2315
0.064746 0.861076 -0.039109 0.441953 0.868263 -0.188841
0.1977 -0.237681 -0.048545 0.835539 -0.165024 -0.521368
0.059371 -0.706732 -0.02836 -0.869897 -0.234353 -0.431505
-0.303559 0.330932 -0.091394 -0.334943 0.415439 -0.843588
0.137468 0.066956 0.104438 0.456222 0.225131 0.82952
-0.232986 0.338483 -0.082323 0.449928 -0.595163 -0.663427
0.147893 -0.049502 0.109183 0.497474 -0.029065 0.866115
0.034194 -0.286474 -0.025478 -0.950807 -0.115555 -0.270654
-0.4818 0.112912 0.028302 0.834287 -0.543549 0.002107
-0.218978 0.486651 -0.021107 -0.752334 0.653833 -0.035214
-0.113204 0.244394 -0.01678 -0.963877 0.245246 -0.007716
0.096841 0.605385 -0.03652 0.888124 0.430645 0.137532
0.10354 -0.566808 -0.098171 -0.511148 -0.14704 -0.846135
0.001495 -0.375028 0.06784 0.765386 -0.162986 0.62212
0.116513 0.533545 0.030411 0.370273 0.586024 0.720414
0.196017 0.388311 -0.00092 0.967846 -0.120215 0.219146
0.128866 0.018607 -0.140507 0.517494 0.035228 -0.854823
-0.04001 0.550775 0.033332 -0.201067 0.7017 0.683244
0.310935 0.314723 -0.06636 -0.577403 -0.673188 0.461275
0.004125 -0.359459 0.068579 0.750125 -0.126829 0.648331
0.010028 0.627426 0.022185 -0.582233 -0.187719 0.786901
-0.0102 -0.736072 0.007642 0.482175 -0.496213 0.699571
0.138795 0.581783 -0.041396 0.2646 0.926952 0.254735
0.112474 -0.266017 -0.099421 0.059413 -0.01082 -0.990307
-0.036956 -0.861837 0.01396 0.2481 -0.955284 -0.099764
-0.135368 -0.513206 -0.04 -0.957993 0.023071 -0.270136
-0.110346 0.121549 -0.058667 -0.850355 0.070229 -0.518524
-0.120827 0.406886 -0.097103 -0.696278 -0.345223 -0.621041
0.140453 -0.068744 0.11232 0.328391 0.022211 0.944147
0.074886 0.191789 0.123409 0.44203 0.042437 0.893024
-0.56222 0.04399 0.06562 -0.00463 -0.755804 0.572989
0.209235 0.411461 -0.095043 0.078173 -0.88952 -0.131268
0.054227 -0.606986 -0.010051 -0.823499 -0.004084 0.564288
-0.090718 0.467071 0.067628 -0.407718 0.189776 0.888548
-0.127731 -0.655289 -0.040957 -0.996567 -0.026369 0.076726
0.060512 -0.7807 -0.02383 -0.985417 0.019244 -0.166413
-0.02424 -0.848125 0.073444 0.981106 0.016773 0.148499
0.048825 -0.605632 -0.040124 -0.895927 -0.09788 -0.427244
0.031782 0.622394 -0.070567 -0.122591 0.5023 -0.855138
-0.301968 0.29419 -0.095064 0.09142 -0.244374 -0.96356
0.029761 0.803876 -0.115969 -0.046988 0.304984 -0.950245
0.041558 -0.125717 -0.08623 -0.506822 -0.391563 -0.767529
-0.401081 0.253368 -0.070549 -0.680352 0.120934 -0.714309
-0.042054 -0.614576 -0.099508 0.392058 0.034986 -0.917667
-0.050272 0.185367 0.104126 -0.485544 0.030046 0.873367
0.158981 0.106715 -0.087884 0.753844 0.271711 -0.596665
0.011012 0.125725 -0.125791 -0.111461 0.43629 -0.892395
0.095008 -0.464064 -0.097474 -0.53248 0.057993 -0.84418
-0.395079 0.212217 0.013689 0.15358 0.131042 0.978519
0.158299 0.38879 -0.123273 0.398745 -0.331128 -0.853136
0.187147 0.032154 0.075579 0.802494 0.205291 0.56009
0.081577 0.695794 -0.049204 0.848215 -0.377756 -0.362813
0.141788 0.354026 0.077548 0.696682 -0.04747 0.715111
0.18518 -0.234607 0.072187 0.654285 -0.162757 0.735038
0.002145 0.029446 0.138855 -0.136224 0.151811 0.978373
0.165044 -0.3929 -0.077424 0.561362 0.178052 -0.807563
-0.104077 -0.817951 -0.084397 -0.875719 -0.433253 -0.204132
-0.310764 0.302134 0.005442 -0.111553 0.064201 0.991296
0.03356 0.514888 0.059719 0.091477 0.502284 0.859369
0.153075 -0.034351 -0.124126 0.70455 -0.108867 -0.700615
-0.003304 -0.067896 0.127463 0.178958 -0.134667 0.972872
-0.063895 -0.654239 0.03118 0.363374 -0.272989 0.890716
0.181791 0.094368 0.061565 0.798598 0.182841 0.571498
0.042476 0.725777 0.098404 0.702855 -0.280489 0.640522
-0.086098 -0.74961 -0.117193 -0.577848 -0.010815 -0.815322
0.181815 -0.136795 -0.072075 0.715662 -0.071453 -0.694733
0.009979 -0.405416 0.047009 0.859457 -0.1989 0.470835
0.034915 -0.31142 -3e-05 -0.955405 -0.059548 0.28844
-0.114879 0.292292 -0.030048 -0.959888 -0.269695 0.018742
0.026367 -0.341726 -0.012432 0.967245 -0.061433 -0.228841
0.168516 -0.86306 0.0718 0.295482 -0.944 -0.011117
-0.372946 0.247726 -0.081593 -0.09252 -0.283696 -0.9537
0.088823 -0.539187 0.02787 -0.561758 0.037607 0.825152
-0.0313 0.548015 0.039052 -0.200168 0.71247 0.672536
0.102798 0.736351 -0.003265 0.80158 -0.348796 0.484595
0.207066 0.538158 -0.004473 0.296027 0.669309 0.680453
-0.100389 -0.710196 0.012789 -0.49521 -0.528825 0.682381
0.166711 -0.717501 -0.002701 0.491282 -0.31425 0.802162
0.097362 0.79988 0.012718 0.95996 0.118598 0.246079
0.157551 -0.864544 0.096394 0.285235 -0.955725 0.011864
-0.112509 0.275123 -0.031327 -0.997904 -0.060979 -0.010099
0.040508 0.406567 0.098567 0.065995 0.251694 0.965331
0.101149 -0.867945 -0.109105 -0.442997 -0.807512 -0.300113
0.119083 -0.50699 0.045435 -0.559959 -0.086673 0.823834
-0.13717 -0.492008 -0.03078 -0.977911 -0.032356 -0.204394
0.080346 0.417607 -0.143355 -0.221017 0.037626 -0.973668
-0.095544 -0.659891 -0.101335 -0.502162 -0.021293 -0.864298
-0.004132 0.467577 0.087665 -0.02521 0.41186 0.909859
0.038647 -0.28886 -0.037225 -0.91426 -0.014755 -0.403374
0.041209 0.660454 0.08242 0.11787 -0.955777 0.253366
-0.111653 0.326328 0.021696 -0.939734 -0.125674 0.31434
0.014248 -0.754974 -0.027689 0.7246 -0.384421 0.570871
0.192531 0.340712 -0.03944 0.958088 -0.264909 -0.087525
0.161112 -0.25066 -0.077486 0.528077 -0.136044 -0.83815
0.097089 0.599705 -0.028634 0.856686 0.405578 0.295338
0.120027 -0.869026 0.122015 -0.008621 -0.998772 0.046397
0.55083 0.105591 0.011829 -0.927944 -0.364771 0.052071
0.149947 -0.1007 0.108844 0.487794 -0.012872 0.87276
-0.01137 0.344156 0.111296 -0.28986 0.071206 0.943326
0.207059 0.006222 0.025756 0.99775 0.016506 0.057592
0.054195 0.387312 -0.136174 -0.304242 0.007856 -0.952255
-0.207571 0.492553 -0.043156 -0.711676 0.559365 -0.421825
0.165763 0.403999 0.056219 0.647295 0.018336 0.761229
0.147551 -0.18216 -0.096971 0.498349 -0.060354 -0.864539
0.006296 0.852734 0.039962 -0.474863 0.680441 0.550831
0.137368 -0.283438 0.082651 0.053058 -0.048514 0.997324
-0.106773 0.538742 -0.08578 -0.414121 0.605084 -0.67976
0.068246 -0.508681 -0.074039 -0.719832 -0.039932 -0.692651
0.096538 -0.865698 -0.100528 -0.719795 -0.641783 -0.245735
0.024068 -0.236598 -0.030064 0.422184 -0.084907 -0.886368
-0.076298 -0.020994 -0.122443 -0.563243 -0.15517 -0.811208
0.31997 0.383975 -0.142568 0.217847 -0.044266 -0.974173
0.135254 0.515337 0.038754 0.375498 0.613993 0.693534
0.038695 0.858344 -0.063319 0.062936 0.844897 -0.530598
-0.113284 0.506598 -0.103731 -0.440084 0.355371 -0.814959
0.345603 0.407528 -0.070562 0.823294 0.397132 0.3958
0.035471 0.56102 0.026271 0.104318 0.154351 0.974822
0.059419 -0.627533 -0.052435 -0.79041 -0.115266 -0.60029
-0.114738 -0.802911 -0.042816 -0.884203 -0.457238 0.061316
0.158615 -0.864472 0.07315 0.262601 -0.96078 -0.005358
0.054452 0.843274 0.051935 0.49513 0.565955 0.658356
0.044723 0.114567 -0.135539 -0.073534 0.392741 -0.916534
0.042023 -0.311991 0.014755 -0.971093 -0.023565 0.237122
-0.071347 0.541393 0.034527 -0.098293 0.681143 0.72501
-0.105545 -0.157152 0.107286 -0.658682 -0.05241 0.750528
0.499006 0.172005 0.01594 -0.533703 -0.706515 0.440407
0.179402 0.510223 0.023602 0.42238 0.444653 0.789215
0.097618 0.813452 -0.033054 0.952213 0.299886 -0.01947
-0.131895 -0.237957 -0.003902 -0.936132 -0.037094 -0.349405
-0.079718 0.127072 -0.092731 -0.624503 0.16903 -0.762097
-0.096475 -0.84144 0.124029 -0.778365 0.556759 0.258875
0.153357 -0.03846 0.106269 0.568742 -0.003761 0.821497
0.081262 -0.442283 0.021509 -0.690755 -0.271516 0.668757
0.170991 0.256611 0.047411 0.744779 0.079365 0.662169
-0.200962 0.342272 -0.038898 0.643834 -0.763866 -0.022646
0.005882 -0.172101 -0.06182 0.774275 0.04224 -0.631095
0.163965 0.482293 0.045954 0.57582 0.320786 0.751537
-0.029315 -0.84939 -0.034105 0.582333 -0.810295 -0.031994
0.086145 -0.289535 0.076886 -0.390437 -0.215584 0.89491
-0.049462 0.437928 -0.130352 -0.087892 -0.108227 -0.990068
0.130003 0.110669 -0.115054 0.564697 0.300896 -0.766308
0.08863 -0.82594 0.04085 -0.961076 -0.197973 0.125894
0.198112 0.460927 -0.134584 0.091022 -0.024283 -0.995232
-0.550984 0.08341 0.038799 -0.822614 0.563661 -0.022833
-0.036552 0.786894 -0.010475 -0.993343 0.063005 0.094929
0.12808 -0.268469 0.08399 0.05301 -0.085501 0.994594
0.623176 0.07603 0.051844 0.855236 0.517364 0.020974
0.048866 -0.208688 -0.06258 -0.849615 -0.119589 -0.513439
-0.001148 -0.293152 -0.062352 0.756522 -0.123305 -0.642233
0.127339 -0.178376 -0.105533 0.205718 -0.10385 -0.97009
0.063058 -0.088385 0.097701 0.116774 -0.802921 0.576963
0.020486 -0.532368 0.000375 0.924354 -0.139627 0.352829
-0.375803 0.273337 -0.083609 -0.326093 0.195264 -0.923335
0.103707 -0.257381 -0.098686 -0.201826 0.027842 -0.975939
-0.121971 -0.654734 -0.008257 -0.985098 -0.122931 0.118323
-0.011211 0.098227 -0.132931 -0.206888 0.394502 -0.888548
0.048473 -0.472027 -0.050326 -0.8565 0.007799 -0.514718
0.183298 0.351395 0.023577 0.915428 -0.101361 0.388151
0.014683 0.80722 -0.113195 -0.183426 0.335973 -0.917177
-0.125132 -0.373087 -0.035256 -0.915237 0.010302 -0.398708
0.038657 -0.318923 0.00579 -0.89331 -0.074696 0.434975
0.064566 0.542384 -0.121654 -0.140027 0.31044 -0.939076
-0.011953 -0.8273 -0.122509 0.597241 -0.68937 -0.397824
0.199879 -0.196587 0.043612 0.951651 -0.024906 0.305726
-0.035363 -0.458001 0.070597 0.298771 -0.337113 0.892205
-0.160407 0.468802 -0.091595 -0.374563 0.157768 -0.913431
-0.394687 0.2024 -0.061518 -0.077088 -0.575021 -0.807441
-0.098938 -0.838948 -0.07748 -0.961837 -0.179518 -0.198184
0.0434 -0.41707 -0.02408 -0.999646 -0.012648 0.012239
0.093668 0.247071 0.111264 0.341657 0.080326 0.936269
0.060494 -0.793647 -0.013546 -0.962688 -0.231429 0.004449
0.203959 -0.543791 -0.035653 0.96652 -0.027113 -0.249112
0.198817 -0.039184 -0.050023 0.943274 -0.008583 -0.329713
-0.18837 0.491617 0.038088 -0.600419 0.326475 0.727459
0.096644 -0.767095 -0.085544 -0.773935 0.230703 -0.57085
-0.350293 0.318742 -0.030164 -0.671219 0.721374 0.167974
-0.184608 0.437946 -0.091917 -0.129595 0.234977 -0.96297
0.102126 -0.645393 0.032849 -0.404955 0.12695 0.898652
-0.033847 0.838627 -0.019883 -0.735166 0.676631 -0.025612
0.003314 -0.828027 -0.070982 0.832573 -0.553421 -0.016061
0.050883 -0.328817 0.040381 -0.748372 -0.170174 0.639955
0.010741 -0.513429 -0.049864 0.841075 0.049184 -0.536892
-0.505371 0.141172 0.064322 -0.654138 0.702878 0.25289
-0.109745 -0.060707 0.096886 -0.705673 0.029429 0.707858
-0.054633 0.205547 -0.104421 -0.528815 -0.311004 -0.789195
0.021145 0.836307 -0.091368 -0.159037 0.715193 -0.679902
0.02111 -0.741697 -0.06144 0.966582 -0.097207 -0.229799
-0.037214 0.805572 -0.017158 -0.986537 -0.117486 0.076573
-0.13479 0.01564 -0.032742 -0.965427 -0.00373 -0.25048
-0.069644 0.098747 -0.109543 -0.569049 0.299664 -0.764524
0.109873 0.226595 0.105712 0.428983 0.064189 0.900918
0.095362 -0.374123 -0.097164 -0.4368 -0.060099 -0.893439
-0.047868 -0.863917 0.097999 0.045474 -0.998572 0.022533
0.203638 -0.007854 0.044902 0.928476 0.032143 0.366043
0.133792 -0.226974 -0.097196 0.37462 -0.123575 -0.916683
0.062282 -0.061981 -0.132582 -0.314856 -0.407041 -0.857414
-0.037894 -0.350402 0.094389 0.320494 -0.137094 0.936701
-0.092192 -0.177021 -0.076408 -0.693359 -0.078524 -0.716159
-0.170608 0.397609 -0.090185 0.439583 -0.392789 -0.800354
-0.004506 -0.054788 -0.122874 0.082602 -0.517994 -0.850967
-0.29938 0.277952 -0.088704 0.272182 -0.385226 -0.878734
0.099037 -0.510139 0.032357 -0.52435 0.012772 0.85124
-0.068267 -0.861729 -0.05787 0.001458 -0.999248 0.036279
0.018103 -0.667557 -0.005571 0.870716 -0.225524 0.435729
0.026539 -0.288835 0.043419 0.979047 -0.005477 0.189207
0.070099 -0.679613 0.02557 -0.408988 0.379195 0.829823
-0.030936 -0.826743 -0.143144 0.316624 -0.388502 -0.863307
0.327548 0.327785 -0.132328 -0.254996 -0.326675 -0.906222
-0.109214 -0.136525 -0.065661 -0.764687 -0.117015 -0.633254
-0.014383 0.343221 -0.128915 0.004651 0.016632 -0.999587
0.304822 0.46541 -0.079636 0.74865 0.657668 -0.071254
0.213477 -0.079313 0.025312 0.989417 -0.008862 0.133335
-0.059897 -0.425461 -0.086865 -0.110233 0.240364 -0.963107
-0.036197 0.470697 -0.130873 0.028584 0.114576 -0.992761
-0.110568 -0.812054 -0.03642 -0.849472 -0.513598 0.115807
-0.144396 -0.112125 0.015767 -0.999906 -0.00056 0.012094
0.085037 -0.849902 0.103783 -0.884214 0.445548 0.07567
-0.026027 -0.280648 0.099486 0.333349 -0.254921 0.906585
-0.046878 -0.2105 0.118265 0.093314 -0.196601 0.975959
-0.018474 0.616563 -0.039813 -0.867667 0.427805 -0.240172
0.025748 0.041695 0.137163 0.102364 0.114614 0.987571
0.046638 0.852464 0.04682 0.317498 0.692857 0.646394
0.083102 -0.434047 0.027485 -0.672909 -0.354409 0.648768
0.154454 -0.187197 -0.091622 0.610346 -0.057198 -0.789904
0.080666 0.679564 -0.040085 0.905757 -0.174105 -0.368188
-0.128488 -0.293781 0.030111 -0.997254 -0.060286 0.038275
0.103433 -0.860441 -0.009411 -0.565202 -0.81245 -0.066739
-0.010131 -0.659795 -0.079757 0.633523 0.106626 -0.766088
-0.204781 0.465489 0.032376 -0.577269 0.265456 0.771157
0.19766 -0.695725 -0.026092 0.98275 -0.04207 -0.142526
-0.062123 -0.131464 0.122472 -0.243442 0.013467 0.969566
0.062379 0.483035 -0.133138 -0.491402 0.325554 -0.799725
0.115318 -0.869554 0.102313 0.017445 -0.999629 0.019223
-0.326596 0.227455 -0.014669 0.6648 -0.716723 0.194331
0.156283 -0.845602 0.163527 0.812668 0.459866 0.345005
0.15917 -0.566656 0.042942 0.108153 -0.155259 0.978467
-0.079726 -0.860243 -0.115996 -0.315685 -0.890513 -0.270139
0.142192 -0.826646 -0.110726 0.453033 -0.14831 -0.874589
-0.448476 0.145481 0.013638 0.676043 -0.724007 0.08877
-0.041015 0.054246 0.124224 -0.495853 0.178408 0.849745
-0.057137 -0.589343 0.043853 0.409402 -0.276292 0.869264
0.01425 -0.599657 0.007141 0.606934 0.087965 0.789279
-0.033748 0.195489 -0.112417 -0.36695 -0.353361 -0.860036
0.38396 0.266427 -0.123578 -0.353266 -0.421619 -0.833323
0.070445 0.831494 0.047417 0.636177 0.561846 0.525314
0.19627 0.088592 -0.02943 0.946925 0.25345 -0.18764
0.025467 -0.614768 -0.007091 0.946887 -0.013563 0.313612
0.05211 0.250443 -0.129476 -0.289056 -0.070131 -0.954136
0.175489 0.554913 -0.090872 0.322389 0.750306 -0.576304
-0.127206 -0.381111 -0.027378 -0.973561 0.053992 -0.211145
0.206926 -0.068249 0.046869 0.930663 0.072916 0.358381
0.083834 0.101108 0.124548 0.458304 0.00751 0.887809
-0.118687 -0.550772 -0.075398 -0.759395 0.122926 -0.638005
-0.220652 0.338321 -0.005098 0.480773 -0.657955 0.569094
0.068999 -0.820848 -0.035824 -0.760673 -0.586086 -0.059834
-0.031279 0.729776 -0.04324 -0.820109 -0.425459 -0.367145
0.164832 0.053159 0.093112 0.476662 0.279123 0.828838
-0.367463 0.238119 0.01012 0.053634 0.010992 0.998308
0.256007 0.519908 -0.03746 0.701293 0.682637 0.192984
0.500572 0.179425 -0.051033 0.032065 -0.459641 -0.886777
0.305154 0.341375 -0.043058 -0.276044 -0.517087 0.80838
-0.119813 0.312754 -0.031483 -0.996402 -0.083221 0.013422
0.14902 -0.773657 0.035332 0.39579 0.295261 0.862957
-0.033872 -0.181856 0.120825 0.156603 -0.110507 0.980938
0.093295 -0.865898 0.117341 -0.481639 -0.870784 0.089293
0.15486 -0.748417 0.026097 0.310118 0.541508 0.668946
0.225848 0.485573 -0.128013 0.235674 0.287058 -0.92737
0.164037 0.536263 -0.115144 0.239406 0.59473 -0.76742
0.17422 -0.336684 -0.057227 0.733507 0.031213 -0.678791
0.171935 -0.546879 -0.087166 0.680985 -0.033052 -0.73154
0.045243 -0.344625 -0.045386 -0.871732 -0.079583 -0.483238
-0.078555 -0.361347 -0.079929 -0.444812 -0.019547 -0.895322
-0.091912 -0.820153 -0.109476 -0.837773 -0.274555 -0.471725
-0.056491 0.413614 0.095025 -0.25704 0.215836 0.941451
0.192448 0.482212 0.027528 0.36507 0.25298 0.895135
-0.002774 -0.445151 -0.061034 0.739194 0.064595 -0.670301
-0.092988 0.248426 -0.086367 -0.694452 -0.310671 -0.648472
0.046246 -0.354262 -0.04596 -0.899151 -0.042731 -0.420694
-0.06248 -0.842788 0.160069 0.472637 0.290306 0.812648
0.19013 0.32677 -0.007357 0.99075 -0.100431 0.088068
-0.002843 0.859877 -0.003247 -0.586706 0.80381 0.038575
0.105102 0.771041 -0.039245 0.998403 -0.037861 -0.036478
-0.170059 0.533756 -0.042299 -0.616725 0.716057 -0.321157
-0.053713 0.295224 0.095663 -0.491697 0.001681 0.870063
0.163915 -0.805515 0.022886 0.835812 0.304172 0.451929
0.098772 0.792083 -0.066259 0.935744 0.105765 -0.334892
-0.035136 -0.861192 -0.0818 0.305117 -0.933631 0.14402
-0.039827 0.773813 -0.024329 -0.994908 0.082145 0.038388
-0.118456 -0.517935 -0.069342 -0.752235 0.13649 -0.643877
-0.019502 0.304705 0.113649 -0.180599 0.057585 0.978725
0.359397 0.307485 -0.131606 -0.098337 -0.243004 -0.962558
0.050788 0.148122 -0.120927 -0.130298 0.266694 -0.953937
-0.082846 -0.496717 -0.094364 -0.416594 0.116907 -0.895255
-0.480074 0.130503 -0.008291 0.311481 -0.790769 -0.521938
0.010624 0.595055 -0.086861 -0.107448 0.624061 -0.772969
0.119583 -0.207598 -0.102984 0.054837 -0.154427 -0.984263
-0.106507 -0.260413 -0.053629 -0.822324 -0.025956 -0.568357
0.160154 -0.750576 -0.073989 0.863971 0.133411 -0.480977
0.150949 -0.509884 -0.102652 0.41674 -0.015132 -0.907093
0.160911 0.199759 0.06444 0.771515 0.092008 0.628995
0.00339 0.667211 0.069473 -0.715216 -0.540101 0.383599
0.092976 0.706356 -0.003757 0.786615 -0.591984 0.03113
0.155787 -0.863387 -0.05565 0.546219 -0.837353 0.013291
0.11147 0.457279 -0.146685 -0.014502 0.057827 -0.997706
0.14966 -0.810921 0.045437 0.599075 0.520565 0.607345
0.574421 0.071009 -0.004181 -0.869863 -0.4609 -0.127332
0.133569 0.281345 -0.120617 0.712485 -0.055822 -0.697622
0.02699 0.343529 0.114515 -0.045929 0.187025 0.980075
0.026064 -0.651682 -0.046074 0.965939 0.054223 -0.2438
0.638785 0.038391 0.088263 0.959385 0.116743 0.193504
0.124262 0.48957 -0.142047 0.076668 0.327671 -0.93737
-0.080132 0.084442 -0.10513 -0.629982 0.240382 -0.736436
-0.123735 -0.345434 0.057238 -0.984228 0.06132 0.165427
0.183588 -0.506835 -0.076751 0.767097 -0.000132 -0.641451
0.108901 -0.183595 -0.106 -0.085407 -0.146674 -0.984897
-0.1286 -0.371219 -0.00453 -0.999762 0.008286 -0.00936
0.117914 0.051751 -0.140965 0.514504 0.250815 -0.819704
-0.325905 0.249953 -0.077525 0.109942 -0.563141 -0.814725
0.111717 0.333828 0.096509 0.369311 0.093007 0.922942
0.046848 0.728438 -0.105855 0.236582 -0.52712 -0.81582
0.098108 0.775795 0.018767 0.960394 0.058401 0.269368
-0.108545 -0.44961 0.071842 -0.759773 -0.140335 0.634429
0.153766 0.460323 0.060581 0.59848 0.22678 0.767375
0.050883 0.460723 0.084908 0.160647 0.362642 0.917063
-0.144349 -0.126949 0.017596 -0.999676 -0.002378 0.017087
0.024131 -0.126701 0.09178 0.810329 -0.274071 0.517851
0.177004 -0.278627 -0.060134 0.640015 -0.195955 -0.742129
-0.381228 0.225496 -0.073718 -0.114506 -0.298066 -0.945365
0.18807 -0.168761 0.080367 0.759925 -0.045102 0.641614
-0.09187 -0.788519 -0.116689 -0.791027 0.130072 -0.597757
0.252127 0.518419 -0.025564 0.686223 0.607458 0.399642
0.169736 -0.003065 -0.103187 0.812139 0.11321 -0.571932
-0.353311 0.26802 -0.08713 -0.033141 -0.224391 -0.97149
0.051726 -0.183863 -0.074528 -0.818563 -0.180159 -0.543849
-0.119352 0.228106 -0.002937 -0.971816 0.21761 0.015534
-0.009526 -0.748303 -0.005388 0.282338 -0.748296 0.597813
-0.038413 -0.825464 0.093433 0.457116 0.839483 0.258279
-0.113647 0.467524 0.061877 -0.079209 0.009604 0.996792
0.065524 0.7022 0.078344 0.603264 -0.071456 0.793876
0.231854 0.397028 -0.028902 -0.482724 -0.625991 0.56024
0.118331 -0.348707 -0.09937 0.27837 0.063951 -0.956539
-0.052073 -0.073184 0.127008 -0.212888 -0.079681 0.971853
0.17053 -0.237565 -0.074209 0.525877 -0.117816 -0.842074
0.159662 0.155322 0.070589 0.709172 0.059772 0.702482
-0.115745 -0.038787 0.088991 -0.745088 0.090049 0.660662
0.362112 0.265333 -0.076531 -0.786413 -0.605607 0.120204
-0.111858 -0.846701 0.065512 -0.923276 0.191153 0.06928
0.061495 0.785628 0.079582 0.515254 0.14138 0.801787
-0.002516 -0.829691 -0.029462 0.440356 -0.874667 0.117397
-0.079055 0.240577 -0.096757 -0.662095 -0.313759 -0.680304
-0.06806 0.448509 0.083911 -0.26488 0.280174 0.920085
0.173069 0.43255 -0.135453 0.178545 -0.220612 -0.957826
0.042494 0.335652 -0.129289 -0.328758 -0.031817 -0.939264
0.199915 -0.472997 -0.026706 0.998122 0.038012 -0.023155
0.232944 0.40235 -0.020962 -0.284218 -0.555518 0.756695
0.047354 -0.105241 -0.10195 -0.462778 -0.490122 -0.73852
0.098826 -0.575625 -0.093773 -0.582224 -0.128618 -0.802751
0.016082 -0.725496 -0.019885 0.858262 -0.003773 0.507684
0.066271 -0.272402 -0.077542 -0.779259 0.014118 -0.626468
0.009211 -0.773476 -0.026943 0.833714 -0.055193 0.546721
0.26519 0.367994 -0.032878 -0.551106 -0.490982 0.673033
0.197639 -0.273177 -0.035757 0.880086 -0.155662 -0.446375
-0.504713 0.130862 -0.004867 -0.669479 -0.266279 -0.539389
-0.009387 0.833699 0.037262 -0.84036 0.193909 0.491522
0.118403 0.429907 -0.146162 0.073074 -0.060705 -0.995191
0.195095 -0.739669 -0.007727 0.898949 -0.134811 0.3951
-0.014445 0.538095 0.050778 -0.061048 0.608751 0.789564
-0.103469 -0.693205 0.020054 -0.510756 -0.365549 0.764788
-0.007211 -0.677431 -0.080935 0.552186 0.203726 -0.80728
-0.019907 -0.615009 -0.086423 0.666959 0.00679 -0.744006
0.131873 0.062833 -0.129412 0.595361 0.174274 -0.783793
-0.082494 0.107661 -0.09583 -0.626046 0.263195 -0.733728
0.020611 0.01641 0.142142 0.009961 0.120467 0.992327
-0.030643 0.76343 -0.078197 -0.815634 -0.244274 -0.51701
0.462334 0.207855 -0.071259 0.46068 -0.636976 -0.598625
0.000192 0.295009 -0.130046 0.145182 0.0414 -0.9884
0.132985 -0.074712 0.114407 0.202665 -0.009308 0.978577
0.035343 -0.319041 -0.021568 -0.992146 -0.016567 -0.119747
0.030294 0.598863 0.026288 -0.033488 -0.018285 0.996071
-0.23038 0.405893 0.028113 -0.424654 -0.03697 0.898595
-0.428199 0.238762 -0.026103 -0.730992 0.682101 0.005039
-0.089488 -0.33406 0.104527 -0.087072 -0.077944 0.99109
-0.125542 0.472994 -0.106097 -0.432684 0.135582 -0.890764
-0.128874 0.111948 -0.014258 -0.980258 -0.030804 -0.189711
0.265207 0.434376 -0.00972 0.041332 -0.046164 0.996239
0.077186 0.566225 -0.110927 -0.062698 0.590685 -0.803206
0.612721 0.091072 0.074706 0.734993 0.672519 0.079104
0.054594 -0.270457 -0.061902 -0.827194 0.007904 -0.561233
0.199572 -0.490734 -0.043284 0.98715 0.046669 -0.150861
-0.045004 0.333637 0.100069 -0.305509 -0.148795 0.936475
-0.102859 -0.492599 -0.081314 -0.619532 0.12862 -0.773063
0.205736 -0.220999 -0.030443 0.994222 -0.048771 -0.092538
-0.02731 0.794177 0.026373 -0.90684 0.140949 0.395927
0.146212 -0.770373 -0.098973 0.488226 0.303282 -0.814052
0.195098 0.366539 -0.075575 0.821889 -0.440143 -0.359939
0.143191 0.276935 -0.10764 0.810233 -0.096189 -0.577374
0.022427 0.815124 -0.110921 -0.09545 0.544249 -0.827529
0.064907 -0.536898 -0.067332 -0.765906 -0.060723 -0.639989
-0.066593 0.519553 -0.11419 -0.220625 0.42137 -0.879126
0.642495 0.033127 0.065218 0.980783 0.178728 0.068276
0.211404 0.557402 -0.05475 0.46213 0.879379 -0.055536
-0.068674 -0.863937 0.040523 -0.022792 -0.99964 -0.012926
-0.282466 0.383387 -0.004059 -0.882531 0.148245 0.434754
0.543851 0.135844 0.037962 -0.719268 -0.106465 0.637183
0.076555 -0.801605 0.025643 -0.880569 -0.169385 0.441714
0.038208 -0.338239 0.000841 -0.868223 -0.162688 0.463675
-0.127716 -0.636368 -0.026514 -0.986464 -0.112795 0.107492
0.273793 0.412814 -0.141626 -0.050738 0.03654 -0.997383
0.11691 -0.516098 0.043299 -0.524819 -0.052108 0.849183
-0.222507 0.4796 -0.014991 -0.885084 0.460949 0.051933
0.156165 -0.571434 -0.09723 0.490271 -0.072411 -0.868464
0.133593 -0.293279 -0.090658 0.512164 -0.033141 -0.857754
0.148404 0.00511 -0.126814 0.677191 0.120987 -0.725704
-0.001022 -0.047132 0.130595 0.130633 -0.30045 0.944428
0.052322 0.36896 0.106442 0.13339 0.22593 0.963591
0.075307 -0.184454 0.086179 -0.51656 -0.021111 0.855448
0.171529 -0.719919 -0.06015 0.815828 -0.08649 -0.571205
-0.125156 0.195674 0.021228 -0.935328 0.204157 0.284744
0.171926 -0.784504 0.018503 0.591819 -0.506581 0.59537
0.075696 0.29848 0.113237 0.367022 0.142473 0.918512
0.09431 -0.426936 -0.094985 -0.525954 0.014098 -0.849674
0.161146 -0.774087 -0.088605 0.659129 0.423645 -0.619809
-0.084201 -0.176965 -0.083437 -0.607579 -0.095846 -0.787966
0.029071 0.560248 -0.107841 -0.087126 0.445593 -0.888704
0.005113 -0.402982 0.055368 0.79311 -0.210142 0.571236
0.079891 -0.309257 -0.089751 -0.603046 -0.01241 -0.79736
-0.196386 0.513134 -0.025263 -0.757963 0.64106 -0.116397
-0.108501 -0.482505 -0.074349 -0.688946 0.114719 -0.715615
0.035917 0.062504 -0.149854 -0.18592 0.267492 -0.945039
-0.131244 0.458292 0.061486 -0.063896 -0.047041 0.995345
-0.022503 0.847784 -0.00752 -0.614367 0.786219 0.050549
-0.052119 -0.505924 0.062012 0.385406 -0.25327 0.887217
-0.112127 -0.852284 0.035258 -0.909435 -0.381137 -0.021101
-0.096763 0.364876 -0.103277 -0.50021 -0.22467 -0.835384
0.012961 -0.62647 -0.057201 0.684031 0.120311 -0.719378
0.444268 0.276526 -0.107222 0.727521 0.298834 -0.612397
0.088867 0.054866 -0.153221 0.217243 0.204667 -0.953064
0.156143 -0.729582 -0.079155 0.712795 0.015487 -0.700289
0.020536 0.852637 0.047703 -0.221272 0.687981 0.687037
-0.397206 0.185957 -0.041537 0.389319 -0.870047 -0.300765
0.15869 -0.014693 -0.118866 0.730521 0.052201 -0.680823
0.047772 -0.369661 -0.047792 -0.851632 -0.00827 -0.523359
-0.114364 -0.50978 -0.072473 -0.737857 0.112202 -0.665277
-0.137235 -0.000458 0.031912 -0.982248 -0.174194 0.050511
-0.042482 0.019409 0.130091 -0.301998 0.178802 0.936114
0.023389 0.830036 -0.098532 -0.082613 0.700272 -0.708609
0.008982 0.573695 -0.100267 -0.062623 0.533513 -0.843305
0.003661 -0.760675 -0.094038 0.798745 0.148931 -0.579312
0.150766 -0.625312 0.028272 0.346767 -0.184477 0.914283
-0.120465 0.073034 -0.054248 -0.896016 0.13421 -0.421921
0.489142 0.227486 -0.072314 0.292081 -0.116691 -0.929969
-0.12969 -0.235744 0.069181 -0.944388 -0.071906 0.320508
0.115381 -0.870374 -0.091646 0.017745 -0.999551 -0.0173
0.018557 0.229274 -0.126387 0.094173 -0.007283 -0.99459
-0.117616 -0.4321 0.063966 -0.82028 -0.193776 0.537362
0.032937 0.861153 0.039645 0.009632 0.895501 0.429162
0.100134 -0.081621 0.112131 -0.244794 -0.442764 0.850925
0.12036 0.046482 0.112259 0.167672 0.218395 0.943916
-0.024797 0.065001 0.127749 -0.284451 0.149038 0.945595
0.084623 0.012888 0.134227 0.301003 0.248481 0.915731
0.594262 0.056952 0.010579 0.983797 -0.138942 -0.026092
-0.303788 0.285792 0.005582 0.206191 -0.072718 0.971346
0.049894 0.433883 0.091636 0.072599 0.241967 0.966076
0.03926 -0.179114 0.034385 -0.499437 -0.384226 0.726167
-0.111993 0.250778 -0.044228 -0.997552 0.041769 -0.049628
0.13502 -0.472665 -0.105777 0.165815 0.100554 -0.97893
0.132169 0.539651 -0.121549 0.176901 0.476272 -0.86107
0.05473 -0.65245 -0.037551 -0.881083 -0.151323 -0.447888
0.042551 -0.262781 -0.043704 -0.859387 0.012251 -0.509226
0.161887 -0.632877 0.026017 0.263753 0.154186 0.947858
0.04992 0.62842 0.028357 0.307379 -0.338923 0.880231
-0.197977 0.496799 0.023345 -0.737067 0.481001 0.473485
0.025573 -0.69813 -0.049958 0.980917 -0.0816 -0.138178
0.204091 -0.501744 -0.023103 0.978478 0.178118 -0.0912
-0.230591 0.442314 -0.070056 -0.577419 0.556337 -0.597411
0.207538 0.001923 0.014603 0.983916 0.156856 0.028988
0.036825 0.158072 -0.118541 -0.099333 -0.018073 -0.993999
-0.076024 -0.249179 -0.085837 -0.564411 -0.021814 -0.825169
0.130132 -0.864897 -0.111382 0.360245 -0.677969 -0.627026
0.090224 0.37338 0.098251 0.186956 0.104856 0.975217
0.008979 -0.398171 -0.047024 0.805386 0.050486 -0.589223
-0.056988 -0.703758 -0.117257 -0.038069 0.21409 -0.970832
0.028354 -0.147845 -0.040526 -0.913691 -0.23623 -0.328961
-0.022882 0.4053 0.104247 -0.075622 0.164527 0.983097
-0.342791 0.254728 0.00789 0.053183 0.031448 0.997347
0.018363 -0.05553 -0.12001 -0.025918 -0.624797 -0.770839
0.171308 -0.249107 -0.071806 0.519087 -0.150863 -0.841269
0.045122 -0.119025 0.071233 0.604852 -0.540639 0.578362
0.063623 0.131657 0.129071 0.151307 0.023719 0.987333
0.089211 0.168819 0.118513 0.421051 0.052406 0.903155
-0.002627 -0.497648 0.038048 0.664908 -0.210363 0.716387
-0.526286 0.069617 0.06072 0.208984 -0.974801 0.034941
-0.320782 0.34707 -0.043843 -0.689305 0.722987 -0.028736
-0.015331 0.056771 0.131362 -0.351223 0.158902 0.921795
0.147762 0.1225 -0.095339 0.635736 0.217161 -0.735893
0.077183 0.513108 0.057839 0.147073 0.487114 0.860659
-0.080413 0.056294 -0.112757 -0.690036 0.207032 -0.692908
-0.486819 0.113152 0.012948 0.427115 -0.738584 -0.478361
0.052976 0.119703 -0.133902 -0.038218 0.42116 -0.90535
0.021878 0.714893 -0.096826 -0.172445 -0.600387 -0.779565
-0.12044 0.378518 0.031139 -0.957203 -0.209353 0.198777
0.049677 -0.447762 -0.050921 -0.829977 0.041195 -0.554256
0.203555 -0.057661 0.051793 0.88357 0.081055 0.458997
0.281372 0.428661 -0.013041 0.395949 0.076066 0.913161
0.141873 -0.613099 0.035749 0.158772 -0.233258 0.949477
0.507179 0.1717 -0.046202 0.101159 -0.538774 -0.831411
-0.017239 0.81728 0.034806 -0.826053 0.362399 0.427926
0.038208 -0.256167 -0.035961 -0.802995 0.014819 -0.592307
0.031316 0.640429 -0.064847 -0.095923 0.143785 -0.984761
0.025504 0.807923 0.078032 -0.201641 0.423679 0.880179
0.06982 -0.807 0.007781 -0.882232 -0.303342 0.359458
0.165842 0.378342 0.056233 0.74307 -0.023983 0.667841
0.027295 -0.604301 -0.015392 0.992691 0.008128 0.116553
0.28793 0.482726 -0.044435 0.760623 0.564434 0.320258
0.144303 -0.703494 -0.088264 0.524079 0.004598 -0.847838
0.620933 0.057858 0.016926 -0.674308 -0.571618 -0.434745
-0.013783 -0.757831 -0.115046 0.68199 0.337133 -0.647987
0.066529 -0.809737 -0.014467 -0.9626 -0.248474 0.056507
0.152746 0.308275 0.0642 0.739589 0.030155 0.672187
-0.018814 -0.66126 0.025269 -0.073781 0.058274 0.994172
-0.222728 0.331272 -0.013424 0.605028 -0.708556 0.353711
-0.225382 0.458645 -0.058301 -0.587593 0.643249 -0.488981
-0.061896 -0.490887 0.069542 0.395444 -0.249538 0.883717
-0.204905 0.442886 0.03971 -0.457131 0.124857 0.869
0.175921 -0.733056 -0.049397 0.833521 -0.185153 -0.52027
0.506178 0.161641 -0.001065 -0.601594 -0.794325 0.080775
-0.059917 -0.490874 -0.098113 -0.035114 0.101003 -0.992653
0.105434 0.094537 0.113603 0.476969 -0.181003 0.85837
0.177152 0.414078 -0.127846 0.204515 -0.377135 -0.903095
0.243543 0.532761 -0.070559 0.680546 0.710294 -0.176312
0.293391 0.447187 -0.123435 0.470099 0.592713 -0.653291
0.20802 -0.04192 -0.017451 0.972778 0.0094 -0.230953
-0.268802 0.322918 -0.093921 0.347761 -0.209539 -0.913068
-0.209713 0.472207 0.025887 -0.679824 0.280748 0.6757
0.084904 0.649101 -0.017095 0.990873 -0.046884 0.060758
0.267476 0.347422 -0.09156 -0.688712 -0.703936 -0.161925
0.350111 0.361402 -0.058309 0.594179 0.543322 0.587732
-0.102229 -0.25691 0.106433 -0.44299 -0.020457 0.893615
0.003184 0.237676 0.125318 -0.391454 0.094842 0.911702
0.194472 0.394294 0.007836 0.965393 -0.106721 0.23617
0.189505 0.317605 -0.029875 0.981107 -0.163022 -0.079423
-0.240627 0.367557 -0.097823 0.076054 -0.063284 -0.994504
0.076843 0.616107 0.004412 0.772587 -0.007985 0.634696
-0.021077 -0.526533 -0.089588 0.593361 0.040882 -0.800865
0.045041 -0.508219 -0.039971 -0.962606 -0.044539 -0.257344
0.05954 0.643307 -0.060542 0.52677 0.173451 -0.825487
-0.138779 0.407619 -0.070277 0.236083 -0.680043 -0.634146
0.212404 0.42235 -0.005264 0.334293 -0.854714 0.373773
0.34651 0.39495 -0.08043 0.725122 -0.637667 0.201573
-0.131243 -0.059835 -0.045197 -0.888661 -0.036974 -0.456417
-0.06351 -0.007642 -0.129949 -0.25392 -0.078596 -0.962301
-0.023023 0.603977 -0.057679 -0.638497 0.702094 -0.296267
-0.068885 -0.808408 -0.13929 -0.566189 -0.136326 -0.80997
0.13194 -0.696771 -0.094129 0.20485 0.018659 -0.977748
0.1003 -0.417698 0.052211 -0.556169 -0.331451 0.760924
-0.070526 0.571637 -0.074364 -0.467521 0.7315 -0.492241
-0.081391 0.364497 -0.111901 -0.474505 -0.140968 -0.868134
0.02013 -0.252102 0.066273 0.948628 -0.023108 0.315218
-0.120027 -0.772712 -0.060656 -0.98923 -0.065235 -0.123844
0.328243 0.40742 -0.044954 0.635995 0.4422 0.631217
0.091712 -0.853602 0.020378 -0.806335 -0.566029 -0.132492
0.107536 -0.823841 -0.114127 -0.435583 -0.053061 -0.894314
0.185869 -0.328173 -0.044074 0.745006 0.025794 -0.666513
-0.006452 0.109493 -0.12969 -0.159975 0.344242 -0.925026
-0.199503 0.496461 -0.050342 -0.6544 0.562492 -0.503593
-0.204672 0.490591 0.019083 -0.721603 0.507539 0.46551
0.194222 -0.423052 0.033192 0.959124 -0.064018 0.275578
0.028417 -0.318993 0.010232 0.999677 -0.017299 0.013658
0.139108 -0.551421 -0.106166 0.259866 -0.048899 -0.961178
-0.071348 -0.104017 -0.103375 -0.463137 -0.153038 -0.868509
-0.110269 -0.739572 -0.00914 -0.33523 0.314938 0.87692
0.13053 0.050877 -0.133734 0.557706 0.262412 -0.786739
0.214509 -0.112795 0.004077 0.999581 -0.005448 0.00295
0.555011 0.103424 0.03623 -0.844597 -0.438493 0.301747
-0.470665 0.184667 -0.009581 -0.813212 0.57877 -0.047
0.034578 -0.307257 -0.016711 -0.993538 -0.0618 -0.087466
0.092384 -0.801288 -0.099202 -0.806802 0.182054 -0.559142
-0.114904 -0.157467 0.098848 -0.706911 -0.044735 0.704684
-0.026908 0.745716 -0.074177 -0.869612 -0.310084 -0.377977
0.124998 -0.27381 -0.09528 0.407543 -0.05557 -0.911464
0.084546 0.706861 0.059693 0.830318 -0.136281 0.538779
-0.097679 0.195003 -0.060874 -0.776097 0.113769 -0.619959
-0.069881 0.558333 0.015631 -0.085123 0.773336 0.628124
0.093973 -0.858274 -0.028552 -0.630074 -0.695255 0.336373
-0.023856 0.806914 0.025719 -0.79505 0.338369 0.502005
-0.083975 -0.60336 0.054183 0.375622 -0.22911 0.881674
0.192022 0.448481 0.035736 0.556501 0.126565 0.82052
0.344293 0.346911 -0.046017 0.437502 0.246295 0.863214
-0.1352 0.495962 0.05812 -0.158589 0.297848 0.939508
-0.116872 -0.085286 0.090343 -0.765203 0.063003 0.6405
0.197789 -0.424353 0.019871 0.969675 -0.077264 0.231173
-0.118086 -0.474427 0.044312 -0.822331 -0.267219 0.502239
0.606645 0.0758 0.08593 -0.756586 0.004896 0.608116
0.085679 -0.686233 -0.074319 -0.755948 -0.005915 -0.654184
0.02614 0.493989 -0.123253 -0.090184 0.051403 -0.992702
-0.059768 -0.178259 0.121252 -0.249923 -0.021645 0.962786
-0.041556 -0.086686 0.127755 -0.107069 -0.045689 0.992023
0.210001 0.555527 -0.065122 0.519425 0.774625 -0.339473
0.065324 -0.326154 0.05721 -0.687767 -0.223546 0.686556
-0.121639 0.160914 0.031798 -0.938361 -0.050011 0.338017
0.065444 -0.157426 0.080279 -0.620456 0.02994 0.782447
-0.25771 0.430158 -0.028307 -0.732383 0.657879 0.165157
0.195908 0.00191 -0.052537 0.962506 0.098927 -0.244964
0.063353 0.680636 0.080527 0.61933 0.114367 0.775524
0.118779 -0.70529 0.026252 0.366685 -0.292636 0.881545
0.069748 0.231074 -0.132406 -0.237795 -0.24395 -0.939739
0.152581 0.51433 0.033197 0.220167 0.743879 0.593787
0.055194 0.765467 0.072178 0.538929 -0.240103 0.804362
0.176363 0.269658 -0.039524 0.929883 -0.049447 -0.36363
-0.397531 0.250002 0.007528 -0.238922 0.343846 0.905527
-0.262612 0.281812 -0.04911 0.723493 -0.686441 -0.050175
0.002906 -0.000441 0.144376 -0.012057 0.232324 0.95894
0.044107 -0.418028 -0.038674 -0.983 -0.013619 -0.180203
0.028205 -0.318156 0.019935 0.998107 -0.033715 0.04479
0.205549 -0.32805 0.013278 0.993125 -0.014639 0.104464
-0.049889 -0.277331 0.106171 0.162695 -0.135182 0.977076
0.09848 -0.3611 -0.099313 -0.317098 -0.018 -0.941582
-0.122382 0.106553 0.04118 -0.934194 0.094971 0.342803
0.065483 -0.571342 0.007958 -0.628642 -0.027951 0.776833
0.015091 -0.301771 0.069761 0.802531 -0.166202 0.572267
0.110622 -0.078749 -0.132061 0.119063 -0.389142 -0.91197
-0.087268 -0.378004 0.09802 0.007762 -0.206243 0.977748
-0.163865 0.496221 -0.082424 -0.469959 0.327324 -0.818811
-0.021532 0.566881 -0.101686 -0.121552 0.587473 -0.799797
0.065498 -0.590346 -0.06152 -0.705235 -0.064048 -0.705832
0.170403 0.492514 0.036252 0.599154 0.309311 0.736826
0.035016 -0.143664 0.060096 0.793192 -0.395864 0.453241
-0.128076 -0.681751 -0.059535 -0.99712 -0.00747 -0.057978
0.088273 -0.462411 0.023301 -0.664252 -0.028979 0.746051
0.192419 -0.434915 0.036641 0.957186 -0.08866 0.275226
0.087276 0.838082 0.002866 0.838635 0.521006 0.090335
0.509828 0.220599 -0.038099 0.472364 0.851985 0.179635
-0.128328 0.118139 0.020485 -0.972992 0.073414 0.213974
-0.046895 -0.748809 0.014746 0.558155 -0.472446 0.658607
0.615818 0.065699 0.013653 -0.425629 -0.559744 -0.637057
-0.00593 0.532614 0.054608 0.03154 0.546018 0.834295
-0.128117 -0.358629 0.026568 -0.997545 0.014493 0.067187
-0.008128 0.664463 -0.037675 -0.857202 -0.172505 -0.472681
0.024097 -0.15541 -0.028521 -0.117851 -0.238249 -0.843319
0.38867 0.241503 -0.053285 -0.64343 -0.675663 0.345842
-0.005902 0.119916 -0.126257 -0.142438 0.361706 -0.920466
-0.127692 0.074247 0.030789 -0.977033 0.150462 0.145411
0.023355 -0.554046 -0.025443 0.90089 0.163549 -0.400135
0.146914 -0.524536 -0.104138 0.367073 -0.009885 -0.929336
0.051543 -0.637185 -0.003788 -0.934898 0.135331 0.322751
-0.101627 -0.782717 0.003888 -0.641596 0.193911 0.739975
-0.114159 -0.412843 -0.047765 -0.784789 0.070356 -0.613922
0.170087 0.180225 -0.056519 0.867351 0.071573 -0.492401
0.070115 -0.538408 0.010993 -0.646481 -0.01877 0.76265
0.023321 -0.29185 0.053602 0.908156 -0.037904 0.416302
0.171157 0.210616 -0.052006 0.879747 0.002715 -0.475342
-0.026954 -0.624619 0.023811 0.419297 -0.1234 0.898842
-0.039403 0.540476 0.042999 -0.207686 0.622547 0.754301
0.344736 0.282668 -0.100291 -0.60862 -0.720811 -0.33029
0.045706 0.034177 -0.158555 -0.147436 0.134429 -0.977142
0.161148 0.022672 -0.111743 0.71862 0.047298 -0.693781
0.165535 -0.311471 -0.06596 0.67832 -0.00893 -0.734249
-0.380185 0.19391 -0.000969 0.553271 -0.803237 0.200801
0.192334 -0.16115 -0.059755 0.720539 -0.021482 -0.69227
-0.094538 0.570204 -0.011989 -0.383315 0.797567 0.459575
0.183549 -0.248255 0.071665 0.612045 -0.060726 0.785313
0.071846 0.669097 0.048745 0.735165 -0.6732 0.055234
0.048334 0.536955 0.043617 4.6e-05 0.744075 0.66695
-0.045966 -0.357258 0.095533 0.258557 -0.184498 0.947444
0.077689 0.237589 0.119345 0.420951 0.080393 0.90275
-0.556037 0.04842 0.059157 0.727398 -0.678786 0.095919
0.105684 -0.869885 0.102011 -0.062133 -0.993006 0.018686
0.094588 -0.351983 0.067699 -0.409855 -0.297238 0.862041
-0.105193 0.393057 -0.105655 -0.545821 -0.235332 -0.803271
0.297227 0.368352 -0.138769 -0.170314 -0.408275 -0.896334
0.017491 0.524723 0.056735 0.114657 0.522957 0.843808
0.106388 0.752021 -0.008401 0.95697 0.226185 0.168483
-0.111412 -0.592291 -0.085858 -0.655028 0.025847 -0.75515
-0.031368 0.745997 0.013282 -0.942777 -0.173365 0.281877
-0.108022 0.158555 -0.053144 -0.839609 0.136222 -0.525598
-0.114014 -0.470216 0.054376 -0.880291 -0.233096 0.412848
0.045393 -0.270653 -0.048482 -0.831147 0.019064 -0.555166
-0.469578 0.126464 0.01724 0.738216 -0.673043 0.018006
0.002177 0.853716 -0.057102 -0.376653 0.849669 -0.364459
0.196864 -0.672192 -0.035335 0.944593 -0.097775 -0.291515
0.144334 -0.205307 -0.095404 0.632 -0.122022 -0.718712
-0.011174 0.658727 -0.028251 -0.975772 -0.028039 -0.189541
0.254466 0.36483 -0.112238 -0.534551 -0.778808 -0.320413
0.108448 -0.778064 -0.10267 -0.472406 0.434108 -0.766485
-0.103716 0.41019 -0.111722 -0.438929 -0.213688 -0.866658
0.119642 0.582637 -0.084868 0.337414 0.824599 -0.453015
0.2042 0.418153 -0.000106 0.669295 -0.712023 0.206336
0.011112 -0.035807 -0.133593 0.021023 -0.417053 -0.907665
0.078139 0.677903 0.051662 0.780414 -0.604618 0.151554
-0.027184 0.490243 0.07484 -0.098416 0.446805 0.888421
0.033703 0.184824 -0.113922 0.018243 0.166008 -0.982038
0.110029 -0.765552 0.022048 -0.284616 0.531488 0.797133
0.073745 0.646728 0.01625 0.833338 -0.19225 0.516018
0.095378 -0.611981 -0.086361 -0.582198 -0.082344 -0.808492
0.088612 0.384132 0.097437 0.152989 0.115057 0.981366
-0.098854 -0.857541 -0.009049 -0.613255 -0.758839 -0.216419
0.068611 -0.083112 -0.125324 -0.272965 -0.437402 -0.856302
0.267627 0.346345 -0.07016 -0.681907 -0.728565 0.058885
0.566777 0.088622 0.047652 -0.855124 -0.43576 0.262627
0.200652 -0.242756 0.042917 0.957075 0.040175 0.285144
-0.098624 0.361419 0.062696 -0.687571 -0.246168 0.682265
0.075529 0.833037 -0.077747 0.585412 0.636626 -0.501685
0.041996 0.513768 -0.124779 -0.231802 0.226338 -0.944829
0.009193 0.547024 0.034048 0.083253 0.707754 0.700038
0.165525 0.529121 0.019057 0.286993 0.618057 0.730186
-0.154701 0.547533 -0.035318 -0.506775 0.786297 -0.337674
0.111624 -0.806007 0.060873 -0.08921 0.708077 0.695139
-0.131392 0.029203 0.058089 -0.857574 0.179807 0.480166
0.183182 0.209777 -0.002505 0.999662 0.01982 -0.00916
-0.402958 0.190527 -0.053063 0.250679 -0.726141 -0.629777
0.393078 0.293995 -0.128683 0.170279 0.100946 -0.972173
-0.006613 0.231025 0.1224 -0.371082 0.121495 0.92057
0.568799 0.151166 0.014968 0.740751 0.67146 -0.011365
0.178584 0.157514 0.049245 0.776277 0.133695 0.615231
-0.406461 0.247121 0.005227 -0.434744 0.508352 0.739233
-0.137234 -0.009098 -0.019678 -0.995352 0.035942 -0.087841
0.076607 0.54707 0.033489 -0.232193 0.739411 0.626419
0.564528 0.154372 -0.005705 0.849947 0.443712 -0.269119
-0.011698 0.566443 -0.103066 -0.085434 0.549972 -0.828364
0.506792 0.206171 -0.061884 0.163263 -0.411588 -0.896333
0.159471 0.38007 -0.119397 0.478695 -0.305494 -0.822055
-0.029178 -0.055041 0.130511 -0.068572 -0.092864 0.992974
-0.075537 0.116679 -0.098329 -0.612646 0.228545 -0.75616
-0.124519 0.501187 0.057599 -0.060985 0.309807 0.947231
-0.007858 -0.428237 0.063008 0.647937 -0.263627 0.713353
0.099643 0.59289 -0.079994 0.352047 0.736793 -0.566989
0.11524 -0.86643 0.004794 -0.147124 -0.98023 -0.092557
-0.404397 0.258845 -0.002953 -0.590612 0.657182 0.456636
0.150548 -0.015214 -0.12748 0.703185 0.048774 -0.708941
0.039767 -0.291479 0.009381 -0.947883 2e-05 0.314535
-0.060083 0.582418 -0.028933 -0.235331 0.953659 0.163666
-0.159763 0.383051 -0.058266 0.709609 -0.655371 -0.257743
-0.093609 -0.236066 0.109401 -0.340385 -0.038322 0.939158
-0.296731 0.249035 -0.05601 0.56085 -0.792464 -0.226453
0.114593 -0.085857 0.114376 -0.151417 -0.143891 0.972971
-0.168412 0.381367 0.003012 0.516833 -0.686873 0.507631
-0.12199 -0.498038 -0.061312 -0.79812 0.076591 -0.597589
