0.052332 -0.534822 -0.050598 -0.865243 -0.055377 -0.497747
0.19909 -0.263692 -0.03661 0.90004 -0.16087 -0.404116
0.119367 0.426522 0.083352 0.257973 0.177477 0.949019
0.122375 -0.064849 -0.134537 0.237639 -0.28489 -0.927916
-0.100648 -0.21593 -0.065169 -0.7626 -0.039639 -0.645332
0.111377 -0.295362 -0.099111 0.119768 -0.006221 -0.988744
0.010919 0.007517 0.143107 -0.017964 0.135951 0.990017
0.574529 0.117958 0.058827 -0.345254 0.299066 0.88137
-0.449002 0.176517 -0.048689 -0.520429 0.377776 -0.763607
0.024508 -0.631036 -0.046236 0.887409 0.096388 -0.443074
-0.078254 -0.863266 0.125542 -0.033941 -0.998643 0.036079
-0.036399 -0.16455 -0.093422 0.371199 -0.116746 -0.92093
-0.360449 0.217433 -0.063048 0.374302 -0.710968 -0.592441
-0.215625 0.399706 0.031175 -0.155387 -0.323993 0.929235
0.087037 -0.667005 -0.07571 -0.697754 -0.01117 -0.71476
0.053144 -0.549964 -0.005499 -0.814058 -0.002293 0.579869
0.263638 0.442319 -0.136494 0.065074 0.316763 -0.940445
0.134189 -0.276395 -0.091156 0.475197 -0.06273 -0.876154
0.166201 -0.440759 -0.085276 0.656125 0.182819 -0.732065
0.038808 -0.345154 -0.033036 -0.934537 -0.086976 -0.338678
0.011012 0.125725 -0.125791 -0.111461 0.43629 -0.892395
-0.12589 -0.268962 0.071497 -0.939438 -0.117485 0.321423
0.102103 0.549354 0.025479 0.391582 0.635262 0.664345
-0.059488 -0.127789 -0.10326 -0.179937 -0.125024 -0.972381
-0.026726 0.149997 -0.105856 -0.235081 0.281099 -0.921286
-0.143856 -0.104485 0.027647 -0.995372 0.007321 0.090342
-0.417636 0.250061 -0.032665 -0.769199 0.638699 -0.004774
-0.136971 -0.188305 0.003483 -0.986002 -0.090831 -0.136653
-0.014669 0.840657 -0.062526 -0.530548 0.726825 -0.436132
-0.311451 0.271591 -0.08889 0.112224 -0.399941 -0.90709
-0.250203 0.42384 0.003178 -0.708775 0.51536 0.480478
-0.124629 0.367966 -0.046409 -0.936707 -0.349896 -0.00253
-0.014251 0.471358 -0.129032 0.095146 0.060678 -0.99359
0.196607 0.420383 -0.125112 0.385566 -0.496743 -0.776132
-0.425458 0.16395 0.024953 0.522039 -0.79486 0.295983
0.143166 -0.127895 -0.10892 0.498928 -0.273104 -0.822177
0.152081 0.365537 0.068909 0.669388 -0.072325 0.739213
0.55043 0.168816 -0.01335 0.868335 0.323064 -0.275416
0.006173 0.513616 -0.122812 0.021351 0.131535 -0.990634
-0.112487 0.416042 0.062954 -0.343787 -0.05305 0.93585
0.002811 -0.644728 -0.068503 0.605668 0.112183 -0.787162
0.005678 0.438442 -0.127439 0.099146 0.000237 -0.994841
0.165215 0.122142 -0.073506 0.805248 0.201251 -0.554417
0.253631 0.438249 -0.007162 0.327565 -0.189268 0.924822
-0.094125 -0.826066 0.055994 -0.736444 0.666088 0.113395
-0.006676 -0.035484 -0.133849 -0.026209 -0.330292 -0.943115
0.053795 -0.705478 0.014922 -0.975837 0.069851 0.197778
0.213244 -0.050861 0.020002 0.991246 0.033149 0.112901
0.070348 -0.705876 -0.045835 -0.814596 -0.254912 -0.520706
-0.028392 -0.097766 -0.106945 0.238599 -0.290223 -0.92577
-0.074328 -0.234912 0.112851 -0.103076 -0.086357 0.99045
-0.012032 0.791781 0.060417 -0.892415 0.177262 0.413411
0.633188 0.023 0.058562 -0.409104 -0.905143 0.004873
0.153405 0.289864 -0.093513 0.855429 -0.126211 -0.501834
0.510649 0.160834 0.017432 -0.559381 -0.632398 0.441305
-0.118617 -0.455861 0.053251 -0.832462 -0.236736 0.500653
0.05473 -0.65245 -0.037551 -0.881083 -0.151323 -0.447888
0.022951 -0.136187 -0.038151 0.178751 -0.458823 -0.754883
-0.009925 -0.829949 -0.008419 0.441941 -0.884368 0.139497
0.111759 -0.399008 0.063918 -0.428314 -0.172147 0.884727
0.183798 0.032104 -0.077417 0.88035 0.046469 -0.471476
0.014511 0.442244 -0.126989 0.030713 0.002637 -0.999276
0.174921 -0.521975 -0.08546 0.697581 -0.02808 -0.715923
0.077111 0.220587 0.12084 0.383904 0.077837 0.919854
0.025441 -0.083938 -0.096265 -0.436814 -0.659923 -0.602702
-0.105058 -0.838419 0.067923 -0.709533 0.698556 0.091266
-0.028436 -0.326955 -0.082617 0.53 -0.092768 -0.840845
-0.025289 -0.857404 0.030175 0.746921 -0.646432 -0.093184
0.096255 -0.275775 0.082098 -0.170325 -0.131514 0.975303
-0.000367 -0.319432 -0.0575 0.73418 -0.06847 -0.675422
0.188633 -0.641698 -0.062145 0.741131 -0.158453 -0.651924
0.097914 -0.857404 -0.10897 -0.761842 -0.053561 -0.637556
0.027529 -0.291964 0.033447 0.994605 -0.011846 0.10298
0.142499 -0.869384 -0.078175 0.186043 -0.97188 -0.024433
-0.421716 0.244611 -0.012905 -0.703169 0.699978 0.11321
0.007747 0.816843 -0.106376 -0.317246 0.579746 -0.747358
-0.120662 0.345823 -0.035833 -0.998404 -0.048161 0.010788
-0.191922 0.481554 0.038274 -0.661489 0.212947 0.718635
0.1079 -0.61073 -0.094376 -0.416383 -0.103493 -0.902921
-0.135765 -0.439444 0.018166 -0.97853 -0.023122 0.197303
0.587857 0.123381 0.056836 0.528156 0.651909 0.439815
-0.434508 0.229007 -0.005916 -0.804454 0.524186 0.202505
-0.068437 -0.826999 0.121345 -0.144544 0.980681 0.126113
-0.047906 0.337833 -0.125397 -0.317664 -0.016376 -0.947871
0.161758 -0.831256 -0.001176 0.975369 0.016511 0.020836
-0.228934 0.461556 0.001107 -0.838063 0.452717 0.302292
0.125579 -0.305496 0.081749 -0.012809 -0.0644 0.997756
0.095378 -0.611981 -0.086361 -0.582198 -0.082344 -0.808492
0.149337 -0.860422 0.173924 0.299164 -0.763237 0.473227
-0.001525 0.708575 0.071943 -0.640562 0.003277 0.763289
0.099779 0.300883 0.104593 0.262474 0.087286 0.960786
-0.428199 0.238762 -0.026103 -0.730992 0.682101 0.005039
-0.141404 -0.041333 0.030461 -0.964702 0.144036 0.212941
-0.03922 0.172164 0.112573 -0.53837 0.108162 0.835682
0.529835 0.202662 -0.000987 -0.119978 0.935763 0.32288
-0.045602 -0.478486 -0.095677 0.173257 0.10765 -0.977838
0.204004 -0.130749 0.05071 0.909638 -0.055882 0.409513
0.013477 0.371576 -0.127723 0.03087 -0.034654 -0.998767
0.004403 -0.53039 -0.061892 0.807695 0.044879 -0.587842
-0.202335 0.342274 -0.051155 0.612099 -0.769258 -0.167248
-0.100455 0.079528 -0.085124 -0.732516 0.205565 -0.648394
0.118331 -0.348707 -0.09937 0.27837 0.063951 -0.956539
-0.02216 -0.647162 -0.088709 0.611593 0.028842 -0.789934
0.139874 0.575292 -0.083271 0.351837 0.801453 -0.480865
0.597417 0.066995 0.009032 0.896384 -0.3705 -0.187308
0.206617 0.484376 -0.132163 0.17156 0.208465 -0.962741
-0.109214 -0.136525 -0.065661 -0.764687 -0.117015 -0.633254
-0.100115 -0.823298 0.013756 -0.919184 0.344219 0.165554
0.395272 0.330377 -0.1101 0.598725 0.62032 -0.500628
-0.121114 0.194351 0.032313 -0.92675 0.098595 0.359315
-0.090718 0.467071 0.067628 -0.407718 0.189776 0.888548
0.065002 0.570391 -0.106598 -0.07193 0.577569 -0.812566
-0.250361 0.38873 -0.094348 -0.118553 0.155149 -0.979208
-0.382521 0.192103 -0.011438 0.472119 -0.880106 0.040914
-0.067994 -0.693113 0.019197 0.239608 -0.317656 0.91724
-0.055569 -0.386363 0.09084 0.173949 -0.184501 0.966853
0.164748 0.553785 -0.005341 0.200335 0.733757 0.649153
-0.125709 -0.618683 -0.003406 -0.919026 -0.062347 0.354519
-0.049882 0.314159 -0.124588 -0.419476 0.00574 -0.907648
0.047024 0.068965 -0.15023 -0.184328 0.260513 -0.946907
0.166698 -0.847704 0.014223 0.972463 0.097135 -0.127874
0.052123 -0.211212 0.063625 -0.779373 -0.086862 0.61878
-0.122999 -0.084089 0.08245 -0.788892 0.018508 0.61414
-0.095225 0.164958 0.073085 -0.706901 -0.033636 0.706497
0.066028 0.434819 -0.137975 -0.291357 0.009013 -0.95588
0.148888 0.147277 0.081724 0.696927 0.042416 0.715869
0.137507 0.175632 0.09172 0.680657 0.020111 0.732237
-0.12579 0.185826 0.024434 -0.922821 0.109097 0.360563
0.167462 0.235831 0.053317 0.72475 0.063972 0.68544
0.174476 -0.75783 -0.050257 0.856947 0.243579 -0.453495
0.001471 -0.234572 -0.068382 0.723523 -0.065215 -0.687092
0.182091 -0.193129 -0.069032 0.613893 -0.016414 -0.788685
0.198538 0.027316 -0.044075 0.956196 0.015314 -0.291837
-0.131831 0.056512 -0.023729 -0.955075 0.185387 -0.229095
-0.111152 0.042676 -0.079896 -0.836057 0.174431 -0.518126
0.145195 0.325499 0.071915 0.772649 0.00327 0.634185
0.104038 -0.832618 0.147978 -0.766194 0.594545 0.179613
0.11244 -0.194008 0.097105 -0.044531 -0.128765 0.990064
0.113789 -0.520556 -0.106432 -0.266666 -0.006758 -0.960823
-0.13479 0.01564 -0.032742 -0.965427 -0.00373 -0.25048
-0.122406 -0.26806 0.081136 -0.921152 -0.075485 0.379187
0.14487 -0.116152 -0.111648 0.484872 -0.222442 -0.844383
0.360997 0.267632 -0.098781 -0.703438 -0.676158 -0.20873
0.142687 -0.466287 -0.102998 0.232319 0.102969 -0.964731
-0.134055 -0.433474 -0.026449 -0.919873 0.168421 -0.347935
-0.120288 0.344382 -0.062965 -0.994024 -0.059925 -0.087826
0.19739 0.556579 -0.07625 0.281144 0.85721 -0.422997
-0.083975 -0.60336 0.054183 0.375622 -0.22911 0.881674
0.162756 0.251808 -0.068078 0.873091 -0.013214 -0.486039
-0.038717 0.59141 -0.039584 -0.475459 0.871834 0.080526
0.023807 -0.468857 0.007912 0.887997 -0.10795 0.445503
-0.31993 0.285864 -0.093888 -0.03579 -0.208142 -0.976946
0.308092 0.313285 -0.094802 -0.701321 -0.709917 -0.05187
-0.041078 -0.270593 0.105747 0.170675 -0.16775 0.970881
-0.06931 0.079628 0.105061 -0.454105 0.345161 0.814068
-0.088505 0.452642 -0.123786 -0.346622 -0.038946 -0.935817
-0.10335 -0.130717 -0.073673 -0.735739 -0.102659 -0.668578
-0.125731 0.403776 0.040063 -0.811618 -0.49575 0.297298
0.097907 -0.524266 0.032432 -0.505852 0.044742 0.861173
0.027822 0.756666 -0.119866 -0.045186 -0.201208 -0.974792
0.135239 -0.816702 0.071583 0.286286 0.896289 0.332671
0.166612 -0.858588 0.147456 0.910436 -0.265788 0.243458
0.146971 -0.869147 0.091164 0.251299 -0.963362 0.008355
-0.075807 0.127716 0.091852 -0.647944 -0.014014 0.7613
0.068225 -0.285348 0.067597 -0.687926 -0.154026 0.707397
0.163387 0.340713 0.054931 0.674222 -0.077959 0.733923
-0.125594 -0.35576 -0.030679 -0.963644 0.079637 -0.25332
-0.052073 -0.073184 0.127008 -0.212888 -0.079681 0.971853
0.161267 0.250106 0.058416 0.721345 0.084445 0.68586
0.105684 -0.869885 0.102011 -0.062133 -0.993006 0.018686
-0.098783 0.515899 0.051271 0.011719 0.457912 0.888681
-0.052298 -0.449686 0.076693 0.249243 -0.275528 0.928161
-0.267689 0.277331 -0.034268 0.721279 -0.677269 0.136585
-0.094538 0.570204 -0.011989 -0.383315 0.797567 0.459575
-0.092475 -0.826645 0.068053 -0.576205 0.792169 0.152966
-0.057385 0.56905 0.003309 -0.129315 0.796316 0.589701
-0.403415 0.17813 -0.013547 0.495706 -0.867727 -0.030565
0.03636 0.195707 -0.112986 0.053094 -0.254344 -0.95802
0.160248 -0.827548 0.023517 0.991846 0.046716 0.072304
0.584522 0.065701 -0.02117 0.400165 0.473816 -0.684584
-0.121533 -0.314523 -0.032044 -0.841312 0.068052 -0.535752
-0.092057 -0.373729 -0.07193 -0.543647 -0.032099 -0.838171
0.128631 0.534995 0.024259 0.256941 0.629734 0.732618
0.101877 -0.221808 -0.098833 -0.28156 -0.077082 -0.95621
-0.096036 -0.039435 -0.102563 -0.668438 -0.166729 -0.724544
-0.383614 0.194599 -0.051368 0.222279 -0.901209 -0.337032
0.209676 -0.078751 -0.020172 0.935158 0.099768 -0.338341
-0.023635 -0.006757 0.144726 -0.186647 -0.092311 0.94257
-0.066335 0.325245 -0.117086 -0.499772 -0.022602 -0.865814
0.158152 0.126192 -0.081189 0.766466 0.176931 -0.617216
-0.183498 0.418633 0.031557 0.135439 -0.403018 0.902437
0.199159 -0.589569 -0.046856 0.985032 -0.017283 -0.171398
-0.114896 -0.239233 0.096079 -0.686909 -0.022999 0.72632
0.025369 0.02699 0.140218 0.050136 0.258412 0.964135
0.024423 -0.245945 0.055381 0.932261 -0.009624 0.36048
-0.532059 0.106217 0.044093 -0.821632 0.54907 -0.130416
-0.087137 -0.748309 0.018006 -0.56843 0.430708 0.697584
-0.105327 -0.763138 -0.09461 -0.830732 -0.001095 -0.555342
0.039008 -0.105078 0.095582 0.482706 -0.589514 0.643932
-0.177394 0.378248 0.007048 0.507487 -0.625306 0.592146
0.519529 0.176265 0.016108 -0.226474 0.49109 0.833339
-0.239937 0.404509 0.02301 -0.480798 0.09626 0.86978
-0.091765 0.111815 0.081338 -0.579499 0.400832 0.709188
-0.280079 0.29022 -0.001857 0.366501 -0.531116 0.763847
-0.015475 -0.694924 0.025133 0.357213 -0.026095 0.932972
-0.114857 0.304211 -0.000202 -0.974797 -0.15642 0.157713
0.040217 0.373091 -0.130368 -0.317308 -0.028126 -0.945793
0.092948 0.289338 -0.140113 0.114194 -0.06987 -0.990974
-0.07298 0.509848 0.057136 -0.171623 0.462747 0.868204
0.018585 0.183305 -0.115326 0.113812 0.02091 -0.99102
0.174441 0.550008 -0.004243 0.221665 0.727351 0.649244
-0.086313 -0.271097 -0.077288 -0.614166 -0.037345 -0.773187
-0.082082 0.295499 0.077533 -0.603859 -0.01233 0.796584
0.097504 -0.721439 -0.087502 -0.697357 0.017043 -0.707874
0.312846 0.387927 -0.026266 0.548976 0.073137 0.821995
0.001926 0.621381 0.013545 -0.729854 -0.053191 0.68097
0.027446 0.822337 -0.10535 -0.026117 0.643156 -0.764026
0.08845 0.39987 0.09519 0.165913 0.206347 0.963853
-0.065206 0.005481 0.127152 -0.287454 0.315609 0.902007
0.445356 0.202762 -0.096469 0.848514 -0.287607 -0.38474
0.007573 -0.015165 0.13636 0.037602 -0.570678 0.813735
0.182787 0.25743 0.010866 0.998319 0.009056 0.050573
-0.106933 0.077307 -0.076539 -0.825548 0.162012 -0.539836
-0.38724 0.287615 -0.03825 -0.700929 0.711421 0.044855
-0.287503 0.297021 0.00412 0.198777 -0.290523 0.93352
0.044619 0.418346 -0.131399 -0.349532 0.065234 -0.931498
-0.054826 -0.011773 -0.131567 -0.249956 -0.082099 -0.964735
-0.056624 -0.798845 -0.146789 -0.358062 0.068957 -0.923434
-0.135589 -0.058153 -0.035909 -0.945329 -0.008269 -0.319907
0.275566 0.412334 -0.012807 0.045929 -0.139973 0.986525
-0.071076 0.507284 -0.119326 -0.231716 0.352148 -0.906281
0.235397 0.37854 -0.096587 -0.718915 -0.690378 -0.068006
0.140057 0.308839 0.079166 0.732184 0.051739 0.679116
0.11874 0.081698 0.105277 0.34909 0.085302 0.926953
-0.10254 -0.327142 -0.060202 -0.721038 0.053447 -0.689979
-0.010142 0.621322 -0.002154 -0.905993 0.060372 0.400531
-0.240874 0.435318 0.007248 -0.735295 0.505686 0.450927
0.190006 0.558102 -0.022829 0.285984 0.880835 0.372629
-0.022326 0.11924 0.122188 -0.40383 0.075935 0.910192
0.190901 -0.428492 0.043897 0.941157 -0.066045 0.328118
0.200132 -0.411034 0.014851 0.961743 -0.106916 0.250178
-0.007148 -0.632244 0.023018 0.149437 0.150328 0.975111
0.144788 -0.26232 -0.085803 0.533301 -0.105971 -0.83911
-0.117825 -0.138415 0.095073 -0.771682 0.079454 0.626378
-0.135239 -0.220512 0.054072 -0.988233 -0.052523 0.14111
-0.032453 -0.509602 0.053268 0.356719 -0.267696 0.89458
0.051386 0.835634 0.05877 0.420331 0.524441 0.73633
0.008075 -0.057766 0.126673 0.315324 -0.212467 0.923178
0.079002 0.272677 -0.138869 -0.116481 -0.068759 -0.990174
0.070972 -0.441215 -0.075526 -0.710521 0.023563 -0.703208
-0.016025 0.698887 -0.045306 -0.784405 -0.48948 -0.375961
0.49333 0.180497 0.019261 -0.389708 -0.004122 0.81447
-0.125684 -0.180529 0.08326 -0.822088 0.007468 0.567654
0.178355 0.140378 0.052434 0.755269 0.103008 0.647141
-0.102984 0.131679 -0.069142 -0.837558 0.115826 -0.533667
0.462845 0.197187 -0.059757 0.343126 -0.731956 -0.550539
-0.084218 -0.203872 -0.081794 -0.591593 -0.027843 -0.805607
-0.018834 0.698642 0.046035 -0.930833 -0.211103 0.292665
-0.109053 -0.304407 -0.050438 -0.802767 0.034286 -0.595265
0.225427 0.507005 -0.118714 0.395702 0.488794 -0.775934
-0.074389 0.092549 0.099116 -0.555411 -0.055027 0.823978
-0.163924 0.446425 -0.093492 -0.231142 0.137379 -0.962944
-0.004636 -0.24317 -0.073786 0.685088 -0.057225 -0.724494
-0.111511 0.174184 -0.043551 -0.886566 0.075443 -0.45589
-0.282587 0.310591 -0.096226 0.227461 -0.142386 -0.961053
0.075529 0.833037 -0.077747 0.585412 0.636626 -0.501685
0.060394 -0.149522 0.075956 -0.64122 0.050442 0.765546
0.135464 -0.008349 0.114307 0.413341 -0.200896 0.885195
0.126423 -0.503352 0.050809 -0.53014 -0.122739 0.83849
-0.0144 -0.358014 -0.067347 0.681765 -0.105701 -0.72385
-0.068174 -0.782273 -0.136766 -0.430313 0.355903 -0.826729
-0.114469 0.21629 0.042827 -0.960811 0.118193 0.246165
-0.036233 0.512699 0.062522 -0.160202 0.531349 0.831779
0.184035 -0.127447 -0.070695 0.734262 -0.058607 -0.67609
0.543685 0.122715 0.001014 -0.855515 -0.505609 -0.008241
0.301568 0.326708 -0.114906 -0.604211 -0.641996 -0.462283
0.228379 0.494918 0.012457 0.50042 0.12186 0.85246
-0.03304 -0.551742 0.04282 0.372097 -0.211831 0.903282
-0.555317 0.075845 0.064294 -0.888286 0.445913 0.069756
0.069583 -0.784124 -0.049953 -0.897064 0.123756 -0.421731
-0.022316 0.025444 -0.145995 -0.163002 -0.13883 -0.968373
0.22172 0.545117 -0.025249 0.523876 0.759395 0.378663
0.11745 -0.510611 -0.107713 -0.191109 0.00329 -0.981132
-0.018987 0.164218 0.123282 -0.442801 -0.014764 0.894722
-0.082224 -0.067149 0.116451 -0.536328 0.004431 0.842964
0.032002 0.658853 0.077038 -0.008532 -0.981867 0.186135
-0.11923 -0.793778 -0.054994 -0.955757 -0.256914 -0.06216
-0.081638 -0.519154 -0.096903 -0.295264 0.090866 -0.948838
0.049664 0.220329 0.128041 0.086809 0.055365 0.993616
0.232385 0.436013 0.006558 0.544483 -0.346041 0.745834
-0.10273 0.102347 -0.07531 -0.789491 0.162619 -0.588893
0.21114 0.54822 -0.01947 0.399936 0.803293 0.432306
0.596407 0.116295 0.027287 0.7637 0.64364 -0.039619
0.156604 -0.863355 0.028418 0.272184 -0.959445 -0.071859
0.167647 0.282193 0.04928 0.752367 -0.044566 0.656314
0.092742 -0.713163 -0.081802 -0.747963 0.015415 -0.661732
-0.147139 0.508198 0.050712 -0.20928 0.37747 0.901863
0.047929 0.29513 -0.130953 -0.336124 -0.019107 -0.941252
-0.083797 0.481856 0.066291 -0.294905 0.309651 0.902557
0.109524 -0.869404 -0.052499 -0.009876 -0.996761 0.078547
-0.003942 -0.203285 0.10604 0.587365 -0.152502 0.793918
0.00833 0.349883 -0.127158 0.07246 -0.017926 -0.997136
-0.121639 -0.080637 -0.059081 -0.802573 -0.124531 -0.582857
0.083577 0.687247 0.049254 0.903462 -0.36304 0.219951
0.065889 -0.62215 -0.060449 -0.70114 -0.081343 -0.707524
-0.086396 -0.543025 0.06695 -0.057733 -0.195331 0.973456
0.395778 0.256785 -0.036724 -0.361249 -0.129599 0.912399
0.335861 0.316139 -0.044291 -0.328736 -0.37002 0.854357
-0.035165 -0.486231 0.061308 0.338993 -0.335972 0.878241
0.108146 -0.142349 0.108037 -0.521463 -0.145734 0.839894
0.002681 -0.769233 -0.02062 0.665551 0.025459 0.736437
0.138477 0.373309 -0.131504 0.594772 -0.165578 -0.786531
0.128683 -0.603031 0.035123 -0.196176 -0.028122 0.975648
0.008323 -0.583301 -0.057522 0.782704 0.01566 -0.622062
-0.12743 -0.052425 0.074679 -0.818847 0.029794 0.570909
0.172931 -0.326673 -0.058483 0.729462 0.003974 -0.683873
0.441276 0.222791 -0.026566 -0.859821 -0.2426 0.434024
0.007828 0.194969 0.129713 -0.066747 0.047116 0.996647
-0.112379 -0.701236 0.00185 -0.849764 -0.391012 0.344305
0.171494 0.036538 -0.096892 0.790373 0.125181 -0.597883
0.15033 -0.389502 -0.085994 0.546366 0.174354 -0.819177
-0.012416 0.027244 -0.148147 -0.240081 -0.082947 -0.952604
0.030811 0.385437 -0.128884 -0.12939 -0.014053 -0.99132
-0.421475 0.237938 0.002418 -0.580859 0.56328 0.577988
0.006102 -0.812207 -0.096119 0.917085 -0.277161 -0.281242
-0.018856 -0.832695 -0.117537 0.49329 -0.857499 -0.122782
0.213692 -0.126048 -0.010335 0.992323 -0.067721 -0.093905
0.154159 -0.823838 0.062409 0.670932 0.72003 0.169118
0.080199 0.427494 -0.142996 -0.254652 0.023792 -0.965261
0.024276 -0.570061 -0.008355 0.904191 0.070385 0.413057
0.482521 0.246936 -0.058708 0.75577 0.652068 -0.039558
0.031857 0.847293 0.054565 -0.039188 0.703255 0.708648
0.170222 -0.016024 -0.104447 0.792048 0.053687 -0.607135
-0.094507 -0.861663 -0.000701 -0.261859 -0.953306 -0.091567
-0.149084 0.463905 -0.095964 -0.337474 0.060001 -0.939146
0.029904 -0.164345 0.049746 0.898319 -0.269722 0.341762
-0.290161 0.347453 0.003608 -0.442342 0.236203 0.860361
0.177159 -0.654445 0.020103 0.485644 -0.043077 0.872497
0.181202 0.360377 0.031163 0.879398 -0.155164 0.450032
-0.025008 0.515142 0.063126 -0.130693 0.516875 0.844702
0.194234 0.435737 0.035344 0.625686 -0.050219 0.775433
-0.134021 -0.257886 0.013022 -0.987291 -0.122105 -0.092759
0.066311 0.853385 0.031568 0.519651 0.665352 0.535584
0.165915 -0.419842 0.071745 0.315175 -0.101045 0.937613
-0.074049 -0.036427 0.121535 -0.436708 0.020278 0.897821
0.212312 0.542237 -0.011597 0.365445 0.726519 0.578689
-0.361107 0.303323 -0.075411 -0.600076 0.570378 -0.552365
0.199255 -0.458254 -0.002434 0.993346 -0.02228 0.106129
0.064065 -0.046016 -0.140204 -0.293671 -0.413928 -0.861525
0.18106 0.276257 -0.027675 0.969226 -0.056953 -0.231783
0.005378 0.357628 0.112218 -0.034019 0.125531 0.990726
-0.040335 0.570381 -0.095131 -0.314796 0.58649 -0.742532
0.25199 0.50433 -0.101281 0.517835 0.611732 -0.597067
0.091692 0.604454 -0.021724 0.831462 0.365866 0.376209
0.200521 -0.341803 0.03052 0.932927 -0.09331 0.346986
0.152336 0.111272 -0.093927 0.738938 0.241888 -0.628691
0.099037 -0.510139 0.032357 -0.52435 0.012772 0.85124
0.04729 -0.547858 -0.040889 -0.842219 -0.022527 -0.538542
0.180966 -0.263796 0.07309 0.524511 -0.019804 0.847481
0.126546 -0.345409 -0.095409 0.409206 0.059642 -0.910477
0.073397 0.806881 0.062535 0.774228 0.261813 0.57242
0.150766 -0.625312 0.028272 0.346767 -0.184477 0.914283
0.067145 0.37694 -0.141039 -0.400018 -0.005517 -0.914863
0.191574 0.337445 -0.00938 0.986925 -0.139422 0.080621
-0.076148 0.032378 0.112744 -0.384715 0.332879 0.859038
-0.103716 0.41019 -0.111722 -0.438929 -0.213688 -0.866658
0.20325 -0.03778 0.050488 0.883205 0.020646 0.467829
-0.020525 0.69479 0.02944 -0.969906 -0.22246 0.094947
0.089496 -0.861895 -0.083591 -0.858434 -0.442857 -0.14602
-0.120362 0.183453 0.035732 -0.888527 0.058974 0.4531
-0.135177 0.051548 -0.010339 -0.984413 0.12541 -0.104356
0.205374 0.416065 -0.010192 0.558744 -0.773946 0.197563
0.15323 -0.055173 -0.118328 0.685351 -0.200577 -0.699383
0.041994 0.083757 -0.144938 -0.14033 0.224561 -0.964171
0.503241 0.164873 0.008468 -0.601053 -0.776953 0.184006
-0.101767 -0.552397 -0.090382 -0.537607 0.079053 -0.839404
0.183179 -0.596793 -0.072895 0.700797 -0.058307 -0.710457
0.1322 0.290735 0.089011 0.648438 0.05066 0.759528
0.075399 -0.205489 0.084698 -0.530383 -0.116918 0.838414
-0.031368 0.745997 0.013282 -0.942777 -0.173365 0.281877
0.03915 0.114767 0.133388 0.032255 0.173515 0.983667
0.019313 -0.487547 -0.032063 0.92007 0.025921 -0.389411
0.201436 -0.316046 -0.020247 0.897479 -0.012037 -0.439961
-0.136337 -0.409349 -0.003457 -0.991417 0.090668 -0.078956
0.046861 0.865858 0.013491 0.220765 0.942527 0.241264
-0.120302 -0.78449 -0.04121 -0.995683 -0.070517 0.026627
-0.527395 0.114143 0.051822 -0.816392 0.576996 0.002129
0.272576 0.504532 -0.061516 0.711363 0.702741 -0.005789
-0.058268 0.420919 -0.127563 -0.184125 -0.112229 -0.975321
-0.031133 0.356134 0.105791 -0.009797 -0.075602 0.996988
-0.115745 -0.038787 0.088991 -0.745088 0.090049 0.660662
0.190958 -0.06167 -0.065306 0.885315 -0.033684 -0.461906
-0.008655 -0.169445 -0.077322 0.629108 -0.05701 -0.774006
-0.128076 -0.681751 -0.059535 -0.99712 -0.00747 -0.057978
-0.142876 -0.048295 0.023306 -0.994468 0.044308 0.094928
-0.071379 -0.77394 -0.131133 -0.500383 0.351038 -0.789879
0.002201 -0.179493 -0.066808 0.745211 0.042859 -0.665093
-0.134727 -0.445724 -0.03054 -0.929626 0.128572 -0.342578
0.144179 -0.227596 -0.091353 0.505335 -0.147473 -0.850185
-0.02708 -0.37535 -0.075789 0.599481 -0.09725 -0.793403
0.077275 0.72548 0.06814 0.686439 0.10071 0.719715
-0.063299 0.240299 0.09252 -0.542739 0.081522 0.835254
0.041022 0.398225 -0.130859 -0.323336 0.026475 -0.942331
-0.013497 0.17714 -0.114284 -0.294198 -0.205774 -0.928984
-0.11911 -0.12664 0.091979 -0.827187 0.033734 0.560005
0.153281 -0.76717 -0.092571 0.671411 0.315575 -0.668123
0.545857 0.122221 0.025337 -0.819095 -0.546739 0.168209
-0.112636 -0.706963 -0.006459 -0.883465 -0.367604 0.276942
0.050893 -0.118125 -0.095875 -0.483077 -0.363084 -0.794164
0.201196 -0.186592 -0.047951 0.867297 0.026694 -0.495701
-0.136093 -0.149561 0.06095 -0.960632 0.010432 0.276191
-0.046991 -0.833862 0.129193 0.443614 0.82482 0.308464
-0.068194 -0.725871 0.014097 -0.324213 0.371339 0.867876
-0.279849 0.263515 -0.051705 0.70532 -0.706951 -0.036441
-0.029803 -0.85184 -0.016719 0.59549 -0.783014 -0.178651
0.204444 -0.259748 0.029312 0.990349 0.007142 0.132712
-0.11483 0.565151 -0.036473 -0.368946 0.904344 -0.178251
0.205399 -0.301157 -0.008406 0.991607 -0.009876 -0.123847
0.553619 0.128914 -0.017813 0.369936 0.056919 -0.885668
-0.054625 0.336636 0.098417 -0.409666 -0.12448 0.903392
-0.137937 -0.004019 0.018531 -0.994799 -0.01848 0.028357
-0.001219 -0.529272 0.028609 0.651904 -0.15459 0.742051
0.048991 0.025172 -0.15951 -0.111571 -0.132648 -0.979395
0.203906 -0.570266 -0.018248 0.975377 -0.155492 0.116828
-0.04923 0.541236 -0.10865 -0.304757 0.455445 -0.835784
0.131501 0.254314 -0.118354 0.688033 -0.208096 -0.694451
0.086688 -0.337727 0.068406 -0.427073 -0.222343 0.876303
0.024313 0.674335 0.093355 -0.272051 0.413441 0.86218
-0.039005 0.306631 0.102453 -0.5281 0.130352 0.837825
0.188205 -0.269516 0.066784 0.745483 -0.013989 0.662463
0.119546 -0.867713 0.01346 -0.051704 -0.993023 -0.096618
0.091402 -0.578374 0.028099 -0.409331 -0.094934 0.903592
0.091747 0.32733 0.104165 0.259324 0.091927 0.961241
-0.056555 -0.561862 -0.103192 0.08298 0.013693 -0.995163
-0.194125 0.427574 0.038531 0.174012 -0.44829 0.876009
0.194472 0.394294 0.007836 0.965393 -0.106721 0.23617
0.184901 0.370655 0.026942 0.894746 -0.168138 0.412775
0.09819 -0.63571 0.027217 -0.617608 0.149064 0.756729
0.004125 -0.359459 0.068579 0.750125 -0.126829 0.648331
0.114488 -0.843654 -0.117072 -0.423112 0.021785 -0.905572
-0.115213 0.034838 -0.074871 -0.867524 0.144045 -0.475042
-0.209969 0.381896 0.02213 0.105916 -0.517476 0.84905
-0.04622 0.062647 0.120233 -0.462601 0.145598 0.873459
0.010994 -0.245771 -0.056003 0.794351 -0.088702 -0.600511
-0.056746 0.444588 -0.130477 -0.122259 -0.09356 -0.987858
-0.07391 -0.831185 0.1385 -0.236635 0.935033 0.24845
-0.118232 0.302349 -0.031529 -0.965139 -0.250521 0.011001
0.061556 0.01151 -0.157129 -0.17471 -0.239328 -0.951854
-0.032682 0.176466 -0.106883 -0.366471 -0.283681 -0.886064
0.194446 0.082248 -0.040921 0.911987 0.165679 -0.36799
0.202125 -0.376997 0.014129 0.943804 0.004836 0.330003
-0.071128 0.346897 -0.115453 -0.488262 -0.081048 -0.868826
-0.052119 -0.505924 0.062012 0.385406 -0.25327 0.887217
0.155575 0.273301 0.062546 0.797984 0.053391 0.599662
-0.125394 -0.118546 -0.04774 -0.817821 -0.100582 -0.563457
-0.109592 -0.015469 0.094333 -0.747642 -0.100172 0.655706
0.080862 -0.373253 -0.086686 -0.665457 -0.075012 -0.742333
0.074139 -0.383135 0.043553 -0.647329 -0.301464 0.700002
0.135684 -0.868141 -0.037014 0.05404 -0.99395 0.0848
-0.09435 0.240489 -0.081116 -0.688559 -0.368678 -0.621854
-0.333482 0.236862 -0.066748 0.317009 -0.701281 -0.637056
0.100312 0.334886 -0.143734 0.205813 -0.08568 -0.973062
0.266265 0.497794 -0.094222 0.618703 0.581735 -0.527963
0.032928 -0.229221 -0.034662 -0.490445 -0.075462 -0.84587
0.002177 0.853716 -0.057102 -0.376653 0.849669 -0.364459
-0.076984 -0.328727 0.104666 0.088918 -0.084037 0.992312
0.063849 0.239824 0.123097 0.278107 0.092851 0.955661
0.172124 -0.15274 -0.07994 0.684469 -0.091754 -0.723223
-0.07759 0.2163 0.086468 -0.572822 0.138552 0.807765
0.186758 -0.439581 -0.064928 0.765298 0.170082 -0.620504
0.12989 0.103092 0.101116 0.521359 0.108737 0.845898
0.002067 0.753743 0.069325 -0.25473 -0.028101 0.964959
-0.143437 -0.048333 0.006702 -0.999499 0.024978 -0.002214
0.141654 -0.411499 0.071018 -0.260025 -0.124411 0.95621
-0.128339 -0.213854 0.07687 -0.908552 -0.040582 0.414988
-0.120949 -0.652423 0.00206 -0.981094 -0.123951 0.145512
-0.112041 0.212399 0.052518 -0.921233 0.076686 0.375652
-0.152536 0.526079 -0.070487 -0.456163 0.621128 -0.63708
0.025909 0.342003 -0.126395 -0.068449 -0.043638 -0.995383
-0.068011 0.038581 0.1137 -0.396201 0.234742 0.886028
0.084719 0.601958 -0.005483 0.76595 0.207484 0.603349
-0.314366 0.347761 -0.064163 -0.631203 0.704214 -0.323925
-0.052489 -0.797664 0.05347 -0.235307 0.739337 0.621642
0.179214 -0.593691 0.026114 0.555434 -0.330273 0.762931
0.186581 0.301339 -0.007812 0.977158 -0.207702 0.035025
-0.116068 -0.152231 -0.052462 -0.793521 -0.153967 -0.588384
0.128165 -0.247163 0.086632 0.111664 -0.153732 0.981534
0.185538 -0.372789 0.059757 0.845126 -0.04024 0.532371
0.069822 0.37977 0.102221 0.240963 0.220252 0.944126
0.205265 -0.294826 0.020148 0.991138 -0.01287 0.116307
0.098772 0.792083 -0.066259 0.935744 0.105765 -0.334892
0.206373 -0.048476 -0.025451 0.97224 0.005555 -0.231114
0.170577 0.168518 -0.057747 0.88749 0.045864 -0.442375
0.016791 -0.252569 0.076682 0.879402 -0.078083 0.457885
0.107665 -0.242071 0.088472 -0.029051 -0.130905 0.989946
-0.115132 -0.375628 -0.0509 -0.753343 -0.002853 -0.656846
-0.072438 -0.050422 -0.116742 -0.463358 -0.324311 -0.821681
0.033365 0.240814 0.127826 0.020802 0.033613 0.999013
-0.129714 -0.256979 -0.008745 -0.966169 -0.036721 -0.251005
-0.134305 -0.494274 -0.040794 -0.920444 0.051979 -0.376893
0.163809 -0.02278 -0.113967 0.7604 -0.008123 -0.649078
-0.504713 0.130862 -0.004867 -0.669479 -0.266279 -0.539389
0.131194 -0.78672 -0.112265 0.092898 0.423043 -0.899014
-0.134763 -0.163679 -0.018504 -0.908799 -0.132052 -0.385711
-0.120291 -0.384067 -0.0433 -0.841506 -0.040318 -0.537374
0.123023 0.354112 0.089788 0.388312 0.054861 0.919605
0.1003 -0.417698 0.052211 -0.556169 -0.331451 0.760924
0.101149 -0.867945 -0.109105 -0.442997 -0.807512 -0.300113
0.096693 -0.868006 0.083472 -0.404918 -0.903642 -0.017372
0.045126 0.145352 0.130906 0.126117 0.016502 0.991692
-0.2201 0.350084 0.004679 0.351155 -0.538332 0.763854
0.190765 -0.578046 -0.065307 0.792931 -0.025867 -0.608446
-0.24635 0.413042 -0.082095 -0.394923 0.561547 -0.725812
0.148404 0.00511 -0.126814 0.677191 0.120987 -0.725704
-0.030624 0.132336 -0.114963 -0.278269 0.474815 -0.834806
-0.486819 0.113152 0.012948 0.427115 -0.738584 -0.478361
0.145947 -0.347347 -0.08264 0.629576 0.040793 -0.775715
0.024846 -0.326551 0.042092 0.932621 -0.11725 0.319257
-0.020633 -0.360118 0.087088 0.415707 -0.15045 0.894223
0.0206 -0.61025 -0.045848 0.762964 0.128209 -0.63232
-0.013205 0.799694 0.053182 -0.872787 0.2257 0.429921
-0.082358 -0.863482 0.05518 -0.036709 -0.999247 -0.001984
0.179758 -0.770954 -0.053721 0.769976 0.538651 -0.337642
-0.086439 0.388932 -0.11397 -0.390034 -0.166138 -0.905495
0.022632 0.475802 -0.124761 -0.031816 0.12187 -0.990459
-0.300071 0.364074 -0.05595 -0.691143 0.675351 -0.251991
0.103364 -0.681951 -0.088813 -0.477151 0.063457 -0.874437
0.090226 0.340676 -0.144672 -0.006929 -0.045353 -0.997793
0.041997 -0.393147 -0.027182 -0.985317 -0.128979 -0.081015
0.194414 0.108158 0.022567 0.941586 -0.228123 0.241451
-0.035761 0.372782 -0.128612 -0.095333 -0.025694 -0.994207
-0.097386 0.045701 0.098649 -0.367 0.186236 0.911058
0.164879 -0.862549 0.1283 0.314922 -0.942808 0.060554
0.137911 0.320399 0.080759 0.755617 0.036636 0.65295
0.027381 -0.638527 -0.021158 0.99435 -0.029829 0.077074
0.148251 -0.58617 0.041733 -0.004964 -0.122932 0.992005
0.147618 -0.841452 -0.103733 0.672975 -0.124015 -0.725066
-0.005598 0.157877 -0.11237 -0.232608 -0.106595 -0.964257
0.021481 0.770554 0.083913 -0.532336 -0.222966 0.789137
0.052383 -0.291281 0.048962 -0.768758 -0.090996 0.631531
0.14771 -0.184291 0.096465 0.111716 -0.115938 0.986404
0.178483 -0.498992 -0.082466 0.719847 0.002969 -0.694038
-0.137154 -0.142111 0.054586 -0.971483 0.002346 0.236855
-0.011852 -0.269342 -0.077821 0.644674 -0.104519 -0.75701
0.111301 0.21957 -0.12216 0.531542 -0.34568 -0.772779
0.054435 0.051146 -0.155378 -0.134108 0.31399 -0.938248
-0.00025 -0.711081 0.00381 0.804228 -0.207929 0.556587
-0.309831 0.325597 0.002489 -0.260196 0.25777 0.927419
0.172368 -0.625351 0.020238 0.302228 0.065794 0.950413
0.006757 0.863266 -0.015561 -0.13658 0.98518 -0.002815
-0.124822 -0.216219 -0.0239 -0.856223 -0.094473 -0.507617
0.170403 0.492514 0.036252 0.599154 0.309311 0.736826
-0.040431 -0.515364 0.054862 0.409776 -0.284203 0.866329
0.620933 0.057858 0.016926 -0.674308 -0.571618 -0.434745
-0.087042 -0.8633 0.093151 -0.021798 -0.999733 0.00086
-0.130173 -0.229728 -0.008821 -0.92821 -0.048139 -0.368594
-0.031688 0.750031 -0.064317 -0.885241 -0.360492 -0.293704
-0.128728 0.083259 -0.003096 -0.999242 0.023641 -0.006981
0.148798 0.149442 -0.087888 0.720119 0.09758 -0.686538
0.174652 0.178265 -0.048039 0.928647 0.057317 -0.361419
-0.0628 0.027908 -0.135364 -0.387159 0.063581 -0.900566
-0.028648 0.585835 -0.084552 -0.294243 0.741813 -0.601149
-0.006936 -0.691376 0.020804 0.645 -0.140416 0.739741
-0.088619 -0.80748 0.03342 -0.843197 0.393865 0.363138
0.063775 -0.282941 -0.074573 -0.79234 0.009998 -0.609877
0.233374 0.469084 0.007851 0.768857 0.003712 0.639338
0.06774 0.855884 -0.048931 0.50277 0.8063 -0.301878
0.031705 -0.21975 0.027716 0.916205 -0.079899 0.385387
0.11691 -0.516098 0.043299 -0.524819 -0.052108 0.849183
-0.328202 0.326206 -0.081416 -0.422003 0.651542 -0.626612
-0.095592 -0.622832 -0.099103 -0.464127 0.100198 -0.879558
-0.120833 0.533253 0.039657 -0.061236 0.631897 0.772189
0.012122 -0.472222 0.028714 0.797611 -0.111896 0.592073
0.34513 0.39306 -0.127181 0.82681 0.016582 -0.550194
0.52252 0.214984 -0.038457 0.519883 0.782047 0.34174
-0.088686 -0.522703 0.070532 -0.570166 -0.174678 0.783142
-0.123426 -0.426314 0.055434 -0.878589 -0.14474 0.454376
0.078472 -0.64941 -0.068053 -0.713479 -0.090042 -0.69479
0.052181 -0.407976 0.008017 -0.713901 -0.300062 0.630697
-0.108046 0.252341 0.038933 -0.955759 0.169627 0.235449
-0.107392 -0.375969 0.09198 -0.673519 -0.074979 0.734424
0.008249 0.63766 0.024426 -0.634986 -0.284907 0.716469
0.158125 -0.164599 0.097715 0.245844 -0.144869 0.956929
0.084432 -0.860793 0.104577 -0.788045 -0.540334 0.020548
0.096369 0.728224 0.019338 0.970929 -0.018839 0.228839
-0.154786 0.394979 -0.071125 0.667068 -0.623456 -0.407479
0.060721 0.072938 -0.151087 -0.083773 0.240639 -0.965844
0.119006 0.216999 -0.115936 0.583771 -0.335971 -0.738381
0.476895 0.182913 -0.013312 -0.594813 -0.799451 0.078211
0.196939 -0.313684 0.044573 0.90173 -0.065934 0.424236
-0.123962 -0.306196 -0.026945 -0.878655 0.049973 -0.470131
-0.068885 -0.808408 -0.13929 -0.566189 -0.136326 -0.80997
-0.086403 0.556067 -0.080464 -0.41782 0.654561 -0.629883
0.01168 -0.721474 -0.078752 0.738626 0.10697 -0.665254
0.136422 -0.868905 0.032637 0.073722 -0.994151 -0.066352
-0.114352 -0.061066 -0.07424 -0.785614 -0.178557 -0.592074
0.252843 0.422263 -0.138865 -0.200117 0.014652 -0.978751
-0.129882 -0.202137 0.074139 -0.920112 -0.058859 0.386079
-0.044882 0.493456 0.070299 -0.22979 0.503368 0.831913
-0.131071 -0.095713 0.070075 -0.841258 0.003425 0.540521
-0.140009 -0.108433 0.046008 -0.945343 0.001551 0.325917
0.614869 0.056432 0.078699 -0.780643 -0.615541 0.064349
0.066577 0.741971 0.072227 0.353806 0.244903 0.894637
0.140762 0.194842 0.087868 0.697464 0.046645 0.71506
0.053255 -0.545837 -0.051213 -0.865464 -0.043912 -0.488153
0.019806 0.255253 -0.126193 0.115173 -0.051247 -0.990965
-0.04431 0.421795 0.096219 -0.209865 0.237051 0.947653
0.151466 -0.866908 0.056565 0.43782 -0.897052 -0.030185
-0.097803 -0.801458 0.010279 -0.854465 -0.132458 0.464736
-0.027359 0.733604 0.03208 -0.987961 -0.051665 0.143331
0.003141 -0.092778 -0.091975 0.658098 -0.396813 -0.632126
0.204189 -0.387556 0.009034 0.962954 -0.010198 0.261619
-0.08896 0.141713 0.079394 -0.673409 0.077627 0.734852
0.000207 -0.13963 0.112197 0.576359 -0.157382 0.801865
0.310384 0.434154 -0.038394 0.788629 0.251125 0.556752
-0.001385 0.559186 0.024146 -0.163107 0.613382 0.765696
0.199625 -0.443756 -0.031941 0.997356 0.010965 -0.066294
-0.182703 0.519934 0.016159 -0.807636 0.442893 0.312458
0.158434 0.183607 0.069658 0.734205 0.054698 0.676454
-0.163197 0.424747 -0.09472 0.075527 -0.04168 -0.994894
0.135824 0.365306 0.082365 0.574376 0.029168 0.816216
-0.103044 -0.307841 -0.058362 -0.760623 0.024339 -0.648065
0.198572 -0.477168 -0.048047 0.981611 0.020733 -0.175195
0.105102 0.771041 -0.039245 0.998403 -0.037861 -0.036478
-0.024645 0.838909 -0.052232 -0.563301 0.763016 -0.314495
0.026559 -0.370439 -0.002581 0.996916 -0.021592 -0.0554
-0.129248 0.102499 -0.002635 -0.994405 -0.090348 -0.039265
0.114835 0.235533 0.103198 0.468415 0.054085 0.880206
-0.135676 -0.234943 0.015563 -0.997854 -0.037655 -0.053147
0.074546 -0.13443 -0.107327 -0.473883 -0.215644 -0.852547
-0.129296 -0.043182 0.071024 -0.847529 0.055313 0.525335
-0.139024 -0.174737 0.00167 -0.948124 -0.215828 -0.226629
-0.091628 -0.612784 -0.099847 -0.450541 0.097069 -0.887407
-0.088037 -0.280998 0.108651 -0.112792 -0.076951 0.989258
0.109653 -0.690769 0.032933 0.34697 -0.063912 0.934135
-0.133527 -0.414186 0.029258 -0.960037 0.078328 0.265543
0.038221 0.077177 0.133039 0.083904 0.086825 0.991697
0.027437 -0.615754 -0.017627 0.992926 2e-05 0.101605
0.105579 -0.558219 0.036154 -0.39928 -0.068242 0.914137
0.171474 -0.294767 -0.061635 0.675936 -0.108298 -0.72875
0.039117 -0.223298 0.014391 -0.278315 -0.28535 0.895902
-0.015287 0.067777 0.1297 -0.252618 0.124435 0.958787
-0.040223 -0.547099 -0.099245 0.319658 0.006087 -0.947188
-0.357864 0.210317 -0.002151 0.55983 -0.790879 0.247093
0.034219 0.492507 0.073019 0.083474 0.508359 0.856843
-0.136546 -0.516819 -0.022343 -0.998861 -0.015489 0.018786
0.082746 0.764849 0.056356 0.664841 -0.054267 0.741421
0.10373 -0.660549 -0.088127 -0.486184 -0.021258 -0.871934
-0.019075 -0.638627 0.023007 -0.042278 0.111623 0.990961
0.062425 0.329024 -0.137796 -0.382017 -0.028351 -0.923717
-0.247685 0.343135 0.012553 0.116824 -0.372055 0.916424
0.164914 -0.820979 0.003995 0.845253 -0.519799 0.121915
0.048825 -0.605632 -0.040124 -0.895927 -0.09788 -0.427244
-0.258255 0.403422 0.011245 -0.617133 0.366974 0.687899
0.267325 0.38458 -0.138482 -0.385024 -0.256122 -0.884509
-0.038004 0.045431 -0.140163 -0.294862 0.28896 -0.909797
-0.017448 -0.333028 -0.073425 0.697037 -0.084546 -0.71185
0.099926 -0.780711 -0.09755 -0.646838 0.411107 -0.636941
-0.120195 -0.190252 -0.037762 -0.850454 -0.101697 -0.515844
0.243691 0.473574 0.001756 0.394641 -0.055464 0.91489
-0.001085 0.436217 0.097253 0.026472 0.170292 0.984539
0.093125 -0.023976 -0.152535 0.062748 -0.24648 -0.966416
0.058073 -0.260083 0.06132 -0.740645 -0.104134 0.663774
-0.006243 -0.295699 0.08876 0.407027 -0.183653 0.894037
-0.021027 0.43897 0.095911 -0.130638 0.232855 0.96285
0.141777 0.252945 0.08161 0.727554 0.052697 0.683899
-0.487871 0.105388 0.023909 0.773202 -0.609939 -0.159881
0.557304 0.094568 0.014532 -0.761564 -0.646886 0.026198
-0.040496 -0.862732 -0.090123 0.105726 -0.99239 0.045885
-0.023243 0.834799 -0.062667 -0.526624 0.743243 -0.41248
-0.174347 0.534718 -0.015808 -0.596855 0.799287 0.016907
0.184976 -0.38788 -0.059294 0.705186 0.144657 -0.691785
0.129855 -0.128191 -0.115053 0.322414 -0.269252 -0.905988
0.124262 0.48957 -0.142047 0.076668 0.327671 -0.93737
0.073817 -0.370687 0.048173 -0.429389 -0.20207 0.864127
-0.033748 0.195489 -0.112417 -0.36695 -0.353361 -0.860036
-0.393766 0.239381 0.011194 -0.037558 0.185891 0.98123
-0.126896 0.529208 -0.083508 -0.357518 0.599036 -0.715216
0.196358 0.358917 -0.060005 0.917123 -0.34179 -0.1902
0.327479 0.432285 -0.065258 0.796839 0.471942 0.369665
0.146527 -0.865648 -0.093139 0.561048 -0.763754 -0.301465
-0.021672 -0.537914 0.041396 0.405754 -0.192808 0.888952
-0.099876 -0.605285 -0.094993 -0.477107 0.069707 -0.875191
-0.019837 -0.371386 -0.070644 0.668211 -0.081716 -0.738779
-0.011093 -0.070334 -0.114816 0.200688 -0.490015 -0.847634
0.018494 -0.467878 0.018797 0.893987 -0.07109 0.440289
0.097876 0.746295 -0.061743 0.972013 -0.148153 -0.181965
-0.026435 0.110822 -0.125403 -0.243661 0.350909 -0.903502
0.512349 0.196884 0.01114 -0.253602 0.838711 0.474035
0.150545 0.248909 0.072096 0.775372 0.061399 0.628248
-0.116295 0.113788 -0.047868 -0.86436 0.098573 -0.490328
-0.154701 0.547533 -0.035318 -0.506775 0.786297 -0.337674
0.574421 0.071009 -0.004181 -0.869863 -0.4609 -0.127332
0.441378 0.294632 -0.090342 0.694516 0.703688 -0.12119
0.023191 -0.198424 -0.032437 0.797085 0.054346 -0.503291
0.090337 0.787359 0.038072 0.970058 0.126215 0.202605
0.079744 0.346456 -0.144008 -0.159922 -0.023324 -0.985883
0.181891 -0.656375 -0.064055 0.635271 -0.266604 -0.724386
0.587409 0.124624 0.010492 0.771041 0.584533 -0.176825
-0.375175 0.198912 -0.049765 0.529487 -0.785222 -0.310985
0.64467 0.023963 0.06229 0.8796 -0.437024 0.059053
-0.1388 -0.451414 -0.012895 -0.993229 0.041173 -0.083041
-0.11031 -0.426988 0.075548 -0.725799 -0.236821 0.644944
-0.142968 -0.125482 -0.005554 -0.97845 -0.032977 -0.195946
0.009979 -0.405416 0.047009 0.859457 -0.1989 0.470835
-0.093609 -0.236066 0.109401 -0.340385 -0.038322 0.939158
0.19236 -0.658059 -0.052027 0.783477 -0.272357 -0.55483
0.067296 -0.31607 -0.078533 -0.763755 -0.021381 -0.644142
-0.020268 0.709292 -0.045081 -0.938817 -0.29857 -0.170256
-0.144093 -0.073752 0.005786 -0.999441 0.012054 -0.021688
0.563712 0.110005 0.052977 -0.636836 -0.014516 0.767057
-0.261883 0.413306 -0.069888 -0.569295 0.656485 -0.493843
-0.049273 0.361727 0.10302 -0.369397 -0.037154 0.925747
0.193197 0.490223 -0.13281 0.102872 0.230471 -0.967437
-0.177216 0.435421 0.038951 0.020397 -0.474528 0.878404
0.19793 0.054678 0.049824 0.918708 0.220204 0.317767
-0.124495 0.415986 -0.09861 -0.696595 -0.384981 -0.60301
-0.028666 0.731211 -0.053554 -0.887977 -0.342701 -0.284949
0.158316 -0.370593 -0.076328 0.597353 0.196345 -0.776982
-0.112273 0.255258 -0.017544 -0.99876 0.037693 -0.007319
0.604974 0.099082 0.071316 0.57255 0.68563 0.291023
0.205945 0.024878 -0.016043 0.991 0.03763 -0.123226
0.019676 -0.094715 0.111265 0.587242 -0.257112 0.766296
-0.142333 0.396904 -0.026662 0.758267 -0.650856 0.021992
-0.089507 -0.828816 0.091637 -0.553859 0.823882 0.114079
-0.001778 0.124358 0.129435 -0.186172 0.014079 0.981135
-0.119344 0.135941 -0.039584 -0.862089 0.12558 -0.488448
0.014385 0.113566 0.132699 -0.095767 0.281059 0.953927
0.209265 0.416639 -0.020294 0.39193 -0.851212 0.186373
0.1649 -0.58437 0.03924 0.47325 -0.211109 0.852294
0.049677 -0.447762 -0.050921 -0.829977 0.041195 -0.554256
0.128967 -0.685666 -0.094197 0.137013 0.021314 -0.985004
-0.128546 -0.017362 0.067295 -0.891791 0.097129 0.440617
0.12109 -0.825784 0.146592 -0.021325 0.990769 0.093694
-0.078496 -0.862389 -0.017169 -0.045676 -0.997044 -0.049624
0.247973 0.392491 -0.02435 -0.275865 -0.605557 0.74413
-0.084637 0.283191 -0.101714 -0.669065 -0.05936 -0.740822
-0.132972 -0.259902 0.047511 -0.948297 -0.235551 0.208326
0.093331 -0.848555 -0.10284 -0.84067 -0.022113 -0.529651
-0.047226 -0.741083 0.022218 0.45072 -0.593665 0.662386
-0.025202 0.754249 0.0421 -0.894934 0.131459 0.420538
0.001033 -0.819177 -0.031353 0.963139 -0.069913 0.257988
0.000515 0.417031 0.10146 0.125134 0.274379 0.953298
0.060619 0.377284 0.104112 0.129112 0.172178 0.975933
0.124228 0.324614 -0.130949 0.558121 -0.102629 -0.82311
0.132228 -0.544027 -0.108511 0.106252 -0.035842 -0.991722
0.021145 0.836307 -0.091368 -0.159037 0.715193 -0.679902
0.130997 -0.69775 0.025067 0.278873 -0.335457 0.899101
-0.033836 0.054658 -0.138543 -0.221678 0.237038 -0.945469
0.199984 -0.129569 0.0596 0.899415 -0.039069 0.435197
0.062238 -0.239946 -0.072774 -0.767832 -0.06685 -0.636377
0.59137 0.076558 0.057131 -0.697185 -0.597745 0.377964
-0.016133 -0.832163 -0.020181 0.417296 -0.884108 0.031148
-0.000489 0.429251 -0.128362 0.119359 0.013881 -0.992679
-0.069486 -0.203186 0.116392 -0.305921 -0.087896 0.947883
0.055194 0.419611 -0.135608 -0.300284 0.041219 -0.952901
-0.076215 -0.253136 0.111584 -0.064848 -0.055131 0.99613
-0.08878 0.100963 -0.092412 -0.711004 0.216062 -0.667621
-0.088934 0.435675 0.074492 -0.621665 0.11372 0.774831
-0.233048 0.463285 -0.018971 -0.774584 0.612583 0.133613
0.061996 -0.059179 0.121856 0.031328 -0.426008 0.903216
0.321616 0.373253 -0.037204 0.657871 -0.132281 0.728071
-0.071443 0.231708 0.088478 -0.547548 0.068098 0.832961
-0.044473 -0.775704 -0.139786 -0.025612 0.439699 -0.894017
0.037395 0.394384 0.102987 0.09616 0.403896 0.853609
-0.118521 -0.012264 -0.074476 -0.838872 0.005136 -0.542822
0.031468 0.37184 0.107977 0.0476 0.199027 0.977979
0.351463 0.408063 -0.106503 0.744243 0.658568 -0.100563
0.009253 0.422721 0.098879 0.118041 0.201242 0.972145
0.145131 -0.816932 -0.112456 0.406809 -0.213933 -0.880452
0.109948 -0.239383 -0.099465 -0.139524 -0.040571 -0.987557
-0.138867 -0.015117 0.015648 -0.998294 0.051299 0.026481
0.043113 -0.316985 0.022903 -0.990283 -0.019751 0.134644
0.084981 -0.263633 -0.091406 -0.484705 0.0618 -0.872273
0.160013 -0.863817 0.050391 0.228836 -0.970459 -0.028092
-0.027542 -0.581774 -0.092797 0.495089 -0.04339 -0.865357
0.135988 -0.146672 -0.107271 0.402489 -0.220653 -0.886041
0.205421 -0.271778 0.004228 0.999941 0.00327 -0.004064
0.176718 0.52223 0.018663 0.346074 0.500811 0.791586
0.531288 0.137411 -0.007154 -0.752228 -0.65858 -0.018173
-0.121283 -0.28613 -0.029481 -0.830399 0.031672 -0.554689
-0.319442 0.307552 0.003777 -0.206302 0.113678 0.971367
0.048319 -0.573597 -0.015738 -0.895595 -0.103972 0.431887
0.145073 -0.625173 -0.094311 0.339417 -0.154034 -0.926963
-0.05544 0.580064 -0.075484 -0.40722 0.794461 -0.442521
-0.067005 0.425378 -0.126354 -0.241739 -0.155933 -0.957033
0.075761 -0.494751 0.015565 -0.644061 0.048689 0.763393
0.114609 -0.869787 0.052894 -0.004137 -0.999642 -0.024199
0.083837 -0.615194 0.018865 -0.729391 -0.235497 0.639933
0.18015 -0.551679 0.038755 0.634311 -0.179662 0.747303
0.06925 0.440973 0.088502 0.095189 0.189882 0.976475
0.020039 -0.285587 0.061983 0.934309 -0.050103 0.352162
0.521165 0.148922 -0.022663 -0.709848 -0.699269 -0.076934
0.313241 0.339631 -0.133073 -0.320111 -0.340776 -0.882977
0.135014 -0.389691 -0.096103 0.464495 0.127619 -0.874584
0.002577 -0.337183 -0.052677 0.725306 -0.062325 -0.685349
0.125232 0.238105 0.096906 0.54539 0.042072 0.837007
-0.022903 0.141533 -0.11146 -0.231412 0.514414 -0.823461
0.186476 0.433489 0.040616 0.554622 0.019343 0.829522
-0.404397 0.258845 -0.002953 -0.590612 0.657182 0.456636
-0.103457 -0.861329 0.075195 -0.535954 -0.816237 0.015169
-0.114879 0.292292 -0.030048 -0.959888 -0.269695 0.018742
0.00304 -0.828255 -0.058027 0.84886 -0.510748 0.03142
0.10546 0.57602 -0.009126 0.327253 0.751863 0.572008
0.040621 0.261593 0.126635 0.103563 0.092288 0.988879
0.086978 0.700388 0.052326 0.891911 -0.253838 0.363311
-0.033735 -0.776248 -0.13902 0.224185 0.476293 -0.843329
0.132985 -0.074712 0.114407 0.202665 -0.009308 0.978577
0.536205 0.159181 -0.030384 0.581929 -0.206856 -0.783295
-0.440286 0.151887 -0.00278 0.634927 -0.769233 0.013179
0.492445 0.20304 -0.06305 0.042701 -0.388498 -0.920364
-0.106901 0.268807 0.036579 -0.982689 0.040446 0.179374
0.019535 -0.547912 -0.036159 0.944089 0.045487 -0.322592
-0.296515 0.30702 -0.09734 0.001138 -0.083576 -0.992873
-0.033834 -0.467174 0.06692 0.262333 -0.276344 0.924188
0.203742 0.060322 0.003023 0.962428 0.264049 0.034929
0.423138 0.211839 -0.102999 -0.630933 -0.635819 -0.413028
-0.051491 0.138096 -0.104347 -0.334489 0.362151 -0.868793
-0.492336 0.159935 0.027669 -0.753756 0.65479 0.048128
0.105726 -0.175558 0.099195 -0.216373 -0.220729 0.947127
-0.054199 -0.82793 0.131694 0.530605 0.805285 0.229208
0.349053 0.376219 -0.077132 0.676021 0.679886 0.282712
-0.213519 0.358339 0.008216 0.250413 -0.548169 0.797141
-0.09528 0.507367 0.055358 -0.009471 0.381502 0.923697
0.133419 -0.716889 -0.094761 0.374745 0.113592 -0.916501
0.14161 0.581883 -0.052926 0.244742 0.965147 0.027406
-0.022231 0.848155 -0.01805 -0.592029 0.804226 -0.02292
0.134844 0.49185 0.053704 0.280939 0.553039 0.784219
0.071408 0.534022 -0.126201 -0.195413 0.340889 -0.915656
-0.324442 0.242339 -0.070708 0.19486 -0.731615 -0.649701
0.069611 0.758948 -0.106727 0.531112 -0.164443 -0.830262
0.192993 -0.106066 0.073038 0.782504 -0.01808 0.62053
-0.060841 0.269242 -0.117465 -0.429928 -0.102982 -0.89479
0.157338 0.437457 0.061963 0.740299 0.08407 0.66688
0.100795 -0.869409 0.111168 -0.197104 -0.975034 0.04769
0.15271 -0.058301 0.106282 0.506724 0.000949 0.861992
0.054406 -0.073889 -0.124458 -0.365865 -0.40798 -0.836394
-0.134253 -0.4284 0.026609 -0.96544 -0.02366 0.252951
0.09026 0.70161 0.018305 0.955255 -0.294068 0.014425
0.153766 0.460323 0.060581 0.59848 0.22678 0.767375
0.034194 -0.286474 -0.025478 -0.950807 -0.115555 -0.270654
0.472179 0.249473 -0.083023 0.859977 0.104085 -0.457658
0.008476 -0.748005 -0.016227 0.601276 -0.431177 0.665431
0.177408 -0.410612 0.066625 0.60494 -0.086875 0.78567
-0.047747 0.209418 -0.111042 -0.557123 -0.318886 -0.766407
-0.140459 0.450002 -0.100271 -0.481021 -0.034246 -0.87493
-0.284252 0.38148 -0.07582 -0.878954 0.190611 -0.429851
0.618735 0.052094 0.049174 -0.774084 -0.628872 -0.024342
-0.43177 0.169373 -0.049957 0.352439 -0.654468 -0.655481
0.150213 0.477277 0.057077 0.439742 0.376546 0.810887
0.071743 -0.697723 -0.051599 -0.841636 -0.148669 -0.51789
0.450942 0.268232 -0.102668 0.714115 0.20159 -0.667186
