0.03636 0.195707 -0.112986 0.053094 -0.254344 -0.95802
0.191826 0.347222 -0.056361 0.911981 -0.337265 -0.219727
0.119644 -0.000853 0.124308 0.356882 -0.377812 0.843472
0.172531 0.26158 -0.048843 0.898342 -0.016192 -0.436671
-0.034429 0.155532 -0.102869 -0.258032 0.18588 -0.943384
-0.482245 0.17172 -0.002797 -0.690746 0.721293 -0.038075
0.202722 0.048651 -0.020619 0.964241 0.119815 -0.224739
0.219589 0.514755 -0.115818 0.369282 0.576634 -0.727701
-0.114352 -0.061066 -0.07424 -0.785614 -0.178557 -0.592074
-0.072421 0.207716 0.091117 -0.561189 0.116801 0.819004
-0.094747 -0.726305 0.002609 -0.585508 -0.37994 0.714774
0.477893 0.210524 -0.002453 0.211626 0.461918 0.818436
0.06768 -0.497121 -0.07384 -0.711915 -0.009144 -0.701803
0.17474 0.360451 -0.097865 0.649631 -0.434106 -0.622259
0.031562 0.038652 -0.155154 -0.192364 0.226279 -0.954612
0.00764 -0.42465 -0.048536 0.785266 -0.016333 -0.618752
0.133555 -0.866686 0.005142 0.079438 -0.992941 -0.08021
-0.052607 -0.315052 -0.089983 -0.070397 -0.061715 -0.993453
-0.054488 -0.223563 -0.092584 -0.046632 0.011388 -0.998489
-0.177939 0.51616 0.028643 -0.575526 0.613728 0.539369
-0.005374 -0.709017 0.012348 0.771478 -0.259598 0.577329
0.192373 -0.503541 -0.063563 0.852276 0.013753 -0.522716
-0.423989 0.240655 -0.047478 -0.774177 0.525331 -0.320644
-0.560844 0.041066 0.048911 0.865875 -0.487834 0.024129
0.175001 -0.187633 -0.074972 0.642881 -0.010676 -0.765602
-0.128712 -0.467885 0.028539 -0.884063 -0.203017 0.420397
0.447795 0.221804 -0.09494 0.717883 -0.144799 -0.676576
0.350302 0.410051 -0.096447 0.744673 0.666413 0.003755
0.043325 0.71518 -0.09713 0.176149 -0.617344 -0.76354
0.039405 -0.194732 0.028347 -0.660748 -0.208742 0.598734
0.313241 0.339631 -0.133073 -0.320111 -0.340776 -0.882977
0.177505 -0.05187 -0.089192 0.814267 -0.108065 -0.569972
0.19936 -0.477561 -0.005448 0.991903 0.045635 0.113373
0.458526 0.213887 -0.08003 0.618666 -0.408672 -0.663322
0.092602 0.23908 -0.135876 0.046237 -0.177816 -0.981655
0.360588 0.347423 -0.056872 0.584863 0.493449 0.640078
-0.099685 -0.812652 0.001237 -0.969544 0.062939 0.232917
-0.001697 0.019745 -0.148719 -0.183692 -0.431189 -0.876213
-0.169578 0.53782 -0.005227 -0.656766 0.748128 0.088328
0.00341 -0.291436 0.084648 0.562951 -0.20319 0.796151
0.049354 0.732617 0.091158 0.855596 0.144142 0.492137
0.026559 -0.370439 -0.002581 0.996916 -0.021592 -0.0554
-0.458659 0.18275 -0.037186 -0.623297 0.403072 -0.66868
0.066399 -0.80526 -0.004015 -0.91961 -0.355877 0.153181
0.206373 -0.048476 -0.025451 0.97224 0.005555 -0.231114
0.050172 0.486359 -0.12877 -0.200423 0.078647 -0.975848
0.161986 0.446503 0.055122 0.740307 0.081014 0.666627
-0.143449 -0.090042 0.02933 -0.991572 0.023676 0.123161
0.130633 -0.256663 0.084953 0.101393 -0.119586 0.987548
-0.131966 -0.545747 -0.050268 -0.89845 0.01612 -0.43618
0.019755 0.504545 -0.123063 -0.009637 0.01777 -0.999157
-0.066012 -0.862502 -0.016716 0.007655 -0.998886 -0.045754
0.360997 0.267632 -0.098781 -0.703438 -0.676158 -0.20873
0.138686 -0.219627 0.09045 0.052626 -0.17757 0.982611
0.038194 -0.35341 -0.027737 -0.974716 -0.062994 -0.19982
-0.131628 0.415998 -0.086737 -0.635117 -0.599784 -0.426345
0.205847 -0.231098 -0.008317 0.998028 -0.060833 -0.014484
-0.092562 -0.272327 0.108175 -0.212429 -0.056746 0.975449
-0.102606 -0.103522 0.106874 -0.591841 0.084622 0.800311
0.051522 -0.655565 -0.003194 -0.990359 -0.000939 0.120252
-0.094069 -0.672354 -0.101608 -0.508502 -0.033333 -0.859499
-0.071621 0.170203 0.093887 -0.63155 0.002607 0.774598
0.160516 -0.154213 -0.089566 0.633464 -0.122715 -0.763712
-0.110886 -0.20631 -0.050211 -0.851204 -0.06299 -0.519983
-0.010445 -0.092017 -0.102846 0.416389 -0.395742 -0.814164
0.190758 -0.754396 -0.01969 0.949199 -0.257004 -0.139607
0.103718 0.440377 -0.146592 -0.071341 -0.023715 -0.996738
-0.127104 0.37619 -0.027438 -0.980379 -0.192389 0.007597
0.064302 -0.346782 -0.072695 -0.77453 -0.075684 -0.627796
0.020486 -0.532368 0.000375 0.924354 -0.139627 0.352829
-0.118222 -0.731182 -0.016945 -0.713689 0.306915 0.620787
0.17725 -0.094218 0.090061 0.682703 0.030161 0.729935
0.631002 0.055533 0.09546 0.863446 0.424614 0.263196
0.029668 -0.229539 0.032897 0.97611 -0.045992 0.211405
0.196507 -0.649539 -0.009479 0.96714 -0.091983 0.233304
0.067574 -0.405035 -0.071746 -0.728674 -0.025091 -0.683925
-0.000625 0.40489 0.104016 0.106082 0.137081 0.984431
0.181033 -0.335321 -0.049611 0.734975 0.052472 -0.6759
0.129851 0.566858 -0.010829 0.267255 0.753588 0.600206
0.181812 -0.622562 0.017854 0.277926 -0.010106 0.955596
0.388845 0.251667 -0.042855 -0.601165 -0.419574 0.679636
0.158631 -0.042357 -0.11698 0.701747 -0.168118 -0.690608
-0.552719 0.055532 0.022322 0.88887 -0.437378 -0.118258
-0.025145 0.395446 -0.129595 -0.015808 -0.01557 -0.999634
-0.126159 0.141153 0.019164 -0.982754 0.051906 0.174826
0.039315 -0.203617 0.023654 -0.975866 -0.098285 0.194846
-0.070995 -0.001457 -0.128315 -0.420807 -0.052613 -0.903207
-0.058766 0.214889 -0.105332 -0.594377 -0.283079 -0.752101
0.059023 -0.744668 -0.005256 -0.984522 -0.108895 -0.126438
-0.130207 -0.036734 -0.05019 -0.922869 -0.030928 -0.383795
-0.118676 -0.694428 -0.004879 -0.90304 -0.313322 0.25299
0.191021 -0.416289 0.045383 0.933484 -0.037558 0.355101
0.16084 0.231788 -0.070399 0.831813 -0.03871 -0.552923
-0.038798 0.094333 -0.127616 -0.299037 0.258424 -0.918059
-0.12874 -0.62714 -0.030175 -0.996279 -0.041533 0.068774
0.072973 -0.626723 -0.066473 -0.660213 -0.098563 -0.744535
0.000582 -0.482133 -0.062469 0.838838 0.057619 -0.521368
-0.126765 0.175664 0.02328 -0.952607 -0.015992 0.300152
-0.000974 -0.170623 0.107511 0.610221 -0.111153 0.78424
0.105822 -0.808989 -0.115131 -0.504286 0.057394 -0.848806
-0.003681 -0.54992 -0.073398 0.779704 -0.017461 -0.625838
0.087667 -0.852673 -0.081469 -0.973432 0.044418 -0.169982
-0.061708 -0.376713 -0.084412 -0.15682 -0.125398 -0.977515
-0.142968 -0.125482 -0.005554 -0.97845 -0.032977 -0.195946
-0.057507 0.062966 -0.127452 -0.366863 0.23724 -0.896777
-0.001889 -0.403626 0.063943 0.730571 -0.208335 0.649707
0.174454 0.424955 0.049051 0.546658 0.070234 0.833338
0.126365 -0.822208 0.096026 0.082777 0.969314 0.223631
0.014391 -0.143765 -0.051377 0.834931 -0.120209 -0.535002
-0.011334 -0.496932 0.0453 0.591973 -0.238359 0.769371
0.510649 0.160834 0.017432 -0.559381 -0.632398 0.441305
-0.059302 0.549271 -0.101118 -0.363196 0.517816 -0.774344
0.165293 0.180138 -0.065357 0.823202 0.055517 -0.561337
0.205399 -0.301157 -0.008406 0.991607 -0.009876 -0.123847
-0.144295 -0.093384 0.010764 -0.999877 0.012485 0.000811
0.158615 -0.864472 0.07315 0.262601 -0.96078 -0.005358
0.399756 0.330111 -0.096803 0.700664 0.706172 -0.075722
0.08693 -0.122197 -0.114848 -0.338816 -0.209533 -0.915667
-0.115908 -0.205859 -0.041595 -0.851762 -0.098907 -0.513364
0.012167 -0.685079 -0.004878 0.83994 -0.243829 0.445949
0.151691 0.566149 -0.01767 0.210904 0.813268 0.539008
0.022966 -0.736328 -0.045584 0.991029 -0.083065 0.079693
-0.135239 -0.220512 0.054072 -0.988233 -0.052523 0.14111
0.142449 -0.431619 0.06934 -0.307647 -0.101109 0.945829
0.212662 -0.077103 -0.009687 0.973706 0.081996 -0.202778
0.185242 -0.774266 -0.012763 0.935505 -0.33765 0.097196
0.062968 0.605628 0.017498 0.538253 -0.04959 0.840559
0.010373 -0.395083 0.050201 0.851821 -0.184969 0.489377
0.324963 0.399923 -0.139906 0.354186 0.24773 -0.896702
0.017806 0.724514 0.08884 -0.800357 0.080997 0.58572
0.26917 0.362359 -0.122867 -0.376437 -0.739094 -0.553032
-0.126882 -0.347767 -0.022306 -0.980254 0.070356 -0.17982
0.171517 -0.103761 -0.090299 0.770276 -0.099693 -0.62977
0.036267 0.178646 0.130148 0.054118 0.03649 0.997713
0.027102 0.102384 -0.138153 -0.162068 0.293896 -0.941585
0.131604 0.017756 0.11813 0.368887 0.22323 0.900979
0.204279 -0.563547 -0.027337 0.985633 -0.097643 -0.106122
0.114593 -0.085857 0.114376 -0.151417 -0.143891 0.972971
0.228449 0.385143 -0.084613 -0.71665 -0.697125 -0.018361
0.084483 -0.826193 -0.004146 -0.480199 -0.870062 0.049371
0.18397 0.050398 -0.072243 0.860669 0.166864 -0.480633
0.611077 0.093885 0.025558 0.771675 0.633424 -0.055648
0.117364 0.557482 -0.112585 0.219356 0.606155 -0.762908
-0.147266 0.392699 -0.044854 0.717496 -0.676229 -0.164629
-0.042366 -0.114539 0.126272 -0.092922 -0.090334 0.988998
0.138259 0.026056 0.113792 0.396146 0.14871 0.904797
-0.357953 0.314533 -0.044975 -0.691607 0.719417 0.050442
-0.00084 -0.025992 -0.137203 -0.040364 -0.300786 -0.952277
0.105421 -0.43917 0.04562 -0.613838 -0.382867 0.690285
0.041797 0.271035 0.125276 0.14797 0.171675 0.973007
0.19513 -0.612459 -0.057656 0.840102 -0.033514 -0.541052
-0.385542 0.19015 -0.030203 0.506423 -0.853594 -0.064076
-0.015513 -0.367999 0.083032 0.414806 -0.149956 0.897315
0.450213 0.256467 -0.105113 0.68952 -0.105606 -0.710642
-0.477266 0.176383 0.004849 -0.683476 0.728568 0.032126
0.150053 0.083106 0.088488 0.513362 0.235779 0.808046
-0.097161 0.260445 -0.086292 -0.748076 -0.170087 -0.639765
-0.144193 -0.081493 0.011774 -0.999838 0.009944 0.005869
0.086718 0.688884 -0.028868 0.835385 -0.402632 -0.354482
-0.105921 -0.280863 0.102427 -0.621137 -0.036397 0.774445
0.136422 -0.868905 0.032637 0.073722 -0.994151 -0.066352
0.158076 -0.456046 -0.094408 0.487404 0.161281 -0.857648
0.233737 0.531239 -0.088842 0.523201 0.670288 -0.525172
-0.085049 -0.216959 0.112199 -0.19596 -0.033096 0.980036
0.037305 -0.358523 -0.017533 -0.992873 -0.089098 0.016635
-0.039694 -0.70195 0.018212 -0.404379 0.130391 0.896673
-0.107066 -0.702004 0.011351 -0.721891 -0.410374 0.55403
0.066271 -0.272402 -0.077542 -0.779259 0.014118 -0.626468
-0.013811 0.814072 0.043479 -0.833201 0.331275 0.43867
-0.04817 -0.24425 -0.092897 0.047289 0.049054 -0.995361
0.048634 0.282041 0.122425 0.125572 0.113737 0.985424
0.01217 -0.649191 -0.061935 0.611114 0.160238 -0.775104
-0.064797 -0.253272 0.111882 0.025455 -0.095977 0.994751
-0.074847 0.172564 -0.084934 -0.594968 0.018984 -0.803406
0.090849 -0.552042 -0.091225 -0.659869 -0.118571 -0.741785
-0.012784 0.165251 -0.111708 -0.333631 -0.232734 -0.909783
-0.023368 0.196537 0.119808 -0.486962 0.119748 0.864936
0.100845 0.725462 -0.000753 0.989592 0.017348 0.108471
-0.063965 0.507292 0.059871 -0.14437 0.444227 0.884133
-0.069662 -0.47559 -0.096021 -0.15708 0.09659 -0.982176
0.016951 -0.078042 -0.0989 -0.069636 -0.706638 -0.692572
0.197009 0.034794 0.059554 0.878851 0.111217 0.458303
-0.136337 -0.409349 -0.003457 -0.991417 0.090668 -0.078956
0.056687 -0.358366 -0.061397 -0.79663 -0.051242 -0.602219
0.368761 0.261606 -0.105023 -0.663657 -0.663057 -0.343075
0.168087 -0.861191 0.037908 0.413054 -0.887286 -0.114049
0.099384 -0.189954 0.095926 -0.173159 -0.080186 0.981104
0.224334 0.452363 -0.133747 -0.030004 -0.000776 -0.997889
0.064783 -0.449723 -0.068963 -0.741717 0.024802 -0.670249
-0.037486 -0.115384 -0.104879 0.166425 -0.179317 -0.968529
0.008215 -0.349009 -0.045318 0.745441 -0.054853 -0.663918
0.199709 -0.578775 -0.004307 0.981315 -0.05257 0.18384
0.413546 0.216627 -0.087619 -0.61099 -0.790949 -0.024467
-0.028674 0.747087 0.028645 -0.985718 -0.047108 0.160504
0.073658 -0.808262 -0.064303 -0.926191 0.010828 -0.369685
0.125062 -0.327723 -0.095259 0.419557 0.032131 -0.907159
-0.153779 0.513706 -0.079501 -0.467923 0.484805 -0.735947
-0.06259 0.37195 0.096397 -0.442598 -0.03321 0.895147
0.236877 0.426611 -0.002237 0.439171 -0.493138 0.716959
0.347075 0.382926 -0.09573 0.900768 0.408874 0.105868
0.018002 0.216998 -0.125625 0.116743 -0.124139 -0.981788
-0.112487 0.416042 0.062954 -0.343787 -0.05305 0.93585
-0.112573 -0.764129 -0.082925 -0.866234 -0.02473 -0.498866
0.067597 -0.519789 -0.072422 -0.736738 -0.071994 -0.671583
0.166125 0.213488 -0.062164 0.869378 -0.006716 -0.493941
-0.093534 0.497246 0.0587 -0.078212 0.301631 0.949482
0.191084 -0.075422 -0.064381 0.876489 -0.011527 -0.480004
0.029761 0.803876 -0.115969 -0.046988 0.304984 -0.950245
0.639031 0.023566 0.025692 -0.384012 -0.892877 -0.199351
0.119122 0.570549 -0.010165 0.363796 0.715305 0.595798
0.185465 -0.237466 -0.06265 0.699126 -0.117705 -0.705026
-0.083183 -0.083164 -0.099891 -0.589286 -0.210539 -0.779305
0.010559 -0.36103 -0.042132 0.730043 -0.018527 -0.682757
-0.043143 -0.571075 0.042916 0.42851 -0.230367 0.873355
-0.013223 0.27186 0.11627 -0.356492 0.05493 0.932019
-0.461615 0.186685 0.017833 -0.321054 0.716587 0.599285
0.095615 -0.01442 -0.153865 0.131272 -0.151711 -0.977301
0.035551 -0.171245 -0.049016 -0.894262 -0.16234 -0.415569
-0.481317 0.122413 0.054011 0.792758 -0.465555 0.367154
-0.093985 -0.595129 -0.097359 -0.463115 0.043574 -0.885209
0.005338 0.242694 -0.127873 0.128099 -0.034277 -0.991132
0.001064 -0.364671 -0.051576 0.687397 -0.044608 -0.724495
0.020198 0.826216 0.065914 -0.330212 0.525616 0.778671
0.301251 0.465465 -0.093753 0.677076 0.654447 -0.336287
0.198187 0.116127 -0.00935 0.983093 -0.072374 -0.147146
0.077169 0.608833 -0.070366 0.325364 0.675894 -0.660619
0.169402 0.068931 -0.088319 0.791686 0.210746 -0.57321
0.00569 0.449961 0.093924 0.05857 0.353886 0.932705
0.18169 -0.396209 -0.064417 0.704646 0.106758 -0.700221
0.368229 0.350862 -0.067789 0.617669 0.629427 0.467487
0.158599 -0.277784 -0.074107 0.56303 -0.140918 -0.814046
0.088012 0.299135 0.107571 0.383907 0.126795 0.907108
0.195404 0.447222 -0.133962 0.145364 -0.108318 -0.982967
0.170607 -0.20921 -0.076212 0.616166 -0.091818 -0.781927
0.161141 -0.817516 0.02589 0.926038 -0.155058 0.315839
0.254516 0.359493 -0.066279 -0.711273 -0.694349 0.091735
0.027124 0.549675 0.031479 0.038169 0.572107 0.81875
0.070784 -0.715887 -0.041945 -0.84654 -0.221585 -0.481506
0.324786 0.374041 -0.140775 0.215506 -0.059449 -0.971648
0.088062 0.289378 0.108927 0.372334 0.139382 0.916127
-0.082123 -0.863445 0.044425 -0.03146 -0.999402 -0.008074
0.102218 0.03239 0.124439 0.472845 0.33328 0.812464
0.057764 0.556742 0.024071 0.203677 0.499828 0.840517
0.61299 0.092285 0.035052 0.769469 0.637869 -0.017396
-0.025202 0.754249 0.0421 -0.894934 0.131459 0.420538
-0.056436 0.122915 -0.107937 -0.459005 0.321454 -0.82803
0.196526 0.07877 0.028942 0.903614 0.387282 0.177554
0.478243 0.242795 -0.018466 0.160777 0.734045 0.588608
0.095244 0.609549 -0.048349 0.802033 0.552057 -0.180165
0.10903 0.351029 -0.14256 0.336766 -0.106017 -0.934902
-0.127759 -0.728613 -0.044148 -0.998095 -0.010014 0.030408
0.079314 0.719774 -0.078739 0.679815 -0.456555 -0.572875
-0.077085 0.393038 -0.118643 -0.331103 -0.128134 -0.93442
0.192773 -0.401962 0.041308 0.945482 -0.023335 0.323876
0.161001 -0.193939 -0.085996 0.617893 -0.084948 -0.781564
0.327548 0.327785 -0.132328 -0.254996 -0.326675 -0.906222
0.052928 0.265419 0.123836 0.213147 0.129689 0.968296
0.202325 -0.265712 0.038669 0.956576 -0.048755 0.28711
0.16793 0.572627 -0.050707 0.382118 0.894588 0.080621
0.185231 0.552955 -0.0882 0.312687 0.751396 -0.580739
0.501266 0.189576 0.005867 -0.319394 0.609549 0.698658
-0.078546 -0.276885 -0.082787 -0.60024 -0.045762 -0.798399
-0.011749 0.671446 -0.025147 -0.991658 -0.100714 -0.070454
0.104331 0.771608 -0.002998 0.984245 -0.04351 0.155444
-0.002598 0.139881 -0.117697 -0.122063 0.446227 -0.88523
-0.393623 0.183711 -0.011795 0.587472 -0.808011 -0.005099
0.558337 0.162107 0.029476 0.720857 0.688801 0.073255
-0.065756 -0.847841 -0.136704 -0.392422 -0.317244 -0.858265
0.620899 0.078388 0.064079 0.869724 0.4906 0.050229
0.587669 0.063402 0.046042 0.772054 -0.330177 0.469522
-0.015238 -0.28753 -0.078177 0.680806 -0.119351 -0.722614
0.20017 0.069285 -0.02275 0.985011 0.108738 -0.133492
-0.017999 0.738166 0.05649 -0.78668 0.056873 0.612092
0.014248 -0.754974 -0.027689 0.7246 -0.384421 0.570871
-0.023207 0.590746 -0.00943 -0.610586 0.566463 0.550797
0.086088 0.679218 0.005824 0.836649 -0.501936 0.200179
-0.366739 0.201077 -0.028602 0.641536 -0.766157 -0.032067
-0.113298 -0.542239 -0.079531 -0.685894 0.122395 -0.716957
-0.086116 -0.633768 0.046358 0.237433 -0.358364 0.901285
0.632778 0.038164 0.107831 0.1092 -0.238766 0.938053
0.089759 0.713164 0.048948 0.962038 -0.07143 0.246107
-0.127646 -0.348265 0.026338 -0.996166 0.0352 0.076631
-0.142814 0.42929 0.05046 -0.638119 -0.350895 0.682093
0.148928 0.574175 -0.077347 0.338281 0.868598 -0.355536
-0.021458 -0.747862 -0.117955 0.611204 0.309636 -0.726013
0.150497 0.283432 0.068209 0.719358 0.053997 0.690943
0.134716 -0.182661 0.097548 0.09365 -0.183767 0.977468
0.05189 -0.190775 0.066277 -0.787878 -0.09592 0.605826
-0.089011 -0.095945 0.113301 -0.401642 0.010712 0.915197
-0.2201 0.350084 0.004679 0.351155 -0.538332 0.763854
-0.050187 -0.86321 -0.09253 0.020041 -0.999354 0.020966
-0.238719 0.440486 -0.063569 -0.624033 0.569911 -0.53153
0.018751 -0.55792 -0.039884 0.914902 0.048241 -0.397884
0.19073 -0.391749 0.047706 0.93289 -0.027111 0.358396
0.208227 0.501481 0.016768 0.262118 0.267077 0.925708
0.098725 -0.137404 -0.115173 -0.151293 -0.247013 -0.953195
0.044299 -0.383226 -0.040963 -0.942942 -0.002223 -0.326417
-0.092431 -0.610307 0.052405 -0.125964 -0.233167 0.954333
0.1003 -0.417698 0.052211 -0.556169 -0.331451 0.760924
0.052123 -0.211212 0.063625 -0.779373 -0.086862 0.61878
-0.055456 -0.362511 0.096797 0.197827 -0.19149 0.960779
0.1148 -0.13134 0.112803 -0.199513 -0.106851 0.947715
0.072796 -0.464559 0.010321 -0.584973 0.03936 0.806624
0.041485 -0.305161 -0.041602 -0.871572 -0.018909 -0.489496
-0.011941 0.078086 0.12944 -0.309012 0.117469 0.942645
0.157525 -0.207873 0.090847 0.162598 -0.172518 0.97049
-0.029485 -0.548735 -0.094997 0.407386 -0.006614 -0.912984
0.170427 0.566395 -0.028863 0.230104 0.91597 0.294683
0.204808 -0.313714 0.020667 0.984081 -0.03126 0.166127
0.201399 -0.571951 -0.037188 0.974641 -0.100356 -0.194925
0.144682 -0.825866 0.097062 0.293647 0.94107 0.150767
0.176718 0.52223 0.018663 0.346074 0.500811 0.791586
-0.002064 -0.826232 -0.104324 0.62995 -0.679256 -0.34442
-0.043695 0.576698 -0.087572 -0.394284 0.661283 -0.635537
0.182465 -0.33626 0.06859 0.793375 -0.058433 0.604828
-0.081638 -0.519154 -0.096903 -0.295264 0.090866 -0.948838
0.046024 -0.047715 0.128094 0.053712 -0.391125 0.914882
-0.012928 -0.257063 0.100492 0.444643 -0.210731 0.870501
0.10261 0.042722 -0.151904 0.381734 0.198479 -0.900563
0.071868 0.420493 0.091902 0.157428 0.252702 0.954353
-0.004403 0.110868 0.130471 -0.222827 0.204225 0.951256
0.095183 -0.837288 0.122512 -0.788479 0.591838 0.1602
0.068667 0.664406 -0.052292 0.690865 -0.043815 -0.719521
0.098108 0.775795 0.018767 0.960394 0.058401 0.269368
-0.27416 0.390149 0.00454 -0.655868 0.402722 0.636964
0.205374 0.416065 -0.010192 0.558744 -0.773946 0.197563
0.128249 -0.869612 0.103898 -0.008219 -0.999781 0.017704
0.117389 -0.260832 0.08548 0.053524 -0.232981 0.96769
0.002706 0.662848 0.054562 -0.500593 -0.834199 0.180598
-0.012874 0.482506 -0.128171 0.083292 0.09096 -0.99217
-0.093249 -0.046822 0.110019 -0.601623 -0.035707 0.797615
-0.057983 -0.163955 0.121845 -0.145875 0.008066 0.988517
0.016392 0.039257 0.138223 0.063376 0.110397 0.991735
-0.129226 -0.161846 0.077134 -0.873242 0.018912 0.48674
-0.14077 -0.089887 0.041763 -0.951586 0.036342 0.304441
-0.088975 0.264041 0.072415 -0.687006 0.030113 0.725133
0.038208 -0.338239 0.000841 -0.868223 -0.162688 0.463675
-0.029313 0.431597 0.096376 -0.142918 0.230575 0.96249
-0.128669 -0.458073 0.032737 -0.89509 -0.177924 0.407172
0.093488 -0.328118 0.073183 -0.365234 -0.11022 0.918252
-0.15526 0.409562 -0.087637 0.471312 -0.480002 -0.728078
0.187199 0.339493 0.011741 0.915115 -0.088443 0.39215
0.018514 -0.439599 -0.030185 0.930318 0.029552 -0.36411
-0.14259 -0.058852 0.029819 -0.986291 0.049421 0.154393
-0.085296 -0.197818 0.112879 -0.177219 -0.060206 0.982054
0.158361 0.574469 -0.047364 0.307676 0.947885 0.056303
0.013776 0.696221 0.084089 -0.557795 0.046866 0.825908
-0.205953 0.426193 -0.091447 -0.234923 0.29069 -0.927446
0.101584 0.774926 0.008283 0.940977 -0.030953 0.328181
0.633188 0.023 0.058562 -0.409104 -0.905143 0.004873
0.081251 -0.395094 0.045273 -0.673927 -0.26986 0.687309
-0.201174 0.4048 0.031236 0.297283 -0.345166 0.889755
-0.112418 -0.270858 -0.043795 -0.870748 -0.004392 -0.491098
0.054535 0.5739 -0.103683 -0.045086 0.556116 -0.828369
0.057292 -0.497036 0.001345 -0.667573 -0.019138 0.74359
-0.106393 0.260141 -0.072255 -0.897115 -0.116651 -0.422942
-0.121533 -0.314523 -0.032044 -0.841312 0.068052 -0.535752
0.053357 -0.673061 0.009291 -0.916856 0.000191 0.36065
-0.010232 0.167368 0.127344 -0.3227 -0.012293 0.940195
0.142331 -0.174088 -0.100066 0.503329 -0.073206 -0.860363
-0.067288 -0.8642 0.076068 -0.021705 -0.999688 -0.001253
0.074886 0.191789 0.123409 0.44203 0.042437 0.893024
0.150949 -0.509884 -0.102652 0.41674 -0.015132 -0.907093
-0.12908 -0.49274 -0.049953 -0.849912 0.070577 -0.521835
-0.212118 0.494441 -0.011088 -0.744052 0.664302 0.06054
0.024529 0.697165 -0.083343 -0.144792 -0.6167 -0.771982
0.090639 -0.840812 -0.094614 -0.976837 0.021648 -0.20895
-0.460461 0.164916 0.042413 0.167495 0.629202 0.755443
-0.120362 0.183453 0.035732 -0.888527 0.058974 0.4531
-0.103184 -0.846617 0.111697 -0.889894 0.320088 0.218201
0.001255 -0.792323 -0.020439 0.876257 -0.170063 0.446241
-0.014804 -0.444795 -0.07444 0.733745 0.054201 -0.677183
0.193183 -0.32779 0.050315 0.916633 -0.082519 0.39099
0.252589 0.432072 -0.138072 -0.141073 0.113966 -0.979745
0.482746 0.246825 -0.047805 0.734523 0.677567 0.024956
0.110354 -0.829571 0.154878 -0.593584 0.74069 0.264793
0.124519 -0.245638 -0.09759 0.29021 -0.085164 -0.951806
0.146971 -0.869147 0.091164 0.251299 -0.963362 0.008355
-0.135066 -0.251516 0.031546 -0.996566 -0.075471 0.019417
-0.005561 0.716719 0.06816 -0.62669 -0.010142 0.77717
0.164339 -0.839745 0.086054 0.787739 0.615723 0.01869
-0.324857 0.342822 -0.033559 -0.696419 0.71459 0.058959
-0.104681 0.352124 -0.094134 -0.653585 -0.197977 -0.730154
0.153767 -0.60025 0.037322 0.244955 -0.362444 0.885363
-0.176599 0.399648 0.023129 0.152294 -0.411687 0.895185
0.176463 -0.105172 0.091404 0.692021 0.033826 0.720972
-0.060307 0.297455 -0.119614 -0.436139 -0.028641 -0.899379
-0.059749 -0.601258 -0.10368 0.113059 0.034968 -0.991702
0.134601 -0.499755 0.056177 -0.44935 -0.139432 0.880833
0.213332 -0.068848 0.025612 0.987422 0.037473 0.142591
0.120821 -0.869064 -0.047897 0.002777 -0.998061 0.061789
0.120166 -0.095333 0.114376 -0.027716 -0.0441 0.994918
0.036594 0.282326 0.123716 0.085027 0.155863 0.983802
0.093919 -0.352251 -0.097622 -0.405784 -0.015574 -0.913368
0.224002 0.531934 -0.095756 0.401903 0.681204 -0.610562
-0.209969 0.381896 0.02213 0.105916 -0.517476 0.84905
0.032606 0.297505 0.122167 0.051186 0.09796 0.993805
0.024276 -0.570061 -0.008355 0.904191 0.070385 0.413057
-0.064416 0.202543 -0.096795 -0.558106 -0.246073 -0.791972
0.642154 0.038406 0.036739 0.981216 0.192579 -0.009819
-0.131244 0.458292 0.061486 -0.063896 -0.047041 0.995345
0.12048 0.247781 0.099293 0.527057 0.057294 0.847683
0.16354 -0.232655 -0.078972 0.539848 -0.127457 -0.831602
-0.131243 -0.059835 -0.045197 -0.888661 -0.036974 -0.456417
0.022516 0.85413 -0.069431 -0.145966 0.844797 -0.512979
0.120684 -0.770342 0.030585 -0.102685 0.754856 0.642206
0.064415 -0.121363 0.077062 -0.735587 0.064432 0.672425
0.264838 0.48205 -0.011398 0.564749 0.365364 0.733244
-0.12068 0.143628 -0.033542 -0.89098 0.166178 -0.41846
0.027272 -0.346359 -0.002535 0.995894 -0.050246 -0.061063
0.065347 -0.201083 0.078105 -0.653153 -0.080028 0.752969
0.141056 0.561142 -0.101262 0.297929 0.679368 -0.670346
0.061826 -0.581136 0.003582 -0.704486 -0.113693 0.699768
0.086665 -0.644484 0.022163 -0.585198 0.435515 0.681096
-0.053486 -0.287806 -0.092166 -0.094471 -0.07422 -0.991188
-0.095786 -0.661772 0.03637 -0.176664 -0.33185 0.916813
0.156522 0.216019 0.067617 0.77764 0.081035 0.62345
0.152179 0.168652 -0.08251 0.747517 0.056357 -0.661107
-0.094335 -0.767233 0.008614 -0.619205 -0.327418 0.694751
0.02906 0.447532 0.091709 0.164955 0.21462 0.961987
-0.282638 0.355221 0.006003 -0.53813 0.167627 0.82221
-0.092989 0.253998 0.068836 -0.718692 0.068551 0.6912
0.437559 0.201385 -0.102188 -0.160346 -0.961642 -0.121405
-0.11153 -0.810374 -0.070405 -0.888889 -0.430185 -0.109884
0.15988 0.369558 0.06199 0.69064 -0.062982 0.719955
0.193436 0.14089 0.028909 0.869651 0.053518 0.489028
0.489797 0.216228 -0.069046 0.168914 -0.338874 -0.919739
-0.113684 -0.58071 0.022098 -0.905724 -0.018246 0.421027
-0.129185 0.074394 -0.007432 -0.981981 0.157894 -0.022854
-0.081082 -0.648627 0.039596 0.30591 -0.271481 0.909075
-0.009149 -0.123412 0.12096 0.357746 -0.112131 0.925063
0.587857 0.123381 0.056836 0.528156 0.651909 0.439815
-0.102917 0.110581 0.072583 -0.69696 0.344086 0.62197
-0.225707 0.378611 -0.096485 0.062012 -0.00356 -0.996938
-0.012167 -0.062734 0.129221 0.113991 -0.112975 0.987017
-0.020496 0.333509 -0.129191 -0.032756 0.04575 -0.998131
-0.025003 0.183974 0.119939 -0.526976 0.075243 0.843792
0.007573 -0.015165 0.13636 0.037602 -0.570678 0.813735
0.197529 -0.018432 0.060567 0.863048 0.093484 0.493864
-0.20313 0.349675 -0.006868 0.527799 -0.717949 0.452804
0.242625 0.469031 -0.129506 0.213483 0.313035 -0.924994
-0.126025 0.046346 -0.048992 -0.914092 0.144791 -0.377307
-0.526286 0.069617 0.06072 0.208984 -0.974801 0.034941
0.079147 0.849877 -0.041178 0.707206 0.677904 -0.19398
-0.460988 0.194963 0.008584 -0.692523 0.61701 0.338431
0.24127 0.382258 -0.041198 -0.557338 -0.733069 0.389621
0.325411 0.438176 -0.102214 0.614285 0.699179 -0.363673
-0.065023 -0.059123 -0.11646 -0.307026 -0.317676 -0.894769
-0.487871 0.105388 0.023909 0.773202 -0.609939 -0.159881
0.160911 0.199759 0.06444 0.771515 0.092008 0.628995
-0.140552 0.399933 -0.045089 0.499695 -0.859348 -0.086844
0.008889 0.833561 -0.091082 -0.260551 0.730914 -0.629931
-0.099199 -0.008974 -0.104117 -0.76849 -0.041126 -0.636066
0.109691 -0.855501 0.172394 -0.678125 0.276843 0.65028
0.384277 0.342666 -0.079271 0.706197 0.593483 0.363778
0.604974 0.099082 0.071316 0.57255 0.68563 0.291023
0.180736 0.537293 -0.108599 0.256245 0.631897 -0.73056
0.147308 -0.738634 -0.090069 0.703929 0.178008 -0.679613
-0.121639 0.160914 0.031798 -0.938361 -0.050011 0.338017
0.176743 0.210003 0.044231 0.82312 0.060475 0.561963
0.035212 0.230806 -0.125855 -0.045067 -0.048385 -0.99548
0.091289 -0.650832 0.028561 -0.488744 0.29595 0.820454
-0.090682 -0.106431 0.112995 -0.364782 0.03958 0.929977
-0.407102 0.262485 -0.052696 -0.788003 0.558864 -0.249022
0.091072 0.492369 -0.138051 -0.169235 0.256503 -0.950341
0.117844 -0.627648 0.038119 -0.063255 0.012983 0.993021
-0.122205 -0.436049 0.054763 -0.860605 -0.14767 0.487193
0.24333 0.45185 -0.000582 0.353364 -0.137953 0.918791
0.143251 -0.664615 0.029554 0.142839 -0.158438 0.976863
0.158224 -0.674921 -0.078858 0.630451 -0.076153 -0.771944
-0.050577 -0.706358 0.014127 -0.285125 0.034803 0.953983
0.078385 -0.44131 -0.082705 -0.689053 0.038449 -0.723623
0.286465 0.337172 -0.060426 -0.503562 -0.757409 0.395671
-0.066936 -0.026967 -0.126319 -0.37485 -0.198251 -0.901483
-0.562646 0.061117 0.014206 -0.884333 0.438756 -0.126113
-0.187635 0.352415 -0.037457 0.608478 -0.788817 -0.06087
0.010708 0.70543 0.081352 -0.648661 0.047532 0.746687
0.155732 0.525132 -0.124023 0.215792 0.581107 -0.781875
0.198399 -0.029102 0.060377 0.877538 0.039909 0.476947
0.180075 -0.693502 -0.050483 0.716652 -0.128235 -0.683806
-0.011477 0.643059 -0.027852 -0.985059 0.068034 -0.124811
0.143687 -0.314183 0.080396 0.133125 -0.05583 0.988691
0.042551 -0.262781 -0.043704 -0.859387 0.012251 -0.509226
0.003474 0.837028 0.049674 -0.682415 0.36652 0.630483
-0.112051 -0.614284 -0.086957 -0.61959 0.09368 -0.779187
0.555011 0.103424 0.03623 -0.844597 -0.438493 0.301747
0.118779 -0.70529 0.026252 0.366685 -0.292636 0.881545
0.195285 -0.206479 -0.056225 0.728511 -0.06686 -0.681647
0.147022 0.393258 -0.130549 0.498351 -0.24818 -0.829772
0.082717 0.813851 0.039684 0.866938 0.324568 0.374857
0.138319 -0.215962 -0.096408 0.416742 -0.144921 -0.894466
-0.092141 -0.736178 0.00318 -0.620372 0.239035 0.729845
-0.117841 0.16229 0.041576 -0.871925 0.020227 0.486978
0.078968 -0.082586 -0.128128 -0.190867 -0.416526 -0.888681
-0.260456 0.286906 -0.059995 0.738148 -0.579775 -0.342214
0.125159 -0.514695 0.048521 -0.506914 -0.128191 0.852335
-0.560689 0.064863 0.055287 -0.813184 0.551101 0.119828
0.098327 -0.793041 -0.104108 -0.735811 0.3135 -0.596132
0.096777 -0.857955 0.013158 -0.759663 -0.634511 -0.136704
0.174487 -0.857577 0.106998 0.942265 -0.082942 0.079736
-0.119352 0.228106 -0.002937 -0.971816 0.21761 0.015534
0.09562 0.355667 0.099029 0.261544 0.12597 0.956097
-0.4818 0.112912 0.028302 0.834287 -0.543549 0.002107
-0.134727 -0.445724 -0.03054 -0.929626 0.128572 -0.342578
0.112461 -0.371209 0.070062 -0.436702 -0.253012 0.862535
0.165598 0.162628 0.063655 0.712677 0.071283 0.697828
0.024782 0.744108 -0.11494 -0.096576 -0.440606 -0.890664
-0.116435 0.104353 -0.049771 -0.842556 0.13026 -0.517957
-0.035903 0.781011 9.4e-05 -0.992589 0.061799 0.104387
0.138513 -0.108682 0.111767 0.17117 -0.057162 0.982356
0.035697 -0.304275 -0.02608 -0.975468 -0.049378 -0.205723
-0.106709 -0.503539 -0.079593 -0.628002 0.128323 -0.766478
-0.191685 0.518044 -0.010162 -0.6541 0.746404 0.095236
-0.467172 0.134532 0.041834 0.73277 -0.612558 0.275595
0.533556 0.136519 0.017373 -0.77722 -0.584325 0.173292
-0.056624 -0.798845 -0.146789 -0.358062 0.068957 -0.923434
0.188581 -0.730168 -0.036789 0.696818 -0.218598 -0.667972
-0.429803 0.236557 -0.01659 -0.722369 0.687865 0.067787
-0.099107 -0.022469 0.105018 -0.616902 0.024309 0.780425
-0.057385 0.56905 0.003309 -0.129315 0.796316 0.589701
-0.13916 0.552828 -0.041231 -0.466571 0.811118 -0.34937
0.03937 -0.055278 0.124987 -0.143978 -0.480181 0.864241
0.254359 0.46256 -0.128973 0.218239 0.396005 -0.89031
-0.042753 -0.86046 0.127657 0.344658 -0.91115 0.214509
-0.061033 -0.73772 -0.125323 0.006162 0.131765 -0.98994
0.060721 0.072938 -0.151087 -0.083773 0.240639 -0.965844
-0.282058 0.3949 -0.07279 -0.633227 0.499208 -0.550782
0.078174 -0.777832 -0.064386 -0.839569 0.202065 -0.504116
-0.137943 0.004953 -0.007495 -0.990299 -0.086053 -0.088596
0.274509 0.344961 -0.102197 -0.628959 -0.685758 -0.363287
0.173154 -0.860074 0.048149 0.78374 -0.531877 -0.104331
0.183015 -0.325328 0.069179 0.76348 -0.057653 0.642183
0.088596 -0.835876 -0.051236 -0.999104 0.018507 -0.000412
-0.025383 -0.476173 0.061477 0.413774 -0.322528 0.849507
0.203577 -0.324833 -0.016094 0.945768 0.034972 -0.315177
-0.164071 0.496265 0.051003 -0.381174 0.277482 0.88088
0.105245 -0.041076 0.124878 0.39605 -0.165111 0.902083
-0.083241 0.528194 0.044483 -0.055228 0.58349 0.809879
-0.011385 -0.831892 -0.054696 0.179404 -0.971893 0.004878
0.20653 -0.001725 0.033079 0.986288 0.050729 0.141228
-0.014835 0.681438 -0.024184 -0.814798 -0.48208 -0.315938
-0.027347 0.34653 0.10516 -0.159092 -0.033276 0.983591
0.149313 -0.866783 -0.044287 0.46763 -0.875647 0.087363
0.0443 -0.544757 -0.026764 -0.993768 -0.007885 0.019296
-0.109097 -0.654386 0.030527 -0.770796 -0.144705 0.617755
-0.105567 -0.561353 0.041195 -0.878948 -0.060147 0.472188
-0.426288 0.165886 -0.038496 0.528264 -0.79295 -0.301751
-0.227653 0.471404 -0.019734 -0.784717 0.616745 0.042594
0.1852 -0.123229 0.083086 0.719672 0.029277 0.693375
0.200688 -0.211201 -0.048559 0.823592 -0.02722 -0.564557
-0.470665 0.184667 -0.009581 -0.813212 0.57877 -0.047
-0.1405 0.011738 0.030902 -0.980018 -0.124037 0.12599
0.039553 -0.053779 -0.127546 -0.329022 -0.432695 -0.839217
-0.021068 0.091908 0.126188 -0.384502 -0.141966 0.908371
0.503241 0.164873 0.008468 -0.601053 -0.776953 0.184006
0.032415 -0.016401 -0.143992 -0.189853 -0.335548 -0.921998
-0.0651 -0.362208 0.098329 0.139934 -0.16965 0.975479
0.083052 -0.801213 -0.083103 -0.869947 0.168375 -0.462243
0.200652 -0.242756 0.042917 0.957075 0.040175 0.285144
-0.51575 0.128259 0.037611 -0.761796 0.647285 -0.01134
0.086241 -0.845931 0.048113 -0.980224 0.173219 -0.053259
0.197639 -0.273177 -0.035757 0.880086 -0.155662 -0.446375
0.014048 0.661177 0.073322 -0.34637 -0.90614 0.216492
-0.020569 0.018537 0.136794 -0.183299 0.130928 0.97412
0.175182 0.272283 0.036733 0.918276 0.062906 0.38874
0.168516 -0.86306 0.0718 0.295482 -0.944 -0.011117
0.083577 0.687247 0.049254 0.903462 -0.36304 0.219951
0.132128 -0.869926 -0.083356 0.030121 -0.999487 -0.003118
0.199295 -0.470387 -0.040265 0.995802 0.01211 -0.084943
-0.103019 0.223929 -0.057015 -0.791596 -0.317953 -0.518581
-0.114857 0.304211 -0.000202 -0.974797 -0.15642 0.157713
0.175163 -0.400439 -0.07099 0.652088 0.099799 -0.751043
0.335861 0.316139 -0.044291 -0.328736 -0.37002 0.854357
-0.060586 -0.324892 0.103002 0.19315 -0.119287 0.97316
-0.130933 0.54801 -0.060301 -0.357775 0.779828 -0.509409
0.183201 -0.463862 0.054382 0.877853 -0.098759 0.468345
-0.101864 0.16221 0.066152 -0.748089 -0.032424 0.662221
0.091134 0.741311 0.044487 0.964979 -0.032197 0.255171
-0.127716 -0.636368 -0.026514 -0.986464 -0.112795 0.107492
0.196858 -0.708303 -0.028008 0.973289 -0.010029 -0.200592
0.453273 0.228974 -0.091337 0.612519 -0.242484 -0.747381
0.061011 -0.500214 -0.066655 -0.738622 -0.025677 -0.673473
0.11065 -0.425699 0.055948 -0.532361 -0.303885 0.788032
-0.493414 0.137855 -0.023795 -0.321167 -0.585746 -0.66001
0.341613 0.404792 -0.061212 0.783901 0.291673 0.489134
-0.041087 -0.340146 0.0964 0.257527 -0.100256 0.960748
-0.060628 0.131145 -0.10328 -0.381557 0.277379 -0.880658
-0.038717 0.59141 -0.039584 -0.475459 0.871834 0.080526
0.020337 -0.336135 -0.028331 0.908678 -0.019636 -0.416944
0.065677 -0.642641 0.008796 -0.239173 0.379812 0.890493
0.119736 -0.729594 0.022398 0.427328 0.283482 0.842346
0.094738 -0.664238 -0.08199 -0.603244 -0.0065 -0.797454
-0.303354 0.244357 -0.022505 0.659236 -0.722076 0.207996
0.19739 0.556579 -0.07625 0.281144 0.85721 -0.422997
0.177085 0.315156 -0.063461 0.862457 -0.305471 -0.399687
0.038578 0.129002 -0.128128 -0.110103 0.422944 -0.899375
0.175462 -0.214651 0.08382 0.471159 -0.186328 0.857868
-0.047747 0.209418 -0.111042 -0.557123 -0.318886 -0.766407
-0.095789 0.054439 -0.096968 -0.728989 0.195196 -0.655973
-0.022125 0.787485 0.038623 -0.888312 0.112189 0.443159
-0.019835 -0.248248 0.105258 0.305264 -0.177175 0.934243
0.017602 -0.636831 -0.054771 0.68257 0.148752 -0.715282
0.190993 -0.658011 0.006218 0.91908 -0.068713 0.383666
0.344653 0.309346 -0.044157 -0.296128 -0.282344 0.888663
-0.085391 0.327511 -0.10464 -0.591559 -0.088423 -0.800545
0.157475 -0.792153 -0.101274 0.651328 0.232738 -0.720012
0.295507 0.38368 -0.018307 0.184716 -0.123431 0.966911
0.01432 -0.533162 -0.045655 0.84724 0.046832 -0.528643
0.205624 0.041114 0.027229 0.983565 0.128668 0.117502
0.112976 0.444794 0.081395 0.19801 0.206355 0.957549
0.162431 -0.85292 -0.058294 0.972667 -0.147313 -0.044456
0.114591 -0.374102 -0.10158 0.029009 0.04745 -0.993513
-0.018814 -0.66126 0.025269 -0.073781 0.058274 0.994172
-0.100083 -0.488332 0.066002 -0.728357 -0.347458 0.587618
0.080542 0.71499 0.065522 0.758373 -0.003598 0.647824
-0.007839 0.702006 0.064725 -0.710156 -0.16081 0.682842
0.066576 0.012147 0.139158 0.179896 0.137611 0.972392
0.189859 0.05207 0.064356 0.767861 0.253008 0.587899
0.121788 -0.165486 -0.108244 0.203623 -0.151805 -0.965383
-0.020877 0.426423 -0.129954 0.041705 -0.020016 -0.998772
0.054902 -0.161619 0.072274 -0.677874 0.021026 0.734633
-0.129172 -0.280656 0.042838 -0.988024 -0.139606 0.0602
-0.084218 -0.203872 -0.081794 -0.591593 -0.027843 -0.805607
0.293391 0.447187 -0.123435 0.470099 0.592713 -0.653291
-0.42774 0.185309 -0.053878 -0.105148 -0.029574 -0.956332
0.076324 0.761347 0.063098 0.704222 0.034819 0.688453
-0.086907 0.21982 0.079203 -0.580524 0.13174 0.803357
0.049228 -0.128208 0.063816 -0.197137 -0.120481 0.904154
0.064321 0.847143 0.03949 0.540993 0.555921 0.630285
-0.264203 0.304748 -0.000219 0.482982 -0.527232 0.698946
-0.109112 -0.529347 0.040292 -0.832047 -0.049272 0.552402
0.104213 0.373848 -0.14532 0.121096 -0.037856 -0.99001
0.066264 0.648539 -0.055353 0.545777 0.163732 -0.821058
0.126817 -0.000389 -0.143595 0.408332 0.133951 -0.90115
0.119682 0.019611 -0.145243 0.451197 0.009135 -0.891809
0.038113 -0.003777 -0.149096 -0.260592 -0.220915 -0.935756
-0.048361 0.586866 -0.026618 -0.391992 0.780066 0.448384
0.565369 0.155016 0.024537 0.738539 0.67313 0.032614
0.093299 -0.419815 0.045093 -0.628483 -0.361557 0.688538
-0.128339 -0.65064 -0.051265 -0.999285 -0.017696 0.024487
0.044248 -0.459188 -0.021596 -0.98192 -0.036983 0.157625
-0.047922 -0.685991 -0.10983 0.320598 0.228684 -0.917923
-0.129639 0.517299 0.04957 -0.099497 0.474258 0.872944
0.049935 0.756025 0.079679 0.785558 0.156416 0.596175
0.221172 0.395036 -0.100302 -0.549597 -0.795695 -0.139447
0.071074 -0.179519 -0.095072 -0.500925 -0.206975 -0.8393
-0.267794 0.337958 0.01007 -0.097836 -0.189376 0.974412
0.150678 -0.408734 0.073492 -0.122566 -0.086074 0.986124
-0.061734 -0.30936 0.104634 0.149435 -0.086083 0.984697
0.074587 -0.822788 -0.044996 -0.436799 -0.890412 -0.063564
0.198787 0.115702 0.004612 0.977893 -0.196193 0.030739
0.596751 0.066822 0.036813 0.286549 -0.899303 0.124408
0.178288 -0.061063 -0.086168 0.818266 -0.078946 -0.569136
-0.102891 0.324062 -0.088967 -0.726763 -0.146047 -0.668906
-0.084219 0.250031 0.077602 -0.6582 0.045548 0.751202
-0.042104 -0.150144 -0.097642 0.237649 -0.216087 -0.945985
-0.125132 -0.373087 -0.035256 -0.915237 0.010302 -0.398708
0.09134 0.006698 -0.155867 0.278848 -0.057277 -0.957566
0.015997 -0.660379 0.001999 0.823696 -0.194721 0.529197
0.02184 -0.23598 0.061401 0.942953 -0.005392 0.330627
0.076543 0.73629 0.067117 0.629139 0.122092 0.767362
0.162034 -0.854778 0.15776 0.866242 0.179744 0.342381
0.109873 0.226595 0.105712 0.428983 0.064189 0.900918
0.029071 0.560248 -0.107841 -0.087126 0.445593 -0.888704
-0.101811 -0.583687 -0.092223 -0.54403 0.051964 -0.837281
-0.123754 -0.63427 -0.002681 -0.969971 -0.120357 0.207408
0.083868 -0.182639 -0.09969 -0.380457 -0.247842 -0.890825
0.053307 -0.680965 -0.025201 -0.951135 -0.076868 -0.279925
-0.000684 0.686139 -0.059154 -0.6934 -0.426199 -0.579793
-0.042959 -0.139951 -0.101013 0.238768 -0.303842 -0.920977
0.154989 -0.358174 -0.076249 0.628339 0.122615 -0.767734
0.148444 0.105868 0.083305 0.586969 0.086617 0.802676
-0.11364 -0.02496 -0.081817 -0.831215 -0.055447 -0.553014
-0.115742 -0.571006 0.018991 -0.885065 -0.087159 0.456145
0.172424 0.395175 -0.119781 0.333859 -0.448492 -0.827332
-0.136925 -0.419414 -0.006856 -0.987896 0.081354 -0.125016
0.069369 0.594625 -0.086901 0.130811 0.689369 -0.712238
0.025467 -0.299467 0.047996 0.94853 -0.035511 0.306831
0.205616 0.032349 0.034047 0.983883 0.085362 0.145937
-0.12589 -0.268962 0.071497 -0.939438 -0.117485 0.321423
0.20158 -0.253791 -0.034058 0.929378 -0.120219 -0.347374
0.167493 -0.781704 -0.086558 0.735331 0.336341 -0.587318
0.092128 -0.105808 0.101362 -0.511369 -0.167797 0.842357
0.584522 0.065701 -0.02117 0.400165 0.473816 -0.684584
-0.192924 0.349428 -0.045165 0.627208 -0.772753 -0.087418
0.092278 0.422819 -0.145115 -0.120794 0.011454 -0.99238
0.183251 0.20263 0.013472 0.998123 0.046004 0.023788
-0.135626 -0.505382 -0.003239 -0.960518 -0.105793 0.238958
0.047037 0.009071 0.142629 0.078018 0.118251 0.988683
-0.094007 -0.385011 0.096067 -0.07248 -0.183869 0.979104
0.094604 -0.200784 0.093059 -0.289846 -0.143106 0.945418
0.072057 -0.061067 -0.13624 -0.220575 -0.382122 -0.896626
0.500783 0.228105 -0.036849 0.662422 0.745834 0.060208
0.015519 -0.38263 -0.036988 0.823506 0.020009 -0.566571
0.013903 0.643856 -0.059799 -0.384694 0.121578 -0.910384
-0.040908 0.485261 0.075177 -0.164154 0.439679 0.882796
0.166646 0.286488 -0.068516 0.894714 -0.174875 -0.410517
0.471466 0.258396 -0.077674 0.792886 0.549163 -0.25386
0.11792 -0.61922 -0.097667 -0.239338 -0.091523 -0.965062
0.041111 0.598831 -0.086326 -0.001174 0.617316 -0.786369
-0.014941 -0.224823 -0.082053 0.515277 0.015364 -0.856769
-0.029803 -0.85184 -0.016719 0.59549 -0.783014 -0.178651
-0.101406 -0.434051 -0.070494 -0.652431 0.272452 -0.706709
-0.025184 0.703951 -0.008951 -0.847727 -0.511057 -0.093411
0.073353 -0.25493 0.076862 -0.543025 -0.121389 0.828851
-0.111448 -0.436889 0.071117 -0.774161 -0.159764 0.611422
-0.057332 0.24893 0.095362 -0.557232 0.089644 0.825166
0.460069 0.193803 -0.015391 -0.559857 -0.806623 0.133181
0.568729 0.079354 0.009374 -0.887626 -0.45559 0.008996
0.121115 -0.860374 0.178851 -0.098175 -0.94996 0.289352
-0.126123 -0.654282 -0.073011 -0.918637 -0.012563 -0.376569
-0.287759 0.361214 -0.083605 -0.645439 0.424343 -0.630854
-0.336811 0.223774 -0.046184 0.500871 -0.842456 -0.182266
0.038988 0.679549 -0.072017 0.084052 -0.439263 -0.894326
-0.090041 -0.316132 0.105631 -0.105857 -0.04785 0.991511
-0.116023 -0.60594 -0.082911 -0.650078 0.068489 -0.756446
-0.014992 -0.505056 -0.082624 0.690496 0.067265 -0.720088
0.234655 0.542472 -0.048976 0.66547 0.744537 0.042053
0.062937 0.350036 0.109016 0.303487 0.254521 0.917891
-0.105001 -0.860242 0.058353 -0.604147 -0.779465 0.004979
-0.056226 -0.083052 -0.112058 -0.173603 -0.232084 -0.955246
0.009389 -0.499128 -0.051411 0.844473 0.032224 -0.534144
-0.119065 0.335122 -0.00757 -0.987225 -0.103898 0.119107
-0.089488 -0.33406 0.104527 -0.087072 -0.077944 0.99109
0.310932 0.330137 -0.126969 -0.447447 -0.522197 -0.724124
-0.126713 -0.667837 -0.036114 -0.985538 -0.047788 0.15373
0.173847 -0.686887 -0.060296 0.770005 -0.155051 -0.617786
0.182357 0.464296 0.037428 0.492392 0.234232 0.837631
0.182746 0.063396 0.069126 0.788929 0.230535 0.568377
0.254664 0.522569 -0.048171 0.706584 0.707123 0.02483
-0.122212 -0.16084 0.088626 -0.829202 -0.020212 0.558489
-0.050621 -0.863964 0.036234 0.008918 -0.999752 -0.017176
0.173755 -0.532439 0.047818 0.537982 -0.215445 0.813519
-0.095728 -0.334141 -0.067046 -0.644827 0.063062 -0.76158
0.305243 0.394284 -0.144737 0.069682 0.033472 -0.992731
-0.000522 0.337727 0.112824 -0.038208 0.055773 0.997252
0.175757 -0.465939 -0.082743 0.670215 0.127056 -0.730809
0.143766 0.037167 0.108983 0.591452 0.23111 0.770693
0.294163 0.469875 -0.040587 0.791505 0.435081 0.422577
-0.12088 -0.42981 -0.046068 -0.752726 0.2807 -0.595301
-0.165508 0.458724 -0.091382 -0.285755 0.151628 -0.945156
0.00064 -0.809706 -0.114691 0.873495 -0.170934 -0.437075
0.0083 -0.633086 0.015993 0.668562 0.007509 0.739345
-0.015644 -0.809007 0.029019 0.871188 0.348319 0.345685
0.131916 -0.42759 0.066269 -0.350811 -0.083786 0.931167
0.177492 -0.499533 0.05313 0.659134 -0.188294 0.723528
-0.108849 0.34035 0.03524 -0.886784 -0.225184 0.402874
-0.128373 0.171263 -0.001979 -0.996783 -0.002173 -0.061017
0.046848 0.728438 -0.105855 0.236582 -0.52712 -0.81582
-0.113325 -0.073631 -0.071633 -0.77238 -0.163032 -0.613084
0.405936 0.22257 -0.085675 -0.561781 -0.826749 0.020523
-0.112788 -0.193922 -0.048618 -0.832186 -0.073889 -0.548012
-0.10326 0.214975 -0.052426 -0.814528 -0.185382 -0.544154
-0.128426 0.087833 -0.016087 -0.997468 0.02522 -0.057682
0.160919 -0.536933 -0.096182 0.547473 -0.03264 -0.835378
-0.352481 0.222283 0.005281 0.364819 -0.460401 0.792665
-0.439302 0.153009 -0.01511 0.590111 -0.800816 -0.085064
0.143312 0.518136 -0.129698 0.193793 0.423347 -0.88482
0.179384 0.219025 0.036226 0.932234 0.129287 0.334702
-0.004963 0.689671 0.063474 -0.784343 -0.222115 0.571996
-0.240874 0.435318 0.007248 -0.735295 0.505686 0.450927
-0.419001 0.166488 -0.012355 0.596266 -0.799438 -0.031389
-0.118857 0.095022 -0.048714 -0.871415 0.184106 -0.450481
0.185449 0.182861 -0.018328 0.920666 0.249937 -0.289272
0.089895 0.696738 -0.004319 0.983011 -0.147567 0.012462
-0.312091 0.354824 -0.031119 -0.662822 0.736607 0.13301
-0.469487 0.156827 0.05237 0.359842 0.606355 0.705065
-0.038479 0.758902 -0.038923 -0.991877 -0.059621 -0.105454
0.010621 -0.34813 0.062736 0.799164 -0.123244 0.587967
0.027765 0.676546 -0.069981 -0.132355 -0.458286 -0.870514
0.083182 0.739497 0.060974 0.6862 0.108749 0.716474
0.205104 -0.551092 -0.029046 0.986384 -0.053709 -0.135199
0.014788 -0.468871 -0.040314 0.871661 0.069059 -0.484735
0.180628 -0.674056 -0.057077 0.697953 -0.314182 -0.642496
0.161146 -0.774087 -0.088605 0.659129 0.423645 -0.619809
0.112942 -0.580821 0.035747 -0.285924 -0.187311 0.939345
0.146487 -0.419788 0.071825 -0.218235 -0.098563 0.969964
0.120598 0.541763 0.021553 0.34208 0.633168 0.693707
0.00083 -0.759377 -0.017838 0.530797 -0.283974 0.784392
-0.07392 0.435022 0.085108 -0.535469 0.186763 0.822812
0.02728 -0.326405 0.028806 0.99262 -0.043847 0.109785
-0.122506 -0.173862 -0.037499 -0.826045 -0.12256 -0.550036
0.185043 0.565901 -0.061189 0.31038 0.931797 -0.140378
-0.010309 0.058831 -0.142826 -0.162217 0.209969 -0.964042
-0.067552 -0.095681 -0.106267 -0.354662 -0.17279 -0.916883
0.101606 0.251446 0.107205 0.368339 0.074168 0.926665
-0.087335 0.379332 0.077192 -0.689772 -0.105237 0.712184
0.08845 0.39987 0.09519 0.165913 0.206347 0.963853
-0.299392 0.339612 -0.088807 -0.408066 0.438908 -0.798074
-0.041556 -0.086686 0.127755 -0.107069 -0.045689 0.992023
-0.022084 -0.837825 0.017595 0.975769 -0.174495 0.034747
0.072785 0.692803 -0.061099 0.653129 -0.51732 -0.550915
0.113662 -0.868238 0.021111 -0.076862 -0.990133 -0.11178
0.438863 0.261688 -0.032952 0.06423 0.550119 0.830258
-0.125244 -0.745716 -0.02734 -0.956133 -0.064954 0.265078
-0.079207 -0.732185 -0.119785 -0.475782 0.142258 -0.866884
-0.136756 0.036512 -0.009911 -0.980422 0.165107 -0.09995
0.083493 -0.624724 0.013596 -0.744331 -0.171673 0.643779
-0.216512 0.453054 -0.072338 -0.485253 0.567269 -0.664728
-0.067215 0.178341 -0.090047 -0.501508 -0.072932 -0.859798
0.068387 0.155773 0.127756 0.263787 0.031388 0.960765
-0.103604 0.189531 0.065468 -0.769571 -0.045226 0.634338
-0.109168 0.189785 0.057549 -0.826821 -0.053421 0.559761
0.073447 0.324531 0.110815 0.321523 0.126654 0.937387
0.071846 0.669097 0.048745 0.735165 -0.6732 0.055234
-0.10549 0.260854 0.047228 -0.972921 0.053887 0.221013
-0.29938 0.277952 -0.088704 0.272182 -0.385226 -0.878734
0.254343 0.404787 -0.016336 -0.176697 -0.376693 0.908298
-0.056555 -0.561862 -0.103192 0.08298 0.013693 -0.995163
-0.063726 0.078798 -0.119663 -0.483084 0.267981 -0.832933
-0.491133 0.09862 0.049717 0.76132 -0.619262 0.040781
0.195795 -0.358741 0.038692 0.906252 -0.09045 0.412288
-0.261883 0.413306 -0.069888 -0.569295 0.656485 -0.493843
0.15442 0.198384 0.072579 0.737013 0.090039 0.669555
0.123023 0.354112 0.089788 0.388312 0.054861 0.919605
0.016521 0.842489 0.055198 -0.349426 0.553762 0.753584
0.154883 -0.860043 -0.025111 0.554949 -0.818891 0.125869
0.065165 -0.632484 0.003567 -0.211689 0.471715 0.851673
-0.025146 0.558939 -0.106054 -0.135755 0.498436 -0.855559
0.003644 0.146437 0.129864 -0.123042 0.02141 0.992097
-0.072092 -0.069918 0.121348 -0.351272 -0.045804 0.933096
0.086334 -0.708065 -0.074948 -0.799976 -0.02624 -0.59689
0.174095 -0.735668 -0.003582 0.25351 0.547191 0.786636
-0.443614 0.211721 0.006192 -0.595346 0.495891 0.625699
-0.119813 0.312754 -0.031483 -0.996402 -0.083221 0.013422
-0.040945 0.100367 0.11712 -0.520574 0.162275 0.837565
0.341155 0.383769 -0.074479 0.84292 0.353533 0.316387
0.025813 -0.579118 -0.028109 0.958928 0.099186 -0.23747
0.188313 -0.407545 -0.057685 0.79091 0.023299 -0.610953
-0.112743 0.280677 -0.021709 -0.997223 -0.069866 0.021182
0.005758 0.858459 -0.049242 -0.410585 0.824788 -0.385714
0.18405 0.192301 0.018817 0.974517 0.192431 0.094315
-0.193131 0.455272 0.043416 -0.355758 0.162544 0.915435
0.321601 0.440731 -0.061743 0.823757 0.424709 0.374157
-0.05252 -0.062795 0.127592 -0.192865 -0.048181 0.979369
0.349536 0.381051 -0.106467 0.847094 0.504752 0.004792
0.185538 -0.372789 0.059757 0.845126 -0.04024 0.532371
0.142309 -0.815215 0.060646 0.45347 0.799887 0.382962
0.31005 0.408651 -0.140944 0.225829 0.376624 -0.897168
-0.059314 -0.70121 0.014215 0.114924 -0.267899 0.947425
0.380847 0.242619 -0.070901 -0.727909 -0.67032 0.142588
0.329632 0.292422 -0.078679 -0.672417 -0.722152 0.156921
-0.113461 0.345253 -0.082272 -0.77779 -0.213426 -0.589579
0.044099 -0.473301 -0.036429 -0.991553 -0.000816 -0.10254
0.198112 0.460927 -0.134584 0.091022 -0.024283 -0.995232
-0.073024 -0.823201 0.081859 -0.230418 0.937789 0.253364
0.198825 -0.621113 -0.043649 0.994174 -0.007658 -0.089384
0.08593 0.049699 0.125919 0.435049 0.175384 0.882231
-0.119788 -0.056996 -0.0671 -0.845633 -0.119114 -0.520121
0.063849 0.239824 0.123097 0.278107 0.092851 0.955661
-0.114469 0.21629 0.042827 -0.960811 0.118193 0.246165
0.135771 -0.822926 0.091903 0.21542 0.951869 0.213571
