-0.128874 0.111948 -0.014258 -0.980258 -0.030804 -0.189711
0.10373 -0.660549 -0.088127 -0.486184 -0.021258 -0.871934
-0.076842 0.240402 0.083898 -0.617625 0.055242 0.784425
-0.523764 0.114165 0.025428 -0.858306 0.380449 -0.256648
0.159863 -0.164735 -0.08863 0.571901 -0.075732 -0.814734
-0.011244 0.204178 0.124702 -0.530071 0.137614 0.836194
0.53834 0.181437 -0.039692 0.525892 -0.598184 -0.592101
0.008736 0.284962 -0.12908 0.128079 0.000346 -0.991667
0.19949 -0.269688 0.047007 0.935852 -0.053632 0.347885
0.044483 -0.045945 -0.133702 -0.33013 -0.437063 -0.835694
-0.050853 -0.53493 -0.101496 0.194074 0.060756 -0.978919
-0.032379 0.757406 -0.070612 -0.897055 -0.277325 -0.342448
-0.124712 -0.757433 -0.043625 -0.939215 -0.339128 0.004073
-0.004451 -0.831714 -0.064021 0.19191 -0.962637 0.004176
-0.127115 -0.290993 0.057749 -0.986619 -0.092018 0.127042
0.015329 0.631876 -0.063718 -0.317037 0.322812 -0.890595
0.169689 -0.533953 -0.089747 0.672269 -0.03788 -0.739226
0.12921 0.502598 0.04947 0.256834 0.483213 0.836003
-0.347946 0.311381 -0.010964 -0.493583 0.551714 0.664006
-0.14259 -0.058852 0.029819 -0.986291 0.049421 0.154393
0.018585 0.183305 -0.115326 0.113812 0.02091 -0.99102
-0.082949 -0.825312 0.085001 -0.239557 0.954312 0.148841
-0.172909 0.433097 -0.094049 -0.066846 0.126539 -0.989105
-0.043143 -0.571075 0.042916 0.42851 -0.230367 0.873355
0.178584 0.157514 0.049245 0.776277 0.133695 0.615231
0.157264 0.165962 0.072028 0.715994 0.053325 0.696031
0.165598 0.162628 0.063655 0.712677 0.071283 0.697828
0.288121 0.475551 -0.034051 0.759683 0.445881 0.468314
-0.278202 0.271022 -0.023642 0.635879 -0.650959 0.413198
0.301568 0.326708 -0.114906 -0.604211 -0.641996 -0.462283
-0.278493 0.375059 -0.086329 -0.635907 0.290146 -0.713749
0.11718 -0.439601 0.05537 -0.562795 -0.35952 0.743334
0.196343 -0.196297 -0.055978 0.771711 -0.028374 -0.632629
0.24127 0.382258 -0.041198 -0.557338 -0.733069 0.389621
-0.122544 0.115929 -0.034111 -0.91874 0.030737 -0.393068
0.172247 0.347511 0.043235 0.827068 -0.060837 0.558017
0.202325 -0.265712 0.038669 0.956576 -0.048755 0.28711
0.101424 0.2181 -0.128035 0.326929 -0.364562 -0.870626
0.161137 -0.833765 -0.073441 0.97432 -0.104279 -0.084735
-0.110601 -0.136091 0.101919 -0.688459 0.066482 0.722127
0.087281 0.450873 -0.144603 -0.175674 0.0176 -0.983996
0.001255 -0.792323 -0.020439 0.876257 -0.170063 0.446241
-0.045487 0.090431 0.115912 -0.471229 0.123058 0.873217
-0.050908 -0.827517 0.121367 0.424869 0.866796 0.197699
0.115676 -0.869827 -0.060314 0.011166 -0.998688 0.048942
0.11947 0.325242 0.094275 0.500531 0.104918 0.857073
-0.388862 0.250382 -0.078369 -0.374242 -0.155343 -0.912622
0.015094 -0.775188 -0.080912 0.906545 0.049572 -0.410958
-0.12845 0.181002 0.005921 -0.99891 0.029951 0.004806
-0.127783 -0.287195 -0.010867 -0.988453 -0.009534 -0.142987
-0.095557 -0.815881 0.024738 -0.906845 0.336852 0.245075
-0.032414 -0.274127 0.10344 0.232689 -0.212083 0.94883
0.116783 -0.281298 0.083079 -0.026686 -0.064148 0.997568
-0.218019 0.471555 -0.052232 -0.604628 0.580554 -0.543792
-0.570956 0.038927 -0.001246 -0.967718 0.24039 -0.053614
-0.034483 0.583514 -0.010472 -0.360591 0.742205 0.558784
0.096311 -0.704455 -0.08505 -0.693712 0.053644 -0.718122
-0.070053 -0.615372 0.043384 0.437427 -0.192451 0.878206
-0.073024 -0.823201 0.081859 -0.230418 0.937789 0.253364
-0.108343 0.458499 0.062913 -0.166721 0.038504 0.98414
-0.142382 0.417653 0.038565 -0.411379 -0.799844 0.413292
-0.168054 0.390435 -0.083163 0.578052 -0.594754 -0.55744
-0.003308 0.389108 0.105746 0.025413 0.090301 0.995288
-0.071698 -0.860972 0.14681 -0.005486 -0.973478 0.225315
-0.075537 0.116679 -0.098329 -0.612646 0.228545 -0.75616
-0.129501 -0.415852 0.04225 -0.948694 0.006802 0.312024
-0.053366 0.329358 -0.123173 -0.380535 -0.021811 -0.924444
0.057289 -0.682799 0.016548 -0.840559 0.137146 0.520244
0.120868 0.460794 0.074137 0.21527 0.338173 0.915834
0.090433 0.736509 -0.075331 0.822798 -0.325334 -0.463617
-0.104548 -0.271352 -0.055944 -0.809765 -0.014796 -0.586269
-0.113131 -0.793826 -0.012905 -0.893096 -0.27925 0.335671
0.151641 -0.26936 0.08236 0.131831 -0.071611 0.988165
0.171179 -0.460121 0.064704 0.400066 -0.109466 0.908078
0.444268 0.276526 -0.107222 0.727521 0.298834 -0.612397
0.154074 -0.092006 0.106685 0.485229 0.002862 0.873919
-0.064828 -0.51124 0.066057 0.375503 -0.226934 0.898198
-0.241329 0.374255 0.019774 -0.023914 -0.16646 0.984794
-0.13318 -0.050309 0.065025 -0.869005 0.034723 0.489524
0.097876 0.746295 -0.061743 0.972013 -0.148153 -0.181965
0.080637 -0.577317 0.021316 -0.684338 -0.05154 0.727253
-0.076215 -0.253136 0.111584 -0.064848 -0.055131 0.99613
0.197785 0.3939 -0.097876 0.893431 -0.362028 -0.259275
-0.118937 0.154478 -0.033414 -0.886418 0.128006 -0.441
0.15988 0.369558 0.06199 0.69064 -0.062982 0.719955
-0.020496 0.333509 -0.129191 -0.032756 0.04575 -0.998131
0.091134 0.741311 0.044487 0.964979 -0.032197 0.255171
-0.05088 -0.106381 0.124948 -0.266566 -0.059765 0.961677
0.310405 0.439086 -0.118373 0.491035 0.639553 -0.591214
0.145124 0.297292 -0.108186 0.782479 -0.096811 -0.614976
-0.142635 -0.15461 0.033025 -0.980497 -0.080126 0.165129
0.117456 -0.55708 -0.105931 -0.249104 -0.111432 -0.961645
-0.513367 0.130464 0.056679 -0.789299 0.607183 0.035484
0.106033 -0.491649 -0.103907 -0.346873 0.008386 -0.935923
0.198082 -0.189007 0.050494 0.958644 -0.044499 0.279599
0.063702 0.721998 -0.093806 0.44104 -0.54089 -0.716111
0.110048 -0.869239 0.118226 0.01097 -0.998565 0.050382
-0.060529 0.019387 0.123089 -0.310087 0.312094 0.895663
-0.105545 -0.157152 0.107286 -0.658682 -0.05241 0.750528
0.173341 0.31161 0.042472 0.906019 0.049491 0.407677
0.001157 0.5432 -0.114761 0.007791 0.386267 -0.922252
0.184116 -0.059737 -0.077586 0.847234 -0.048362 -0.528695
-0.109048 0.180114 0.056789 -0.814067 -0.037669 0.579537
-0.125115 0.459917 -0.108136 -0.491062 0.093795 -0.865783
0.113499 -0.446052 -0.10387 -0.151762 0.042753 -0.983236
0.080975 0.679854 0.042682 0.833018 -0.54616 0.078016
0.08553 -0.826235 -0.06062 -0.554372 -0.829709 -0.057649
-0.091293 0.276709 -0.094918 -0.692296 -0.071913 -0.717847
0.610405 0.063994 0.084241 -0.772822 -0.545327 0.288422
-0.127539 0.179081 -0.009313 -0.976691 0.046145 -0.192627
-0.103211 -0.647158 -0.096774 -0.544264 0.036169 -0.837506
-0.371685 0.303057 -0.046736 -0.688433 0.725076 -0.011166
0.119083 -0.50699 0.045435 -0.559959 -0.086673 0.823834
0.126701 0.574167 -0.018821 0.299542 0.797555 0.499
0.113539 -0.319153 0.079878 -0.14129 -0.088509 0.985095
-0.136486 -0.419444 0.014816 -0.990576 0.03054 0.12906
0.085191 -0.160811 -0.105776 -0.320123 -0.248377 -0.913699
0.054435 0.051146 -0.155378 -0.134108 0.31399 -0.938248
0.240489 0.436404 -0.00061 0.651634 -0.210013 0.720062
-0.08961 0.296726 -0.097886 -0.543226 -0.063092 -0.816336
-0.02267 -0.679889 -0.094292 0.571302 0.223758 -0.789098
-0.096043 -0.480377 -0.084055 -0.581181 0.125694 -0.802744
0.20048 -0.024322 -0.043605 0.950645 0.02868 -0.307796
0.122992 0.226791 0.098907 0.543317 0.041309 0.838374
-0.07003 -0.125852 0.120366 -0.25176 -0.003489 0.967515
-0.035597 0.091023 0.120783 -0.368505 0.009971 0.925281
0.552548 0.1034 0.024015 -0.922212 -0.36336 0.122016
0.095976 -0.55352 0.032118 -0.467025 -0.019015 0.882772
0.134477 -0.680648 0.028618 0.145512 -0.143911 0.978075
0.170248 0.114725 0.068593 0.714924 0.182818 0.67445
-0.081403 -0.611928 0.050573 0.345688 -0.220167 0.898191
0.023902 -0.708777 -0.053672 0.954297 -0.088269 -0.267879
0.20001 -0.482247 -0.035931 0.993973 0.059635 -0.088171
0.038695 0.858344 -0.063319 0.062936 0.844897 -0.530598
-0.074906 -0.789932 -0.135318 -0.60465 0.231924 -0.752632
-0.073208 -0.212818 0.114743 -0.217991 -0.068892 0.973095
-0.101282 -0.572504 0.049338 -0.827831 0.066628 0.555703
-0.141696 0.399792 -0.00697 0.528588 -0.819774 0.130241
0.132507 0.229912 -0.109614 0.682336 -0.298854 -0.667034
0.319092 0.360275 -0.139226 -0.039367 -0.219616 -0.973417
0.132927 -0.86992 0.08423 0.006005 -0.999907 0.010047
0.319249 0.41302 -0.13552 0.330826 0.513845 -0.789519
0.020835 -0.65783 -0.006869 0.871304 -0.188496 0.452473
-0.128669 0.396111 -0.014559 -0.936353 -0.311247 0.008005
0.022497 -0.495593 -0.026085 0.863724 0.056637 -0.495678
0.003677 -0.128327 0.112139 0.575725 -0.180918 0.79701
0.174652 0.178265 -0.048039 0.928647 0.057317 -0.361419
0.021825 0.02805 -0.15476 -0.188363 -0.008692 -0.969142
-0.011222 0.628222 -0.040956 -0.883182 0.318169 -0.333372
-0.05668 0.308373 0.094457 -0.483171 -0.036346 0.873796
-0.054378 -0.435933 0.080919 0.178625 -0.198756 0.963617
0.052477 0.590894 0.021821 0.376843 -0.001355 0.926215
0.190961 -0.489834 0.030524 0.959686 0.017557 0.280316
-0.06129 0.147449 0.100665 -0.562732 0.099127 0.82056
0.188579 -0.199632 0.076115 0.830807 -0.10942 0.531388
0.387677 0.342053 -0.090754 0.698286 0.709663 0.059406
-0.03742 0.78959 -0.021747 -0.994581 0.07294 0.070959
0.186207 0.177137 0.02801 0.920531 0.223675 0.312866
0.121595 0.480387 0.06495 0.216966 0.481938 0.846796
0.204952 -0.557535 -0.019631 0.988899 -0.071199 0.082674
-0.012884 0.596466 -0.079108 -0.269242 0.723683 -0.633668
-0.353466 0.312734 -0.020215 -0.651867 0.711653 0.259653
0.110622 -0.078749 -0.132061 0.119063 -0.389142 -0.91197
0.139874 0.575292 -0.083271 0.351837 0.801453 -0.480865
0.17613 -0.066303 0.088858 0.691685 0.040688 0.721003
-0.137836 0.558213 -0.018374 -0.334353 0.939459 -0.009506
0.212163 0.447217 0.019951 0.485437 -0.025242 0.86749
0.183798 0.032104 -0.077417 0.88035 0.046469 -0.471476
0.277891 0.494059 -0.041098 0.73411 0.591054 0.330227
-0.189437 0.512329 -0.046052 -0.69801 0.582867 -0.414431
-0.385114 0.202779 -0.062625 0.080252 -0.688594 -0.696371
0.522314 0.147067 -0.010841 -0.718257 -0.69545 -0.006904
-0.005007 0.662187 0.021082 -0.704553 -0.591428 0.389318
0.205549 -0.32805 0.013278 0.993125 -0.014639 0.104464
-0.014395 0.132036 -0.119335 -0.166674 0.427023 -0.888472
0.206927 -0.103332 0.045828 0.93456 -0.026734 0.354706
0.076915 -0.069848 -0.133604 -0.199359 -0.401433 -0.893659
0.053357 0.547074 -0.118682 -0.1543 0.450829 -0.876316
-0.348262 0.213817 -0.013616 0.622944 -0.761866 0.158567
0.180114 -0.261721 -0.063008 0.632007 -0.222487 -0.740751
0.110446 0.576134 -0.099027 0.206925 0.703306 -0.678239
-0.058766 0.214889 -0.105332 -0.594377 -0.283079 -0.752101
-0.109241 -0.037988 0.096262 -0.723658 0.052852 0.688007
-0.098112 0.043228 -0.098722 -0.726291 0.234153 -0.645652
0.104704 0.729325 -0.012662 0.690799 -0.581231 0.309631
0.025249 -0.008481 0.143298 0.139748 -0.544657 0.80486
0.183549 -0.248255 0.071665 0.612045 -0.060726 0.785313
0.062741 -0.682404 -0.04279 -0.811605 -0.119969 -0.571527
0.14129 0.178183 -0.0921 0.669302 0.076667 -0.737903
0.243543 0.532761 -0.070559 0.680546 0.710294 -0.176312
0.073657 -0.350552 0.056515 -0.574454 -0.32202 0.749371
-0.129296 -0.043182 0.071024 -0.847529 0.055313 0.525335
-0.118083 -0.790364 -0.066721 -0.957647 -0.162929 -0.215811
0.182285 -0.160503 -0.069073 0.667403 -0.06591 -0.741391
0.19315 -0.095851 0.073168 0.746162 0.002897 0.665735
0.134174 -0.809743 0.059782 0.386711 0.726271 0.562489
0.136527 0.022298 -0.135164 0.615726 0.053271 -0.784175
0.181093 0.189876 -0.029793 0.941387 0.06738 -0.326458
-0.095299 -0.167605 -0.074522 -0.702261 -0.113303 -0.70235
-0.06979 0.139758 0.09657 -0.574591 0.087342 0.8131
0.205672 0.051071 0.006516 0.987291 0.144337 0.016307
0.014972 -0.212531 0.084287 0.85674 -0.062492 0.511641
-0.069343 0.335754 -0.115596 -0.499094 -0.050107 -0.865037
-0.126469 -0.41681 0.051556 -0.924235 -0.058792 0.375468
-0.069644 0.098747 -0.109543 -0.569049 0.299664 -0.764524
-0.569404 0.043486 0.032556 -0.872419 0.487841 0.010021
0.145042 0.507987 -0.134079 0.210585 0.368546 -0.903083
-0.095598 -0.742428 -0.107588 -0.749116 0.090388 -0.655263
0.004522 -0.813839 -0.043138 0.944843 -0.225255 0.224218
-0.359303 0.275581 -0.087573 -0.175571 0.019798 -0.977083
-0.038493 0.243962 -0.127035 -0.330055 -0.112301 -0.935138
0.111916 0.266839 0.102655 0.413699 0.050746 0.907255
-0.093461 0.566411 -0.060579 -0.409667 0.822197 -0.3934
0.567434 0.141184 -0.006876 0.633084 0.179168 -0.735963
-0.1122 0.264474 -0.013993 -0.9999 -0.006973 0.000362
-0.448476 0.145481 0.013638 0.676043 -0.724007 0.08877
-0.530607 0.073625 0.076537 0.20592 -0.854616 0.463119
-0.104346 0.087243 0.079829 -0.613776 0.274945 0.725637
0.204029 0.503752 -0.126966 0.169242 0.393449 -0.899882
-0.335018 0.327148 -0.074544 -0.494295 0.738286 -0.45159
-0.084813 -0.728067 0.009121 -0.436681 -0.182402 0.846775
0.149929 0.389968 0.072222 0.634508 -0.004636 0.770717
0.141463 -0.095833 -0.118234 0.495953 -0.163445 -0.852022
-0.151561 0.487694 0.056348 -0.2452 0.1997 0.947506
0.537876 0.13035 -0.000267 -0.751517 -0.659485 -0.003121
0.007197 0.092069 -0.136916 -0.154881 0.218278 -0.963317
-0.020112 -0.801956 0.036225 0.924365 0.274787 0.263993
0.106388 0.752021 -0.008401 0.95697 0.226185 0.168483
-0.042507 0.135737 -0.109189 -0.323693 0.452389 -0.829904
0.116513 0.533545 0.030411 0.370273 0.586024 0.720414
-0.113838 -0.572422 -0.083056 -0.683748 0.0423 -0.728321
0.166487 -0.863168 0.101955 0.219874 -0.965476 0.020195
-0.061476 0.018277 -0.133871 -0.348244 -0.289494 -0.88563
0.011496 0.112936 -0.131384 -0.172312 0.40359 -0.898402
0.178446 -0.635549 0.019324 0.36937 0.02549 0.927443
-0.077238 0.163002 0.08937 -0.638427 -0.009557 0.769603
-0.028436 -0.326955 -0.082617 0.53 -0.092768 -0.840845
-0.127755 -0.30218 0.035062 -0.995928 -0.058842 0.065556
0.026991 0.317373 0.120462 -0.002583 0.119605 0.991511
-0.302331 0.347597 -0.080814 -0.545829 0.578028 -0.602239
0.017126 -0.760964 -0.072489 0.96475 0.015288 -0.252792
-0.091393 0.044952 -0.105663 -0.705684 0.243771 -0.665105
0.191017 -0.377988 0.047922 0.930187 -0.032587 0.364282
-0.12998 -0.272143 0.050432 -0.978151 -0.160742 0.126559
-0.055386 -0.496834 0.065536 0.343578 -0.21939 0.912863
0.15885 -0.104328 0.104327 0.487381 0.016206 0.869308
-0.435628 0.158141 -0.028946 0.352091 -0.889511 -0.266961
0.175182 0.272283 0.036733 0.918276 0.062906 0.38874
0.389909 0.305567 -0.127946 0.306913 0.192018 -0.929427
0.469406 0.205011 -0.064267 0.152395 -0.718729 -0.677652
0.002681 -0.769233 -0.02062 0.665551 0.025459 0.736437
-0.125731 -0.231535 -0.019904 -0.899133 -0.036539 -0.434123
0.176244 0.248015 0.040002 0.876762 0.039104 0.477382
0.548963 0.113674 0.019949 -0.918438 -0.366243 0.12073
-0.011749 0.671446 -0.025147 -0.991658 -0.100714 -0.070454
0.019051 -0.501024 -0.033586 0.90204 0.022509 -0.430437
-0.033836 0.054658 -0.138543 -0.221678 0.237038 -0.945469
-0.002572 -0.760773 -0.102887 0.800427 0.242887 -0.543326
0.044723 0.114567 -0.135539 -0.073534 0.392741 -0.916534
0.115955 -0.308503 0.081132 -0.090033 -0.080239 0.992141
-0.080845 -0.593684 -0.102568 -0.139302 0.026622 -0.989331
0.009298 0.678172 -0.064121 -0.489925 -0.417981 -0.763542
0.591385 0.083574 -0.002317 0.595698 0.259958 -0.758509
-0.097639 -0.636497 -0.099368 -0.495318 0.072544 -0.86481
-0.206658 0.33826 -0.03013 0.615236 -0.780135 0.099288
-0.01581 0.286328 -0.131527 0.002227 -0.008723 -0.999677
0.052383 -0.291281 0.048962 -0.768758 -0.090996 0.631531
-0.102454 -0.168266 0.109441 -0.650553 -0.020315 0.757743
0.047938 -0.016228 -0.148039 -0.308527 -0.352244 -0.883576
-0.067005 0.425378 -0.126354 -0.241739 -0.155933 -0.957033
0.035593 0.865631 -0.038024 -0.033771 0.956978 -0.27054
-0.12574 0.129387 0.025586 -0.939119 0.126359 0.312511
-0.083505 -0.861387 0.140539 -0.188732 -0.955897 0.20988
0.124416 0.211583 -0.109193 0.621696 -0.301782 -0.721886
0.089211 0.168819 0.118513 0.421051 0.052406 0.903155
0.113008 -0.754425 -0.09632 -0.436281 -0.007431 -0.894155
0.063858 0.324825 0.113234 0.240408 0.127643 0.961699
-0.072278 0.113535 0.095612 -0.561481 0.237384 0.78331
0.162972 -0.758865 0.023775 0.126631 0.083463 0.980998
-0.164071 0.496265 0.051003 -0.381174 0.277482 0.88088
-0.037832 0.404944 -0.129316 -0.078536 -0.029723 -0.996223
-0.112929 -0.80353 -0.03023 -0.891419 -0.423961 0.151873
-0.227887 0.365072 -0.095691 0.173509 -0.206075 -0.960466
-0.022903 0.141533 -0.11146 -0.231412 0.514414 -0.823461
-0.006378 0.068111 -0.141307 -0.162293 0.229573 -0.959531
-0.084441 0.453699 0.074891 -0.52494 0.225961 0.818241
-0.569588 0.043089 0.012309 -0.846239 0.529147 -0.046753
0.205164 0.052532 -0.0043 0.98199 0.156065 -0.085262
-0.071799 -0.379028 -0.081849 -0.303749 -0.090556 -0.947135
0.1237 0.544774 -0.120644 0.183796 0.520105 -0.833239
0.121931 -0.866173 -0.010532 -0.062503 -0.995739 -0.000613
0.132984 0.199666 0.094802 0.552231 0.057682 0.829939
-0.089085 0.356752 0.071641 -0.750209 -0.107956 0.650284
0.489475 0.239578 -0.054965 0.70914 0.703485 -0.025483
-0.12381 -0.564336 -0.071493 -0.753382 0.094211 -0.650075
0.299302 0.438327 -0.126787 0.42609 0.560233 -0.709438
0.184651 0.34882 -0.07607 0.775238 -0.430206 -0.460336
0.118796 -0.053774 0.11913 0.285336 -0.083608 0.953654
-0.539285 0.096219 0.037646 -0.634292 0.753477 -0.170462
-0.294285 0.34977 -0.085664 -0.534073 0.491007 -0.687189
-0.078048 -0.854454 -0.125169 -0.63205 -0.488394 -0.599072
0.215517 0.426637 0.003868 0.289329 -0.852687 0.407562
0.285814 0.405031 -0.01414 0.126724 -0.063409 0.981021
0.098223 0.747749 0.020448 0.981575 -0.046609 0.178652
0.348007 0.390688 -0.1047 0.942326 -0.324692 0.047177
0.450436 0.28285 -0.059293 0.58073 0.727806 0.336995
0.183015 -0.325328 0.069179 0.76348 -0.057653 0.642183
-0.135634 0.519669 -0.086289 -0.397764 0.495569 -0.771728
-0.020525 0.69479 0.02944 -0.969906 -0.22246 0.094947
-0.023022 -0.849379 -0.082488 0.940757 -0.31603 0.085858
0.001546 0.596875 0.013701 -0.644901 0.119152 0.751706
-0.057343 0.31845 0.094621 -0.490943 -0.055695 0.866108
0.022978 -0.204384 0.061769 0.946303 -0.035837 0.321066
0.16731 0.405876 -0.126938 0.282292 -0.399096 -0.869938
0.081266 0.627707 -0.002563 0.932966 -0.032446 0.339112
0.006917 -0.429617 0.042669 0.798196 -0.156814 0.581569
-0.121827 -0.296407 0.079245 -0.945398 -0.064406 0.314233
0.164535 0.239522 -0.065116 0.846787 -0.000135 -0.53081
0.095 -0.534535 -0.096539 -0.585179 -0.065189 -0.808039
-0.020885 0.697223 -0.014877 -0.867665 -0.38338 -0.052037
0.135119 -0.866318 0.148742 0.02311 -0.985387 0.167015
-0.089374 -0.8264 0.077377 -0.444074 0.871225 0.161708
0.149314 0.577072 -0.068128 0.526156 0.787485 -0.308013
-0.395181 0.237927 -0.073196 -0.385313 -0.206219 -0.898733
0.093302 -0.591761 0.027788 -0.331759 -0.052428 0.939968
-0.012566 0.293826 0.115102 -0.235902 0.079055 0.965736
-0.253836 0.427411 -0.007356 -0.733005 0.607052 0.304792
-0.082982 -0.508846 -0.095506 -0.341294 0.091552 -0.932187
0.022714 -0.637542 -0.003576 0.864667 -0.118081 0.487054
0.076102 0.211598 -0.127393 -0.083155 -0.369389 -0.924706
-0.11847 -0.628241 0.017195 -0.915602 0.021181 0.398199
0.114057 -0.472138 0.046283 -0.654064 -0.06829 0.753267
0.384277 0.342666 -0.079271 0.706197 0.593483 0.363778
-0.4798 0.117111 0.019163 0.708244 -0.679805 -0.142828
0.0973 -0.210367 -0.098318 -0.332542 -0.16711 -0.927391
0.099476 -0.863547 0.021035 -0.616179 -0.74638 -0.209613
-0.114288 -0.28095 -0.040118 -0.879099 0.01137 -0.47629
-0.105472 0.359375 0.052645 -0.831499 -0.259845 0.490377
0.261721 0.499359 -0.01865 0.72838 0.417774 0.539565
-0.27118 0.290588 -0.006501 0.48518 -0.577936 0.653414
0.175744 -0.805094 -0.062593 0.961119 -0.269689 -0.05066
0.192206 -0.394389 -0.052047 0.785956 0.032189 -0.61228
0.037811 -0.081452 0.111916 0.078242 -0.55046 0.828148
0.008729 0.863424 -0.005717 -0.091646 0.995629 0.008434
-0.06054 -0.455571 0.077225 0.284513 -0.276079 0.917219
0.584047 0.115215 0.061738 -0.050401 0.403249 0.905778
0.193985 0.515839 -0.122171 0.116209 0.546963 -0.828969
0.154106 -0.485241 0.064961 -0.089045 -0.163765 0.977515
-0.050358 0.045127 0.120837 -0.459567 0.191019 0.866489
-0.134449 -0.560913 -0.03156 -0.986013 -0.107759 0.115355
-0.136025 -0.540305 -0.033749 -0.995164 -0.03674 -0.054145
-0.030746 -0.426352 -0.083121 0.368687 0.243247 -0.895926
0.164779 0.349399 -0.102681 0.672061 -0.31149 -0.671069
0.160516 -0.154213 -0.089566 0.633464 -0.122715 -0.763712
0.109536 -0.104652 -0.123652 0.024966 -0.312455 -0.948183
-0.041321 -0.498859 0.059347 0.335145 -0.255904 0.905639
0.202919 -0.045049 -0.037289 0.935763 -0.022431 -0.351677
0.204642 -0.312986 -0.010949 0.980048 -0.025358 -0.187573
0.581377 0.058647 0.029224 -0.891634 -0.426684 0.127588
0.519709 0.156398 0.020481 -0.491706 -0.372153 0.760029
-0.127165 -0.379363 0.035508 -0.988539 0.047254 0.133931
0.413573 0.246086 -0.12247 0.125417 -0.413711 -0.898125
-0.252054 0.417731 -0.074301 -0.530459 0.609347 -0.58619
-0.069536 0.300974 -0.114627 -0.546721 -0.030833 -0.836533
0.187769 -0.358617 0.057211 0.865923 -0.048466 0.49695
0.027193 -0.656801 -0.02922 0.9966 -0.03226 0.041397
-0.250935 0.328257 0.004844 0.260728 -0.472077 0.8405
-0.109111 0.078627 0.080562 -0.675439 0.406622 0.612156
-0.002873 -0.540865 0.027709 0.647428 -0.15592 0.744562
0.200051 -0.564546 -0.045506 0.972543 -0.040013 -0.22784
0.150663 0.261722 -0.093211 0.862799 -0.094236 -0.496084
-0.007148 -0.632244 0.023018 0.149437 0.150328 0.975111
-0.13861 -0.062006 0.046459 -0.967729 0.042516 0.248163
0.036935 0.289098 -0.128135 -0.142252 -0.017683 -0.988604
0.054018 0.030178 0.137115 0.034095 0.254618 0.966105
0.003405 -0.208983 0.099577 0.64773 -0.113463 0.751508
0.135495 -0.265266 -0.091245 0.468469 -0.086527 -0.877626
0.176743 0.210003 0.044231 0.82312 0.060475 0.561963
0.428713 0.207384 -0.096273 -0.479148 -0.858476 -0.133687
-0.060551 0.088251 -0.118565 -0.495089 0.290094 -0.817998
0.194521 -0.561838 0.01471 0.920064 0.019278 0.390677
0.581922 0.054753 0.013529 -0.909854 -0.413132 0.03491
0.502064 0.205363 -0.001578 0.033461 0.641278 0.735602
0.058114 -0.742139 0.018827 -0.959597 -0.240474 0.129729
0.232385 0.436013 0.006558 0.544483 -0.346041 0.745834
0.185822 -0.736016 -0.004812 0.091381 0.494522 0.850316
0.002582 -0.625224 0.018601 0.426811 0.099143 0.889979
-0.572031 0.033105 0.009446 -0.985448 -0.050509 -0.018363
-0.121224 -0.233771 0.087777 -0.848977 -0.053502 0.52199
0.015705 0.658316 0.055077 -0.279103 -0.953611 0.112156
-0.075111 -0.863793 0.093678 -0.043934 -0.998946 0.008777
-0.264149 0.31188 -0.08768 0.530597 -0.342998 -0.773968
-0.044008 -0.62445 -0.100822 0.39225 0.037005 -0.917172
0.145539 0.291223 0.073673 0.786022 0.04764 0.615209
0.098642 0.810166 -0.014006 0.941019 0.322383 0.052076
-0.115118 -0.104753 -0.062906 -0.771095 -0.106479 -0.62747
0.204138 -0.009831 -0.031559 0.947171 0.064636 -0.313357
0.126809 -0.84483 -0.117132 0.338345 0.14072 -0.923374
0.063707 -0.739497 -0.022761 -0.860483 0.011105 -0.505434
0.209334 0.479356 0.020635 0.357155 0.104662 0.925708
0.170147 0.269534 0.046467 0.780614 0.061707 0.619348
0.069583 -0.784124 -0.049953 -0.897064 0.123756 -0.421731
0.12751 -0.285652 -0.093784 0.401261 -0.026096 -0.915258
0.097502 0.284319 0.106393 0.291837 0.082951 0.952099
0.095084 0.589002 -0.087509 0.169971 0.771837 -0.612453
0.44487 0.233087 -0.100615 0.6261 -0.297864 -0.718294
-0.127935 0.162096 -0.005693 -0.991898 -0.020194 -0.108116
0.046278 0.815583 -0.109024 0.1706 0.610029 -0.773397
-0.113736 -0.671999 -0.088871 -0.653384 -0.042864 -0.751735
0.17684 0.304948 -0.055652 0.894138 -0.272358 -0.355308
0.100457 0.582587 -0.09437 0.14696 0.760152 -0.632665
0.205456 0.452464 0.025156 0.627813 0.036858 0.776912
-0.383443 0.215467 0.011815 0.170523 0.020912 0.983315
-0.116626 0.060264 0.081347 -0.799357 0.243089 0.529084
0.025091 -0.641866 -0.047338 0.92393 0.083546 -0.365008
-0.366603 0.266199 0.007446 -0.055447 0.235393 0.970131
-0.123757 -0.488376 0.02811 -0.810628 -0.243554 0.532254
-0.083703 0.015863 -0.120137 -0.63185 -0.082574 -0.768654
0.097125 -0.178891 0.096305 -0.305208 -0.119135 0.94175
-0.095701 0.340201 0.058479 -0.806377 -0.164182 0.563734
-0.374308 0.195071 -0.029589 0.623393 -0.77625 -0.040727
0.048866 -0.208688 -0.06258 -0.849615 -0.119589 -0.513439
0.000332 0.043417 -0.14806 -0.194624 0.326211 -0.92452
0.175785 0.089802 0.07048 0.723482 0.220767 0.653614
0.043311 -0.40771 -0.029107 -0.998568 -0.030087 -0.035415
-0.134055 -0.433474 -0.026449 -0.919873 0.168421 -0.347935
0.018665 -0.146783 -0.042315 0.907007 -0.119575 -0.401528
-0.081132 0.298569 -0.105723 -0.527518 -0.05775 -0.827416
-0.328339 0.322464 -0.003769 -0.462533 0.420485 0.77542
0.13804 -0.65187 -0.093034 0.376002 -0.119601 -0.918561
-0.063492 0.537712 0.039454 -0.172156 0.613798 0.769928
-0.106843 0.18163 -0.050819 -0.847322 0.124383 -0.515719
-0.122849 0.524646 0.045773 -0.053408 0.582481 0.809169
-0.108096 0.086843 -0.070882 -0.801536 0.20713 -0.560368
-0.315306 0.240024 -0.060148 0.425723 -0.834058 -0.335051
-0.026765 0.468065 -0.130458 0.086394 0.080868 -0.992839
0.161935 0.493019 0.04254 0.453016 0.391813 0.795738
0.30685 0.314796 -0.07723 -0.691508 -0.712386 0.101642
-0.093342 -0.094403 -0.089069 -0.67511 -0.137986 -0.723633
-0.031909 -0.86175 0.024691 0.361879 -0.924931 -0.084459
0.064256 0.403784 -0.138865 -0.353922 0.04667 -0.932598
-0.350756 0.320241 -0.039813 -0.687835 0.707074 0.104751
0.056124 0.865588 0.004307 0.317123 0.934952 0.143012
-0.093974 -0.863293 0.061542 -0.028164 -0.998376 -0.00166
0.134844 0.49185 0.053704 0.280939 0.553039 0.784219
-0.274692 0.346884 -0.096356 -0.189965 0.063398 -0.975764
0.297227 0.368352 -0.138769 -0.170314 -0.408275 -0.896334
-0.015318 0.295922 -0.131334 0.020356 0.034311 -0.999053
0.329324 0.313956 -0.125554 -0.393409 -0.540689 -0.741292
0.000421 -0.273377 -0.06432 0.75666 -0.12724 -0.641231
0.049048 -0.528802 -0.011555 -0.829055 0.006236 0.558505
-0.139865 -0.053983 0.040866 -0.96755 0.077425 0.240028
-0.071443 0.231708 0.088478 -0.547548 0.068098 0.832961
0.075761 -0.494751 0.015565 -0.644061 0.048689 0.763393
0.204207 -0.505635 -0.012075 0.975323 0.103064 0.158638
-0.050004 0.506039 -0.122523 -0.118966 0.294962 -0.947674
-0.093931 -0.470787 -0.084143 -0.555001 0.113419 -0.824007
0.196036 0.521497 0.012503 0.26395 0.510141 0.816867
-0.042874 -0.330274 0.097779 0.231896 -0.095286 0.968006
-0.412832 0.206043 0.017617 0.011356 0.255234 0.963759
0.435508 0.243427 -0.024236 -0.23033 0.270466 0.897959
0.021809 -0.457929 0.012597 0.899251 -0.029787 0.435342
-0.017154 0.82674 0.026124 -0.755558 0.383687 0.526267
0.205697 -0.105626 -0.036562 0.915772 0.070463 -0.39408
-0.163911 0.543162 -0.019722 -0.644565 0.763365 -0.028213
-0.163197 0.424747 -0.09472 0.075527 -0.04168 -0.994894
0.124519 -0.245638 -0.09759 0.29021 -0.085164 -0.951806
0.137177 -0.156917 -0.104868 0.418118 -0.136121 -0.894354
0.015393 0.71054 -0.091122 -0.245936 -0.632535 -0.734082
0.183088 -0.560936 -0.075391 0.72908 -0.028011 -0.683806
0.037033 0.316529 0.120018 0.082024 0.113278 0.989911
0.042019 -0.268811 0.019785 -0.985247 -0.027214 0.160273
0.045706 0.034177 -0.158555 -0.147436 0.134429 -0.977142
0.100874 0.46093 -0.146004 -0.089177 0.077175 -0.992945
0.168212 -0.708381 -0.065521 0.81303 -0.025984 -0.58156
-0.126875 -0.610168 -0.00829 -0.981208 0.023794 0.189093
-0.023207 0.590746 -0.00943 -0.610586 0.566463 0.550797
0.078968 -0.082586 -0.128128 -0.190867 -0.416526 -0.888681
-0.335172 0.224147 -0.01032 0.491344 -0.851509 0.170517
0.139464 -0.246793 0.08513 0.115812 -0.134982 0.983484
-0.292804 0.362641 -0.075331 -0.737358 0.498063 -0.44042
-0.00646 -0.012642 -0.140067 -0.135336 -0.220111 -0.965553
0.101806 0.175205 -0.113072 0.268635 0.038366 -0.959407
0.02013 -0.252102 0.066273 0.948628 -0.023108 0.315218
-0.106933 0.077307 -0.076539 -0.825548 0.162012 -0.539836
-0.371914 0.196911 -0.014972 0.657842 -0.751819 0.033988
-0.294626 0.365387 -0.015017 -0.769088 0.558887 0.292124
-0.357128 0.315222 -0.055675 -0.664797 0.739527 -0.077267
0.191328 0.060232 0.058163 0.795496 0.3232 0.510663
0.051386 0.835634 0.05877 0.420331 0.524441 0.73633
0.090567 -0.839899 0.105711 -0.872847 0.47383 0.114922
-0.135071 -0.247017 0.015334 -0.995896 -0.064458 -0.060549
-0.115132 -0.375628 -0.0509 -0.753343 -0.002853 -0.656846
0.437698 0.201197 -0.089517 -0.449096 -0.880301 -0.015118
0.020482 -0.309435 -0.028071 0.937328 -0.001135 -0.347319
-0.069662 -0.47559 -0.096021 -0.15708 0.09659 -0.982176
-0.118654 -0.388107 0.077997 -0.911992 -0.066229 0.402898
-0.07274 -0.083204 -0.106563 -0.436671 -0.225979 -0.868071
0.103673 0.543029 -0.124426 0.073428 0.520007 -0.850147
-0.134727 -0.445724 -0.03054 -0.929626 0.128572 -0.342578
-0.129174 -0.62602 -0.054908 -0.998942 -0.015903 -0.039828
-0.074321 -0.540453 0.062651 0.406954 -0.215232 0.887516
-0.120497 -0.772781 -0.0361 -0.992195 -0.094973 0.063102
0.180648 0.274488 0.020623 0.970053 0.032507 0.235693
0.09562 0.355667 0.099029 0.261544 0.12597 0.956097
0.114753 0.566581 -0.106493 0.250777 0.642079 -0.723024
-0.003388 0.762915 -0.111053 -0.510967 -0.198933 -0.834485
0.014333 -0.108517 -0.070066 0.425433 -0.600439 -0.669527
0.026895 0.629306 0.030966 -0.221959 -0.43736 0.862794
0.045018 0.105492 0.134867 0.106123 0.092836 0.980614
0.019806 0.255253 -0.126193 0.115173 -0.051247 -0.990965
-0.128242 -0.347599 0.015685 -0.999059 0.026152 0.0316
0.199194 0.389878 -0.052353 0.993627 -0.109211 0.01721
0.01101 0.619469 -0.067914 -0.261337 0.524752 -0.801245
0.10338 -0.006132 -0.153427 0.249844 -0.001242 -0.965227
0.051368 -0.501207 -0.007676 -0.87636 -0.007482 0.481167
0.132599 -0.035649 -0.140365 0.456903 -0.211834 -0.862496
0.205664 -0.203612 -0.035328 0.98364 -0.020323 -0.167376
0.478342 0.234616 -0.011375 -0.100901 0.574166 0.780195
0.123102 0.250492 -0.124846 0.654037 -0.167682 -0.737609
0.089285 0.694863 0.011057 0.984329 -0.157861 0.050172
0.171979 -0.043825 0.091949 0.690366 0.017241 0.723249
0.178697 0.038437 -0.085321 0.828488 0.122912 -0.545926
-0.011953 -0.8273 -0.122509 0.597241 -0.68937 -0.397824
0.059419 -0.627533 -0.052435 -0.79041 -0.115266 -0.60029
-0.093508 -0.26276 0.108432 -0.233054 -0.042987 0.97136
0.012884 -0.78306 -0.037783 0.878759 -0.280555 0.384017
-0.010176 -0.58911 -0.077684 0.680914 -0.031434 -0.731442
-0.07298 0.509848 0.057136 -0.171623 0.462747 0.868204
0.506178 0.161641 -0.001065 -0.601594 -0.794325 0.080775
0.039875 0.750748 0.096037 0.512777 0.409943 0.72581
-0.121694 -0.456745 -0.054841 -0.771402 0.13561 -0.621447
0.022364 -0.543471 -0.02504 0.951608 0.051592 -0.298457
-0.113619 0.380688 -0.094497 -0.694749 -0.238848 -0.678179
0.143166 -0.127895 -0.10892 0.498928 -0.273104 -0.822177
-0.079651 0.355185 0.082874 -0.742199 -0.057441 0.666186
-0.098989 0.548335 0.025879 -0.016443 0.753836 0.65634
0.129427 -0.869483 0.040663 0.011376 -0.999304 -0.033458
0.064642 -0.186891 -0.087726 -0.63321 -0.220237 -0.73895
0.155892 -0.781316 -0.097602 0.572725 0.387061 -0.722472
0.007573 -0.015165 0.13636 0.037602 -0.570678 0.813735
-0.072092 -0.069918 0.121348 -0.351272 -0.045804 0.933096
-0.035132 -0.427446 0.078055 0.333259 -0.249331 0.909234
-0.091765 0.111815 0.081338 -0.579499 0.400832 0.709188
-0.03988 -0.721674 -0.116122 0.465311 0.22354 -0.855899
-0.116435 0.104353 -0.049771 -0.842556 0.13026 -0.517957
-0.131505 -0.586528 -0.046256 -0.988492 -0.12674 -0.075492
-0.502474 0.121823 0.081513 0.549474 -0.149195 0.793503
-0.129282 0.124507 0.001986 -0.989183 0.141867 0.019313
-0.075035 -0.359308 0.100407 0.165671 -0.19731 0.966105
-0.128585 0.394215 -0.025174 -0.958686 -0.217164 0.003491
0.074431 0.857646 -0.023857 0.667365 0.740057 -0.077086
-0.031195 -0.596413 0.029264 0.302341 -0.176575 0.93546
0.626014 0.041555 0.055647 -0.828182 -0.559497 -0.031779
0.188409 -0.759682 -0.000897 0.927495 -0.247033 0.273377
-0.106733 -0.270236 0.102248 -0.631316 -0.040943 0.768211
-0.112743 0.280677 -0.021709 -0.997223 -0.069866 0.021182
-0.013643 0.837641 0.026522 -0.875566 0.147976 0.448274
-0.29804 0.368145 -0.042055 -0.739927 0.668758 -0.010611
0.006106 -0.449491 0.0395 0.782628 -0.11033 0.612159
0.309514 0.333212 -0.046866 -0.383223 -0.532929 0.753017
-0.144047 -0.068234 0.013736 -0.999664 0.01908 0.011915
0.079109 0.152685 0.122802 0.415981 0.055813 0.906918
0.02906 0.447532 0.091709 0.164955 0.21462 0.961987
0.121698 -0.013377 -0.146718 0.414071 0.009482 -0.907548
-0.093534 0.497246 0.0587 -0.078212 0.301631 0.949482
0.168432 0.203855 0.0551 0.753157 0.077828 0.653205
-0.460461 0.164916 0.042413 0.167495 0.629202 0.755443
0.10109 0.065601 0.118253 0.431878 0.131936 0.890891
-0.208326 0.472275 -0.062433 -0.793213 0.369454 -0.441802
-0.008128 0.664463 -0.037675 -0.857202 -0.172505 -0.472681
0.277528 0.497071 -0.078732 0.688007 0.663955 -0.287139
-0.124737 -0.368083 0.052833 -0.976441 -0.082256 0.199173
0.069211 0.730348 0.07372 0.518027 0.193166 0.8289
0.325535 0.306788 -0.115761 -0.538295 -0.635305 -0.548443
-0.082991 -0.692112 -0.108076 -0.49843 0.15425 -0.850726
-0.125679 0.022163 0.071276 -0.837382 0.211704 0.502181
-0.118944 -0.337606 -0.039461 -0.857966 0.100645 -0.502987
0.429057 0.283996 -0.11821 0.533536 0.379038 -0.753502
-0.042145 0.373585 0.105171 -0.22105 0.063813 0.968609
0.321261 0.433059 -0.115087 0.539239 0.663257 -0.518712
-0.334501 0.333959 -0.039149 -0.676604 0.735575 0.031753
-0.060353 0.3622 0.096825 -0.497336 -0.083544 0.861498
-0.104396 -0.823013 -0.043029 -0.955083 -0.229747 -0.000693
-0.017474 0.261051 -0.130343 -0.02972 -0.055526 -0.997596
0.170403 0.492514 0.036252 0.599154 0.309311 0.736826
-0.35872 0.305419 -0.013687 -0.500232 0.727771 0.461273
0.04992 0.62842 0.028357 0.307379 -0.338923 0.880231
0.029558 0.749189 0.097217 -0.31895 0.453026 0.810062
0.188564 -0.524614 -0.070808 0.800858 0.002113 -0.597438
0.440057 0.289518 -0.058028 0.406079 0.803944 0.415553
-0.261101 0.395142 -0.087438 -0.361145 0.493152 -0.789558
0.065543 -0.093245 -0.118554 -0.33268 -0.489901 -0.804472
0.033432 0.361847 0.111156 0.035015 0.219679 0.97322
0.019194 0.863678 0.013428 -0.091472 0.994067 0.047933
-0.036255 0.18554 -0.108309 -0.394793 -0.278147 -0.874597
0.204091 -0.501744 -0.023103 0.978478 0.178118 -0.0912
0.084719 0.601958 -0.005483 0.76595 0.207484 0.603349
0.072057 -0.061067 -0.13624 -0.220575 -0.382122 -0.896626
-0.023635 -0.006757 0.144726 -0.186647 -0.092311 0.94257
0.039686 0.074598 -0.146886 -0.185401 0.27312 -0.942724
-0.035139 0.327979 0.103248 -0.478722 0.012749 0.870733
0.073817 -0.370687 0.048173 -0.429389 -0.20207 0.864127
-0.172639 0.363714 -0.033828 0.672815 -0.737078 -0.029601
-0.570829 0.028771 -0.003031 -0.409352 -0.688613 -0.146925
0.135812 0.305419 -0.119958 0.715371 -0.067254 -0.693844
0.073816 0.769051 -0.10493 0.609574 -0.048297 -0.788392
0.350111 0.361402 -0.058309 0.594179 0.543322 0.587732
0.174386 -0.142521 -0.079019 0.702444 -0.097888 -0.704823
0.201399 -0.571951 -0.037188 0.974641 -0.100356 -0.194925
-0.007361 0.363752 0.10944 -0.269534 0.290938 0.917673
-0.082146 0.269292 -0.102466 -0.655597 -0.108224 -0.746946
0.007352 0.020121 0.141367 -0.095566 0.166525 0.98097
-0.368422 0.29969 -0.069794 -0.646528 0.622833 -0.438408
0.155259 -0.752217 -0.083019 0.809988 0.191853 -0.549983
-0.127169 0.071905 -0.033799 -0.962453 0.130012 -0.225291
-0.165508 0.458724 -0.091382 -0.285755 0.151628 -0.945156
0.135124 -0.706113 -0.093094 0.429323 0.029471 -0.902009
0.076555 -0.801605 0.025643 -0.880569 -0.169385 0.441714
0.133281 0.355749 0.084711 0.568511 0.037603 0.821371
0.148883 0.549469 -0.109712 0.251197 0.653315 -0.713781
-0.096666 -0.632639 0.04642 -0.318899 -0.31659 0.876445
-0.010419 0.362346 -0.128938 0.026171 -0.011799 -0.999384
0.024241 0.653456 0.046196 -0.248428 -0.821699 0.492439
-0.120478 -0.012791 0.079923 -0.804918 -0.057735 0.579998
0.023866 -0.104628 -0.071968 -0.492291 -0.606715 -0.561117
0.265156 0.460582 -0.126832 0.27461 0.515354 -0.811029
-0.04959 -0.072966 -0.115933 -0.13265 -0.296237 -0.945204
-0.245852 0.437402 -0.056642 -0.65967 0.633579 -0.40039
-0.00209 0.676085 0.065981 -0.85298 -0.221573 0.455324
-0.050621 -0.863964 0.036234 0.008918 -0.999752 -0.017176
0.166775 -0.744772 0.013138 0.315833 0.818908 0.476787
0.197706 -0.697389 -0.016535 0.991193 -0.031311 0.11133
0.101282 -0.360239 0.068284 -0.419153 -0.300692 0.856486
0.24021 0.373243 -0.090129 -0.706433 -0.707477 -0.015694
0.108493 -0.652486 0.034097 -0.073653 -0.061031 0.991624
0.142996 -0.868491 0.128937 0.15014 -0.976976 0.068048
0.177046 0.405612 0.047217 0.635084 -0.059811 0.769937
0.08324 -0.078196 0.111063 -0.097674 -0.671064 0.734147
0.0431 -0.251932 -0.044379 -0.873672 -0.002576 -0.485384
-0.152059 0.549062 0.003317 -0.412509 0.873906 0.239429
-2.3e-05 -0.456294 0.04553 0.743413 -0.147191 0.652117
0.087959 -0.682223 0.034706 -0.199459 0.143725 0.964793
0.160523 -0.863816 0.118249 0.261768 -0.963744 0.02939
0.092151 -0.737363 -0.079184 -0.841794 -0.072152 -0.534516
0.526919 0.199292 0.008619 -0.019922 0.940303 0.333323
0.058436 -0.166602 -0.087053 -0.64761 -0.186447 -0.738282
-0.059749 -0.601258 -0.10368 0.113059 0.034968 -0.991702
0.417398 0.313378 -0.084657 0.679912 0.731559 0.041512
0.012487 0.544382 -0.114389 -0.026687 0.396887 -0.917363
0.171667 -0.84955 0.09761 0.754121 0.655343 0.039234
-0.124409 -0.554747 -0.068766 -0.817618 0.12418 -0.56082
0.140759 0.419192 -0.140101 0.386021 -0.232387 -0.89243
-0.116997 0.347531 0.015907 -0.961665 -0.141267 0.234089
-0.366077 0.204783 0.001353 0.502393 -0.682134 0.508231
-0.107394 -0.356213 0.094368 -0.701771 -0.112173 0.696727
-0.009065 -0.825808 0.001226 0.705616 -0.53664 0.33874
-0.174018 0.382618 -0.081282 0.584965 -0.620914 -0.52096
-0.076334 -0.828844 -0.130847 -0.78723 -0.011028 -0.615573
0.166711 -0.717501 -0.002701 0.491282 -0.31425 0.802162
-0.143551 -0.107786 -0.005753 -0.98852 -0.023738 -0.141929
-0.144349 -0.126949 0.017596 -0.999676 -0.002378 0.017087
-0.279849 0.263515 -0.051705 0.70532 -0.706951 -0.036441
-0.118402 -0.534225 0.023484 -0.855093 -0.098735 0.508778
0.093331 -0.848555 -0.10284 -0.84067 -0.022113 -0.529651
0.120374 -0.199716 0.096301 0.051126 -0.186516 0.980401
0.180075 -0.693502 -0.050483 0.716652 -0.128235 -0.683806
0.188044 0.323273 0.003505 0.961599 -0.115944 0.242332
0.154239 -0.551559 -0.099587 0.520317 -0.03835 -0.853035
-0.079329 -0.310278 -0.080012 -0.572739 -0.037934 -0.818548
-0.059325 0.51483 -0.118489 -0.184972 0.424792 -0.883045
-0.428199 0.238762 -0.026103 -0.730992 0.682101 0.005039
0.242831 0.480185 -0.12484 0.35069 0.430891 -0.831445
-0.101698 -0.101845 -0.079761 -0.709023 -0.106408 -0.696755
-0.070734 0.547623 -0.097266 -0.355605 0.548275 -0.756098
-0.118617 -0.455861 0.053251 -0.832462 -0.236736 0.500653
-0.124406 -0.553694 0.005992 -0.876619 -0.165471 0.44794
0.123327 0.580447 -0.026754 0.266304 0.892248 0.340178
0.027745 0.307641 0.121413 0.014773 0.096195 0.994392
-0.053752 0.194779 0.102424 -0.485444 0.012861 0.873993
-0.080189 0.568112 -0.070755 -0.478861 0.713347 -0.508818
-0.09303 -0.133105 -0.083406 -0.665008 -0.090394 -0.741304
0.153766 0.460323 0.060581 0.59848 0.22678 0.767375
-0.034218 -0.806023 -0.149384 0.232162 -0.128177 -0.948483
-0.328347 0.239899 0.003495 0.291038 -0.36932 0.869766
-0.039995 -0.371988 -0.082963 0.335795 -0.177811 -0.923992
0.187295 -0.069515 -0.071601 0.824718 -0.029339 -0.564694
-0.087322 -0.840036 -0.114066 -0.902608 -0.018211 -0.428341
0.23376 0.448311 0.008564 0.614773 -0.076359 0.776689
-0.05498 0.160357 0.103358 -0.519343 0.09738 0.848802
-0.133199 -0.156176 -0.024978 -0.85447 -0.133606 -0.499118
0.106865 -0.003247 0.128218 0.317697 -0.215798 0.922936
0.18864 -0.538201 0.029634 0.88104 -0.080544 0.464423
-0.017638 0.494011 0.073658 -0.041173 0.455062 0.889194
0.032606 0.297505 0.122167 0.051186 0.09796 0.993805
0.118314 -0.298915 0.081999 -0.045278 -0.073396 0.99612
0.111026 0.173525 -0.109942 0.399734 0.086065 -0.910709
0.02154 0.604619 -0.080499 -0.08821 0.617679 -0.781203
-0.090627 -0.858225 -0.033471 -0.596337 -0.794897 -0.064427
-0.124499 0.205006 0.014178 -0.901084 0.388825 0.178123
-0.113569 0.061404 -0.069745 -0.866822 0.075213 -0.492058
0.008114 -0.704731 -0.07919 0.667937 0.182751 -0.719397
0.012167 -0.685079 -0.004878 0.83994 -0.243829 0.445949
-0.056665 -0.093273 -0.109894 -0.229268 -0.195598 -0.95043
0.045397 -0.481413 -0.043288 -0.950365 -0.006226 -0.286232
0.053074 -0.71433 -0.000982 -0.991051 -0.089486 -0.085404
-0.128191 -0.55083 -0.060673 -0.91675 0.070196 -0.391021
-0.047216 -0.558977 -0.101419 0.323245 0.000436 -0.94565
0.266824 0.469314 -0.009059 0.655024 0.064359 0.7499
0.503122 0.194458 -0.057605 0.188698 -0.409666 -0.89129
0.187011 0.316614 -0.04102 0.879336 -0.342749 -0.32959
-0.276741 0.334797 0.008585 -0.139547 -0.047305 0.986045
0.012099 -0.670333 -0.066839 0.581942 0.209547 -0.785297
0.196088 -0.183612 -0.056194 0.770471 0.016422 -0.634317
0.010206 -0.005998 -0.143732 -0.125268 -0.215953 -0.96807
0.205622 -0.077632 0.051634 0.908253 0.013131 0.413348
-0.002465 -0.77839 -0.113921 0.836734 0.286045 -0.465986
0.295543 0.459976 -0.034557 0.740453 0.328911 0.582393
0.143806 0.060316 0.100955 0.698943 0.213156 0.679376
-0.10444 0.449189 -0.118625 -0.375653 -0.03747 -0.923613
-0.456385 0.144631 0.039175 0.68249 -0.682844 0.204653
0.168168 -0.16699 0.094031 0.466579 -0.125051 0.87346
0.093094 -0.401715 -0.093816 -0.471373 -0.009953 -0.881489
-0.103799 -0.825213 -0.018305 -0.987932 0.01395 0.039647
0.124998 -0.27381 -0.09528 0.407543 -0.05557 -0.911464
0.177574 0.565629 -0.071812 0.286087 0.912501 -0.288684
-0.094747 -0.726305 0.002609 -0.585508 -0.37994 0.714774
-0.397295 0.275663 -0.025979 -0.698731 0.689221 0.183682
0.270728 0.35492 -0.113096 -0.49969 -0.727682 -0.460242
0.019387 -0.351437 0.046431 0.921931 -0.121864 0.367416
-0.017764 -0.043162 0.132859 -0.026933 -0.213499 0.975637
0.14241 -0.20166 0.094132 0.02968 -0.151152 0.982693
-0.415654 0.230715 0.011021 -0.268438 0.381596 0.880094
0.019282 -0.215065 0.073027 0.958379 -0.02862 0.280518
0.073131 0.263002 -0.137399 -0.174009 -0.081166 -0.980555
0.054538 -0.20584 -0.071638 -0.739992 -0.16409 -0.651858
-0.012212 0.088178 0.128479 -0.371187 -0.03958 0.925679
-0.077036 -0.863555 0.035722 -0.038052 -0.999238 -0.005908
-0.291288 0.37024 -0.069066 -0.854723 0.41723 -0.293211
0.345436 0.396234 -0.070607 0.740913 -0.583703 0.233695
0.159033 -0.823144 -0.099433 0.714507 -0.339025 -0.598891
0.166125 0.213488 -0.062164 0.869378 -0.006716 -0.493941
0.097798 -0.370247 0.063504 -0.462952 -0.27331 0.842523
-0.039727 0.765021 -0.031491 -0.997342 -0.061997 -0.016306
-0.087874 -0.015895 0.112305 -0.555989 -0.244063 0.792047
-0.096899 0.438098 0.068069 -0.532518 0.073284 0.831786
0.498 0.229602 -0.023745 0.635813 0.759607 0.130523
0.129039 -0.090732 0.113991 0.099624 -0.063744 0.992613
-0.545085 0.062401 0.038336 0.550552 -0.831292 -0.059447
0.019608 -0.168392 0.078905 0.943568 -0.107895 0.308333
0.158631 -0.042357 -0.11698 0.701747 -0.168118 -0.690608
0.197529 -0.018432 0.060567 0.863048 0.093484 0.493864
0.061996 -0.059179 0.121856 0.031328 -0.426008 0.903216
0.453553 0.204878 -0.078541 0.752124 -0.439962 -0.488519
0.064302 -0.346782 -0.072695 -0.77453 -0.075684 -0.627796
-0.131831 0.056512 -0.023729 -0.955075 0.185387 -0.229095
0.10354 -0.566808 -0.098171 -0.511148 -0.14704 -0.846135
0.184041 -0.008042 0.076046 0.737116 -0.05863 0.67219
-0.02898 -0.650562 0.023903 0.015784 0.009921 0.997698
-0.042753 -0.86046 0.127657 0.344658 -0.91115 0.214509
-0.072234 -0.418805 0.088023 0.112874 -0.215161 0.969282
0.084504 0.682077 0.017267 0.885594 -0.420557 0.168959
-0.128345 -0.316791 1.5e-05 -0.999818 -0.008581 -0.0164
-0.110886 -0.20631 -0.050211 -0.851204 -0.06299 -0.519983
0.031467 0.24383 -0.125534 -0.045511 0.007761 -0.998582
-0.006039 -0.263391 0.095541 0.464687 -0.211873 0.858617
0.335652 0.306611 -0.050665 -0.543665 -0.563941 0.620328
0.170867 0.422823 -0.132936 0.254849 -0.361516 -0.896516
-0.096074 -0.407459 0.090764 -0.179823 -0.240557 0.942593
0.279895 0.352415 -0.041904 -0.224617 -0.794323 0.562893
0.169447 0.270974 -0.056029 0.902545 -0.094483 -0.418733
0.241136 0.406475 -0.016557 -0.018322 -0.52955 0.846169
-0.017701 0.322242 -0.129827 -0.008599 0.063238 -0.997371
0.054806 -0.116673 0.061483 -0.140448 -0.410142 0.784465
-0.173733 0.410767 0.027866 0.002076 -0.379772 0.923575
0.03297 0.723196 0.100036 -0.042675 -0.461441 0.865074
0.017239 -0.496234 0.016463 0.859384 -0.094054 0.498725
0.391946 0.324871 -0.060778 0.481473 0.636674 0.598978
-0.021397 0.817793 -0.088345 -0.503709 0.560017 -0.645837
0.05872 0.039693 0.134683 -0.022611 0.209722 0.97722
0.019715 -0.398975 0.025086 0.960981 -0.136965 0.238502
0.072935 -0.304455 -0.084538 -0.640324 -0.020657 -0.765692
0.142661 0.131745 -0.097963 0.705421 0.198913 -0.679906
0.049695 0.005301 -0.153417 -0.19918 -0.188036 -0.960793
0.400977 0.226017 -0.100367 -0.549359 -0.813586 -0.167101
-0.098627 -0.821241 -0.09521 -0.819893 -0.421352 -0.37012
0.004664 -0.074564 -0.104805 0.329075 -0.629811 -0.697354
0.202114 -0.286535 0.035636 0.955069 -0.052577 0.291264
0.041165 -0.337496 -0.039355 -0.875981 -0.063964 -0.477742
-0.070168 -0.863903 0.104164 -0.026518 -0.999391 0.022389
0.138686 -0.219627 0.09045 0.052626 -0.17757 0.982611
-0.080015 0.231757 -0.090963 -0.697142 -0.326456 -0.637467
0.315732 0.442179 -0.108751 0.551953 0.679862 -0.481489
-0.112787 0.173204 0.050231 -0.854047 -0.004788 0.518345
0.366219 0.284874 -0.125365 -0.323721 -0.383562 -0.864013
-0.032803 0.214395 -0.121246 -0.3261 -0.300028 -0.893583
0.080481 0.185064 -0.11835 0.13886 -0.16266 -0.969452
0.459564 0.274676 -0.083294 0.814006 0.519067 -0.234143
-0.11286 -0.354416 -0.05119 -0.768806 0.114186 -0.627551
-0.060998 -0.224518 0.11507 -0.06139 -0.160877 0.983624
-0.038526 0.587387 -0.019676 -0.387492 0.813629 0.418415
0.199393 -0.525842 0.00307 0.944396 -0.026382 0.326384
0.154978 0.540157 0.011302 0.146255 0.687067 0.710759
0.035273 0.102392 0.136131 0.019955 0.024584 0.996004
0.19 0.319326 -0.018556 0.993436 -0.109149 0.012706
0.182893 0.242717 -0.008162 0.999582 -0.012815 -0.022171
0.108326 -0.462426 0.041887 -0.677809 -0.051349 0.73337
-0.034821 0.571665 0.005353 -0.143508 0.778392 0.609402
-0.030934 -0.862801 0.042222 0.338422 -0.934736 -0.044118
-0.101523 -0.792061 0.007564 -0.725678 0.221209 0.650216
-0.014686 0.854328 -0.007336 -0.481107 0.876075 0.02905
-0.033666 0.148216 0.117221 -0.474642 0.016062 0.879983
0.089348 -0.836346 -0.080832 -0.99497 0.045858 -0.083644
0.423531 0.30709 -0.098093 0.621907 0.750603 -0.211759
0.121673 0.199262 0.101017 0.557659 0.036561 0.828846
0.066635 0.861555 0.006066 0.461856 0.869068 0.125429
-0.111511 0.293578 0.016515 -0.983271 -0.060217 0.170703
0.119526 0.408915 -0.144514 0.145508 -0.067734 -0.986805
-0.031174 -0.28292 -0.089237 0.36281 -0.077165 -0.928407
0.117793 -0.027114 -0.146969 0.272588 -0.182927 -0.942817
0.071717 0.582672 -0.097286 0.025518 0.679698 -0.726719
0.042814 0.789088 0.083272 0.073661 0.304574 0.948603
-0.499972 0.150706 0.04338 -0.707847 0.702792 0.060233
0.547523 0.177405 -0.007372 0.859152 0.51015 -0.0121
0.174133 -0.469645 0.061879 0.520277 -0.137564 0.838435
0.032141 -0.138628 -0.06286 -0.858515 -0.345056 -0.378786
0.010161 -0.695432 -0.006511 0.776309 -0.237531 0.583637
-0.461615 0.186685 0.017833 -0.321054 0.716587 0.599285
0.050893 -0.118125 -0.095875 -0.483077 -0.363084 -0.794164
0.211294 -0.074915 0.035748 0.947983 0.016201 0.310324
0.191826 0.347222 -0.056361 0.911981 -0.337265 -0.219727
-0.003499 0.129803 -0.122014 -0.11753 0.417787 -0.89976
-0.118086 -0.474427 0.044312 -0.822331 -0.267219 0.502239
0.180986 -0.782479 -0.003557 0.899148 -0.381255 0.206693
0.125011 -0.86969 0.094582 -0.014384 -0.999744 0.017478
0.20111 -0.331886 0.030899 0.935691 -0.055112 0.348041
0.104471 -0.583659 -0.095909 -0.491639 -0.128643 -0.859957
0.596407 0.116295 0.027287 0.7637 0.64364 -0.039619
-0.188597 0.398943 0.02532 0.219774 -0.319082 0.921774
0.100287 0.025882 -0.154713 0.357487 -0.010945 -0.931863
0.632778 0.038164 0.107831 0.1092 -0.238766 0.938053
0.048232 0.747312 0.08593 0.836227 0.222576 0.494675
0.335448 0.326666 -0.041279 -0.083811 -0.1473 0.974862
-0.423989 0.240655 -0.047478 -0.774177 0.525331 -0.320644
0.146341 -0.702603 0.017441 0.33633 -0.464637 0.818172
0.095244 0.609549 -0.048349 0.802033 0.552057 -0.180165
-0.479237 0.173661 0.016911 -0.598653 0.788664 0.124867
-0.083628 0.042555 0.10548 -0.451443 0.165906 0.87207
0.19627 0.088592 -0.02943 0.946925 0.25345 -0.18764
0.113305 -0.425285 -0.102881 -0.130229 0.042419 -0.985484
-0.118936 0.378084 -0.086815 -0.85297 -0.209041 -0.474155
0.011824 0.760228 -0.118338 -0.294455 -0.220272 -0.924239
