-0.077036 -0.863555 0.035722 -0.038052 -0.999238 -0.005908
-0.002774 -0.445151 -0.061034 0.739194 0.064595 -0.670301
-0.086884 -0.694169 0.024519 0.040074 -0.415511 0.905395
-0.082949 -0.825312 0.085001 -0.239557 0.954312 0.148841
-0.473513 0.128931 0.047877 0.785675 -0.54264 0.285842
-0.199503 0.496461 -0.050342 -0.6544 0.562492 -0.503593
0.631002 0.055533 0.09546 0.863446 0.424614 0.263196
0.127041 -0.406842 -0.100926 0.267788 0.070662 -0.958144
-0.417636 0.250061 -0.032665 -0.769199 0.638699 -0.004774
0.050964 -0.502906 -0.05314 -0.862453 -0.057568 -0.502482
0.024714 0.630888 -0.066433 -0.162401 0.280724 -0.943187
0.146332 0.311263 0.071235 0.774297 0.047137 0.630873
0.335861 0.316139 -0.044291 -0.328736 -0.37002 0.854357
-0.035018 -0.777359 0.033075 0.410154 0.669996 0.603064
0.041195 0.65407 0.050654 0.134221 -0.871988 0.420998
0.011489 0.863272 -0.032226 -0.155983 0.98436 -0.065878
0.210599 0.415417 -0.03593 0.08827 -0.947353 0.129646
0.092151 -0.737363 -0.079184 -0.841794 -0.072152 -0.534516
0.186623 -0.474852 0.043623 0.915407 -0.075051 0.395123
0.037395 0.714913 0.096812 0.211747 -0.331041 0.911856
-0.162829 0.522231 -0.066722 -0.517775 0.594865 -0.614388
0.188964 -0.038341 -0.072351 0.865328 -0.036836 -0.496961
0.49333 0.180497 0.019261 -0.389708 -0.004122 0.81447
0.008335 0.23324 -0.12746 0.098895 0.002291 -0.994999
-0.205705 0.374557 0.016932 0.116493 -0.531839 0.838687
0.083021 0.13169 -0.127437 0.152621 0.323452 -0.933152
-0.044743 -0.864123 0.077669 0.037941 -0.998966 0.01084
-0.136448 0.03854 0.028985 -0.979273 0.188218 0.070154
0.027765 0.676546 -0.069981 -0.132355 -0.458286 -0.870514
0.500426 0.228854 -0.049307 0.64277 0.765544 -0.001478
0.574722 0.12309 -0.005221 0.560107 0.266429 -0.782647
-0.07137 -0.672773 0.028221 0.289587 -0.329043 0.898701
-0.330505 0.308442 0.000234 -0.365574 0.225473 0.90093
-0.076005 -0.840044 0.156315 -0.481232 0.686155 0.532619
0.158102 0.106843 0.079251 0.39833 0.169502 0.898221
-0.034218 -0.806023 -0.149384 0.232162 -0.128177 -0.948483
0.180191 0.389284 0.041413 0.773303 -0.152634 0.613198
-0.117477 0.066826 -0.061043 -0.859166 0.122071 -0.496324
-0.064458 -0.793162 0.045631 -0.347186 0.514298 0.76929
-0.112 0.436007 -0.113693 -0.416912 -0.166515 -0.892879
-0.128413 0.426404 -0.101661 -0.599465 -0.389551 -0.697991
-0.04201 -0.306659 0.099703 0.276382 -0.115386 0.952772
0.127706 -0.152837 -0.108924 0.278775 -0.203619 -0.937042
0.074704 0.260865 0.118527 0.377189 0.057824 0.922099
0.02045 -0.696489 -0.063802 0.841508 -0.013784 -0.536991
0.075529 0.833037 -0.077747 0.585412 0.636626 -0.501685
0.0612 0.02273 0.138187 0.107942 0.163064 0.980364
-0.118411 -0.596619 -0.080103 -0.687459 0.043556 -0.723476
0.202325 -0.265712 0.038669 0.956576 -0.048755 0.28711
0.044524 0.850101 -0.075718 0.116653 0.820873 -0.556984
0.231192 0.458675 0.011153 0.728168 0.012852 0.682302
0.112008 0.478108 0.068638 0.279862 0.490569 0.822586
0.131234 0.585648 -0.050901 0.552474 0.810211 0.163113
-0.113284 0.506598 -0.103731 -0.440084 0.355371 -0.814959
0.018665 -0.146783 -0.042315 0.907007 -0.119575 -0.401528
0.34513 0.39306 -0.127181 0.82681 0.016582 -0.550194
-0.09659 0.371755 0.067618 -0.664915 -0.18691 0.723054
0.052477 0.590894 0.021821 0.376843 -0.001355 0.926215
0.021167 0.41244 -0.127971 -0.030479 0.031945 -0.998672
-0.009079 -0.458404 0.055227 0.672128 -0.222876 0.705765
0.143191 0.276935 -0.10764 0.810233 -0.096189 -0.577374
-0.030391 -0.54185 0.044021 0.367304 -0.214221 0.904807
0.048593 -0.142343 0.064346 -0.626696 0.01438 0.77564
0.007904 -0.015419 -0.140964 -0.10556 -0.280158 -0.954098
0.099833 0.15218 -0.117377 0.326824 0.247724 -0.911489
0.30185 0.459242 -0.101497 0.598962 0.649025 -0.468715
-0.042346 0.295302 0.102477 -0.546421 0.125141 0.828009
0.05017 0.565997 -0.107876 -0.106495 0.485006 -0.866575
0.08648 0.172145 -0.117035 0.130293 0.09505 -0.986405
-0.125005 0.098585 0.035511 -0.934869 -0.001253 0.354174
0.165461 -0.025991 0.097244 0.638342 0.023467 0.768973
-0.523764 0.114165 0.025428 -0.858306 0.380449 -0.256648
-0.02736 0.446686 0.092137 -0.190837 0.30972 0.930756
-0.126745 -0.679842 -0.070022 -0.961536 -0.036959 -0.270346
0.187824 -0.50052 0.037581 0.886873 -0.123662 0.443398
0.198339 -0.501652 -0.051502 0.952381 0.016085 -0.29616
0.12036 0.046482 0.112259 0.167672 0.218395 0.943916
0.166318 0.013443 -0.105806 0.709804 0.014704 -0.676136
0.015997 -0.660379 0.001999 0.823696 -0.194721 0.529197
0.150391 -0.767052 0.027207 0.042224 0.411605 0.88965
-0.003136 -0.788319 -0.01209 0.803648 -0.080407 0.583362
-0.025077 -0.794083 0.038862 0.688137 0.503369 0.516122
-0.010748 0.001926 0.142303 -0.175698 0.378443 0.903875
0.054728 -0.712602 0.021777 -0.95163 0.10305 0.287054
-0.118316 0.353102 -0.077414 -0.933606 -0.145886 -0.322949
0.204444 -0.259748 0.029312 0.990349 0.007142 0.132712
0.30297 0.467608 -0.069241 0.80202 0.592216 0.023865
-0.411087 0.258103 -0.035748 -0.813682 0.580643 -0.006256
-0.115158 -0.132224 -0.059184 -0.76922 -0.101614 -0.630795
0.193864 -0.108336 -0.059346 0.812116 0.008367 -0.583108
-0.049273 0.361727 0.10302 -0.369397 -0.037154 0.925747
0.089496 -0.861895 -0.083591 -0.858434 -0.442857 -0.14602
-0.05105 0.097282 0.112098 -0.487816 0.15216 0.859107
0.085472 -0.826879 -0.049251 -0.524998 -0.849082 -0.046222
0.15444 0.561795 -0.094287 0.369604 0.704616 -0.605141
0.129538 0.176095 -0.100915 0.510548 0.045572 -0.857822
-0.327447 0.233311 -0.058761 0.361449 -0.825883 -0.422456
0.148251 -0.58617 0.041733 -0.004964 -0.122932 0.992005
0.061344 -0.415197 -0.064545 -0.751078 -0.011051 -0.660114
0.074501 -0.454575 0.011778 -0.672549 -0.054021 0.732816
0.399033 0.227329 -0.079092 -0.608529 -0.782813 0.120044
-0.172909 0.433097 -0.094049 -0.066846 0.126539 -0.989105
0.03203 0.536322 -0.118933 -0.091669 0.313325 -0.94074
0.028007 0.79374 -0.119002 -0.09 0.247091 -0.961936
0.152179 0.168652 -0.08251 0.747517 0.056357 -0.661107
0.087519 -0.758797 -0.071434 -0.80943 0.133608 -0.570913
0.024053 -0.693895 -0.029964 0.917365 -0.160746 0.360419
-0.053784 -0.34191 0.099168 0.201583 -0.097057 0.974475
0.096368 0.322578 -0.143004 0.15825 -0.092179 -0.980273
-0.131322 0.407529 0.011867 -0.559579 -0.671973 0.228504
-0.002064 -0.826232 -0.104324 0.62995 -0.679256 -0.34442
0.153357 -0.03846 0.106269 0.568742 -0.003761 0.821497
0.169586 -0.81851 -0.030035 0.785233 -0.617429 0.039205
0.58827 0.050152 -0.014242 0.818087 -0.476467 -0.127463
-0.071191 0.563361 -0.084089 -0.405409 0.628669 -0.660495
-0.12887 -0.259869 0.065612 -0.955924 -0.124466 0.261574
-0.440286 0.151887 -0.00278 0.634927 -0.769233 0.013179
0.207491 -0.154236 -0.022406 0.990977 -0.095058 -0.073243
0.093634 0.708484 0.008902 0.704842 -0.698439 0.065613
-0.11847 -0.628241 0.017195 -0.915602 0.021181 0.398199
0.052339 -0.17131 -0.079625 -0.77278 -0.17752 -0.606757
0.204951 -0.523248 -0.01254 0.973892 0.004512 0.208806
-0.192673 0.491952 -0.062543 -0.607438 0.508246 -0.61046
0.192655 0.117355 0.031719 0.918676 -0.002435 0.392059
0.133802 0.251732 0.089668 0.663747 0.041743 0.746169
-0.127162 -0.399811 0.04866 -0.959196 0.095106 0.259265
-0.053386 0.284179 -0.122074 -0.44468 -0.048465 -0.894102
-0.046998 0.197528 -0.106501 -0.51555 -0.303356 -0.800404
0.173566 -0.341962 0.07242 0.232203 -0.043108 0.96415
-0.072891 0.155036 0.092799 -0.646458 0.001648 0.762736
0.156159 -0.836868 0.131873 0.643658 0.739701 0.195511
-0.012568 0.67227 0.004888 -0.899617 -0.424288 0.049259
0.113539 -0.319153 0.079878 -0.14129 -0.088509 0.985095
0.022121 0.214704 0.128791 -0.009324 0.055848 0.99832
-0.139095 -0.487102 -0.020757 -0.976045 -0.094073 -0.147511
-0.087706 0.359198 -0.106952 -0.545521 -0.170169 -0.819987
0.084973 -0.123326 0.093926 -0.5805 -0.052472 0.81165
0.027295 -0.604301 -0.015392 0.992691 0.008128 0.116553
0.051962 -0.310481 0.045421 -0.777042 -0.102057 0.619752
0.019664 -0.18762 -0.041952 0.920666 0.058581 -0.378916
0.191335 -0.028005 -0.067737 0.906257 0.005626 -0.422324
0.099922 0.052612 -0.150466 0.400186 0.225991 -0.885451
-0.060213 -0.416794 0.086446 0.211274 -0.232052 0.948005
-0.116587 0.363853 -0.085224 -0.8064 -0.192536 -0.555455
0.067732 -0.259908 -0.078915 -0.746387 0.017813 -0.662497
0.055797 0.80456 0.076518 0.377768 0.37901 0.843245
-0.032867 -0.856307 -0.006745 0.566151 -0.806195 -0.16599
-0.013572 -0.401188 0.074214 0.489635 -0.202059 0.846279
-0.352752 0.263586 0.007152 0.057178 0.182724 0.98147
0.044282 -0.406834 -0.040118 -0.974813 -0.016715 -0.209013
0.029001 -0.301396 0.016016 0.998371 -0.043241 0.03225
-0.231546 0.459375 -0.047733 -0.700252 0.620833 -0.351428
-0.102933 -0.838362 -0.056979 -0.918769 -0.350638 -0.092002
0.00341 -0.291436 0.084648 0.562951 -0.20319 0.796151
-0.090641 -0.682189 -0.103428 -0.583121 0.036335 -0.772726
-0.014689 0.677391 0.032428 -0.761641 -0.613174 0.190898
0.075347 0.14315 -0.124476 0.088109 0.336548 -0.934814
0.399451 0.321638 -0.114065 0.591353 0.519205 -0.616158
-0.408521 0.175058 -0.003206 0.571021 -0.817167 0.008442
0.161829 -0.330695 -0.069337 0.650824 0.004421 -0.758829
0.079009 0.536486 0.043688 0.111542 0.543786 0.828057
0.166923 0.202421 -0.060801 0.872951 0.022356 -0.487062
-0.037584 -0.526836 0.050435 0.332371 -0.216798 0.917447
-0.094 -0.355442 -0.070298 -0.789316 0.042217 -0.576611
-0.050529 -0.861955 -0.068597 0.073227 -0.993525 0.074199
0.180542 0.023738 -0.084037 0.817089 0.012289 -0.572899
-0.12243 -0.568656 0.004987 -0.902112 -0.123781 0.412527
0.046975 -0.466948 -0.013928 -0.866629 -0.074085 0.493363
-0.013562 0.768854 -0.103155 -0.781527 -0.145689 -0.588562
0.230936 0.485156 0.010844 0.62688 0.042097 0.767839
0.012295 -0.124961 0.105663 0.677368 -0.216394 0.702827
-0.213011 0.347029 -0.001227 0.460254 -0.645131 0.603501
0.17227 -0.245579 0.078937 0.465066 -0.125298 0.875549
-0.024291 -0.857111 0.050071 0.847864 -0.49106 0.024418
-0.073795 0.395174 0.089981 -0.566474 0.007118 0.819597
-0.063965 0.507292 0.059871 -0.14437 0.444227 0.884133
-0.036844 0.789984 -0.046157 -0.995444 0.026986 -0.089616
-0.121827 -0.296407 0.079245 -0.945398 -0.064406 0.314233
0.019201 -0.426685 -0.025966 0.970895 0.018489 -0.224488
0.008438 -0.235446 -0.060549 0.768614 -0.07742 -0.634594
0.122459 -0.315693 0.080965 -0.05683 -0.067622 0.995394
0.215517 0.426637 0.003868 0.289329 -0.852687 0.407562
0.434265 0.301089 -0.082 0.631449 0.766438 0.075506
0.161822 0.515257 0.029683 0.293104 0.573755 0.748189
0.075934 0.74369 -0.096836 0.643923 -0.325801 -0.690831
-0.078958 -0.076857 0.11831 -0.450659 -0.027738 0.89075
-0.002843 0.859877 -0.003247 -0.586706 0.80381 0.038575
0.007005 0.155847 -0.113987 -0.153406 -0.089689 -0.980893
0.055264 -0.139816 -0.09159 -0.661817 -0.224713 -0.714723
0.126301 -0.614505 0.036208 -0.055148 0.136612 0.986284
0.076843 0.616107 0.004412 0.772587 -0.007985 0.634696
-0.046154 0.257675 0.103434 -0.613832 0.046559 0.786473
0.285122 0.403523 -0.143402 -0.107184 0.1169 -0.984245
0.080194 0.646556 -0.040601 0.882353 0.160219 -0.433404
-0.167034 0.519464 0.035171 -0.513233 0.596656 0.614202
-0.45356 0.167339 -0.049298 -0.426274 -0.094089 -0.804812
0.170216 -0.207593 0.087904 0.366802 -0.168557 0.911217
0.05437 0.329432 0.114563 0.205354 0.187192 0.960264
0.158988 0.40653 0.062912 0.726339 0.031312 0.686592
-0.533298 0.068855 0.043087 0.454833 -0.858888 -0.185983
-0.003967 -0.617744 0.020429 0.291531 0.036522 0.949733
-0.040908 0.485261 0.075177 -0.164154 0.439679 0.882796
0.126232 -0.688833 0.028671 0.192897 -0.184141 0.962804
0.182531 0.091748 -0.061156 0.825013 0.209936 -0.523583
0.198333 -0.279375 0.048373 0.919895 -0.064443 0.383851
0.297227 0.368352 -0.138769 -0.170314 -0.408275 -0.896334
-0.112835 -0.615622 0.026527 -0.896582 0.046691 0.439301
0.122838 -0.440854 -0.103954 0.057477 0.060987 -0.993415
-0.005092 -0.648917 -0.074585 0.599876 0.086828 -0.794745
-0.058843 -0.757618 0.019406 0.247536 0.122648 0.939685
0.02256 -0.39961 0.011664 0.946796 -0.222533 0.223502
-0.056114 -0.298603 0.104981 0.167055 -0.10999 0.97957
-0.016553 -0.161183 0.11872 0.426071 -0.143317 0.890748
0.197644 -0.635882 -0.008707 0.982557 -0.07007 0.166627
0.128967 -0.685666 -0.094197 0.137013 0.021314 -0.985004
0.055707 -0.1924 -0.076897 -0.746109 -0.22091 -0.62749
-0.106917 0.288405 0.037613 -0.986415 0.002985 0.163018
-0.066533 0.534261 -0.10662 -0.275116 0.450819 -0.848502
0.045967 -0.334758 -0.048128 -0.861 -0.055679 -0.505455
0.194472 0.394294 0.007836 0.965393 -0.106721 0.23617
0.310384 0.434154 -0.038394 0.788629 0.251125 0.556752
0.013079 -0.555178 -0.049726 0.83777 0.031428 -0.54446
0.088679 -0.835874 -0.040335 -0.998483 -0.045076 0.000311
0.145065 -0.445426 -0.098892 0.394769 0.176736 -0.90114
-0.183638 0.458008 0.044933 -0.119678 -0.042035 0.988522
0.064823 0.194647 0.126981 0.244394 0.042065 0.962821
0.097502 0.284319 0.106393 0.291837 0.082951 0.952099
0.00807 -0.617767 -0.06041 0.706558 0.091178 -0.701672
0.052283 -0.311484 -0.0585 -0.814982 0.005868 -0.579392
-0.134892 -0.070902 0.063363 -0.912172 0.022652 0.401089
-0.094801 -0.720396 -0.105238 -0.723458 0.108999 -0.679808
-0.133033 -0.514341 0.001382 -0.854079 -0.174862 0.484466
0.038988 0.679549 -0.072017 0.084052 -0.439263 -0.894326
-0.005061 -0.098244 -0.096293 0.538709 -0.383973 -0.748902
0.183298 0.351395 0.023577 0.915428 -0.101361 0.388151
-0.048938 -0.239185 0.112445 0.093976 -0.161743 0.982013
-0.061613 -0.824573 0.103911 -0.045939 0.993256 0.09277
0.110622 -0.078749 -0.132061 0.119063 -0.389142 -0.91197
0.14925 0.408281 -0.134498 0.344918 -0.268537 -0.898218
0.006572 -0.367633 0.063494 0.794043 -0.163087 0.584898
0.044723 0.114567 -0.135539 -0.073534 0.392741 -0.916534
0.164524 0.190775 0.061479 0.765923 0.100915 0.634677
-0.11789 -0.181991 -0.04281 -0.826596 -0.113118 -0.550737
0.083771 0.782136 0.059481 0.766457 0.149337 0.605514
-0.488095 0.103885 0.038953 0.85183 -0.520537 -0.02869
-0.400577 0.2741 -0.042781 -0.763255 0.643339 -0.011385
-0.129812 -0.132161 0.073181 -0.877434 0.043507 0.47767
-0.014799 -0.648473 -0.082513 0.651953 0.05033 -0.756547
0.198418 -0.662001 -0.031888 0.995289 -0.0371 -0.080794
-0.328491 0.253047 0.00631 0.164998 -0.07383 0.981323
-0.37323 0.2905 -0.075196 -0.536442 0.585702 -0.599765
0.1322 0.290735 0.089011 0.648438 0.05066 0.759528
-0.128339 -0.65064 -0.051265 -0.999285 -0.017696 0.024487
-0.075651 -0.388615 -0.079483 -0.353243 -0.093989 -0.928571
0.026091 -0.466699 -0.00229 0.990909 -0.007999 0.097119
-0.083217 -0.739411 0.01375 -0.50209 0.588883 0.630568
-0.05824 -0.203115 0.119453 -0.133348 -0.139784 0.976466
0.090718 -0.169137 -0.105093 -0.266881 -0.228759 -0.935126
0.135961 0.235612 0.088662 0.678574 0.060722 0.731399
0.109194 -0.026839 0.124873 0.428666 -0.118566 0.895078
0.001255 -0.792323 -0.020439 0.876257 -0.170063 0.446241
0.489475 0.239578 -0.054965 0.70914 0.703485 -0.025483
0.045706 0.034177 -0.158555 -0.147436 0.134429 -0.977142
0.081023 -0.468601 0.017292 -0.643657 0.062402 0.762623
-0.019084 -0.101383 -0.102783 0.378909 -0.323663 -0.862528
-0.057089 -0.769795 0.028574 -0.030116 0.547237 0.823655
0.165704 -0.56502 -0.091596 0.617497 -0.054409 -0.783639
-0.126123 -0.654282 -0.073011 -0.918637 -0.012563 -0.376569
0.064413 0.049622 -0.156934 -0.065787 0.309374 -0.947099
-0.566591 0.046936 0.042988 -0.904888 0.423623 0.033636
0.177159 -0.654445 0.020103 0.485644 -0.043077 0.872497
0.030811 0.385437 -0.128884 -0.12939 -0.014053 -0.99132
0.062491 0.82541 -0.095923 0.316594 0.692051 -0.642719
-0.102236 -0.582814 0.050128 -0.817705 0.059274 0.558889
0.043113 -0.316985 0.022903 -0.990283 -0.019751 0.134644
-0.014125 0.58341 -0.091325 -0.153674 0.640044 -0.752481
0.108068 -0.396694 -0.100702 -0.246825 -0.018755 -0.966315
0.132871 0.582305 -0.072328 0.323512 0.912106 -0.246089
-0.113211 0.072413 -0.068196 -0.8573 0.145515 -0.492213
0.201504 0.484645 0.023276 0.411855 0.234687 0.880212
-0.018856 -0.832695 -0.117537 0.49329 -0.857499 -0.122782
0.067015 -0.093518 0.089131 -0.101313 -0.732691 0.640563
0.134246 0.48741 -0.141769 0.139551 0.304303 -0.939756
-0.093931 -0.470787 -0.084143 -0.555001 0.113419 -0.824007
-0.113656 0.371233 -0.091067 -0.683704 -0.232855 -0.691056
0.529835 0.202662 -0.000987 -0.119978 0.935763 0.32288
-0.013441 0.191396 0.12522 -0.497394 0.107991 0.858013
-0.071035 -0.056532 0.122094 -0.364707 -0.03724 0.929517
-0.138577 0.412829 0.030327 -0.444643 -0.832793 0.265762
0.119685 -0.733407 -0.099111 -0.124038 0.087402 -0.979366
-0.426548 0.171791 0.031054 0.418008 0.179749 0.878226
-0.238472 0.45173 -0.046329 -0.763219 0.602625 -0.228024
0.213022 -0.019659 0.016302 0.990873 0.087607 0.078716
0.01457 -0.184897 -0.051098 0.831764 0.066583 -0.550993
0.081086 0.512381 -0.132661 -0.304529 0.32162 -0.895655
0.04814 -0.623014 -0.027999 -0.987141 -0.075098 -0.058993
0.032754 -0.064528 0.119484 -0.120824 -0.287262 0.948606
-0.128001 -0.347125 -0.011346 -0.996189 0.037713 -0.069085
0.052857 -0.437681 -0.002182 -0.723608 -0.101805 0.68234
0.08603 -0.017109 -0.154456 0.036277 -0.23446 -0.971165
-0.109211 -0.115975 0.102006 -0.685244 0.042684 0.726704
-0.235231 0.456638 -0.010297 -0.80731 0.546289 0.216327
-0.006936 -0.691376 0.020804 0.645 -0.140416 0.739741
0.204029 0.503752 -0.126966 0.169242 0.393449 -0.899882
0.130283 -0.86883 -0.045301 0.012348 -0.997769 0.065132
-0.105323 -0.011547 -0.095612 -0.836104 -0.032216 -0.547245
0.138989 0.100939 0.094551 0.657292 0.162178 0.733969
-0.103533 -0.617024 -0.094108 -0.579071 0.09826 -0.808192
-0.358805 0.207981 -0.012873 0.527108 -0.844026 0.085757
0.083164 -0.766964 -0.067219 -0.840301 0.217613 -0.496031
-0.030939 0.597243 -0.033896 -0.677807 0.710749 0.168695
-0.123528 0.005413 -0.063597 -0.891832 0.073335 -0.445871
0.062878 0.839271 0.046761 0.581629 0.487165 0.650955
0.03824 -0.146676 -0.069529 -0.838756 -0.324595 -0.43569
-0.003211 0.830839 0.045701 -0.661659 0.402206 0.631364
0.052322 0.36896 0.106442 0.13339 0.22593 0.963591
-0.121627 -0.236033 -0.028017 -0.879772 -0.024415 -0.47433
-0.106213 -0.51468 -0.081969 -0.680993 0.119687 -0.72173
-0.018923 0.6825 0.013427 -0.938199 -0.323944 0.025813
0.047354 -0.105241 -0.10195 -0.462778 -0.490122 -0.73852
0.146462 0.109092 -0.101233 0.692514 0.251056 -0.676058
0.038373 0.670506 -0.067886 0.050565 -0.285627 -0.95459
0.086397 -0.107037 -0.119531 -0.278731 -0.325001 -0.90301
0.002706 0.662848 0.054562 -0.500593 -0.834199 0.180598
0.138789 0.292988 -0.115296 0.767043 -0.067358 -0.637983
0.195857 -0.299088 -0.032456 0.848745 -0.069783 -0.522792
0.092459 0.549912 -0.121263 0.008169 0.447059 -0.893254
-0.022983 -0.249473 -0.087205 0.465899 0.015711 -0.883077
-0.031945 0.261399 -0.129 -0.153333 -0.049461 -0.985589
-0.005062 0.753635 -0.107092 -0.609115 -0.297471 -0.732316
0.263886 0.404298 -0.139948 -0.227783 -0.103608 -0.966714
0.125168 -0.261633 -0.096193 0.372685 -0.070789 -0.924972
0.009858 0.833502 0.057021 -0.503993 0.395454 0.765436
-0.011244 0.204178 0.124702 -0.530071 0.137614 0.836194
0.022182 0.649429 -0.062984 -0.360809 -0.026197 -0.928202
-0.012465 -0.205205 -0.079788 0.567571 0.024846 -0.822728
-0.050853 -0.53493 -0.101496 0.194074 0.060756 -0.978919
0.566777 0.088622 0.047652 -0.855124 -0.43576 0.262627
0.04396 -0.462744 -0.033901 -0.995281 -0.004254 -0.063816
-0.050523 -0.862408 -0.005563 0.104704 -0.991955 -0.056369
-0.070085 0.461037 0.079876 -0.266773 0.349808 0.897878
0.085656 0.836945 0.015936 0.76144 0.580805 0.280647
0.447843 0.196507 -0.075095 0.10341 -0.939602 -0.21243
0.175529 -0.798193 -0.014923 0.920643 -0.338717 0.180614
0.079305 0.392625 0.09766 0.144354 0.164797 0.975626
-0.294285 0.34977 -0.085664 -0.534073 0.491007 -0.687189
0.063639 0.587707 -0.093612 0.070825 0.655485 -0.751718
-0.136916 -0.022618 0.039815 -0.992136 0.050803 0.114121
0.182787 0.25743 0.010866 0.998319 0.009056 0.050573
-0.030793 -0.786419 0.037764 0.567686 0.519378 0.637624
0.026896 -0.494669 -0.010448 0.9921 0.018894 -0.03684
0.171814 0.115385 -0.065718 0.792567 0.270199 -0.546421
0.199681 -0.411619 -0.034143 0.96466 -0.060693 -0.251709
-0.088747 0.084503 0.088916 -0.476327 0.362262 0.777743
-0.017243 -0.206934 0.112507 0.346942 -0.142663 0.925372
0.031085 0.569692 0.026484 0.052027 -0.014504 0.997964
0.030715 -0.266928 0.017905 0.988253 -0.046013 0.143753
0.054803 -0.478841 -5.4e-05 -0.664656 0.00107 0.740114
0.198187 0.116127 -0.00935 0.983093 -0.072374 -0.147146
-0.11226 -0.779042 -0.083669 -0.90138 0.007461 -0.432195
-0.462574 0.195142 -0.011621 -0.82052 0.570134 -0.018582
-0.07041 0.222365 -0.097907 -0.691818 -0.251838 -0.676081
0.200398 -0.396616 0.018412 0.944764 -0.049628 0.323096
0.075511 0.672374 0.036488 0.803452 -0.573671 0.13735
-0.060603 -0.550888 0.055123 0.386796 -0.203578 0.898901
0.198409 0.372021 -0.043338 0.999509 -0.0156 0.02527
0.104361 0.759917 -0.039481 0.995272 -0.056201 -0.076051
0.58906 0.071857 -0.010674 0.731132 0.316766 -0.581295
0.114591 -0.374102 -0.10158 0.029009 0.04745 -0.993513
-0.473191 0.159148 -0.040461 -0.373784 0.222625 -0.876734
0.20423 -0.344649 -0.017898 0.958116 0.090788 -0.251929
0.164652 -0.863458 0.086293 0.146352 -0.986176 0.000524
-0.076842 0.240402 0.083898 -0.617625 0.055242 0.784425
0.174975 0.166724 -0.049057 0.927665 0.048397 -0.35934
-0.043531 -0.863041 -0.103853 0.049457 -0.998067 -0.021845
0.176383 0.473179 0.038698 0.586499 0.255978 0.766953
-0.097199 -0.201249 -0.069878 -0.719639 -0.036747 -0.693157
-0.292804 0.362641 -0.075331 -0.737358 0.498063 -0.44042
0.09327 0.106955 0.120587 0.358475 0.056153 0.930344
0.109536 -0.104652 -0.123652 0.024966 -0.312455 -0.948183
0.629565 0.054184 0.00655 -0.841941 0.314931 -0.404996
-0.021361 0.846348 0.005756 -0.779771 0.547406 0.257182
-0.021077 -0.526533 -0.089588 0.593361 0.040882 -0.800865
-0.314366 0.347761 -0.064163 -0.631203 0.704214 -0.323925
0.183053 -0.403939 0.061532 0.816009 -0.056223 0.575124
0.183182 0.209777 -0.002505 0.999662 0.01982 -0.00916
-0.103138 -0.86084 0.096778 -0.630921 -0.728469 0.065031
0.074765 0.780755 -0.104105 0.628091 0.030274 -0.775304
0.279895 0.352415 -0.041904 -0.224617 -0.794323 0.562893
-0.082224 -0.067149 0.116451 -0.536328 0.004431 0.842964
0.198383 -0.684531 -0.022317 0.997691 -0.028485 -0.011843
0.201471 -0.276468 0.039017 0.952031 -0.05374 0.301169
-0.109149 0.285562 -0.07221 -0.909563 -0.077943 -0.403539
-0.037832 0.404944 -0.129316 -0.078536 -0.029723 -0.996223
0.060721 0.072938 -0.151087 -0.083773 0.240639 -0.965844
0.162549 0.334341 -0.097871 0.701037 -0.3143 -0.63964
0.029071 0.560248 -0.107841 -0.087126 0.445593 -0.888704
-0.129241 0.451162 -0.106483 -0.492279 0.010227 -0.868957
-0.080853 0.317994 0.079008 -0.550973 -0.031804 0.833462
-0.192924 0.349428 -0.045165 0.627208 -0.772753 -0.087418
-0.072624 0.0781 -0.113853 -0.573609 0.269501 -0.77256
0.104403 -0.837181 0.157235 -0.765302 0.452512 0.44757
-0.127646 -0.348265 0.026338 -0.996166 0.0352 0.076631
0.088443 -0.030744 0.129349 0.113133 -0.063363 0.991328
0.002122 -0.719248 -0.001513 0.801575 -0.06402 0.593847
0.083438 -0.453531 0.020005 -0.664253 -0.147156 0.731957
-0.02019 -0.834579 0.003773 0.865138 -0.442381 0.072404
-0.315405 0.2971 -0.095592 -0.076086 -0.084678 -0.992276
-0.128426 0.087833 -0.016087 -0.997468 0.02522 -0.057682
-0.049178 -0.863475 0.019704 0.046989 -0.998038 -0.037137
0.132507 0.229912 -0.109614 0.682336 -0.298854 -0.667034
-0.180591 0.399534 -0.094928 0.244147 -0.167255 -0.953109
-0.026422 -0.859698 0.07578 0.807814 -0.559754 0.055699
-0.126765 0.175664 0.02328 -0.952607 -0.015992 0.300152
0.106189 0.596522 -0.050225 0.488473 0.860292 0.114055
0.009221 -0.053074 -0.122708 0.082312 -0.604158 -0.792394
0.181526 0.36079 -0.090822 0.677934 -0.467632 -0.565502
0.055686 0.812917 -0.108678 0.274983 0.482382 -0.830143
-0.372496 0.258893 -0.084531 -0.139062 -0.134337 -0.977503
-0.007303 -0.5615 -0.077345 0.753515 -0.058442 -0.654251
0.116513 0.533545 0.030411 0.370273 0.586024 0.720414
-0.069424 -0.832697 -0.138387 -0.579757 -0.098733 -0.799934
0.14254 -0.260061 0.08368 0.061533 -0.066313 0.99575
0.550177 0.171144 0.011291 0.79625 0.600545 0.041446
-0.022687 -0.829547 -0.135316 0.615416 -0.601131 -0.496488
-0.440704 0.186406 -0.049528 -0.454437 0.281943 -0.841178
0.034736 0.578259 -0.099809 -0.073598 0.536901 -0.840093
-0.116774 -0.169983 0.096428 -0.722285 -0.013425 0.691155
0.198179 0.07008 0.03493 0.952187 0.232672 0.187377
0.129939 -0.052821 0.11525 0.317169 -0.044783 0.946353
0.635473 0.047775 0.085348 0.917013 0.366717 0.15461
-0.133199 -0.156176 -0.024978 -0.85447 -0.133606 -0.499118
0.08627 -0.486967 0.023572 -0.555596 0.055267 0.826844
0.092948 0.289338 -0.140113 0.114194 -0.06987 -0.990974
0.061792 0.134414 -0.127685 -0.026989 0.347013 -0.937212
0.049612 0.401984 -0.134401 -0.358241 0.032585 -0.931293
0.190758 -0.754396 -0.01969 0.949199 -0.257004 -0.139607
-0.422532 0.213215 0.014717 -0.173927 0.187734 0.960624
0.143251 -0.664615 0.029554 0.142839 -0.158438 0.976863
0.145195 0.325499 0.071915 0.772649 0.00327 0.634185
0.127879 0.510996 0.044577 0.267552 0.576244 0.769902
0.177641 0.018057 0.090611 0.655655 0.136507 0.741761
0.054435 0.051146 -0.155378 -0.134108 0.31399 -0.938248
-0.01556 0.23004 0.118577 -0.458595 0.115348 0.881095
-0.058748 -0.855361 -0.134433 -0.11877 -0.604275 -0.760921
0.204776 0.002624 0.043088 0.961283 -0.059308 0.24868
-0.080189 0.568112 -0.070755 -0.478861 0.713347 -0.508818
-0.035595 -0.674936 -0.101129 0.532921 0.18855 -0.824161
-0.471826 0.145477 -0.03152 0.251221 -0.859522 -0.441959
-0.491838 0.154399 0.055498 -0.389004 0.844952 0.350509
-0.106231 -0.403056 0.087394 -0.608122 -0.221251 0.737088
-0.137095 -0.502172 -0.023888 -0.995306 -0.077656 -0.042638
-0.267794 0.337958 0.01007 -0.097836 -0.189376 0.974412
-0.325949 0.271146 -0.089216 -0.01909 -0.372554 -0.926193
-0.075315 -0.732277 0.013159 -0.42842 0.390836 0.812598
0.180678 0.378304 -0.10489 0.510188 -0.4784 -0.713416
0.208187 -0.150403 0.009993 0.972245 -0.214599 0.040954
-0.024761 -0.849182 -0.007991 0.749797 -0.641799 -0.127324
-0.078048 -0.854454 -0.125169 -0.63205 -0.488394 -0.599072
0.193369 -0.023962 0.067891 0.802459 0.067214 0.59263
0.197032 -0.403483 -0.043866 0.924181 -0.038703 -0.376184
0.113822 -0.594479 0.033299 -0.229011 -0.157266 0.959236
0.194222 -0.423052 0.033192 0.959124 -0.064018 0.275578
0.158084 -0.84799 -0.085146 0.936446 -0.065927 -0.339343
-0.347123 0.276762 -0.08939 -0.112094 -0.145767 -0.980892
0.071082 0.677889 0.072829 0.816711 -0.134333 0.516437
-0.061734 -0.30936 0.104634 0.149435 -0.086083 0.984697
-0.016297 -0.054832 -0.123542 0.0151 -0.452758 -0.891345
0.316334 0.449395 -0.060769 0.791065 0.531879 0.285842
-0.09303 -0.133105 -0.083406 -0.665008 -0.090394 -0.741304
-0.129478 -0.471979 -0.046482 -0.837231 0.068082 -0.542377
0.023717 -0.042754 0.124263 -0.012054 -0.408013 0.903911
-0.003577 0.554769 -0.110179 0.021291 0.495508 -0.867627
0.618117 0.08283 0.078726 0.873816 0.469491 0.113525
0.061181 -0.51829 0.004676 -0.687232 -0.031173 0.725315
-0.031597 -0.699401 -0.105687 0.524719 0.223047 -0.820988
-0.13661 -0.21169 0.018692 -0.995499 -0.082653 -0.038228
0.180349 0.302518 -0.045941 0.885705 -0.288304 -0.362876
0.02411 0.863527 0.023578 -0.057707 0.995646 0.070117
0.07385 0.585182 0.00936 0.637004 0.105959 0.759491
0.059371 -0.706732 -0.02836 -0.869897 -0.234353 -0.431505
-0.101406 -0.434051 -0.070494 -0.652431 0.272452 -0.706709
0.22266 0.405648 -0.029436 -0.660056 -0.631944 0.404824
0.16214 -0.835216 0.029577 0.915256 0.388622 0.019895
-0.10824 -0.839376 0.042573 -0.73899 0.673232 0.021696
0.169167 0.192387 -0.056771 0.879544 0.045099 -0.473221
0.212404 0.42235 -0.005264 0.334293 -0.854714 0.373773
-0.432377 0.212433 -0.049296 -0.52057 0.10037 -0.847556
0.506792 0.206171 -0.061884 0.163263 -0.411588 -0.896333
0.16109 0.224747 0.061228 0.752299 0.057012 0.655759
0.012159 0.457755 -0.126757 0.065919 0.042487 -0.996491
0.162765 -0.848287 -0.028617 0.927511 -0.364669 0.052884
0.161749 -0.78746 0.020919 0.520915 -0.490462 0.667892
0.013559 0.86286 0.023618 -0.143774 0.975204 0.115584
0.165465 -0.573886 0.040977 0.26676 -0.160465 0.948705
0.011112 -0.035807 -0.133593 0.021023 -0.417053 -0.907665
-0.002772 0.486274 -0.126743 0.157583 0.120729 -0.978828
-0.414648 0.213851 -0.059421 -0.415236 -0.093854 -0.902586
-0.017208 0.206277 -0.122837 -0.205572 -0.379541 -0.901029
-0.183168 0.361724 -0.061775 0.628512 -0.720534 -0.292285
-0.028762 -0.528373 0.046984 0.373337 -0.257818 0.890484
0.363477 0.366443 -0.100271 0.700681 0.712227 -0.005388
-0.493851 0.158102 0.012102 -0.777064 0.629255 -0.010904
0.574912 0.069783 0.007358 -0.866243 -0.496415 0.011525
0.005127 0.394141 0.104844 0.047245 0.145917 0.987541
-0.095531 -0.863045 0.032924 -0.12134 -0.982001 -0.019476
0.204018 0.053671 0.021208 0.954942 0.260927 0.132616
0.147454 -0.015519 0.108982 0.538712 0.103011 0.835647
0.194305 0.371018 -0.005015 0.974609 -0.135619 0.177733
0.045066 -0.57167 -0.024944 -0.983395 -0.069975 0.122792
0.084483 -0.826193 -0.004146 -0.480199 -0.870062 0.049371
0.112919 -0.487567 0.043472 -0.61252 -0.09585 0.784276
-0.445476 0.218683 -0.009946 -0.787925 0.59676 0.126957
0.197165 0.381202 -0.013504 0.986657 -0.113933 0.111457
0.013064 -0.153321 -0.051697 0.834556 -0.051419 -0.547598
0.118403 0.429907 -0.146162 0.073074 -0.060705 -0.995191
0.044107 -0.418028 -0.038674 -0.983 -0.013619 -0.180203
0.048825 -0.605632 -0.040124 -0.895927 -0.09788 -0.427244
0.025496 -0.679645 -0.028799 0.956436 -0.113718 0.244184
0.201092 0.022429 -0.035598 0.949413 0.004635 -0.312285
0.031562 -0.089787 0.107612 0.25131 -0.411289 0.8733
0.077186 0.566225 -0.110927 -0.062698 0.590685 -0.803206
-0.113684 -0.58071 0.022098 -0.905724 -0.018246 0.421027
-0.051291 0.551539 0.029079 -0.200277 0.72975 0.653607
-0.003653 -0.720929 0.006126 0.779756 -0.12337 0.612867
-0.103799 -0.825213 -0.018305 -0.987932 0.01395 0.039647
0.198726 0.147608 -0.005262 0.947106 0.220946 -0.202242
0.18776 0.311165 -0.002132 0.97127 -0.157104 0.171723
-0.06904 0.147151 -0.094432 -0.491628 0.302609 -0.811701
0.391003 0.233714 -0.082411 -0.700415 -0.708843 0.017782
0.039104 0.219967 0.128655 0.02112 0.040044 0.998974
-0.339121 0.329835 -0.051074 -0.65677 0.752094 -0.047122
0.21388 -0.103241 0.021817 0.990903 -0.018895 0.127453
0.17613 -0.066303 0.088858 0.691685 0.040688 0.721003
0.447838 0.201347 -0.086877 0.679757 -0.560856 -0.289536
0.125946 -0.835294 -0.117909 0.188236 0.013325 -0.980931
0.190017 0.329149 -0.041687 0.971983 -0.176432 -0.136479
0.158981 0.106715 -0.087884 0.753844 0.271711 -0.596665
-0.134379 -0.229413 0.003384 -0.977148 -0.036906 -0.201315
0.235296 0.378163 -0.082703 -0.709171 -0.704961 -0.005146
0.011562 -0.457066 0.031445 0.801295 -0.060591 0.595057
-0.108046 0.252341 0.038933 -0.955759 0.169627 0.235449
0.198082 -0.189007 0.050494 0.958644 -0.044499 0.279599
-0.130602 -0.393539 0.028212 -0.954623 0.216226 0.196219
0.235897 0.508823 0.002317 0.658288 0.347775 0.665385
0.023803 -0.036111 -0.133003 -0.098384 -0.479077 -0.871087
-0.297475 0.317573 -0.096828 -0.104429 0.131167 -0.983781
-0.00976 -0.803055 -0.134167 0.709128 -0.122904 -0.692435
-0.068437 0.278184 -0.114158 -0.540644 -0.049623 -0.839057
0.189483 -0.223365 0.069604 0.859756 -0.103481 0.495281
0.120513 -0.146883 -0.111945 0.163475 -0.246978 -0.9533
-0.113174 0.051783 -0.07271 -0.862839 0.151585 -0.480901
-0.242279 0.425187 -0.074739 -0.474202 0.561357 -0.675714
-0.084497 -0.632935 -0.104789 -0.235438 0.069771 -0.96799
0.350612 0.353547 -0.052394 0.537606 0.43008 0.72277
0.293895 0.480394 -0.076648 0.69479 0.672288 -0.245474
0.025573 -0.69813 -0.049958 0.980917 -0.0816 -0.138178
0.308576 0.360525 -0.137756 -0.176728 -0.29779 -0.937267
-0.120497 -0.772781 -0.0361 -0.992195 -0.094973 0.063102
-0.040136 -0.252596 -0.092733 0.173265 0.03979 -0.982909
0.014333 -0.108517 -0.070066 0.425433 -0.600439 -0.669527
0.2042 0.418153 -0.000106 0.669295 -0.712023 0.206336
0.066895 -0.675307 -0.049657 -0.774584 -0.133728 -0.617474
0.084275 0.841818 -0.043832 0.787472 0.605291 -0.11047
-0.096763 0.364876 -0.103277 -0.50021 -0.22467 -0.835384
-0.035294 -0.31379 -0.087672 0.345195 -0.090577 -0.928515
-0.031206 -0.259736 -0.090277 0.320269 0.00094 -0.94716
0.008724 -0.418949 0.043513 0.801977 -0.199766 0.558086
0.427318 0.226277 -0.038263 -0.290817 -0.397246 0.857801
-0.132319 -0.255788 0.001567 -0.966219 -0.112581 -0.230884
0.053829 -0.654126 0.006849 -0.88974 0.110374 0.415561
-0.022172 -0.849455 -0.106837 0.989661 -0.081324 -0.093813
-0.079727 0.116352 0.088809 -0.613927 0.196406 0.7615
-0.012746 -0.117006 -0.092481 0.581038 -0.298144 -0.756262
0.049237 0.255425 0.125902 0.196654 0.087187 0.975165
-0.040667 -0.038029 0.131537 -0.182828 -0.036064 0.981268
-0.004451 0.244793 0.121564 -0.367497 0.080108 0.926436
-0.046201 -0.389143 0.088845 0.173747 -0.172666 0.969471
0.013479 0.360454 -0.127295 0.039585 -0.036876 -0.998417
0.05392 -0.369217 0.028362 -0.725593 -0.276432 0.628608
-0.016064 -0.236618 -0.082748 0.523456 -0.009237 -0.851861
0.171388 0.385629 0.050483 0.738716 -0.061328 0.670553
0.099803 -0.172183 -0.106765 -0.193212 -0.196182 -0.960843
0.101651 0.804688 -0.028413 0.886823 0.458102 -0.032027
0.120968 -0.418839 -0.102863 0.078209 0.051801 -0.989084
-0.039121 -0.841991 0.127714 0.866358 0.252311 0.420509
0.099917 -0.621682 -0.088803 -0.549828 -0.073683 -0.830287
0.159954 0.220728 -0.070865 0.791276 -0.044356 -0.609406
-0.053233 0.395268 -0.126442 -0.255353 -0.076385 -0.962565
0.421213 0.210616 -0.087495 -0.648862 -0.757994 -0.026923
0.192773 -0.693752 -0.03811 0.783096 -0.115134 -0.606386
-0.097889 -0.848113 -0.074118 -0.987581 -0.117898 -0.074994
-0.102154 0.161231 -0.062358 -0.915896 0.109172 -0.353917
0.555107 0.100666 -0.027023 -0.051698 -0.380338 -0.7433
-0.088037 -0.280998 0.108651 -0.112792 -0.076951 0.989258
0.029552 -0.279138 -0.018341 -0.185829 -0.5154 -0.703877
0.051879 0.802176 -0.114311 0.276503 0.285333 -0.915255
0.018201 -0.776789 -0.059293 0.991916 -0.095832 -0.00084
-0.385114 0.202779 -0.062625 0.080252 -0.688594 -0.696371
-0.080054 -0.756271 -0.121102 -0.55157 0.067179 -0.828965
0.126736 -0.725758 -0.097482 0.145287 0.170077 -0.969907
0.192824 0.079013 0.042622 0.908126 0.309146 0.272761
-0.051491 0.138096 -0.104347 -0.334489 0.362151 -0.868793
-0.162767 0.380385 -0.005158 0.545054 -0.738022 0.397558
0.097338 -0.816077 -0.107921 -0.732015 0.002199 -0.676251
0.201823 -0.168463 0.040745 0.94508 -0.116024 0.299078
0.024884 -0.369171 0.022282 0.963544 -0.112017 0.233979
-0.426288 0.165886 -0.038496 0.528264 -0.79295 -0.301751
-0.219831 0.481442 -0.035578 -0.762827 0.56552 -0.310749
-0.122412 -0.613405 0.005634 -0.915495 0.052415 0.396466
-0.06066 0.42194 0.091737 -0.208869 0.222153 0.950951
0.204952 -0.557535 -0.019631 0.988899 -0.071199 0.082674
-0.397531 0.250002 0.007528 -0.238922 0.343846 0.905527
-0.018028 0.071468 -0.137849 -0.184916 0.229166 -0.955006
-0.03463 -0.155611 0.122998 0.017438 -0.053324 0.99692
0.195856 -0.615943 0.005628 0.923646 -0.161242 0.334521
-0.105193 0.393057 -0.105655 -0.545821 -0.235332 -0.803271
0.000448 -0.301008 0.083764 0.488165 -0.216272 0.844219
-0.357953 0.314533 -0.044975 -0.691607 0.719417 0.050442
-0.080413 0.056294 -0.112757 -0.690036 0.207032 -0.692908
-0.030583 0.000796 0.138268 -0.170198 0.380313 0.906959
0.023157 -0.287596 -0.021644 0.843353 -0.074883 -0.512578
0.070739 -0.529174 -0.074762 -0.718672 -0.070637 -0.691734
-0.081082 -0.648627 0.039596 0.30591 -0.271481 0.909075
0.142517 -0.869061 0.04457 0.155754 -0.980809 -0.043612
-0.126507 0.063895 -0.040625 -0.945913 0.133056 -0.294913
0.171599 0.128838 -0.059913 0.839468 0.181243 -0.510144
-0.018102 0.679539 -0.013322 -0.868651 -0.455097 -0.1667
0.08782 -0.363187 0.06021 -0.488496 -0.312297 0.814341
0.329147 0.337946 -0.135841 -0.104694 -0.210953 -0.968565
-0.138779 0.407619 -0.070277 0.236083 -0.680043 -0.634146
-0.307699 0.3578 -0.052177 -0.654554 0.728269 -0.187443
0.195223 -0.297391 0.051066 0.891812 -0.096141 0.441926
0.129189 -0.055001 -0.135445 0.328099 -0.269224 -0.900362
-0.51204 0.087699 0.084796 0.797984 -0.41485 0.408706
0.093102 0.727418 0.030066 0.951097 -0.057102 0.297269
-0.13522 0.41626 0.047545 -0.521835 -0.712304 0.455675
-4.4e-05 0.31789 0.115121 -0.225263 0.163535 0.958903
0.22041 0.545267 -0.079899 0.437937 0.788673 -0.426812
-0.136635 0.437813 -0.101199 -0.4833 -0.240894 -0.840914
0.464921 0.223688 -0.080091 0.484838 -0.333684 -0.803593
0.205291 -0.192202 -0.038882 0.96991 0.004058 -0.242123
0.209265 0.416639 -0.020294 0.39193 -0.851212 0.186373
0.142386 -0.365168 0.077322 0.062938 -0.131733 0.987513
0.014385 0.113566 0.132699 -0.095767 0.281059 0.953927
0.050852 0.327337 -0.132952 -0.46155 -0.029859 -0.886383
-0.111438 0.27376 0.01126 -0.994509 0.020925 0.092089
-0.101692 -0.841274 0.102591 -0.726854 0.674019 0.126264
0.115676 -0.869827 -0.060314 0.011166 -0.998688 0.048942
-0.096315 -0.541919 0.059358 -0.848353 -0.079027 0.522735
0.051695 -0.084023 -0.117945 -0.418078 -0.444019 -0.791648
-0.523381 0.074378 0.092547 -0.022615 -0.92145 0.375428
0.192531 0.340712 -0.03944 0.958088 -0.264909 -0.087525
-0.112302 -0.756842 0.000437 -0.73684 -0.077421 0.634168
-0.137656 -0.479342 0.000252 -0.963658 -0.047791 0.259105
-0.544714 0.089968 0.028365 -0.564775 0.700411 -0.254016
0.196036 0.521497 0.012503 0.26395 0.510141 0.816867
0.101282 -0.360239 0.068284 -0.419153 -0.300692 0.856486
-0.117841 0.16229 0.041576 -0.871925 0.020227 0.486978
0.133267 -0.852641 -0.117246 0.55613 -0.076085 -0.808772
0.031617 0.14927 -0.117759 -0.134047 0.177177 -0.971743
-0.10254 -0.327142 -0.060202 -0.721038 0.053447 -0.689979
-0.136011 0.557766 -0.028627 -0.367304 0.917158 -0.115508
0.174133 -0.469645 0.061879 0.520277 -0.137564 0.838435
0.44487 0.233087 -0.100615 0.6261 -0.297864 -0.718294
0.190658 -0.458075 0.035454 0.963578 -0.069341 0.257647
-0.136615 -0.410296 0.007675 -0.995194 0.08369 0.048467
0.552548 0.1034 0.024015 -0.922212 -0.36336 0.122016
0.154978 0.540157 0.011302 0.146255 0.687067 0.710759
0.099643 0.59289 -0.079994 0.352047 0.736793 -0.566989
0.286501 0.446353 -0.020969 0.676114 0.173415 0.716065
0.082086 -0.776642 0.028296 -0.143423 0.860248 0.483541
0.110905 0.163071 -0.111417 0.373122 0.1362 -0.91683
0.176562 -0.17497 0.088795 0.477645 -0.095657 0.869939
0.039256 0.04546 -0.154508 -0.16153 0.290475 -0.942169
0.173069 0.43255 -0.135453 0.178545 -0.220612 -0.957826
-0.078811 -0.459772 0.080478 0.139529 -0.123508 0.980881
0.153405 0.289864 -0.093513 0.855429 -0.126211 -0.501834
0.046812 -0.007168 0.138297 0.067364 -0.425604 0.901066
-0.040223 -0.547099 -0.099245 0.319658 0.006087 -0.947188
0.006124 -0.269711 0.087449 0.548973 -0.171636 0.814925
0.198618 0.061246 0.041091 0.953036 0.205467 0.217244
0.17509 0.150423 0.054986 0.749596 0.088845 0.655784
-0.128095 -0.208258 -0.018472 -0.907679 -0.100161 -0.406732
-0.00593 0.532614 0.054608 0.03154 0.546018 0.834295
-0.123735 -0.345434 0.057238 -0.984228 0.06132 0.165427
-0.051863 0.274104 -0.122309 -0.458556 -0.052591 -0.886676
0.11874 0.081698 0.105277 0.34909 0.085302 0.926953
-0.128174 0.131287 -0.015427 -0.989515 0.060508 -0.129557
0.177738 -0.204949 -0.0713 0.592493 -0.10484 -0.798377
0.461498 0.265816 -0.042178 0.520737 0.69374 0.462526
0.059296 -0.755886 0.003555 -0.996734 -0.044976 0.016953
0.007916 -0.412376 -0.048564 0.773494 -0.005897 -0.632936
0.094745 0.821188 -0.006047 0.841664 0.52227 0.116555
0.126817 -0.000389 -0.143595 0.408332 0.133951 -0.90115
0.140028 -0.869321 0.116654 0.054708 -0.998026 0.026632
0.114888 -0.16343 0.104639 -0.120892 -0.305656 0.940182
-0.137943 0.004953 -0.007495 -0.990299 -0.086053 -0.088596
0.597598 0.069365 0.046635 -0.300938 -0.920346 0.170072
-0.087846 -0.505007 0.074959 -0.29972 -0.222721 0.870903
-0.33588 0.287612 0.002368 -0.112992 0.163083 0.979977
-0.121857 -0.041394 -0.066889 -0.853454 -0.087288 -0.513394
-0.291288 0.37024 -0.069066 -0.854723 0.41723 -0.293211
-0.200899 0.48556 -0.059459 -0.641553 0.505568 -0.576266
0.075285 0.819888 0.04918 0.810773 0.417917 0.408084
-0.104196 -0.519321 0.048237 -0.825981 -0.051186 0.56039
0.390817 0.291519 -0.041179 0.169031 0.29634 0.939784
0.099497 0.799866 -0.058165 0.936723 0.228967 -0.250023
0.017582 0.014939 -0.149903 -0.189933 -0.401472 -0.895282
-0.016508 -0.013161 0.138014 -0.053141 -0.721109 0.667213
-0.151298 0.390723 -0.053552 0.719973 -0.662146 -0.207331
-0.083858 -0.863251 0.117282 -0.041848 -0.998868 0.020058
-0.01236 0.313376 0.113646 -0.11639 0.078011 0.989747
0.041972 0.619473 -0.072764 0.027526 0.470607 -0.880695
0.109524 -0.869404 -0.052499 -0.009876 -0.996761 0.078547
0.097504 -0.721439 -0.087502 -0.697357 0.017043 -0.707874
0.190067 -0.004704 -0.068127 0.892664 0.087708 -0.439343
0.285626 0.344319 -0.116714 -0.612208 -0.559466 -0.558149
-0.021192 -0.045754 -0.128543 -0.039205 -0.443552 -0.894783
0.174826 0.055275 0.082426 0.731568 0.255844 0.630226
-0.039181 -0.748916 -0.126734 0.211511 0.429502 -0.877096
-0.104324 -0.666625 0.031527 -0.571753 -0.284499 0.755004
0.056134 -0.281393 0.055047 -0.751396 -0.139817 0.644855
-0.056555 -0.561862 -0.103192 0.08298 0.013693 -0.995163
-0.109053 -0.304407 -0.050438 -0.802767 0.034286 -0.595265
-0.113461 0.345253 -0.082272 -0.77779 -0.213426 -0.589579
0.149636 0.493293 0.047808 0.323206 0.550362 0.768546
0.630448 0.034049 0.05978 -0.917759 -0.365233 -0.020509
0.003677 -0.128327 0.112139 0.575725 -0.180918 0.79701
0.009253 0.422721 0.098879 0.118041 0.201242 0.972145
0.237226 0.522821 -0.094959 0.549434 0.6245 -0.554368
0.62861 0.048276 0.015195 -0.850807 -0.383643 -0.330941
0.090528 -0.20339 -0.097294 -0.367879 -0.22626 -0.901717
-0.109723 -0.244724 -0.04936 -0.838569 -0.023139 -0.543653
0.107094 0.295129 -0.137726 0.293516 -0.052101 -0.952786
-0.375175 0.198912 -0.049765 0.529487 -0.785222 -0.310985
-0.020434 0.829861 -0.075065 -0.461061 0.748071 -0.473521
0.026286 -0.221219 -0.03241 0.1454 -0.073256 -0.901562
0.104503 -0.163882 -0.109251 -0.094927 -0.248633 -0.962064
0.44354 0.23503 -0.020448 -0.390232 0.109784 0.886345
-0.091393 0.044952 -0.105663 -0.705684 0.243771 -0.665105
-0.075537 0.116679 -0.098329 -0.612646 0.228545 -0.75616
0.126701 0.574167 -0.018821 0.299542 0.797555 0.499
0.110745 0.541249 0.027051 0.410056 0.575966 0.705857
-0.303559 0.330932 -0.091394 -0.334943 0.415439 -0.843588
-0.094425 -0.391343 -0.068852 -0.55843 -0.116483 -0.819264
0.126423 -0.503352 0.050809 -0.53014 -0.122739 0.83849
0.178483 -0.498992 -0.082466 0.719847 0.002969 -0.694038
0.20959 -0.146761 -0.000292 0.935178 -0.345804 0.026205
0.172531 0.26158 -0.048843 0.898342 -0.016192 -0.436671
-0.040583 0.082233 0.119462 -0.350701 0.101808 0.92807
-0.033103 0.742066 0.004682 -0.930519 -0.216431 0.294763
0.175921 -0.733056 -0.049397 0.833521 -0.185153 -0.52027
0.083274 -0.824261 -0.071547 -0.57946 -0.804097 -0.115957
-0.015238 -0.28753 -0.078177 0.680806 -0.119351 -0.722614
0.116583 0.127547 -0.116987 0.497063 0.325243 -0.803721
-0.026938 -0.83527 0.076583 0.945701 0.298546 0.124659
0.157475 -0.792153 -0.101274 0.651328 0.232738 -0.720012
0.071336 0.059217 0.131191 0.190772 0.106219 0.970753
-0.276612 0.40666 -0.054601 -0.671401 0.730406 -0.124957
0.069637 0.472558 -0.136988 -0.270845 0.123989 -0.954253
-0.094902 0.315094 -0.095083 -0.680282 -0.110524 -0.724333
0.568799 0.151166 0.014968 0.740751 0.67146 -0.011365
0.447795 0.221804 -0.09494 0.717883 -0.144799 -0.676576
0.121374 -0.212334 0.093147 0.078317 -0.203878 0.975029
-0.08011 -0.777353 -0.125939 -0.599466 0.256406 -0.755857
-0.118107 -0.758037 -0.007154 -0.826818 -0.319592 0.435915
-0.054382 0.584454 -0.06471 -0.481323 0.80035 -0.350378
-0.071665 -0.614041 -0.105022 -0.047412 0.065465 -0.995923
0.089392 0.828186 0.011092 0.967713 0.207509 0.128062
0.042865 -0.180603 0.048096 -0.96941 -0.041191 0.238352
0.144174 -0.037744 -0.131685 0.621002 -0.179802 -0.762006
-0.139319 -0.111971 -0.019943 -0.923929 -0.063421 -0.375782
-0.011612 -0.578124 -0.07969 0.685161 -0.063359 -0.725609
0.451935 0.246305 -0.100563 0.644945 -0.257342 -0.717663
0.145616 -0.747177 0.028766 0.24627 0.78287 0.569065
-0.116063 -0.675231 0.008599 -0.940305 -0.1457 0.296357
-0.053425 -0.327308 -0.089385 -0.073525 -0.046156 -0.994608
0.3733 0.261619 -0.052447 -0.722431 -0.541384 0.424964
0.059177 -0.43227 0.0047 -0.634188 -0.222741 0.739616
0.199879 -0.196587 0.043612 0.951651 -0.024906 0.305726
0.017416 0.710343 0.08815 -0.724576 -0.218603 0.625486
-0.556624 0.072843 0.046255 -0.90339 0.428293 0.016012
-0.296515 0.30702 -0.09734 0.001138 -0.083576 -0.992873
0.492132 0.172406 0.006131 -0.546225 -0.800394 0.209207
0.330798 0.425252 -0.115352 0.586158 0.631802 -0.497422
0.029381 0.53527 0.04636 0.052105 0.794015 0.604861
0.234343 0.47694 -0.128698 0.204966 0.29333 -0.93345
-0.054826 -0.011773 -0.131567 -0.249956 -0.082099 -0.964735
0.041279 0.428483 0.093755 0.116334 0.323225 0.938454
0.001407 0.859654 -0.039866 -0.440134 0.846811 -0.287172
0.098525 0.083363 -0.143264 0.388323 0.284601 -0.872246
-0.232339 0.415289 -0.087495 -0.33038 0.437772 -0.834862
-0.014835 0.681438 -0.024184 -0.814798 -0.48208 -0.315938
-0.050555 0.117331 0.107609 -0.553841 0.076886 0.828194
0.060581 -0.200994 -0.079273 -0.712144 -0.204176 -0.671458
0.037305 -0.358523 -0.017533 -0.992873 -0.089098 0.016635
-0.069104 -0.429833 -0.086703 -0.239981 0.305406 -0.919763
0.05061 -0.646199 -0.008006 -0.990785 -0.048985 0.115996
-0.121791 -0.407227 0.06432 -0.919281 -0.06809 0.382689
0.119736 -0.729594 0.022398 0.427328 0.283482 0.842346
0.168071 -0.481647 -0.091766 0.664791 0.063042 -0.74371
0.2607 0.516237 -0.066611 0.702055 0.707164 -0.071863
0.231854 0.397028 -0.028902 -0.482724 -0.625991 0.56024
0.083291 0.176719 0.120517 0.38487 0.034554 0.922206
-0.061942 0.341996 0.093095 -0.642515 -0.081722 0.759769
0.035762 0.257364 -0.126056 -0.10605 -0.057587 -0.990966
-0.125663 0.370983 -0.036348 -0.947904 -0.310962 -8.1e-05
-0.02132 -0.2686 -0.085532 0.624586 -0.060697 -0.778354
0.06001 -0.447391 0.002696 -0.529073 -0.060361 0.843576
0.014483 0.239303 0.127568 -0.070449 0.042301 0.994985
0.294446 0.438398 -0.02535 0.591562 0.384675 0.692418
-0.298803 0.316067 0.006377 -0.150021 0.038224 0.986643
-0.040437 -0.42548 -0.086372 0.207764 0.248423 -0.944772
0.106224 -0.539163 -0.103124 -0.405108 -0.065732 -0.910478
-0.143551 -0.069613 0.025405 -0.994281 0.022016 0.098088
0.065032 0.458596 -0.137132 -0.294559 0.075294 -0.952169
-0.570127 0.031047 -0.01805 0.300676 -0.369084 -0.572937
0.056609 -0.390481 -0.059883 -0.769527 -0.014754 -0.638361
-0.154484 0.386235 -0.006643 0.636002 -0.693045 0.335017
-0.570687 0.039094 0.058861 -0.978971 0.195955 0.051404
-0.085893 -0.062712 -0.104336 -0.584993 -0.224828 -0.779227
0.019183 -0.011066 -0.143463 -0.118762 -0.279336 -0.95166
-0.419529 0.200988 -0.056704 -0.31362 -0.065008 -0.944297
0.151177 -0.867332 0.103078 0.458505 -0.886937 0.015999
0.170724 0.083746 0.07785 0.714835 0.213081 0.665971
0.200004 -0.393119 -0.037124 0.930971 -0.04389 -0.360812
-0.024739 -0.407848 0.078556 0.439541 -0.198989 0.873746
-0.112062 0.271628 -0.003097 -0.999679 0.000733 0.023809
0.104643 -0.868131 0.129265 -0.137054 -0.976731 0.138806
0.160516 -0.154213 -0.089566 0.633464 -0.122715 -0.763712
-0.08878 0.100963 -0.092412 -0.711004 0.216062 -0.667621
0.084318 -0.849964 0.084002 -0.937929 0.320165 0.010549
-0.004346 -0.507721 0.036691 0.62131 -0.221428 0.751302
0.008699 0.316101 -0.127835 0.108848 0.045224 -0.993028
0.176634 0.240695 -0.038432 0.9333 0.017006 -0.358104
0.15323 -0.055173 -0.118328 0.685351 -0.200577 -0.699383
0.324786 0.374041 -0.140775 0.215506 -0.059449 -0.971648
-0.112805 0.006392 -0.084068 -0.861215 0.016741 -0.507863
0.203555 -0.057661 0.051793 0.88357 0.081055 0.458997
0.150145 -0.533513 0.053482 -0.074695 -0.278608 0.954517
0.091402 -0.578374 0.028099 -0.409331 -0.094934 0.903592
-0.252969 0.337414 -0.092236 0.371689 -0.349685 -0.857833
0.145294 0.013109 0.113114 0.437362 0.141884 0.886262
0.162306 -0.205871 -0.083212 0.593266 -0.130389 -0.79424
-0.000207 -0.352 0.074364 0.722402 -0.081375 0.686659
0.096987 0.75706 -0.072798 0.941508 -0.106538 -0.301899
0.061436 -0.538524 0.004008 -0.689467 -0.018566 0.723662
0.152964 -0.664065 0.028144 0.171104 -0.140474 0.97507
0.072306 -0.416143 0.025507 -0.701276 -0.353543 0.618969
-0.128602 0.135412 -0.002441 -0.998263 0.045994 -0.017051
