0.14254 -0.260061 0.08368 0.061533 -0.066313 0.99575
-0.333829 0.331595 -0.06543 -0.581526 0.764563 -0.256675
0.16354 -0.232655 -0.078972 0.539848 -0.127457 -0.831602
-0.140006 0.471054 0.061091 -0.176571 -0.009524 0.982392
-0.082183 0.180658 0.085321 -0.64435 -0.005214 0.764695
0.153949 0.337372 -0.107828 0.671521 -0.255316 -0.695399
0.312081 0.399905 -0.028848 0.576801 0.248868 0.776158
-0.109723 -0.244724 -0.04936 -0.838569 -0.023139 -0.543653
0.143284 -0.830763 0.142858 0.456122 0.881264 0.116565
0.211404 0.557402 -0.05475 0.46213 0.879379 -0.055536
0.139108 -0.551421 -0.106166 0.259866 -0.048899 -0.961178
-0.011093 -0.070334 -0.114816 0.200688 -0.490015 -0.847634
-0.068267 -0.861729 -0.05787 0.001458 -0.999248 0.036279
0.058382 -0.178066 0.074531 -0.648409 -0.058301 0.758359
-0.122382 0.106553 0.04118 -0.934194 0.094971 0.342803
0.151879 -0.193412 0.095007 0.160597 -0.135897 0.975254
-0.03237 0.204855 -0.117858 -0.319492 -0.363162 -0.873125
0.179229 -0.303621 -0.052598 0.739246 -0.084683 -0.667559
-0.089654 0.520145 0.049016 -0.034146 0.49771 0.865218
0.165015 0.510728 -0.128872 0.139772 0.350379 -0.924411
-0.005128 0.206583 -0.124905 -0.040176 -0.376573 -0.924263
0.201399 -0.571951 -0.037188 0.974641 -0.100356 -0.194925
-0.091628 -0.612784 -0.099847 -0.450541 0.097069 -0.887407
-0.408521 0.175058 -0.003206 0.571021 -0.817167 0.008442
0.182697 -0.473409 0.053117 0.875865 -0.107694 0.468195
-0.116892 0.39326 0.05414 -0.783251 -0.283998 0.549662
-0.031907 -0.116349 0.125943 0.048991 -0.100369 0.99349
-0.112828 -0.401726 -0.050138 -0.768639 -0.075971 -0.633661
0.026247 -0.685603 -0.036512 0.985865 -0.068989 0.125168
-0.144396 -0.112125 0.015767 -0.999906 -0.00056 0.012094
0.132244 -0.165912 -0.105944 0.318823 -0.111481 -0.940422
-0.132183 -0.581783 -0.037545 -0.983426 -0.156937 0.069418
-0.126708 -0.366422 0.041024 -0.992173 -0.04308 0.113343
0.012148 0.736723 -0.109017 -0.30934 -0.471919 -0.82172
0.003636 0.717457 0.074174 -0.541745 0.11606 0.829474
-0.091912 -0.820153 -0.109476 -0.837773 -0.274555 -0.471725
0.509453 0.170975 0.018208 -0.010307 0.180556 0.932682
-0.397531 0.250002 0.007528 -0.238922 0.343846 0.905527
-0.04508 -0.693008 0.017069 -0.18516 -0.176146 0.965677
0.117914 0.051751 -0.140965 0.514504 0.250815 -0.819704
-0.569404 0.043486 0.032556 -0.872419 0.487841 0.010021
-0.129296 -0.043182 0.071024 -0.847529 0.055313 0.525335
-0.041191 0.827953 -0.03628 -0.935464 0.328727 -0.101399
0.224002 0.531934 -0.095756 0.401903 0.681204 -0.610562
0.186615 -0.437155 0.052146 0.882491 -0.085333 0.461691
0.172608 -0.762664 0.020491 0.541892 0.097677 0.83073
-0.003886 0.570876 0.017609 -0.401658 0.36306 0.833288
0.58906 0.071857 -0.010674 0.731132 0.316766 -0.581295
-0.560629 0.050934 0.074315 -0.467192 -0.567429 0.502944
0.195782 -0.119358 -0.057071 0.806067 0.013064 -0.58983
-0.119788 0.122879 -0.040354 -0.890694 0.032468 -0.451162
0.094875 0.716765 0.025634 0.922203 -0.142278 0.257495
0.091712 -0.853602 0.020378 -0.806335 -0.566029 -0.132492
0.15219 -0.864857 -0.080561 0.69178 -0.689586 -0.075636
0.083091 -0.060434 -0.138253 -0.121796 -0.370864 -0.920012
0.10338 -0.006132 -0.153427 0.249844 -0.001242 -0.965227
-0.13336 -0.189965 -0.011671 -0.922482 -0.128519 -0.36007
-0.030583 0.000796 0.138268 -0.170198 0.380313 0.906959
-0.046951 0.383729 0.102733 -0.36237 0.123509 0.92353
0.551827 0.169603 -0.000632 0.80969 0.579342 -0.028316
-0.067444 -0.863468 0.125498 -0.003986 -0.999068 0.038397
-0.091518 -0.362279 0.10079 -0.116586 -0.200582 0.969132
0.074431 0.857646 -0.023857 0.667365 0.740057 -0.077086
-0.304833 0.244018 -0.053244 0.527399 -0.813123 -0.244717
-0.023325 -0.603272 0.026555 0.189542 -0.136083 0.971733
-0.138278 -0.478531 -0.025433 -0.968653 0.037195 -0.240448
0.053144 -0.549964 -0.005499 -0.814058 -0.002293 0.579869
-0.109238 -0.470446 0.06375 -0.778875 -0.295463 0.552326
0.082668 0.845625 -0.032552 0.809094 0.572777 -0.091547
0.079406 -0.753781 -0.055688 -0.862625 0.161545 -0.474061
-0.115132 -0.375628 -0.0509 -0.753343 -0.002853 -0.656846
-0.0144 -0.358014 -0.067347 0.681765 -0.105701 -0.72385
0.177228 -0.162003 0.089562 0.533031 -0.044812 0.843901
-0.138947 -0.461989 -0.016166 -0.993166 0.04256 -0.104151
0.016791 -0.252569 0.076682 0.879402 -0.078083 0.457885
0.165103 0.321519 0.052318 0.729763 0.033585 0.680768
0.156995 -0.8229 0.044632 0.868021 0.426177 0.191883
0.197639 -0.273177 -0.035757 0.880086 -0.155662 -0.446375
-0.060353 0.3622 0.096825 -0.497336 -0.083544 0.861498
0.180075 -0.693502 -0.050483 0.716652 -0.128235 -0.683806
-0.06392 -0.28129 -0.090249 -0.277349 -0.057593 -0.95628
-0.13307 -0.53643 -0.009525 -0.885862 -0.214316 0.409457
-0.110693 -0.842343 0.018472 -0.864717 0.466179 -0.042257
0.193515 -0.594133 0.014587 0.788727 -0.055115 0.606087
0.025909 0.342003 -0.126395 -0.068449 -0.043638 -0.995383
-0.113483 0.185901 0.048984 -0.885064 -0.019642 0.462758
-0.113315 -0.513139 0.034634 -0.852168 -0.117915 0.507889
0.084602 -0.560881 -0.084852 -0.580784 -0.070413 -0.801148
0.011159 0.756175 0.072282 -0.454047 0.006723 0.876151
0.111206 -0.356003 -0.100864 0.068741 0.046998 -0.991108
-0.006473 -0.217495 0.105314 0.507326 -0.131716 0.850475
-0.12199 -0.498038 -0.061312 -0.79812 0.076591 -0.597589
0.146462 0.109092 -0.101233 0.692514 0.251056 -0.676058
-0.095598 -0.742428 -0.107588 -0.749116 0.090388 -0.655263
0.01367 0.207358 -0.123986 0.146634 -0.415735 -0.896703
0.177641 0.018057 0.090611 0.655655 0.136507 0.741761
-0.489428 0.163331 0.004755 -0.776628 0.629589 -0.019252
-0.128468 -0.30704 -4e-05 -0.999585 -0.010013 -0.026606
0.041022 0.398225 -0.130859 -0.323336 0.026475 -0.942331
0.146166 -0.054144 -0.125124 0.594052 -0.22696 -0.771439
-0.032682 0.176466 -0.106883 -0.366471 -0.283681 -0.886064
0.051831 0.09374 0.13219 0.141882 -0.367975 0.916723
0.089938 -0.849507 0.011542 -0.85161 -0.476672 -0.084855
0.071336 0.059217 0.131191 0.190772 0.106219 0.970753
-0.105058 -0.838419 0.067923 -0.709533 0.698556 0.091266
0.059257 0.224749 0.126332 0.259128 0.108117 0.953685
0.444269 0.261653 -0.110816 0.663388 -0.001858 -0.740353
0.194472 0.394294 0.007836 0.965393 -0.106721 0.23617
0.164236 -0.82413 -0.008893 0.797399 -0.599288 0.069136
0.045287 0.51178 0.060742 0.064456 0.530964 0.844425
-0.027653 -0.718005 0.027303 0.082372 -0.104803 0.959313
-0.156642 0.379561 -0.033453 0.712205 -0.698315 -0.056047
-0.057726 -0.339431 -0.088184 -0.163403 -0.044792 -0.980814
0.16587 -0.663362 -0.074522 0.604505 -0.188434 -0.773198
0.035518 0.783168 0.086229 0.012251 0.394987 0.91643
-0.003231 0.714614 -0.083027 -0.571666 -0.566372 -0.590175
-0.120147 0.134127 0.038762 -0.926894 0.074876 0.366937
0.136119 -0.648832 0.032677 0.173633 0.006913 0.983285
-0.092154 -0.851014 0.142303 -0.867932 -0.100214 0.467434
-0.062457 0.525135 0.049234 -0.145776 0.584931 0.797473
-0.074896 0.197408 0.090746 -0.576984 0.065434 0.812947
-0.460851 0.157093 0.048135 0.457408 0.419776 0.776065
0.119666 -0.869486 0.041222 -0.009846 -0.999436 -0.031202
0.089392 0.828186 0.011092 0.967713 0.207509 0.128062
0.041222 0.091306 0.132606 0.136351 -0.416088 0.894898
0.126728 0.221099 -0.111153 0.625709 -0.289957 -0.724105
0.096644 -0.767095 -0.085544 -0.773935 0.230703 -0.57085
0.183239 0.115766 0.050927 0.851017 0.192334 0.486897
0.066855 0.031023 0.136406 0.141314 0.141283 0.975583
-0.096043 -0.480377 -0.084055 -0.581181 0.125694 -0.802744
0.227068 0.411287 -0.126512 -0.56444 -0.388177 -0.724567
-0.255793 0.386459 0.0178 -0.378741 0.138031 0.911422
0.148364 -0.403376 -0.089932 0.527134 0.097428 -0.843615
0.176624 -0.694781 0.008412 0.425194 -0.493843 0.757905
0.07449 -0.234408 0.080064 -0.50183 -0.106431 0.85524
-0.119788 -0.056996 -0.0671 -0.845633 -0.119114 -0.520121
-0.010445 -0.092017 -0.102846 0.416389 -0.395742 -0.814164
-0.108992 0.369113 0.051756 -0.810311 -0.273516 0.517407
-0.12842 -0.29338 -0.003518 -0.996922 -0.016818 -0.069349
-0.214525 0.33643 -0.015971 0.58928 -0.740402 0.321212
-0.077772 -0.264544 0.110702 -0.037958 -0.091028 0.995033
0.077217 -0.520123 -0.082353 -0.708969 -0.061344 -0.702432
0.000988 0.058063 0.136798 -0.226382 0.081709 0.967152
-0.010224 -0.216925 -0.078912 0.538334 0.041019 -0.84158
0.104156 -0.597945 0.030245 -0.197951 -0.040949 0.974891
-0.030877 0.383463 -0.129129 -0.047559 -0.023607 -0.998563
-0.384976 0.288005 -0.062145 -0.69587 0.682325 -0.221958
-0.026422 -0.859698 0.07578 0.807814 -0.559754 0.055699
0.00161 -0.340893 0.073689 0.689187 -0.107857 0.715599
0.251025 0.526255 -0.056272 0.702465 0.71148 -0.00828
-0.230591 0.442314 -0.070056 -0.577419 0.556337 -0.597411
0.017273 -0.458575 0.023195 0.884596 -0.048042 0.463617
0.110622 -0.078749 -0.132061 0.119063 -0.389142 -0.91197
-0.005048 0.101229 0.132762 -0.28934 0.129013 0.946867
0.206401 -0.197212 0.017796 0.992772 -0.03345 0.108566
0.073993 0.362976 -0.143098 -0.262425 -0.01361 -0.96224
-0.098529 0.296479 0.058976 -0.809782 0.189427 0.553369
0.164033 0.397095 -0.124181 0.382341 -0.403311 -0.831098
0.174168 0.191563 -0.047414 0.911174 0.043115 -0.408521
-0.379273 0.205745 0.010498 0.416591 -0.167255 0.8774
-0.0856 -0.707597 0.019009 -0.011413 -0.397025 0.914814
0.491814 0.236322 -0.030042 0.663206 0.742428 0.083751
0.1808 -0.792988 -0.04276 0.923438 -0.36634 0.025516
0.195798 -0.427561 -0.048453 0.88768 0.099034 -0.442451
-0.062003 -0.86277 0.134395 0.039031 -0.990549 0.116539
0.429222 0.254591 -0.120797 0.414289 -0.231967 -0.877054
0.064527 0.74708 -0.106115 0.473844 -0.285732 -0.831868
-0.101523 -0.792061 0.007564 -0.725678 0.221209 0.650216
0.006775 0.650138 -0.056326 -0.585231 0.036651 -0.801987
0.203881 -0.398765 0.00858 0.955127 -0.080757 0.279414
-0.051592 -0.189437 0.121652 -0.016154 -0.110909 0.991624
-0.035298 -0.564749 0.040754 0.416583 -0.219824 0.881968
0.067974 0.857264 0.022351 0.618261 0.730421 0.288015
0.08206 -0.176935 0.089979 -0.455941 -0.075623 0.88565
-0.077239 0.339985 -0.111704 -0.511504 -0.075942 -0.855802
0.094369 -0.611353 0.027804 -0.429321 -0.000959 0.896566
-0.023322 -0.415343 -0.07702 0.498309 0.225409 -0.836931
0.01294 -0.691547 -0.071614 0.626792 0.157739 -0.761955
0.019313 -0.487547 -0.032063 0.92007 0.025921 -0.389411
-0.091818 -0.053438 -0.101978 -0.632431 -0.229235 -0.739817
0.06042 -0.273872 -0.069924 -0.810149 0.009547 -0.586134
0.571853 0.086552 0.058804 -0.752867 -0.312056 0.558068
-0.120633 -0.318329 0.077504 -0.973206 -0.065672 0.219607
0.077598 -0.695092 0.033622 -0.264762 0.186373 0.945512
-0.056436 0.122915 -0.107937 -0.459005 0.321454 -0.82803
-0.017098 -0.636704 -0.084073 0.666561 0.01737 -0.745167
-0.026081 0.722396 -0.047588 -0.763762 -0.5336 -0.332427
0.132482 0.355694 -0.131649 0.52634 -0.215234 -0.820741
0.20742 -0.170774 -0.022871 0.997831 -0.003661 -0.064031
-0.268802 0.322918 -0.093921 0.347761 -0.209539 -0.913068
0.287485 0.422575 -0.139474 0.16689 0.295419 -0.93488
-0.056721 -0.459949 -0.094738 0.025057 0.118729 -0.991924
-0.169642 0.530458 0.017634 -0.610319 0.681755 0.402393
0.205421 -0.271778 0.004228 0.999941 0.00327 -0.004064
0.034897 -0.148042 -0.060489 -0.892149 -0.291219 -0.344628
0.413546 0.216627 -0.087619 -0.61099 -0.790949 -0.024467
-0.116692 0.233412 0.01029 -0.910965 0.386055 0.140033
-0.005111 -0.39337 0.070708 0.684109 -0.19265 0.701503
0.384181 0.24833 -0.109104 -0.77832 -0.450838 -0.428897
0.190015 0.349842 -0.066073 0.866651 -0.384136 -0.314849
-0.086852 -0.396545 -0.073076 -0.51975 -0.079317 -0.850147
0.118056 0.555384 0.009205 0.367482 0.681883 0.632229
0.544617 0.145855 0.037334 -0.583871 0.098275 0.792509
0.18601 0.328935 0.011289 0.923621 -0.121871 0.36273
-0.105001 -0.860242 0.058353 -0.604147 -0.779465 0.004979
0.116249 -0.820986 -0.117526 -0.214011 -0.10329 -0.963052
0.061181 -0.51829 0.004676 -0.687232 -0.031173 0.725315
0.182191 0.178281 -0.030266 0.897424 0.137597 -0.417456
0.104728 0.776588 -0.047779 0.992047 -0.017158 -0.112453
0.17779 -0.747465 0.009379 0.357024 0.758021 0.544054
-0.069796 -0.703366 0.016169 0.252777 -0.329017 0.909755
-0.087486 0.31626 -0.101875 -0.63769 -0.069394 -0.766949
-0.052836 0.130946 0.107073 -0.520995 -0.0304 0.852536
0.211294 -0.074915 0.035748 0.947983 0.016201 0.310324
0.128633 0.305604 -0.126417 0.600055 -0.050926 -0.798083
-0.037096 0.797771 -0.040032 -0.997061 -0.029948 -0.062052
-0.014686 0.854328 -0.007336 -0.481107 0.876075 0.02905
-0.24528 0.303553 -0.048345 0.779054 -0.616491 -0.108399
0.20246 -0.096306 0.056738 0.852629 -0.042944 0.518678
-0.091869 -0.856921 -0.046506 -0.629303 -0.759892 0.08064
0.108768 0.406236 0.089817 0.203315 0.127159 0.970726
0.121115 -0.860374 0.178851 -0.098175 -0.94996 0.289352
0.4248 0.20896 -0.075333 -0.502415 -0.859425 0.061698
0.054094 0.304197 -0.133909 -0.378483 -0.033747 -0.924752
-0.028018 -0.466425 -0.087712 0.427547 0.115512 -0.896504
0.011931 -0.19372 0.092485 0.822 -0.071246 0.56497
0.17457 -0.165912 -0.075954 0.707419 -0.05095 -0.704669
-0.511545 0.133013 0.045223 -0.837827 0.545494 0.020771
0.122253 0.261408 0.097429 0.523871 0.056772 0.84956
-0.142814 0.42929 0.05046 -0.638119 -0.350895 0.682093
-0.019785 -0.835084 -0.028897 0.77086 -0.572513 0.013474
-0.042336 -0.507274 -0.097999 0.218348 0.076207 -0.971556
0.182808 0.338439 -0.070668 0.831843 -0.359116 -0.422085
0.180173 -0.683957 -0.052951 0.713923 -0.236883 -0.657727
-0.134589 -0.005614 0.050213 -0.941464 -0.107863 0.27609
0.146644 -0.644095 -0.090638 0.425144 -0.144569 -0.893127
0.048232 0.747312 0.08593 0.836227 0.222576 0.494675
-0.073924 -0.815757 0.06348 -0.386588 0.749169 0.502037
-0.383614 0.194599 -0.051368 0.222279 -0.901209 -0.337032
0.191621 0.122694 -0.024981 0.857168 0.202766 -0.472762
0.496223 0.232784 -0.058346 0.669935 0.737607 -0.069728
-0.030624 0.132336 -0.114963 -0.278269 0.474815 -0.834806
-0.324857 0.342822 -0.033559 -0.696419 0.71459 0.058959
-0.047483 0.448019 -0.131502 -0.073908 -0.061964 -0.994706
0.061221 0.800717 -0.110878 0.453958 0.2459 -0.849387
0.091268 0.795039 -0.083108 0.861493 0.117771 -0.492385
0.529859 0.206229 -0.011815 -0.071928 0.95088 0.283591
-0.020354 0.492347 -0.127582 0.047763 0.137874 -0.989198
-0.123021 -0.007523 -0.066577 -0.864635 0.02665 -0.501511
0.102507 0.596909 -0.040806 0.587362 0.770804 0.229612
0.12969 -0.781367 0.039915 0.164404 0.459488 0.863164
0.187917 -0.27465 -0.04982 0.756797 -0.210788 -0.618619
-0.435549 0.204261 0.014328 -0.275894 0.357578 0.890804
-0.07989 -0.783271 0.02228 -0.5398 0.678165 0.497023
0.012167 -0.685079 -0.004878 0.83994 -0.243829 0.445949
-0.071076 0.507284 -0.119326 -0.231716 0.352148 -0.906281
0.471466 0.258396 -0.077674 0.792886 0.549163 -0.25386
0.059907 -0.768204 -0.01519 -0.994076 0.042076 -0.098062
0.087697 -0.843858 -0.006697 -0.965206 -0.256753 -0.030845
0.310405 0.439086 -0.118373 0.491035 0.639553 -0.591214
-0.140309 -0.176387 0.027034 -0.948943 -0.278303 0.125559
0.041996 0.513768 -0.124779 -0.231802 0.226338 -0.944829
0.210884 0.41801 -0.113966 -0.184246 -0.871128 -0.439019
0.064566 -0.38884 -0.069223 -0.747985 -0.035632 -0.662744
0.204937 -0.256725 -0.012658 0.99833 0.003109 -0.056081
0.158659 0.282009 0.058723 0.735139 0.014415 0.677204
-0.064416 0.202543 -0.096795 -0.558106 -0.246073 -0.791972
0.206284 -0.131567 -0.037436 0.935745 -0.009033 -0.351564
0.125026 0.262584 -0.12574 0.633314 -0.12155 -0.763825
0.578009 0.061131 -0.00889 -0.933511 -0.352434 -0.004419
0.14875 -0.164024 0.100028 0.25172 -0.265265 0.93039
0.090567 -0.839899 0.105711 -0.872847 0.47383 0.114922
0.205768 -0.299256 0.009408 0.999247 0.005861 0.028963
0.016013 0.739352 0.081008 -0.817399 0.218295 0.528422
-0.122759 -0.625983 0.004316 -0.955897 -0.040063 0.287751
0.026726 -0.669983 -0.030686 0.990536 -0.070366 0.102309
-0.011691 0.433143 -0.129449 0.079289 -0.011827 -0.996654
0.336495 0.320553 -0.131895 -0.221425 -0.352329 -0.908826
0.035925 0.156015 0.13145 0.041749 0.058329 0.996954
0.083688 0.114127 0.123506 0.426605 0.064564 0.900385
-0.077162 -0.419521 -0.079437 -0.414438 0.271544 -0.866208
-0.126212 0.447481 0.061382 -0.06934 -0.017847 0.994713
0.190658 -0.458075 0.035454 0.963578 -0.069341 0.257647
-0.025274 -0.33621 -0.079694 0.587202 -0.094869 -0.801934
0.175816 -0.664048 0.019947 0.488221 -0.115907 0.863935
0.151197 -0.13996 0.105322 0.312475 -0.152008 0.934734
-0.017106 -0.730782 -0.106762 0.539889 0.346673 -0.765505
0.175951 -0.745509 -0.04566 0.848819 -0.052627 -0.519712
-0.226859 0.357266 0.011746 0.306288 -0.429093 0.848649
-0.129882 -0.202137 0.074139 -0.920112 -0.058859 0.386079
0.205325 -0.242961 -0.005887 0.999473 -0.021941 -0.020828
0.455052 0.230459 -0.015482 -0.225581 0.360067 0.902379
-0.320041 0.258788 -0.082841 0.063163 -0.542186 -0.837451
-0.115232 -0.771937 -0.077494 -0.88688 -0.026962 -0.460766
0.207507 -0.049345 0.040784 0.945217 0.048204 0.320749
0.109745 -0.507532 0.039277 -0.611405 -0.067516 0.788139
-0.128001 -0.347125 -0.011346 -0.996189 0.037713 -0.069085
0.175245 0.219374 -0.043346 0.927865 -0.009583 -0.37216
0.075548 0.087325 -0.14684 0.066607 0.337239 -0.937661
-0.027339 0.352999 -0.128666 -0.0361 -0.01085 -0.99919
0.183673 -0.170801 -0.067432 0.651734 -0.005261 -0.757846
0.087443 -0.293274 -0.094513 -0.362613 0.018267 -0.923318
0.20132 0.400916 -0.049823 0.928526 -0.341303 0.020552
0.584866 0.047819 0.006952 -0.847747 -0.529603 -0.000922
-0.031133 0.356134 0.105791 -0.009797 -0.075602 0.996988
0.16793 0.572627 -0.050707 0.382118 0.894588 0.080621
0.619368 0.073805 0.090307 0.813783 0.442558 0.329556
-0.108517 0.119264 0.061366 -0.761728 0.169452 0.622384
-0.497968 0.097085 0.034081 0.284106 -0.867246 -0.333369
-0.126745 -0.679842 -0.070022 -0.961536 -0.036959 -0.270346
-0.033834 -0.467174 0.06692 0.262333 -0.276344 0.924188
0.049237 0.255425 0.125902 0.196654 0.087187 0.975165
0.029166 0.131721 -0.125604 -0.147301 0.440014 -0.885727
0.131604 0.017756 0.11813 0.368887 0.22323 0.900979
-0.084798 -0.330126 -0.075887 -0.592838 0.018484 -0.804463
0.090952 0.78313 -0.085605 0.863867 0.047598 -0.501116
0.044198 0.448188 0.089453 0.113012 0.190281 0.974186
-0.221607 0.444537 -0.07484 -0.496811 0.508037 -0.702736
-0.002232 -0.788516 -0.118864 0.857033 0.220268 -0.462731
0.001131 -0.571424 -0.066215 0.764211 -0.027577 -0.644305
-0.068352 0.26199 -0.11198 -0.524245 -0.15577 -0.836958
-0.029929 0.251758 -0.128786 -0.126465 -0.063864 -0.989694
0.006273 0.715137 -0.091295 -0.421634 -0.575677 -0.695955
0.010028 -0.659876 -0.065909 0.583936 0.175443 -0.792358
0.087667 0.041543 -0.157245 0.286031 0.226068 -0.926745
0.183646 -0.739783 -0.037938 0.607384 -0.196158 -0.76803
0.204584 0.541752 -0.094099 0.273889 0.748913 -0.603198
0.113134 -0.868336 -0.039942 -0.048494 -0.992296 0.110421
-0.055505 -0.055142 -0.120652 -0.189843 -0.314074 -0.929775
-0.113736 -0.671999 -0.088871 -0.653384 -0.042864 -0.751735
-0.006676 -0.035484 -0.133849 -0.026209 -0.330292 -0.943115
0.068645 0.452087 0.085733 0.137589 0.335451 0.931542
0.189985 -0.242859 0.065467 0.788171 -0.045336 0.60705
-0.027057 0.744747 0.038802 -0.969462 -0.005247 0.239333
-0.131818 -0.267913 0.041877 -0.976441 -0.182431 0.099226
0.079688 -0.739075 0.031026 -0.034636 -0.548513 0.835267
0.061436 -0.538524 0.004008 -0.689467 -0.018566 0.723662
0.135824 0.365306 0.082365 0.574376 0.029168 0.816216
0.054177 0.651504 -0.062794 0.448139 0.016218 -0.887553
0.104135 -0.048848 -0.143111 0.106938 -0.3346 -0.935274
0.604974 0.099082 0.071316 0.57255 0.68563 0.291023
0.156604 -0.863355 0.028418 0.272184 -0.959445 -0.071859
-0.128483 -0.114353 0.075525 -0.875045 0.006475 0.483636
-0.010185 0.637497 -0.036494 -0.898134 0.190017 -0.364231
0.040627 -0.226209 -0.041884 -0.9357 -0.015511 -0.350014
-0.091319 -0.190131 0.112333 -0.203153 -0.052832 0.977309
0.077595 -0.767281 -0.05819 -0.847133 0.224677 -0.480699
-0.162225 0.414484 -0.093154 0.321996 -0.301213 -0.895829
-0.01097 0.251426 0.118565 -0.412914 0.060526 0.90708
0.173341 0.31161 0.042472 0.906019 0.049491 0.407677
-0.031483 0.04626 0.128435 -0.195683 0.121794 0.972746
-0.024534 -0.810627 -0.145935 0.450719 -0.129784 -0.87743
0.103825 -0.837522 -0.112303 -0.52414 -0.042841 -0.849979
-0.025029 -0.636828 -0.090643 0.573059 0.009096 -0.818116
0.001831 -0.195469 0.102776 0.615997 -0.10081 0.781229
0.080862 -0.373253 -0.086686 -0.665457 -0.075012 -0.742333
0.111764 0.522179 0.041756 0.357823 0.590104 0.722554
0.553443 0.119536 0.045565 -0.862321 -0.16286 0.456973
0.107641 0.306926 -0.138319 0.33133 -0.070819 -0.939452
0.048473 -0.472027 -0.050326 -0.8565 0.007799 -0.514718
0.259129 0.365092 -0.042713 -0.647501 -0.595964 0.470692
-0.070644 -0.55722 0.05748 0.351135 -0.175756 0.91951
-0.010608 0.381968 0.106379 -0.00424 0.063808 0.997887
0.093308 -0.855562 0.146383 -0.888905 0.228136 0.391043
0.163379 -0.007414 0.097425 0.631351 -0.143009 0.759752
0.083133 0.07263 -0.15089 0.159571 0.248317 -0.95035
0.207462 -0.017613 -0.017789 0.974074 0.055402 -0.21828
-0.010931 0.197809 -0.12036 -0.117662 -0.35725 -0.923403
0.186302 0.441183 -0.134757 0.157859 -0.143008 -0.97595
0.016616 0.606384 0.022911 -0.472496 -0.068071 0.877574
0.002215 -0.47357 0.040029 0.709769 -0.145596 0.688931
0.075459 0.857028 -0.010882 0.692681 0.720615 0.020834
0.021825 0.02805 -0.15476 -0.188363 -0.008692 -0.969142
0.022697 -0.37838 0.025721 0.927798 -0.12719 0.348211
-0.371134 0.277411 0.002874 -0.262057 0.384699 0.883951
0.035979 -0.294999 -0.029547 -0.954718 -0.055574 -0.286784
0.175489 0.554913 -0.090872 0.322389 0.750306 -0.576304
-0.075248 0.325318 0.082923 -0.541535 -0.08983 0.834867
-0.040284 0.74663 -0.020028 -0.993273 0.02061 0.057494
0.057278 0.576209 0.020057 0.377563 0.031803 0.923588
0.145539 0.291223 0.073673 0.786022 0.04764 0.615209
-0.101599 -0.821687 0.004036 -0.951773 0.244696 0.18471
0.085816 -0.847754 -0.062864 -0.982711 0.175555 0.031151
0.297112 0.324293 -0.076328 -0.671638 -0.733908 0.082195
-0.130963 -0.566032 -0.021188 -0.952443 -0.13017 0.272122
-0.034395 -0.791714 0.046603 0.540915 0.640116 0.544509
0.055549 0.71241 0.08534 0.536283 -0.056952 0.838174
-0.084985 -0.157513 0.115749 -0.323655 -0.014722 0.945737
-0.158886 0.428241 0.037766 -0.362566 -0.477147 0.795688
-0.014669 0.840657 -0.062526 -0.530548 0.726825 -0.436132
0.082045 0.705526 -0.0591 0.780833 -0.475192 -0.401759
-0.087335 0.379332 0.077192 -0.689772 -0.105237 0.712184
0.077794 0.82407 -0.085155 0.640486 0.533483 -0.551725
-0.03634 0.808008 -0.007407 -0.983252 -0.090444 0.141976
0.161969 -0.858054 -0.049755 0.870033 -0.456762 0.046643
0.008075 -0.057766 0.126673 0.315324 -0.212467 0.923178
-0.08815 -0.787609 0.019399 -0.634174 0.551463 0.505639
-0.202335 0.342274 -0.051155 0.612099 -0.769258 -0.167248
0.011489 0.863272 -0.032226 -0.155983 0.98436 -0.065878
-0.133814 -0.197214 0.065015 -0.946868 -0.067744 0.30701
0.564036 0.08654 0.001599 -0.789209 -0.613154 0.013055
-0.038493 0.243962 -0.127035 -0.330055 -0.112301 -0.935138
0.10941 -0.86414 -0.016793 -0.37823 -0.922066 0.061803
0.089347 -0.541928 -0.09145 -0.639364 -0.093472 -0.762336
0.166932 0.10544 0.074637 0.696827 0.21122 0.682892
0.027576 -0.628848 -0.031393 0.997007 0.00421 -0.070395
-0.048938 -0.239185 0.112445 0.093976 -0.161743 0.982013
0.019806 0.255253 -0.126193 0.115173 -0.051247 -0.990965
-0.268488 0.280074 -0.024682 0.664401 -0.672937 0.320582
0.334873 0.371815 -0.137362 0.372272 0.069737 -0.918969
0.075044 0.79359 0.065316 0.794512 0.219466 0.564627
-0.102912 -0.120725 -0.075653 -0.709261 -0.096787 -0.696033
0.193429 0.344481 -0.01839 0.980379 -0.171897 0.084614
-0.135905 -0.193249 0.05631 -0.987601 -0.044245 0.140451
-0.114288 -0.28095 -0.040118 -0.879099 0.01137 -0.47629
-0.12749 -0.240025 -0.015737 -0.926973 -0.011726 -0.374577
0.048157 0.528349 0.05115 0.079715 0.546491 0.833029
0.119642 0.582637 -0.084868 0.337414 0.824599 -0.453015
-0.118654 -0.388107 0.077997 -0.911992 -0.066229 0.402898
-0.021192 -0.045754 -0.128543 -0.039205 -0.443552 -0.894783
-0.108588 0.096617 -0.067323 -0.827472 0.148156 -0.541175
-0.102323 -0.539463 0.050107 -0.842052 -0.06152 0.535799
0.229232 0.513093 -0.111498 0.458643 0.578778 -0.673368
0.096194 0.213101 0.113185 0.364461 0.082066 0.927191
0.179735 -0.438621 -0.072866 0.684469 0.179459 -0.706517
0.087371 0.082086 -0.146944 0.230136 0.320746 -0.916935
0.30185 0.459242 -0.101497 0.598962 0.649025 -0.468715
-0.099683 -0.052042 -0.095297 -0.69035 -0.233666 -0.683771
0.08891 -0.083758 -0.129397 -0.138744 -0.392042 -0.90851
0.011432 -0.744951 -0.081542 0.812369 0.058695 -0.578637
-0.131966 -0.545747 -0.050268 -0.89845 0.01612 -0.43618
-0.481317 0.122413 0.054011 0.792758 -0.465555 0.367154
0.262172 0.448305 -0.008763 0.272889 -0.069271 0.956965
0.194581 0.157905 -0.012338 0.843579 0.373667 -0.358464
-0.120841 0.166922 -0.02625 -0.889093 0.055945 -0.451241
-0.110568 -0.812054 -0.03642 -0.849472 -0.513598 0.115807
-0.335485 0.307903 -0.08954 -0.354075 0.331093 -0.869834
-0.192107 0.505376 0.022361 -0.653481 0.596555 0.465055
-0.128345 -0.316791 1.5e-05 -0.999818 -0.008581 -0.0164
-0.076332 0.048443 0.10897 -0.521069 0.065584 0.850471
0.084973 -0.123326 0.093926 -0.5805 -0.052472 0.81165
-0.12955 -0.282679 0.022 -0.991439 -0.126797 0.002941
0.087916 -0.216485 -0.09376 -0.433315 -0.12438 -0.891278
0.126762 0.415308 0.082864 0.326698 0.131393 0.935261
-0.113874 0.448006 -0.114262 -0.429965 -0.027962 -0.901329
-0.076509 0.427188 -0.123579 -0.313855 -0.184453 -0.931194
-0.1352 0.495962 0.05812 -0.158589 0.297848 0.939508
-0.066081 0.286203 0.088237 -0.395413 -0.000926 0.908206
0.199785 0.550525 -0.084103 0.287516 0.813752 -0.502518
0.041116 0.658688 0.072245 0.132877 -0.97552 0.174793
0.198654 0.385663 -0.039395 0.997155 -0.065056 0.022226
0.02328 -0.208383 -0.032941 0.499422 -0.036435 -0.838832
0.526919 0.199292 0.008619 -0.019922 0.940303 0.333323
-0.023871 0.156008 0.121039 -0.3706 -0.003163 0.928649
0.186431 0.452932 -0.135752 0.146803 -0.052993 -0.9877
0.152179 0.168652 -0.08251 0.747517 0.056357 -0.661107
-0.195304 0.431007 -0.09258 -0.159178 0.277577 -0.947217
0.557645 0.162417 -0.005014 0.74223 0.660976 -0.10528
-0.019073 0.526092 -0.119966 -0.073385 0.257485 -0.962601
0.132208 -0.795903 -0.116553 0.173021 0.312296 -0.931101
0.145294 0.013109 0.113114 0.437362 0.141884 0.886262
0.589336 0.123327 0.046217 0.735345 0.674237 0.06338
0.172373 0.046315 0.0889 0.669054 0.240426 0.702885
-0.087532 -0.251831 -0.07747 -0.723571 -0.048963 -0.688402
0.348007 0.390688 -0.1047 0.942326 -0.324692 0.047177
0.014304 -0.792535 -0.071859 0.909717 -0.381723 -0.084491
-0.020809 0.216321 -0.125457 -0.186031 -0.221233 -0.956411
-0.137628 -0.185142 0.037613 -0.99189 -0.064838 0.092454
-0.008028 -0.15368 0.115058 0.530754 -0.13429 0.836433
0.17291 0.189786 0.05155 0.799141 0.079952 0.595311
0.059898 -0.083124 0.105296 0.134743 -0.705171 0.695184
0.061194 -0.757994 0.017514 -0.749097 -0.248091 0.413789
-0.011797 -0.668779 0.02537 0.216417 -0.029251 0.962206
0.116649 -0.640907 -0.095253 -0.252183 -0.085722 -0.961926
0.173612 0.451073 -0.137763 0.189637 -0.061136 -0.979496
0.150994 -0.239561 0.084878 0.129569 -0.185264 0.973248
0.153466 -0.346993 -0.07646 0.640904 0.037464 -0.766328
0.195433 -0.431277 0.027267 0.957156 -0.080905 0.277112
0.095228 -0.180716 -0.103984 -0.256056 -0.177056 -0.949302
-0.005061 -0.098244 -0.096293 0.538709 -0.383973 -0.748902
-0.053337 -0.13805 -0.10277 -0.039868 -0.173047 -0.982223
-0.560394 0.042009 0.028316 0.887884 -0.450184 -0.015302
0.052664 -0.617389 -0.01217 -0.854848 0.122685 0.48907
-0.034825 0.78007 -0.068374 -0.983458 0.010836 -0.178553
0.073817 -0.370687 0.048173 -0.429389 -0.20207 0.864127
-0.202631 0.447864 -0.083728 -0.364511 0.42214 -0.828529
0.070667 -0.284776 -0.083059 -0.680134 0.013038 -0.731989
-0.109303 -0.380705 -0.057126 -0.710106 -0.026587 -0.703342
-0.014807 -0.417318 -0.070674 0.667724 0.145968 -0.729731
-0.013562 0.768854 -0.103155 -0.781527 -0.145689 -0.588562
0.049764 0.594334 -0.089469 0.041899 0.608478 -0.792146
-0.000426 -0.063646 -0.116768 0.248766 -0.584372 -0.77168
0.139349 0.153184 0.090672 0.679429 0.020134 0.733406
0.082248 0.003374 -0.157293 0.089245 -0.068315 -0.990647
0.043907 -0.107745 0.087699 0.568846 -0.623319 0.53394
-0.07759 0.2163 0.086468 -0.572822 0.138552 0.807765
0.147842 -0.06317 -0.121416 0.629927 -0.197778 -0.750806
-0.103344 -0.861197 0.085907 -0.5693 -0.789036 0.038491
-0.118687 -0.550772 -0.075398 -0.759395 0.122926 -0.638005
0.576833 0.068288 0.030566 -0.865443 -0.484782 0.123751
-0.031527 -0.04812 -0.126918 -0.047883 -0.446136 -0.89324
0.1185 -0.870027 -0.101437 0.041679 -0.994714 -0.090851
-0.043522 0.428536 -0.129928 -0.065852 -0.077701 -0.994441
-0.03504 0.83697 -0.009426 -0.779917 0.613182 0.104391
0.077186 0.566225 -0.110927 -0.062698 0.590685 -0.803206
0.429057 0.283996 -0.11821 0.533536 0.379038 -0.753502
-0.135973 0.050161 0.012472 -0.994638 0.097138 0.011077
-0.060841 0.269242 -0.117465 -0.429928 -0.102982 -0.89479
0.075403 -0.5841 0.01561 -0.702677 -0.089873 0.705559
0.352573 0.288952 -0.050783 -0.604875 -0.521805 0.600889
-0.378493 0.210973 -0.066927 0.198809 -0.533207 -0.807128
0.154007 -0.480022 -0.099927 0.441291 0.087803 -0.892994
-0.086403 0.556067 -0.080464 -0.41782 0.654561 -0.629883
-0.216585 0.484433 0.001486 -0.784903 0.545804 0.291823
0.154454 -0.187197 -0.091622 0.610346 -0.057198 -0.789904
0.343578 0.289968 -0.060335 -0.629975 -0.595627 0.497817
0.177223 0.169718 0.048466 0.816184 0.099542 0.567883
0.198439 0.00367 0.060541 0.876715 -0.141646 0.451587
0.458043 0.241724 -0.093828 0.60329 -0.254047 -0.752066
0.169422 0.360111 0.049177 0.802458 -0.103732 0.587405
0.074708 -0.822101 0.004944 -0.541965 -0.798826 0.130369
0.199958 -0.147539 -0.049889 0.855952 -0.013672 -0.513853
0.11459 0.137554 0.107419 0.561647 0.026649 0.825591
-0.12804 -0.685139 -0.050543 -0.996818 0.00709 0.061136
0.046707 0.793346 -0.117645 0.289728 0.172013 -0.939829
-0.440704 0.186406 -0.049528 -0.454437 0.281943 -0.841178
-0.081576 -0.578662 -0.101703 -0.217514 0.053775 -0.974445
0.066738 -0.164357 -0.094484 -0.623962 -0.153636 -0.765292
0.061837 -0.220755 0.072457 -0.683039 -0.103929 0.722815
0.025352 -0.146903 0.077859 0.842149 -0.318073 0.434971
0.415935 0.314555 -0.095124 0.692589 0.713004 -0.093355
-0.292804 0.362641 -0.075331 -0.737358 0.498063 -0.44042
0.001847 -0.438475 -0.055397 0.758098 0.040383 -0.650757
-0.036932 -0.661947 -0.099745 0.757951 0.159794 -0.595509
-0.089552 0.333096 0.068783 -0.882214 -0.010321 0.469173
0.635742 0.027273 0.085301 0.188044 -0.603824 0.332527
0.025276 -0.517372 -0.021794 0.936585 -0.030339 -0.325331
0.464899 0.251175 -0.089597 0.782667 -0.062195 -0.584043
-0.128339 -0.65064 -0.051265 -0.999285 -0.017696 0.024487
-0.00154 0.284534 -0.130479 0.130008 -0.005318 -0.99099
-0.43175 0.164316 0.03435 0.536536 -0.348002 0.730038
0.295507 0.38368 -0.018307 0.184716 -0.123431 0.966911
0.15827 -0.69432 0.017688 0.302268 -0.472047 0.826693
-0.566707 0.046851 0.022126 -0.883243 0.468162 -0.0195
-0.067938 -0.669256 -0.109271 -0.068168 0.100333 -0.989636
0.081262 -0.442283 0.021509 -0.690755 -0.271516 0.668757
-0.060341 0.466546 0.079267 -0.202561 0.390859 0.895021
-0.014895 -0.236672 0.105619 0.372736 -0.18877 0.907919
-0.139419 -0.469151 -0.009144 -0.992821 0.05568 0.072527
-0.035005 0.433912 -0.130674 0.0024 -0.076402 -0.996376
-0.197847 0.394515 0.025993 0.228862 -0.368011 0.899856
0.053553 -0.256159 -0.060318 -0.808036 -0.016025 -0.587902
-0.067132 0.051323 0.112761 -0.292751 0.081736 0.949573
0.023476 -0.127125 -0.045281 -0.157461 -0.650219 -0.721621
0.14814 -0.495048 0.062491 -0.287469 -0.197981 0.935319
0.148888 0.147277 0.081724 0.696927 0.042416 0.715869
0.034219 0.492507 0.073019 0.083474 0.508359 0.856843
0.02045 -0.696489 -0.063802 0.841508 -0.013784 -0.536991
0.011562 -0.457066 0.031445 0.801295 -0.060591 0.595057
0.027446 0.822337 -0.10535 -0.026117 0.643156 -0.764026
0.126736 -0.725758 -0.097482 0.145287 0.170077 -0.969907
0.080914 0.675803 0.024078 0.876816 -0.409509 0.223726
-0.112771 0.280819 -0.039094 -0.994627 -0.101683 -0.015902
0.347075 0.382926 -0.09573 0.900768 0.408874 0.105868
0.119644 -0.000853 0.124308 0.356882 -0.377812 0.843472
-0.031597 -0.699401 -0.105687 0.524719 0.223047 -0.820988
0.079419 0.74815 0.062875 0.648852 0.133578 0.748751
-0.13826 -0.015213 0.0256 -0.995421 0.042747 0.083582
-0.06211 0.582295 -0.057042 -0.342118 0.925137 -0.134164
0.042619 -0.37103 0.000175 -0.980368 -0.074444 0.181302
0.050682 0.522434 -0.12449 -0.244324 0.302196 -0.92044
-0.145242 0.519975 -0.080442 -0.45929 0.526805 -0.713157
0.06682 -0.077908 0.110179 0.021255 -0.629861 0.775545
0.10866 -0.609073 0.031796 -0.197659 0.220656 0.954407
-0.026896 -0.581078 0.032168 0.377516 -0.296158 0.877282
0.179719 -0.778958 0.007154 0.873231 -0.377129 0.307343
-0.038358 0.807764 -0.040461 -0.976613 -0.189287 -0.079599
0.073849 0.573858 -0.104691 -0.056975 0.634022 -0.770517
-0.041382 -0.170062 0.122812 0.043774 -0.056147 0.996583
0.069063 0.627295 0.015668 0.659853 -0.246957 0.705892
0.428892 0.292446 -0.112825 0.561849 0.494838 -0.661579
-0.059532 0.348293 -0.121048 -0.391141 -0.032677 -0.919367
0.531209 0.210324 -0.025561 -0.293198 0.91619 0.265046
-0.0552 -0.368514 -0.086614 -0.024682 -0.126802 -0.990315
0.017399 -0.74416 -0.071761 0.914784 -0.022552 -0.397659
0.024273 -0.121494 -0.053986 -0.508026 -0.535546 -0.497178
0.192991 -0.683257 -0.040202 0.789342 -0.154584 -0.592064
-0.07116 -0.428044 0.085474 0.141697 -0.253005 0.955789
-0.043863 -0.640681 0.026956 0.28911 -0.112894 0.949274
0.089297 0.702331 0.04266 0.965566 -0.206357 0.144299
0.019755 0.504545 -0.123063 -0.009637 0.01777 -0.999157
0.016405 -0.641603 0.006116 0.802762 -0.087082 0.586676
0.073658 -0.808262 -0.064303 -0.926191 0.010828 -0.369685
-0.27468 0.278603 -0.016614 0.607019 -0.64382 0.463474
-0.08393 -0.833171 0.132486 -0.429285 0.873823 0.216749
0.157207 0.361232 -0.113764 0.579169 -0.297819 -0.758537
0.166201 -0.440759 -0.085276 0.656125 0.182819 -0.732065
0.182092 0.337422 0.023353 0.89907 -0.108445 0.423973
-0.24635 0.413042 -0.082095 -0.394923 0.561547 -0.725812
0.098572 -0.626027 0.029771 -0.662092 -0.254514 0.700706
-0.139125 0.553746 0.004867 -0.442579 0.799561 0.396234
0.15022 -0.680964 -0.084938 0.644474 -0.010477 -0.764464
-0.025145 0.395446 -0.129595 -0.015808 -0.01557 -0.999634
-0.050577 -0.706358 0.014127 -0.285125 0.034803 0.953983
-0.083982 -0.481067 -0.091515 -0.47016 0.127264 -0.873206
0.047198 -0.362258 0.022468 -0.709576 -0.342365 0.594311
0.015094 -0.775188 -0.080912 0.906545 0.049572 -0.410958
-0.037632 -0.240991 -0.091642 0.195435 0.044775 -0.978894
-0.138747 0.032438 -0.00131 -0.955527 0.264319 -0.118149
0.121424 -0.567145 -0.105241 -0.18623 -0.134569 -0.970546
-0.141844 -0.07022 0.036397 -0.970127 0.027729 0.234366
-0.011806 -0.171743 0.114564 0.477661 -0.137255 0.866976
-0.30324 0.296187 0.005969 0.03612 -0.039699 0.996081
0.16341 -0.117275 0.1026 0.504483 -0.028971 0.862201
-0.033024 -0.574244 0.037024 0.421892 -0.274721 0.861798
-0.047868 -0.863917 0.097999 0.045474 -0.998572 0.022533
0.12131 0.106453 -0.122389 0.526677 0.341037 -0.776637
0.437537 0.292454 -0.102974 0.663457 0.566107 -0.486097
-0.004363 0.856724 0.016116 -0.51889 0.829921 0.202589
-0.086439 0.388932 -0.11397 -0.390034 -0.166138 -0.905495
0.198205 -0.006712 0.057048 0.877291 -0.067104 0.464782
0.077607 0.700366 0.068142 0.746817 -0.067468 0.659918
0.081744 -0.491092 -0.087906 -0.68252 -0.013303 -0.729773
0.120285 0.525666 -0.129524 0.06936 0.39014 -0.917614
-0.01312 -0.555777 -0.083123 0.678056 -0.045039 -0.731699
0.041777 0.629871 -0.068017 0.032298 0.331934 -0.937887
-0.030391 -0.54185 0.044021 0.367304 -0.214221 0.904807
-0.020552 -0.323021 -0.077447 0.683037 -0.09567 -0.724016
0.295049 0.361163 -0.029368 0.117749 -0.73002 0.664843
-0.022027 0.737188 -0.07667 -0.789576 -0.401399 -0.457048
-0.086907 0.21982 0.079203 -0.580524 0.13174 0.803357
0.07217 -0.796836 0.017273 -0.868396 -0.248586 0.426854
0.135454 -0.11644 -0.116448 0.462039 -0.242623 -0.852865
0.269433 0.50415 -0.081083 0.652373 0.654634 -0.378383
-0.119107 -0.723156 -0.073448 -0.769266 -0.129896 -0.62387
0.0085 -0.515933 0.023298 0.757821 -0.181136 0.626492
0.192448 0.482212 0.027528 0.36507 0.25298 0.895135
0.213374 -0.132117 0.010899 0.987027 -0.13049 0.082302
0.014223 0.52667 -0.120529 -0.007869 0.217974 -0.974871
-0.085347 0.157078 -0.080135 -0.617764 0.211525 -0.75688
-0.12874 -0.62714 -0.030175 -0.996279 -0.041533 0.068774
0.034745 0.048389 0.13561 0.105178 0.063926 0.992349
0.153362 -0.615264 -0.092205 0.477093 -0.164124 -0.863364
0.206911 -0.167591 0.01798 0.994417 -0.015316 0.095038
-0.114242 0.311769 0.008724 -0.975566 -0.066703 0.209043
-0.007283 -0.12257 -0.0865 0.652363 -0.248499 -0.714455
-0.003215 -0.698533 0.013717 0.803188 -0.19878 0.560628
0.02411 0.863527 0.023578 -0.057707 0.995646 0.070117
0.016582 -0.588904 -0.04763 0.795185 0.067356 -0.601787
-0.128328 0.118139 0.020485 -0.972992 0.073414 0.213974
0.199604 0.049137 -0.034252 0.9686 0.081713 -0.234142
-0.125549 -0.640255 -0.074452 -0.89051 0.008962 -0.443032
0.089473 -0.402319 0.049762 -0.590262 -0.272058 0.759256
0.168643 -0.799473 0.006434 0.9013 -0.169187 0.365018
0.097399 -0.401682 0.055422 -0.532855 -0.212568 0.817997
0.412403 0.258822 -0.127 0.094893 -0.17696 -0.974511
0.163755 -0.032587 -0.113139 0.750654 -0.071802 -0.656192
-0.546921 0.071069 0.088936 0.087694 -0.269423 0.929608
0.267562 0.509318 -0.068725 0.703738 0.705298 -0.078577
-0.055456 -0.362511 0.096797 0.197827 -0.19149 0.960779
0.061571 -0.229975 -0.073558 -0.730775 -0.117183 -0.672031
0.012863 -0.715786 -0.015595 0.771152 -0.05487 0.632394
0.007396 0.807814 0.070619 -0.499527 0.468687 0.727339
0.029381 0.53527 0.04636 0.052105 0.794015 0.604861
-0.050358 0.045127 0.120837 -0.459567 0.191019 0.866489
0.143324 -0.276946 -0.084877 0.575721 -0.096831 -0.8118
-0.093244 0.008441 0.111843 -0.517835 0.240191 0.820877
0.165574 0.3526 0.053829 0.791895 -0.088304 0.604115
0.027077 -0.349783 0.01811 0.995271 -0.054095 0.069461
0.492132 0.172406 0.006131 -0.546225 -0.800394 0.209207
-0.127176 -0.309934 -0.01693 -0.982472 0.011029 -0.178303
-0.057529 -0.841055 -0.141743 -0.179873 -0.270837 -0.935584
-0.102579 0.101444 0.078693 -0.699126 0.284358 0.652136
-0.08057 -0.568105 -0.101425 -0.246737 0.047587 -0.967269
-0.112435 -0.147058 0.101484 -0.679478 0.038233 0.732314
0.157039 -0.017342 0.103299 0.560718 0.09629 0.821166
0.041669 -0.256378 0.019301 -0.983808 -0.009286 0.172354
-0.137854 -0.088038 0.051477 -0.969648 0.013581 0.242322
-0.027293 -0.799583 -0.147585 0.443012 0.109085 -0.882716
-0.011829 0.658501 -0.014317 -0.999595 -0.013975 -0.000955
0.160361 0.169622 -0.072786 0.763166 0.067264 -0.64224
0.206684 -0.06945 -0.026887 0.951407 0.060739 -0.300567
-0.112064 0.264767 -0.033194 -0.999638 -0.019293 -0.014969
0.1822 -0.3191 -0.048114 0.753644 -0.017893 -0.656956
-0.131563 -0.576334 -0.028737 -0.968538 -0.138301 0.204316
-0.053573 -0.580106 0.045611 0.378611 -0.29069 0.878042
-0.518739 0.111537 0.091455 0.020514 0.173048 0.856934
0.009369 0.186692 -0.116971 0.139442 -0.133335 -0.980208
-0.08512 0.337179 -0.105904 -0.58331 -0.087704 -0.807456
0.140886 -0.471401 0.063168 -0.439769 -0.125089 0.887924
0.239572 0.459791 0.003353 0.537515 -0.033971 0.827201
-0.046152 -0.629137 0.029999 0.375165 -0.25094 0.890927
0.35109 0.37331 -0.125036 0.694452 0.432175 -0.574338
0.14623 -0.379811 0.075888 -0.012854 -0.064306 0.994888
0.620899 0.078388 0.064079 0.869724 0.4906 0.050229
0.014391 -0.143765 -0.051377 0.834931 -0.120209 -0.535002
0.460508 0.275279 -0.073247 0.741908 0.667596 -0.022682
0.133506 0.326511 -0.125143 0.643784 -0.134888 -0.752241
0.002577 -0.337183 -0.052677 0.725306 -0.062325 -0.685349
0.044 -0.509228 -0.029605 -0.996795 -0.009305 0.018902
-0.034888 0.835292 -0.037824 -0.710478 0.683207 -0.159849
0.175744 -0.805094 -0.062593 0.961119 -0.269689 -0.05066
0.196484 0.108712 -0.018092 0.959179 -0.102853 -0.238914
0.346471 0.306099 -0.127978 -0.296667 -0.428191 -0.844414
-0.131639 0.408597 0.02378 -0.575148 -0.764208 0.082873
-0.103402 -0.452349 -0.074073 -0.655712 0.170244 -0.733797
0.057481 -0.702168 0.023468 -0.86767 0.199659 0.454944
-0.104401 -0.708145 -0.094208 -0.71911 -0.009487 -0.693586
-0.046998 0.197528 -0.106501 -0.51555 -0.303356 -0.800404
0.013318 -0.764041 -0.081515 0.838242 0.113425 -0.531397
0.10354 -0.566808 -0.098171 -0.511148 -0.14704 -0.846135
0.238761 0.452755 -0.13394 0.00919 0.14794 -0.987683
0.047772 -0.369661 -0.047792 -0.851632 -0.00827 -0.523359
-0.121996 0.361361 -0.062128 -0.977801 -0.179824 -0.088075
-0.128652 -0.408943 -0.027704 -0.882899 0.053731 -0.462882
0.433961 0.231062 -0.032065 -0.632137 -0.485465 0.589626
-0.154407 0.525308 0.038365 -0.261067 0.438865 0.841644
-0.461362 0.138642 -0.010758 0.361243 -0.850341 -0.380699
0.046321 -0.411571 -0.002011 -0.89318 -0.180639 0.401153
0.141788 0.354026 0.077548 0.696682 -0.04747 0.715111
0.205624 -0.113399 0.04841 0.921916 -0.024591 0.385675
0.070916 -0.731023 -0.035888 -0.87318 -0.105259 -0.468627
-0.056226 -0.083052 -0.112058 -0.173603 -0.232084 -0.955246
0.558218 0.139521 -0.013776 0.607707 0.122268 -0.783747
0.181691 -0.270202 -0.058344 0.680237 -0.231071 -0.693947
-0.262612 0.281812 -0.04911 0.723493 -0.686441 -0.050175
0.046861 0.865858 0.013491 0.220765 0.942527 0.241264
-0.08202 0.094855 -0.100487 -0.649874 0.208444 -0.730765
-0.117125 -0.643622 0.019335 -0.89618 -0.060291 0.439133
-0.12852 -0.307826 0.012206 -0.999809 -0.017136 0.004097
0.18776 0.311165 -0.002132 0.97127 -0.157104 0.171723
0.18106 0.276257 -0.027675 0.969226 -0.056953 -0.231783
-0.292337 0.336195 0.005457 -0.286997 0.181797 0.938606
-0.003219 -0.3291 -0.059606 0.723343 -0.070321 -0.686845
0.043459 -0.396815 -0.036922 -0.979299 -0.037712 -0.184855
0.630448 0.034049 0.05978 -0.917759 -0.365233 -0.020509
0.503781 0.225841 -0.060074 0.645855 0.747491 -0.140801
0.15917 -0.566656 0.042942 0.108153 -0.155259 0.978467
-0.314014 0.237891 -0.015035 0.623225 -0.763237 0.163349
0.110529 0.045923 0.116599 0.431163 0.207351 0.874904
-0.105568 -0.390713 -0.060111 -0.716836 -0.098454 -0.690058
0.15444 0.561795 -0.094287 0.369604 0.704616 -0.605141
0.089234 -0.825917 0.050906 -0.98602 -0.032693 0.130148
0.007294 0.788804 0.08002 -0.405969 0.253682 0.873095
-0.020755 -0.425223 -0.077378 0.670176 0.158113 -0.724601
-0.099894 -0.070959 -0.088948 -0.70121 -0.233646 -0.673291
-0.093492 -0.489136 -0.087216 -0.563617 0.13148 -0.814191
0.091144 0.506631 -0.1359 -0.101233 0.164799 -0.980363
-0.044473 -0.775704 -0.139786 -0.025612 0.439699 -0.894017
-0.065356 -0.170504 0.120057 -0.240354 -0.074055 0.966152
-0.06229 -0.856193 0.153709 0.266029 -0.753235 0.582258
0.105604 -0.344423 -0.100424 -0.058452 0.029113 -0.990666
-0.070748 -0.861351 -0.119945 -0.142172 -0.966367 -0.199976
0.045934 -0.459991 -0.045125 -0.929155 0.013771 -0.353255
0.096622 0.501329 0.059793 0.227681 0.478568 0.847294
0.062741 -0.682404 -0.04279 -0.811605 -0.119969 -0.571527
0.170443 -0.50796 -0.090171 0.676787 -0.019955 -0.735694
0.172264 0.375905 0.048303 0.772009 -0.086027 0.629602
0.325411 0.438176 -0.102214 0.614285 0.699179 -0.363673
-0.101759 -0.838087 -0.067265 -0.877417 -0.442601 -0.168302
0.08687 0.724228 -0.072076 0.740728 -0.443829 -0.497856
0.156489 0.194522 -0.07483 0.761222 0.034066 -0.647533
-0.143528 -0.057509 0.01982 -0.996944 0.042837 0.058422
0.232192 0.536244 -0.022242 0.615844 0.695356 0.364484
-0.073942 -0.654315 0.035061 0.345683 -0.260889 0.901195
0.157853 -0.501457 0.061838 0.05232 -0.198985 0.971305
-0.211768 0.39015 -0.096378 -0.028119 -0.022251 -0.999117
-0.272346 0.33467 -0.096384 0.059222 -0.070227 -0.992724
0.054712 0.859168 0.034864 0.349907 0.753244 0.556371
0.046126 -0.208614 0.055142 -0.872734 -0.083095 0.473836
-0.347643 0.289022 0.001767 -0.04876 0.287468 0.954501
0.11065 -0.425699 0.055948 -0.532361 -0.303885 0.788032
0.048825 -0.605632 -0.040124 -0.895927 -0.09788 -0.427244
0.200845 -0.152531 0.051858 0.928237 -0.145111 0.340308
0.087507 0.748559 0.054859 0.835332 0.089919 0.537396
0.080637 -0.577317 0.021316 -0.684338 -0.05154 0.727253
0.41751 0.245286 -0.030697 -0.310949 -0.186136 0.890909
-0.11286 -0.295603 -0.043881 -0.862834 0.034291 -0.503659
0.186476 0.433489 0.040616 0.554622 0.019343 0.829522
0.200004 -0.393119 -0.037124 0.930971 -0.04389 -0.360812
-0.17757 0.371394 -0.001051 0.543304 -0.673013 0.500618
-0.076984 -0.328727 0.104666 0.088918 -0.084037 0.992312
0.3733 0.261619 -0.052447 -0.722431 -0.541384 0.424964
-0.104245 0.203844 -0.050118 -0.81787 0.072408 -0.567085
0.033197 0.589541 0.0263 0.043028 0.008711 0.997147
-0.209713 0.472207 0.025887 -0.679824 0.280748 0.6757
-0.114751 -0.229642 -0.040469 -0.887025 -0.030511 -0.46064
-0.457059 0.193972 -0.032167 -0.747797 0.348089 -0.558755
0.161034 0.568606 -0.028335 0.344916 0.834093 0.425354
0.027381 -0.638527 -0.021158 0.99435 -0.029829 0.077074
0.098568 0.728034 -0.042948 0.952758 -0.228883 -0.195355
-0.114249 0.125042 -0.050559 -0.886769 0.056656 -0.458677
-0.131749 -0.251857 0.058398 -0.952149 -0.149602 0.260216
0.164751 -0.43358 0.070734 0.368986 -0.107596 0.917978
0.164497 -0.547339 -0.093608 0.682774 -0.033679 -0.729851
0.011401 -0.241265 0.086606 0.813057 -0.073659 0.575876
-0.043695 0.576698 -0.087572 -0.394284 0.661283 -0.635537
-0.134021 -0.257886 0.013022 -0.987291 -0.122105 -0.092759
0.102364 0.75654 0.001538 0.931475 0.030818 0.35357
0.064343 -0.793496 0.009028 -0.776361 -0.521888 0.335766
0.172362 -0.741388 0.004278 0.332377 0.741261 0.5806
0.078174 -0.777832 -0.064386 -0.839569 0.202065 -0.504116
-0.107066 -0.702004 0.011351 -0.721891 -0.410374 0.55403
0.059255 -0.768617 -0.002522 -0.999359 0.020194 -0.016476
0.037203 0.094932 -0.141793 -0.138827 0.213244 -0.96598
0.024846 -0.326551 0.042092 0.932621 -0.11725 0.319257
0.095265 -0.773733 0.028348 -0.261598 0.756113 0.574347
0.057818 -0.228584 0.067186 -0.702448 -0.133977 0.698447
-0.112266 -0.337538 -0.04918 -0.796748 0.077413 -0.598255
-0.147139 0.508198 0.050712 -0.20928 0.37747 0.901863
0.122569 0.071655 -0.132947 0.549369 0.244976 -0.798572
0.077302 0.68181 0.062111 0.846608 -0.397755 0.349352
0.048437 0.23221 0.127483 0.106146 0.067644 0.990877
0.095883 0.738976 0.026763 0.962693 -0.12375 0.237766
0.052219 -0.596298 -0.046411 -0.826075 -0.022243 -0.561102
-0.043274 0.177408 -0.102645 -0.468587 -0.278295 -0.834053
0.061428 -0.67387 0.018688 -0.532413 0.310157 0.780062
0.196149 0.089995 0.004164 0.963092 0.223178 0.13575
0.013229 -0.373047 -0.03934 0.750848 0.023752 -0.659749
0.146971 -0.869147 0.091164 0.251299 -0.963362 0.008355
0.186207 0.177137 0.02801 0.920531 0.223675 0.312866
0.162972 -0.758865 0.023775 0.126631 0.083463 0.980998
-0.037941 -0.863011 0.101095 0.204793 -0.968176 0.065625
0.156283 -0.845602 0.163527 0.812668 0.459866 0.345005
0.022427 0.815124 -0.110921 -0.09545 0.544249 -0.827529
-0.034523 -0.288262 0.100573 0.340555 -0.20899 0.915866
0.164652 -0.863458 0.086293 0.146352 -0.986176 0.000524
-0.085743 -0.257057 0.110726 -0.158019 -0.040989 0.986504
0.187921 0.532713 0.007236 0.268589 0.604161 0.750091
0.088627 0.616763 -0.048328 0.729393 0.598187 -0.319888
-0.115118 -0.104753 -0.062906 -0.771095 -0.106479 -0.62747
0.174499 0.512733 -0.126999 0.142625 0.416601 -0.894983
-0.000466 0.502727 -0.124155 0.108487 0.096827 -0.988271
0.162749 -0.826029 -0.081091 0.829512 -0.53495 -0.095426
-0.315986 0.342058 -0.072801 -0.580201 0.676196 -0.444867
-0.005154 -0.817071 -0.006799 0.968154 -0.019303 0.239059
0.156694 -0.500653 -0.099821 0.473612 -0.002825 -0.880303
0.207038 0.022099 0.016066 0.999392 0.030886 0.01411
0.200008 0.394284 -0.061409 0.979001 -0.191031 0.016651
-0.002353 -0.215868 -0.072404 0.617669 0.025336 -0.783163
0.625344 0.064172 0.095202 0.698331 0.621021 0.318905
0.08593 0.049699 0.125919 0.435049 0.175384 0.882231
0.184412 -0.486078 -0.075615 0.778137 0.019063 -0.627483
-0.109925 0.280246 0.020307 -0.978569 -0.010173 0.201764
0.024828 -0.537256 -0.017104 0.982184 -0.078288 -0.081397
0.025467 -0.614768 -0.007091 0.946887 -0.013563 0.313612
-0.038179 -0.858009 -0.056485 0.52589 -0.839464 0.112487
-0.537432 0.067444 0.067838 0.396749 -0.905238 0.12006
-0.129246 -0.613766 -0.05597 -0.996896 -0.014893 -0.065309
-0.143856 -0.104485 0.027647 -0.995372 0.007321 0.090342
0.011593 -0.801633 -0.068747 0.975996 -0.19744 0.003175
