0.335861 0.316139 -0.044291 -0.328736 -0.37002 0.854357
-0.010837 0.403816 0.104858 0.01663 0.122867 0.991561
0.07048 -0.76502 0.012068 0.352356 0.137792 0.906027
0.160013 -0.863817 0.050391 0.228836 -0.970459 -0.028092
-0.381982 0.196433 0.009002 0.581659 -0.538483 0.598017
0.19373 0.381894 0.006157 0.967976 -0.119906 0.219967
0.114019 0.360059 0.092848 0.411808 0.080894 0.90665
0.10422 0.762593 -0.008009 0.989372 9.4e-05 0.090753
-0.089909 -0.000821 0.11633 -0.552897 0.109174 0.815949
-0.039866 -0.568633 -0.098739 0.350924 -0.025528 -0.936008
0.001831 -0.195469 0.102776 0.615997 -0.10081 0.781229
-0.064514 -0.155138 0.121 -0.112716 -0.050248 0.991577
-0.025383 -0.476173 0.061477 0.413774 -0.322528 0.849507
-0.427711 0.23629 -0.005024 -0.694388 0.640084 0.287519
0.171814 0.115385 -0.065718 0.792567 0.270199 -0.546421
-0.074047 -0.863493 0.014719 -0.020283 -0.999661 -0.014126
0.023756 0.562822 0.02669 -0.015908 0.10788 0.993543
-0.101405 0.336754 0.048256 -0.839882 -0.202657 0.50296
-0.119813 0.312754 -0.031483 -0.996402 -0.083221 0.013422
0.025249 -0.008481 0.143298 0.139748 -0.544657 0.80486
-0.225707 0.378611 -0.096485 0.062012 -0.00356 -0.996938
-0.115469 0.072223 0.074005 -0.844653 0.336636 0.4129
0.065426 -0.457294 0.005317 -0.51113 -0.002876 0.856429
0.192358 0.156421 0.025606 0.872214 0.30207 0.37946
0.122331 0.449678 0.077557 0.285082 0.352692 0.890297
0.135698 0.18714 0.093057 0.680129 0.031011 0.732411
0.080883 -0.261016 0.080001 -0.399901 -0.133568 0.90333
0.216965 0.550068 -0.072195 0.347732 0.898602 -0.260792
-0.021165 -0.404142 -0.072526 0.56088 0.151518 -0.812295
0.081821 0.695175 0.060324 0.885452 -0.15676 0.431604
0.017536 0.319208 0.119477 -0.158142 0.170631 0.970088
0.000332 0.043417 -0.14806 -0.194624 0.326211 -0.92452
-0.376804 0.194735 -0.038967 0.498024 -0.843246 -0.188896
0.205374 0.416065 -0.010192 0.558744 -0.773946 0.197563
-0.050864 0.022573 0.126026 -0.430011 0.267861 0.858622
-0.059532 0.348293 -0.121048 -0.391141 -0.032677 -0.919367
-0.073218 0.360314 0.088941 -0.579084 -0.050936 0.811801
-0.025977 -0.004036 -0.138344 -0.140851 -0.087583 -0.98588
0.110048 -0.869239 0.118226 0.01097 -0.998565 0.050382
0.387157 0.239448 -0.062962 -0.607626 -0.759467 0.225554
-0.032839 0.723363 -0.004601 -0.94819 -0.196429 0.185824
-0.06259 0.37195 0.096397 -0.442598 -0.03321 0.895147
0.046812 -0.007168 0.138297 0.067364 -0.425604 0.901066
-0.214636 0.368734 0.01449 0.171021 -0.479707 0.859591
0.08492 -0.448049 -0.089108 -0.639335 0.055434 -0.766321
0.212163 0.447217 0.019951 0.485437 -0.025242 0.86749
0.049443 0.118837 0.131344 0.127832 0.127551 0.982249
0.043944 -0.499602 -0.031981 -0.998167 -0.003307 -0.022715
0.052219 -0.596298 -0.046411 -0.826075 -0.022243 -0.561102
0.051962 -0.310481 0.045421 -0.777042 -0.102057 0.619752
0.226013 0.54954 -0.046702 0.443198 0.885426 0.134673
0.019812 -0.378209 -0.027693 0.923312 -0.008657 -0.381337
0.196394 -0.706874 -0.011225 0.951832 -0.026107 0.276413
-0.127539 0.179081 -0.009313 -0.976691 0.046145 -0.192627
0.140394 -0.835984 0.170708 0.436383 0.792295 0.423426
0.147842 -0.06317 -0.121416 0.629927 -0.197778 -0.750806
0.046224 -0.598881 -0.033534 -0.985628 -0.035188 -0.114923
0.163942 -0.139977 -0.08979 0.666533 -0.166442 -0.726442
-0.332144 0.33529 -0.056308 -0.649776 0.749005 -0.119801
-0.030881 -0.836419 0.09901 0.833724 0.458364 0.290764
0.014626 0.103145 -0.135642 -0.16487 0.280157 -0.944801
0.529859 0.206229 -0.011815 -0.071928 0.95088 0.283591
-0.003425 -0.469085 0.046755 0.718076 -0.142679 0.681092
0.076475 -0.312673 0.06789 -0.455232 -0.130474 0.878104
0.587409 0.124624 0.010492 0.771041 0.584533 -0.176825
-0.071347 0.541393 0.034527 -0.098293 0.681143 0.72501
-0.15713 0.514318 0.045033 -0.313071 0.494931 0.808548
-0.080865 0.145092 -0.086952 -0.578471 0.235818 -0.780777
0.122253 0.261408 0.097429 0.523871 0.056772 0.84956
-0.123166 -0.446902 0.049556 -0.859418 -0.187529 0.474047
0.045993 -0.037361 -0.138319 -0.304233 -0.415154 -0.857133
-0.022316 0.025444 -0.145995 -0.163002 -0.13883 -0.968373
0.016405 -0.641603 0.006116 0.802762 -0.087082 0.586676
-0.082035 0.577061 -0.032218 -0.522803 0.825622 0.102025
-0.072462 0.532226 0.042321 -0.086921 0.612407 0.785442
-0.128129 -0.220253 -0.015818 -0.921126 -0.063371 -0.383478
0.02013 -0.252102 0.066273 0.948628 -0.023108 0.315218
-0.113966 -0.561954 0.024343 -0.886584 -0.117521 0.447229
-0.092757 -0.863254 0.043305 -0.032427 -0.999421 -0.007365
0.01918 -0.413586 -0.026371 0.973701 -0.026901 -0.2083
0.492132 0.172406 0.006131 -0.546225 -0.800394 0.209207
-0.0204 -0.547663 -0.089577 0.578207 -0.006643 -0.814597
-0.029961 -0.747751 -0.122657 0.378965 0.413783 -0.824695
-0.100571 -0.525693 -0.088191 -0.557917 0.110601 -0.82202
-0.014383 0.343221 -0.128915 0.004651 0.016632 -0.999587
0.297112 0.324293 -0.076328 -0.671638 -0.733908 0.082195
0.00339 0.667211 0.069473 -0.715216 -0.540101 0.383599
-0.053425 -0.327308 -0.089385 -0.073525 -0.046156 -0.994608
0.215432 0.403425 -0.068214 -0.904952 -0.414153 0.037569
0.217647 0.518649 0.006943 0.28381 0.551422 0.784185
0.14091 0.569206 -0.018024 0.185505 0.784369 0.591747
0.618117 0.08283 0.078726 0.873816 0.469491 0.113525
0.618528 0.085861 0.028303 0.869602 0.490936 -0.046759
-0.445476 0.218683 -0.009946 -0.787925 0.59676 0.126957
0.221495 0.404937 -0.115603 -0.688911 -0.510907 -0.508416
-0.083392 -0.123998 -0.092254 -0.601546 -0.070985 -0.795252
-0.127483 0.012881 0.073414 -0.840524 0.233555 0.481305
-0.019392 -0.749623 -0.004161 0.300419 -0.520239 0.784038
-0.113648 0.294589 -0.056481 -0.974135 -0.156952 -0.153087
0.009393 0.470537 0.086131 0.032568 0.484899 0.873123
0.082758 0.351404 0.103883 0.270565 0.137327 0.95206
0.057232 -0.027636 0.131523 0.053844 -0.167295 0.982927
0.073658 -0.808262 -0.064303 -0.926191 0.010828 -0.369685
0.044165 -0.375425 0.009097 -0.969889 -0.07887 0.21867
-0.013334 0.853279 0.006438 -0.537061 0.825099 0.153067
0.064566 0.542384 -0.121654 -0.140027 0.31044 -0.939076
0.009253 0.422721 0.098879 0.118041 0.201242 0.972145
0.393147 0.23376 -0.069081 -0.593484 -0.789978 0.152192
0.137337 -0.489585 0.058906 -0.419238 -0.142333 0.895445
0.059255 -0.768617 -0.002522 -0.999359 0.020194 -0.016476
0.04204 0.448712 -0.129242 -0.26214 0.037894 -0.959828
0.078166 -0.804879 -0.075058 -0.884121 0.103012 -0.455622
0.061321 -0.047165 0.127791 0.045699 -0.380431 0.92344
-0.114415 -0.452325 0.062087 -0.844603 -0.183396 0.502647
0.158664 0.004789 -0.116107 0.724355 0.110365 -0.680191
0.192915 -0.468352 -0.061311 0.853397 0.042629 -0.51944
-0.243086 0.448487 -0.02979 -0.754115 0.655874 0.005177
-0.042093 -0.695076 -0.110292 0.349324 0.281179 -0.892732
0.026416 -0.652241 -0.0185 0.968828 -0.100692 0.192987
0.047081 0.705001 0.089821 0.440633 -0.090535 0.890292
0.01453 -0.575763 0.006105 0.633951 -0.044896 0.768125
-0.075989 0.145799 0.090515 -0.653908 0.061015 0.753885
0.156496 -0.652362 0.028495 0.197483 -0.009389 0.978304
0.130998 -0.580751 -0.104384 0.008282 -0.148745 -0.985891
-0.276261 0.268441 -0.061911 0.701131 -0.680253 -0.209516
0.066399 -0.80526 -0.004015 -0.91961 -0.355877 0.153181
0.168916 0.246434 0.050628 0.714065 0.063662 0.696901
0.165061 0.539296 0.01023 0.19597 0.659343 0.722419
0.10273 -0.091129 0.109446 -0.498674 -0.194692 0.842698
-0.097803 -0.801458 0.010279 -0.854465 -0.132458 0.464736
0.168168 -0.16699 0.094031 0.466579 -0.125051 0.87346
-0.07036 -0.588253 0.050026 0.425424 -0.220428 0.877617
-0.142749 -0.107787 0.036668 -0.977675 0.006021 0.202703
-0.097639 -0.636497 -0.099368 -0.495318 0.072544 -0.86481
0.102203 -0.750654 -0.090005 -0.670772 -0.093669 -0.725836
0.05983 -0.243848 0.065839 -0.732229 -0.140601 0.666098
0.117981 0.055943 0.110423 0.33746 0.229441 0.911801
-0.439803 0.219833 0.001444 -0.647026 0.634498 0.403689
-0.049491 -0.739062 -0.124156 0.2132 0.336057 -0.909485
0.027817 -0.191356 0.044605 0.968355 -0.03004 0.242964
0.186955 -0.292459 -0.045504 0.76694 -0.146547 -0.623892
0.24021 0.373243 -0.090129 -0.706433 -0.707477 -0.015694
0.091814 -0.824751 -0.10121 -0.882766 -0.062406 -0.441885
0.01813 0.552313 -0.111233 -0.053969 0.453683 -0.887953
0.193329 0.068252 -0.047598 0.915286 0.124026 -0.38283
-0.183168 0.361724 -0.061775 0.628512 -0.720534 -0.292285
0.185567 0.565798 -0.040913 0.319193 0.931489 0.153784
0.198638 -0.498694 0.006348 0.962712 0.046804 0.264902
0.110622 -0.078749 -0.132061 0.119063 -0.389142 -0.91197
-0.014799 -0.648473 -0.082513 0.651953 0.05033 -0.756547
0.498542 0.227663 -0.06908 0.432649 0.346283 -0.753776
-0.127991 -0.585625 -0.015987 -0.977568 -0.044606 0.205516
0.122218 -0.113914 -0.120331 0.125264 -0.19894 -0.971102
0.578174 0.137074 0.029196 0.746176 0.664736 0.02984
0.177631 -0.666374 -0.06389 0.662461 -0.262453 -0.700902
0.624563 0.05569 0.108053 0.09654 0.292622 0.917644
0.02142 0.114821 -0.132364 -0.157921 0.421946 -0.89261
0.619932 0.052417 0.098312 -0.813376 -0.461911 0.291426
-0.018987 0.164218 0.123282 -0.442801 -0.014764 0.894722
0.070784 -0.715887 -0.041945 -0.84654 -0.221585 -0.481506
-0.108588 0.096617 -0.067323 -0.827472 0.148156 -0.541175
-0.145007 0.414109 -0.084549 0.336648 -0.724773 -0.590812
-0.311403 0.322484 -0.092444 -0.341493 0.396033 -0.851169
0.391003 0.233714 -0.082411 -0.700415 -0.708843 0.017782
0.158981 0.106715 -0.087884 0.753844 0.271711 -0.596665
0.01463 -0.736038 -0.076755 0.811794 0.026523 -0.581136
0.048991 0.025172 -0.15951 -0.111571 -0.132648 -0.979395
-0.117981 0.513544 -0.098248 -0.420988 0.431474 -0.793517
0.134616 -0.305906 -0.089576 0.536879 0.006905 -0.842594
0.196085 -0.572613 0.011389 0.926483 -0.004364 0.369997
0.125469 -0.489417 0.052062 -0.554295 -0.10717 0.825343
0.124561 -0.380604 0.072642 -0.269341 -0.189608 0.943714
-0.105871 -0.837664 0.053397 -0.716424 0.694813 0.060034
0.285769 0.380066 -0.142248 -0.142841 -0.296273 -0.937906
0.615776 0.055912 0.09012 -0.864769 -0.480088 0.114247
0.043282 -0.306856 0.025051 -0.986322 -0.019761 0.153172
0.437902 0.284444 -0.109982 0.673371 0.4103 -0.61376
-0.012342 0.768482 0.061094 -0.842162 -0.083466 0.526843
0.141916 0.159384 -0.093545 0.66463 0.085676 -0.741755
0.500426 0.228854 -0.049307 0.64277 0.765544 -0.001478
0.296271 0.344173 -0.126158 -0.522598 -0.450193 -0.723104
0.07385 0.585182 0.00936 0.637004 0.105959 0.759491
0.313857 0.364004 -0.034028 0.363767 -0.244914 0.882142
-0.252991 0.294724 -0.029141 0.709611 -0.672231 0.208613
0.447752 0.205398 -0.023535 -0.806388 -0.458298 0.367763
0.198931 -0.449558 -0.041074 0.987534 0.033317 -0.138156
0.207059 0.006222 0.025756 0.99775 0.016506 0.057592
0.235559 0.378136 -0.068342 -0.696656 -0.713836 0.053588
-0.114364 -0.50978 -0.072473 -0.737857 0.112202 -0.665277
-0.042104 -0.150144 -0.097642 0.237649 -0.216087 -0.945985
-0.101068 -0.377099 -0.065747 -0.663769 -0.028328 -0.74154
0.037305 -0.358523 -0.017533 -0.992873 -0.089098 0.016635
0.035175 0.303379 -0.127886 -0.138923 0.019837 -0.988518
-0.09615 0.059145 0.096196 -0.426261 0.233712 0.873371
0.15869 -0.014693 -0.118866 0.730521 0.052201 -0.680823
-0.158154 0.529728 -0.062682 -0.437166 0.693147 -0.5692
0.181642 0.322798 -0.059775 0.856397 -0.340173 -0.386202
-0.154484 0.386235 -0.006643 0.636002 -0.693045 0.335017
0.28484 0.334493 -0.095599 -0.629877 -0.76278 -0.141904
0.006957 0.553297 -0.110194 -0.00736 0.430687 -0.902086
0.126809 -0.84483 -0.117132 0.338345 0.14072 -0.923374
0.191071 -0.170982 -0.061055 0.701025 0.016943 -0.712048
-0.108986 -0.099337 -0.071629 -0.768149 -0.119024 -0.628771
0.141395 -0.274048 0.082918 0.057953 -0.058227 0.996462
0.196358 0.358917 -0.060005 0.917123 -0.34179 -0.1902
0.175234 -0.377251 0.069691 0.442097 -0.044337 0.887667
-0.539285 0.096219 0.037646 -0.634292 0.753477 -0.170462
0.305154 0.341375 -0.043058 -0.276044 -0.517087 0.80838
0.305243 0.394284 -0.144737 0.069682 0.033472 -0.992731
-0.122166 0.398489 -0.090863 -0.799322 -0.257881 -0.539011
-0.166251 0.483501 -0.085472 -0.464736 0.282758 -0.838742
0.160622 -0.844451 -0.075919 0.977399 -0.032001 -0.205425
-0.054199 -0.82793 0.131694 0.530605 0.805285 0.229208
-0.565392 0.049535 0.052184 -0.950847 0.228545 0.178167
0.192485 0.563126 -0.053245 0.551342 0.821239 -0.034377
0.210144 -0.012268 -0.003316 0.957079 0.197483 -0.199199
-0.032292 -0.863383 0.061203 0.284422 -0.954134 0.002068
0.158975 -0.860353 0.00516 0.492748 -0.830044 -0.187341
-0.053111 0.238253 0.099175 -0.577661 0.059291 0.813397
-0.042054 -0.614576 -0.099508 0.392058 0.034986 -0.917667
-0.344854 0.322657 -0.067749 -0.580669 0.777171 -0.234571
-0.118802 0.04035 0.078342 -0.87409 0.071482 0.47852
0.444364 0.243784 -0.106179 0.61956 -0.308575 -0.721166
-0.202453 0.346126 -0.061197 0.553344 -0.755479 -0.34617
0.124209 -0.869917 0.056795 -0.00043 -0.999856 -0.016214
0.053649 0.723377 0.085535 0.698308 0.309645 0.632482
0.198787 0.115702 0.004612 0.977893 -0.196193 0.030739
-0.113933 -0.036305 -0.079921 -0.824618 -0.077151 -0.560336
0.104213 0.373848 -0.14532 0.121096 -0.037856 -0.99001
0.092938 -0.040174 0.127915 0.125841 -0.177649 0.973176
0.171477 0.467478 -0.138059 0.162674 0.064952 -0.984186
0.272576 0.504532 -0.061516 0.711363 0.702741 -0.005789
0.2177 0.527561 0.00041 0.337396 0.614788 0.712242
0.295797 0.34811 -0.040601 -0.202304 -0.666028 0.713398
-0.002353 -0.215868 -0.072404 0.617669 0.025336 -0.783163
0.130449 0.37303 0.085361 0.479244 0.052829 0.875832
0.054594 -0.270457 -0.061902 -0.827194 0.007904 -0.561233
-0.470102 0.132733 -0.00303 0.411464 -0.771375 -0.483323
0.085313 0.245543 -0.137025 -0.037416 -0.128106 -0.990717
0.23644 0.536152 -0.030893 0.683605 0.650673 0.321497
0.183726 0.293495 0.007579 0.985457 -0.088713 0.141163
0.206191 0.043324 0.01378 0.995314 0.0858 0.032162
-0.388049 0.284763 -0.024905 -0.681361 0.697973 0.21221
0.029071 0.560248 -0.107841 -0.087126 0.445593 -0.888704
0.368229 0.350862 -0.067789 0.617669 0.629427 0.467487
-0.209868 0.408373 0.034409 0.020056 -0.263018 0.961679
-0.022203 -0.437559 -0.08131 0.600064 0.113859 -0.787713
0.183136 0.201212 -0.01262 0.992858 0.068582 -0.062558
-0.115276 0.428834 0.062197 -0.267216 -0.002889 0.962236
0.007541 0.723699 -0.099048 -0.427189 -0.680341 -0.571605
-0.007165 -0.136351 0.118246 0.536859 -0.158072 0.822906
-0.159934 0.505253 -0.080772 -0.477225 0.396102 -0.783551
0.19813 -0.648837 -0.044613 0.962455 -0.090814 -0.23177
0.039767 -0.291479 0.009381 -0.947883 2e-05 0.314535
0.022452 0.700593 0.089705 -0.445748 -0.195338 0.861836
0.18518 -0.234607 0.072187 0.654285 -0.162757 0.735038
-0.041321 -0.498859 0.059347 0.335145 -0.255904 0.905639
0.002549 0.733075 -0.102199 -0.464197 -0.562029 -0.661061
0.620649 0.050275 0.037397 -0.835001 -0.543941 -0.05787
-0.022539 0.831649 0.015931 -0.720763 0.282282 0.629825
0.075529 0.833037 -0.077747 0.585412 0.636626 -0.501685
0.019331 -0.238004 -0.043394 0.91306 -0.049646 -0.400428
0.010171 -0.203303 -0.059091 0.778995 0.034655 -0.624461
0.18106 0.276257 -0.027675 0.969226 -0.056953 -0.231783
-0.030666 0.726896 0.008092 -0.993442 0.037985 0.105436
-0.032453 -0.509602 0.053268 0.356719 -0.267696 0.89458
0.12932 0.560798 -0.1064 0.244391 0.659806 -0.710362
0.351463 0.408063 -0.106503 0.744243 0.658568 -0.100563
0.086295 -0.860285 -0.062217 -0.668726 -0.741698 0.043115
0.111759 -0.399008 0.063918 -0.428314 -0.172147 0.884727
0.090688 -0.780573 -0.08552 -0.781362 0.311149 -0.537562
-0.02937 -0.272427 -0.089259 0.371937 -0.051012 -0.923741
0.057831 -0.001282 -0.154247 -0.201297 -0.11582 -0.972195
-0.12381 -0.564336 -0.071493 -0.753382 0.094211 -0.650075
-0.128728 0.083259 -0.003096 -0.999242 0.023641 -0.006981
0.023494 -0.724898 -0.045397 0.985316 -0.061947 0.145931
0.072973 -0.626723 -0.066473 -0.660213 -0.098563 -0.744535
-0.347123 0.276762 -0.08939 -0.112094 -0.145767 -0.980892
-0.128085 0.38924 -0.004644 -0.993259 -0.098448 0.038343
0.113196 -0.323644 -0.099262 0.188338 0.025664 -0.976722
0.019962 -0.749708 -0.042179 0.971167 -0.20158 0.115657
-0.004451 0.244793 0.121564 -0.367497 0.080108 0.926436
-0.056929 -0.838292 0.151701 0.559575 0.532347 0.610622
0.4976 0.167444 -0.005264 -0.645253 -0.760473 0.061052
0.083765 0.028673 -0.159729 0.165039 0.008027 -0.98093
0.110745 0.541249 0.027051 0.410056 0.575966 0.705857
-0.035696 0.741034 -0.04177 -0.893746 -0.261455 -0.362467
0.084719 0.601958 -0.005483 0.76595 0.207484 0.603349
-0.128791 -0.360107 0.002739 -0.999888 0.009907 -0.001909
0.30311 0.337195 -0.126969 -0.498046 -0.481092 -0.719939
0.100132 -0.644314 -0.087442 -0.538198 -0.081887 -0.836817
0.22172 0.545117 -0.025249 0.523876 0.759395 0.378663
0.035593 0.865631 -0.038024 -0.033771 0.956978 -0.27054
0.213615 -0.133213 0.000821 0.99087 -0.124503 -0.000488
0.096644 -0.767095 -0.085544 -0.773935 0.230703 -0.57085
-7.6e-05 -0.641327 0.021179 0.46609 -0.000886 0.884007
0.205624 -0.113399 0.04841 0.921916 -0.024591 0.385675
0.169621 -0.368199 -0.067071 0.621195 0.223401 -0.750528
-0.05493 0.193974 -0.10024 -0.526635 -0.234407 -0.816872
-0.03463 -0.155611 0.122998 0.017438 -0.053324 0.99692
0.478614 0.21995 -0.073539 0.264479 -0.295877 -0.916122
0.04223 -0.359766 0.003963 -0.971001 -0.095932 0.214779
-0.123215 -0.362795 -0.037767 -0.877284 0.075064 -0.469613
-0.010131 -0.659795 -0.079757 0.633523 0.106626 -0.766088
0.075609 0.251028 -0.136586 -0.146148 -0.10604 -0.982545
0.28941 0.36399 -0.134319 -0.295336 -0.52586 -0.794227
-0.352752 0.263586 0.007152 0.057178 0.182724 0.98147
-0.122482 -0.614865 -0.07757 -0.762473 0.063375 -0.64256
-0.297708 0.252438 -0.015671 0.697483 -0.661546 0.275237
0.158693 -0.697745 -0.077195 0.69859 -0.026132 -0.714485
0.194057 0.396438 -0.108965 0.605445 -0.559009 -0.561379
0.021638 0.735782 0.096639 -0.873846 0.110532 0.442815
0.174306 -0.852005 0.066722 0.906061 0.388292 -0.014048
-0.112379 -0.701236 0.00185 -0.849764 -0.391012 0.344305
0.295778 0.427649 -0.135317 0.271055 0.432752 -0.856766
-0.0251 -0.391574 0.082539 0.341917 -0.223116 0.912455
-0.058594 -0.179958 -0.095278 -0.14852 -0.104632 -0.978159
-0.103063 -0.761458 0.005795 -0.580579 -0.50435 0.59026
-0.015331 0.056771 0.131362 -0.351223 0.158902 0.921795
-0.17637 0.442988 -0.091958 -0.144079 0.194823 -0.969784
0.11947 0.325242 0.094275 0.500531 0.104918 0.857073
0.039275 -0.279517 0.00808 -0.957034 -0.009581 0.289235
-0.071647 -0.181545 0.116814 -0.130849 -0.034243 0.989772
0.027437 -0.615754 -0.017627 0.992926 2e-05 0.101605
0.182092 0.337422 0.023353 0.89907 -0.108445 0.423973
-0.031347 0.791479 -0.079991 -0.88199 0.01861 -0.469289
0.622336 0.074889 0.018689 0.858549 0.482554 -0.162398
0.162019 -0.17536 -0.086479 0.616313 -0.045448 -0.786171
0.097531 -0.806394 -0.107425 -0.771927 0.112641 -0.623749
-0.115899 -0.420439 0.071305 -0.756409 -0.252207 0.602878
-0.078598 -0.132532 -0.094951 -0.552077 -0.097666 -0.827694
-0.041194 0.030581 0.128595 -0.319396 0.165845 0.928827
0.045018 0.105492 0.134867 0.106123 0.092836 0.980614
0.027193 -0.656801 -0.02922 0.9966 -0.03226 0.041397
0.399411 0.306303 -0.123681 0.319221 0.282171 -0.885984
0.205421 -0.271778 0.004228 0.999941 0.00327 -0.004064
0.090529 0.204335 -0.123542 0.133086 -0.444886 -0.883439
0.550177 0.171144 0.011291 0.79625 0.600545 0.041446
0.170522 0.456092 0.047198 0.638963 0.149397 0.754508
-0.160983 0.480838 0.055034 -0.244082 0.108333 0.962233
0.204207 -0.505635 -0.012075 0.975323 0.103064 0.158638
0.182697 -0.473409 0.053117 0.875865 -0.107694 0.468195
-0.061734 -0.30936 0.104634 0.149435 -0.086083 0.984697
0.372363 0.270267 -0.045736 -0.590696 -0.450441 0.660703
-0.032635 0.504479 -0.124797 -0.058188 0.31184 -0.948209
-0.015935 0.119525 -0.124396 -0.201687 0.409396 -0.889649
-0.024291 -0.857111 0.050071 0.847864 -0.49106 0.024418
-0.0257 0.470238 0.08422 -0.134863 0.39638 0.907241
-0.501365 0.141881 -0.016016 -0.878272 0.097557 -0.40046
-0.021361 0.846348 0.005756 -0.779771 0.547406 0.257182
0.028205 -0.318156 0.019935 0.998107 -0.033715 0.04479
-0.04431 0.421795 0.096219 -0.209865 0.237051 0.947653
0.068429 -0.585953 0.00864 -0.652358 -0.142186 0.744257
0.011416 -0.204713 0.091636 0.828722 -0.082666 0.552906
-0.045964 -0.661563 0.024865 0.187369 -0.173004 0.965993
0.042814 0.789088 0.083272 0.073661 0.304574 0.948603
-0.458659 0.18275 -0.037186 -0.623297 0.403072 -0.66868
0.025813 -0.579118 -0.028109 0.958928 0.099186 -0.23747
0.154124 0.215859 -0.077868 0.791107 -0.069748 -0.606673
-0.034202 0.225988 0.11115 -0.357939 0.053578 0.928774
0.126365 -0.822208 0.096026 0.082777 0.969314 0.223631
0.263886 0.404298 -0.139948 -0.227783 -0.103608 -0.966714
0.18175 0.148857 -0.036665 0.853083 0.014649 -0.521308
-0.05069 -0.72928 0.023599 -0.430257 0.457213 0.7751
0.482789 0.217087 -0.008672 0.484663 -0.041738 0.833768
0.33713 0.424503 -0.104119 0.726575 0.664011 -0.15582
0.122947 0.214601 0.099369 0.540687 0.036356 0.839911
0.021445 -0.42661 -0.010385 0.987306 0.102831 -0.102993
0.03187 -0.1155 -0.078763 -0.789577 -0.34486 -0.506137
0.210772 0.412464 -0.071437 -0.115863 -0.983032 0.016038
0.089473 -0.402319 0.049762 -0.590262 -0.272058 0.759256
-0.035265 -0.58833 0.03326 0.398014 -0.287831 0.870146
-0.144334 -0.105719 0.005244 -0.999275 -0.003739 -0.031664
0.059299 0.731165 0.078646 0.532484 0.341777 0.768187
-0.223745 0.356362 -0.090785 0.323319 -0.452533 -0.82853
0.007294 0.788804 0.08002 -0.405969 0.253682 0.873095
-0.024534 -0.810627 -0.145935 0.450719 -0.129784 -0.87743
-0.049068 -0.319823 0.100512 0.299691 -0.105883 0.947878
0.182274 0.006462 -0.080883 0.869545 0.068564 -0.483263
-0.103604 0.189531 0.065468 -0.769571 -0.045226 0.634338
0.079113 -0.749013 0.024069 0.074226 -0.378018 0.917819
0.052944 0.49756 -0.128455 -0.162534 0.059707 -0.984618
0.088443 -0.030744 0.129349 0.113133 -0.063363 0.991328
0.181211 0.443528 0.042562 0.499643 0.121747 0.856859
-0.006426 0.730627 -0.094875 -0.550991 -0.489243 -0.670384
-0.067408 0.116206 -0.104215 -0.515309 0.274933 -0.81052
0.24127 0.382258 -0.041198 -0.557338 -0.733069 0.389621
-0.34005 0.328019 -0.028622 -0.680097 0.722913 0.11631
-0.113817 -0.485931 0.045815 -0.859604 -0.240554 0.450439
0.146971 -0.869147 0.091164 0.251299 -0.963362 0.008355
-0.495776 0.127743 -0.008297 -0.163567 -0.794389 -0.535022
0.165047 0.131368 -0.070709 0.83912 0.15113 -0.521544
-0.170608 0.397609 -0.090185 0.439583 -0.392789 -0.800354
0.001125 0.602774 -0.078379 -0.254703 0.660675 -0.704303
0.032873 0.143825 0.132076 0.040466 0.035211 0.998163
0.475679 0.240723 -0.079195 0.569552 -0.1115 -0.811365
-0.067994 -0.693113 0.019197 0.239608 -0.317656 0.91724
0.183159 0.479106 0.032866 0.477908 0.310694 0.82092
-0.00365 0.679906 -0.051813 -0.7218 -0.351566 -0.595656
0.119897 -0.606816 0.033682 -0.17556 0.125823 0.967551
0.097343 -0.042414 -0.145714 0.051177 -0.319764 -0.945229
0.178234 0.204728 -0.036075 0.924477 0.020022 -0.380368
0.20542 -0.270083 0.014008 0.999766 0.00225 0.019563
0.166145 -0.371114 0.073068 0.258245 0.00032 0.965225
-0.009079 -0.458404 0.055227 0.672128 -0.222876 0.705765
0.30808 0.315941 -0.106588 -0.6413 -0.691102 -0.307677
-0.235559 0.317377 -0.057408 0.707207 -0.648284 -0.2599
-0.001897 0.371207 -0.128649 0.065249 -0.019564 -0.997525
-0.006039 -0.263391 0.095541 0.464687 -0.211873 0.858617
0.156314 -0.831252 0.097896 0.631766 0.763626 0.126167
0.172247 0.347511 0.043235 0.827068 -0.060837 0.558017
-0.095299 -0.167605 -0.074522 -0.702261 -0.113303 -0.70235
0.13153 -0.143023 0.109471 0.191096 -0.19635 0.960938
-0.098171 0.305634 0.055256 -0.871009 0.191555 0.451151
0.295507 0.38368 -0.018307 0.184716 -0.123431 0.966911
-0.151811 0.421512 0.037929 -0.407594 -0.50244 0.759281
-0.084214 -0.227724 0.111938 -0.189475 -0.047682 0.980596
-0.083003 0.101785 0.093605 -0.598567 0.201178 0.7745
-0.056555 -0.561862 -0.103192 0.08298 0.013693 -0.995163
-0.092444 -0.424413 -0.072615 -0.551254 0.328243 -0.765698
0.180542 0.023738 -0.084037 0.817089 0.012289 -0.572899
0.088643 -0.828114 0.021199 -0.940311 -0.338129 0.03076
0.577123 0.072 -0.016509 -0.730624 0.255659 -0.419443
-0.004506 -0.054788 -0.122874 0.082602 -0.517994 -0.850967
0.057811 -0.199073 0.071461 -0.679138 -0.108736 0.725665
-0.06857 0.062906 0.11107 -0.355429 0.165388 0.916989
-0.056741 -0.020155 0.127256 -0.286002 -0.171575 0.916807
0.232944 0.40235 -0.020962 -0.284218 -0.555518 0.756695
-0.071373 -0.497482 -0.097599 -0.180449 0.082049 -0.979555
-0.124973 -0.303009 0.060974 -0.963613 -0.18672 0.19076
-0.048237 0.286912 0.099234 -0.579894 0.08192 0.810097
0.158873 0.18393 -0.072968 0.761552 0.06238 -0.644996
0.100181 0.495743 -0.138746 -0.130618 0.293249 -0.94302
-0.087202 0.404721 0.079258 -0.626851 0.004344 0.778859
0.046389 0.174469 -0.117696 -0.107284 0.272918 -0.954724
-0.072624 0.0781 -0.113853 -0.573609 0.269501 -0.77256
-0.118676 -0.694428 -0.004879 -0.90304 -0.313322 0.25299
-0.02267 -0.679889 -0.094292 0.571302 0.223758 -0.789098
-0.109447 -0.550696 -0.084686 -0.635394 0.128345 -0.760891
-0.192673 0.491952 -0.062543 -0.607438 0.508246 -0.61046
-0.001778 0.124358 0.129435 -0.186172 0.014079 0.981135
0.148444 0.105868 0.083305 0.586969 0.086617 0.802676
0.274392 0.469484 -0.115592 0.481527 0.627713 -0.611211
-0.124184 -0.46568 0.038799 -0.825482 -0.26457 0.498527
0.280959 0.372771 -0.137881 -0.215509 -0.508817 -0.828454
-0.132393 -0.199947 -0.01101 -0.904178 -0.111123 -0.412355
0.115683 0.210169 0.104179 0.48246 0.04156 0.874923
0.088233 -0.615501 -0.080498 -0.63937 -0.083332 -0.76328
-0.003531 0.615948 -0.063124 -0.503538 0.602562 -0.618851
0.139067 0.127086 0.091659 0.666568 0.02203 0.745087
-0.08912 -0.236305 -0.076778 -0.717228 -0.040881 -0.69551
0.196554 -0.487292 0.01116 0.94835 0.043236 0.309598
-0.082637 0.505612 0.057194 -0.157219 0.398859 0.902063
-0.262981 0.41869 -0.059066 -0.684806 0.674494 -0.263335
-0.049385 -0.199377 -0.093977 0.036654 -0.108266 -0.987366
-0.048545 -0.591744 0.039061 0.481402 -0.291019 0.826746
-0.115901 -0.492881 -0.068326 -0.748174 0.097749 -0.655672
-0.421475 0.237938 0.002418 -0.580859 0.56328 0.577988
-0.183855 0.485651 -0.074413 -0.510115 0.415508 -0.750583
-0.012894 -0.428514 -0.070783 0.719044 0.087352 -0.688673
-0.022231 -0.732664 0.018717 0.4376 -0.546314 0.702748
-0.098234 -0.325214 0.103846 -0.29927 -0.056838 0.944
0.010477 0.847666 0.047853 -0.420132 0.596967 0.677535
0.190555 -0.748288 -0.027143 0.886419 -0.253649 -0.360053
0.131555 -0.000334 0.120349 0.380716 -0.226666 0.89613
0.048183 -0.260793 -0.052124 -0.823734 -0.005764 -0.566781
-0.095786 -0.661772 0.03637 -0.176664 -0.33185 0.916813
0.13162 -0.068067 -0.13062 0.379308 -0.273139 -0.882738
-0.469487 0.156827 0.05237 0.359842 0.606355 0.705065
-0.067374 -0.410065 0.089063 0.132075 -0.169598 0.976344
-0.105898 0.269938 -0.075754 -0.876622 -0.090679 -0.468075
-0.122759 -0.625983 0.004316 -0.955897 -0.040063 0.287751
0.144788 -0.26232 -0.085803 0.533301 -0.105971 -0.83911
0.458526 0.213887 -0.08003 0.618666 -0.408672 -0.663322
-0.091319 -0.190131 0.112333 -0.203153 -0.052832 0.977309
-0.147662 0.442863 -0.096307 -0.287766 -0.10551 -0.947852
-0.089011 -0.095945 0.113301 -0.401642 0.010712 0.915197
-0.370868 0.297409 -0.01529 -0.568553 0.723495 0.389995
-0.276741 0.334797 0.008585 -0.139547 -0.047305 0.986045
-0.031483 0.04626 0.128435 -0.195683 0.121794 0.972746
-0.128174 0.131287 -0.015427 -0.989515 0.060508 -0.129557
-0.03564 -0.417598 -0.082516 0.29679 0.251579 -0.919442
0.205186 -0.548637 -0.015251 0.975495 -0.051106 0.208838
0.128633 0.305604 -0.126417 0.600055 -0.050926 -0.798083
0.045976 -0.558455 -0.037352 -0.928416 -0.025614 -0.347945
-0.058788 -0.787183 -0.142649 -0.297809 0.357223 -0.881818
0.06595 -0.760041 -0.032845 -0.864723 0.202381 -0.457675
-0.077239 0.339985 -0.111704 -0.511504 -0.075942 -0.855802
0.009143 -0.060604 -0.116293 0.143837 -0.670046 -0.726936
0.206878 0.027255 0.002142 0.999557 0.02285 -0.017644
-0.070946 0.247228 -0.106576 -0.621406 -0.242121 -0.744844
0.054435 0.051146 -0.155378 -0.134108 0.31399 -0.938248
0.008883 -0.379764 0.057443 0.832313 -0.113344 0.541248
0.639133 0.042947 0.076462 0.928644 0.332322 0.142101
0.081138 0.659972 0.009357 0.941663 -0.17197 0.270227
0.098607 -0.151293 0.100909 -0.53177 -0.080909 0.842009
-0.135589 -0.058153 -0.035909 -0.945329 -0.008269 -0.319907
0.164028 0.551726 -0.100462 0.31106 0.718079 -0.621861
0.26917 0.362359 -0.122867 -0.376437 -0.739094 -0.553032
-0.056473 -0.582949 -0.103291 0.128778 0.001238 -0.990603
0.158439 0.359704 0.062121 0.67773 -0.108886 0.72694
-0.032803 0.214395 -0.121246 -0.3261 -0.300028 -0.893583
-0.11387 0.559504 -0.052667 -0.438893 0.794655 -0.415829
-0.451059 0.17275 0.033353 0.051047 0.722665 0.6892
-0.022687 -0.829547 -0.135316 0.615416 -0.601131 -0.496488
0.191328 0.060232 0.058163 0.795496 0.3232 0.510663
0.137957 -0.420372 -0.097674 0.437721 0.115432 -0.888651
0.231927 0.51824 -0.000631 0.559784 0.524193 0.63503
0.175412 0.415372 0.048933 0.593998 0.00252 0.803283
0.189849 0.468409 0.032744 0.462513 0.214865 0.859345
0.121974 0.142307 -0.110229 0.454388 0.227465 -0.860084
-0.142001 -0.068459 -0.013787 -0.968083 0.020162 -0.242904
-0.006748 0.018968 0.139387 -0.175597 0.164553 0.970437
0.180011 0.13844 -0.040284 0.847901 0.091908 -0.517895
0.199465 -0.60904 -0.019281 0.997591 -0.061595 0.028278
0.204992 -0.059674 -0.031537 0.948481 0.021831 -0.315321
-0.037365 0.798134 -0.027825 -0.997717 -0.021241 0.034224
-0.134621 0.402237 -0.059319 -0.161454 -0.919304 -0.187908
-0.297178 0.269707 -0.083957 0.386842 -0.543842 -0.742794
0.155474 -0.351884 0.076271 0.235621 -0.052576 0.970146
0.056007 -0.562463 -0.053923 -0.802914 -0.063852 -0.591973
-0.028959 0.80908 -0.082948 -0.871625 0.157777 -0.455979
0.571853 0.086552 0.058804 -0.752867 -0.312056 0.558068
-0.110688 0.224559 0.051298 -0.903794 0.18425 0.379874
-0.025184 0.703951 -0.008951 -0.847727 -0.511057 -0.093411
0.016882 0.793066 0.08091 -0.212069 0.289179 0.930948
-0.127514 -0.477234 0.02619 -0.869775 -0.197272 0.45188
0.149619 -0.21856 -0.089727 0.519734 -0.130113 -0.844079
0.042814 -0.400801 -0.021115 -0.994339 -0.096524 0.009708
-0.094899 -0.116153 0.112046 -0.363387 0.058836 0.928643
-0.299425 0.245739 -0.042297 0.643682 -0.760798 -0.034777
-0.082586 -0.482056 0.0791 0.137767 -0.118778 0.95815
-0.042218 0.458296 -0.131973 -0.019217 0.038629 -0.99763
0.128499 -0.192219 0.096831 0.083933 -0.152054 0.984722
0.281372 0.428661 -0.013041 0.395949 0.076066 0.913161
-0.068242 -0.097443 0.121269 -0.250106 -0.001776 0.968209
0.105818 -0.722291 -0.093821 -0.399084 0.060947 -0.914343
0.021485 0.241365 -0.125541 0.077075 0.01737 -0.996268
-0.114793 -0.54263 0.027844 -0.866532 -0.092462 0.489177
0.293391 0.447187 -0.123435 0.470099 0.592713 -0.653291
-0.448229 0.1594 -0.040715 0.152004 -0.878034 -0.434758
0.192334 -0.16115 -0.059755 0.720539 -0.021482 -0.69227
-0.047922 -0.685991 -0.10983 0.320598 0.228684 -0.917923
-0.128459 -0.350986 -0.001385 -0.999153 0.037326 -0.01186
0.099602 -0.061181 -0.138858 0.034881 -0.33345 -0.940923
0.153892 -0.738771 -0.082164 0.776985 0.087874 -0.621655
0.191335 -0.028005 -0.067737 0.906257 0.005626 -0.422324
-0.208326 0.472275 -0.062433 -0.793213 0.369454 -0.441802
-0.287192 0.256806 -0.056093 0.66319 -0.739829 -0.096824
0.015281 0.860007 -0.054789 -0.281055 0.873171 -0.394605
0.142949 -0.434058 -0.097522 0.402849 0.166218 -0.899958
-0.112769 -0.689758 -0.087497 -0.658583 -0.10934 -0.74381
0.173868 -0.423856 -0.07471 0.654413 0.14652 -0.741357
-0.144047 -0.068234 0.013736 -0.999664 0.01908 0.011915
0.06366 -0.75197 -0.024942 -0.868475 0.15425 -0.468458
-0.482691 0.15742 -0.034075 -0.619248 0.478346 -0.620963
-0.111911 0.10953 -0.057662 -0.892043 0.094287 -0.441352
-0.2195 0.436338 -0.081505 -0.437107 0.455725 -0.775032
0.201325 -0.305917 -0.021151 0.895748 -0.041339 -0.441451
0.090952 0.78313 -0.085605 0.863867 0.047598 -0.501116
-0.536623 0.066672 0.05509 0.365146 -0.928537 0.02393
0.119684 -0.187131 0.098034 0.01774 -0.145716 0.988124
-0.004856 -0.667683 -0.077303 0.520397 0.160328 -0.8376
-0.131392 0.029203 0.058089 -0.857574 0.179807 0.480166
-0.010417 0.611395 -0.00029 -0.882116 0.08834 0.460427
-0.176497 0.461805 -0.087386 -0.308988 0.272243 -0.91007
0.123068 -0.447842 0.056122 -0.565208 -0.223194 0.791554
-0.183701 0.388166 0.019337 0.29266 -0.476637 0.827514
-0.134076 -0.231125 0.055828 -0.977175 -0.080686 0.193577
0.158361 0.574469 -0.047364 0.307676 0.947885 0.056303
-0.013783 -0.757831 -0.115046 0.68199 0.337133 -0.647987
0.087362 -0.086127 0.103701 -0.284304 -0.514614 0.805453
0.063775 -0.282941 -0.074573 -0.79234 0.009998 -0.609877
0.009678 0.136842 0.131089 -0.122541 0.03328 0.991762
-0.111412 -0.592291 -0.085858 -0.655028 0.025847 -0.75515
0.029347 0.060665 0.13536 0.083956 0.062283 0.99438
-0.081132 0.298569 -0.105723 -0.527518 -0.05775 -0.827416
-0.060628 0.131145 -0.10328 -0.381557 0.277379 -0.880658
0.614799 0.057848 0.040757 -0.800744 -0.597032 -0.041361
0.198796 -0.227747 -0.049761 0.821995 -0.117012 -0.550566
0.19793 0.054678 0.049824 0.918708 0.220204 0.317767
0.105361 0.78025 -0.021313 0.999869 -4e-05 0.006775
0.055495 -0.271341 0.056489 -0.730403 -0.125126 0.671322
-0.115034 -0.254497 0.095549 -0.792529 -0.032983 0.580373
-0.119352 0.228106 -0.002937 -0.971816 0.21761 0.015534
0.044282 -0.406834 -0.040118 -0.974813 -0.016715 -0.209013
0.123979 -0.167624 0.103391 0.045885 -0.321403 0.944489
-0.111511 0.293578 0.016515 -0.983271 -0.060217 0.170703
-0.019966 0.50347 -0.125462 0.008812 0.234854 -0.970091
-0.104514 -0.832185 -0.039155 -0.997877 -0.030748 -0.021191
0.021145 0.836307 -0.091368 -0.159037 0.715193 -0.679902
0.064336 0.174748 0.127745 0.182262 0.036584 0.977622
0.074431 0.857646 -0.023857 0.667365 0.740057 -0.077086
-0.097386 0.045701 0.098649 -0.367 0.186236 0.911058
0.254598 0.453724 -0.004494 0.365146 -0.229483 0.901776
0.18714 0.371003 -0.093851 0.654395 -0.488015 -0.577355
0.109249 0.732637 -0.022207 0.828784 -0.340553 -0.360329
0.068305 0.517429 0.056591 0.068558 0.534933 0.840208
0.089952 -0.850155 -0.092483 -0.970639 0.049159 -0.233071
0.012755 -0.118458 -0.063374 0.665622 -0.384617 -0.633942
0.172264 0.375905 0.048303 0.772009 -0.086027 0.629602
0.581377 0.058647 0.029224 -0.891634 -0.426684 0.127588
-0.131218 0.065694 -0.011801 -0.944814 0.299108 -0.100332
0.084602 -0.560881 -0.084852 -0.580784 -0.070413 -0.801148
0.206369 -0.120167 -0.037181 0.922599 0.018504 -0.383633
0.157328 -0.860414 -0.035394 0.579814 -0.779841 0.159468
-0.055424 0.368982 -0.123636 -0.358929 -0.061483 -0.931267
-0.402496 0.182273 0.018193 0.620379 -0.500855 0.495298
-0.125459 0.204998 0.004615 -0.917504 0.384003 0.005226
-0.108218 0.063161 -0.077701 -0.826217 0.123671 -0.54933
-0.134285 0.047214 -0.019193 -0.975064 0.119451 -0.182023
-0.00906 0.269849 -0.130956 0.055031 -0.05005 -0.996765
-0.117527 -0.780955 -0.071757 -0.94232 -0.052773 -0.325663
-0.009818 0.844553 0.032856 -0.739243 0.424494 0.491999
0.341718 0.370328 -0.056802 0.640529 0.47709 0.593567
-0.057726 -0.339431 -0.088184 -0.163403 -0.044792 -0.980814
0.161589 -0.622119 0.024655 0.380438 -0.097556 0.90552
0.255646 0.479367 -0.119538 0.414807 0.506415 -0.755602
0.066738 -0.164357 -0.094484 -0.623962 -0.153636 -0.765292
-0.08393 -0.833171 0.132486 -0.429285 0.873823 0.216749
-0.128393 -0.441601 0.03957 -0.921059 -0.100883 0.375906
-0.101594 0.564277 0.0019 -0.105493 0.905201 0.39934
-0.07282 -0.825921 0.104906 -0.162826 0.981487 0.099611
0.46356 0.226731 -0.012685 -0.260746 0.28314 0.916599
0.038578 0.129002 -0.128128 -0.110103 0.422944 -0.899375
-0.004733 0.151739 0.128811 -0.20883 0.011073 0.975494
0.156159 -0.836868 0.131873 0.643658 0.739701 0.195511
0.023157 -0.287596 -0.021644 0.843353 -0.074883 -0.512578
0.182906 -0.110909 -0.074098 0.786345 -0.081491 -0.611896
0.170685 0.446306 0.048771 0.55374 0.116539 0.822746
-0.114303 0.089482 0.06506 -0.883307 0.16586 0.434305
-0.07041 0.222365 -0.097907 -0.691818 -0.251838 -0.676081
-0.116622 0.338582 -0.074727 -0.878083 -0.207602 -0.427669
0.143912 0.266352 0.078225 0.754158 0.07057 0.652855
0.145617 0.486415 0.053761 0.32842 0.526864 0.783119
-0.054125 -0.622582 0.035005 0.383814 -0.170323 0.906967
0.182369 0.264682 -0.019336 0.990682 -0.002465 -0.126205
0.137027 0.569972 -0.092695 0.369978 0.693704 -0.615917
-0.128026 0.139273 0.009823 -0.992333 0.049339 0.104427
-0.072562 -0.368775 0.098125 0.134223 -0.184785 0.973497
0.090544 0.576991 -0.102284 0.138573 0.670491 -0.728463
-0.114247 -0.684817 0.009552 -0.868981 -0.172997 0.450557
-0.13555 -0.197772 -0.00142 -0.97246 -0.085059 -0.21167
-0.139024 -0.174737 0.00167 -0.948124 -0.215828 -0.226629
-0.126719 -0.180172 -0.029178 -0.871932 -0.140024 -0.468443
-0.309831 0.325597 0.002489 -0.260196 0.25777 0.927419
0.026367 -0.341726 -0.012432 0.967245 -0.061433 -0.228841
0.016083 -0.319394 -0.037992 0.886819 -0.021999 -0.457958
0.059731 0.071218 0.130187 -0.008158 0.062956 0.995453
0.064256 0.403784 -0.138865 -0.353922 0.04667 -0.932598
0.120948 0.172946 -0.105538 0.427271 0.078458 -0.900112
-0.040437 -0.42548 -0.086372 0.207764 0.248423 -0.944772
0.003315 0.632364 0.016478 -0.725485 -0.188583 0.660641
0.14106 -0.325099 0.080039 0.10015 -0.062952 0.992799
-0.137854 -0.088038 0.051477 -0.969648 0.013581 0.242322
-0.080787 0.466552 0.072932 -0.407125 0.277249 0.868547
0.176438 -0.219262 -0.071176 0.605917 -0.001009 -0.795263
-0.247729 0.313666 -0.073175 0.672017 -0.502794 -0.54225
-0.512839 0.129875 0.014799 -0.85126 0.473552 -0.135522
0.313921 0.307342 -0.088141 -0.703115 -0.71056 0.001091
0.048113 -0.135364 -0.0864 -0.649966 -0.302722 -0.694521
0.086949 0.402551 -0.145073 -0.119058 0.024579 -0.992321
0.183298 0.351395 0.023577 0.915428 -0.101361 0.388151
-0.083975 -0.60336 0.054183 0.375622 -0.22911 0.881674
0.039479 -0.213691 0.019329 -0.45708 -0.259188 0.675037
-0.071037 -0.003565 0.12836 -0.412661 0.061941 0.871799
0.129955 -0.045483 -0.138175 0.359639 -0.291817 -0.882613
-0.02612 -0.85117 0.083951 0.9843 -0.04298 0.166114
0.021173 -0.542793 -0.004104 0.937628 -0.095831 0.330691
0.098072 0.810048 -0.003427 0.960907 0.257153 0.085881
0.142422 0.581764 -0.062537 0.255351 0.95446 -0.091948
0.002297 0.844122 -0.073593 -0.411643 0.750331 -0.516576
0.209472 0.547425 -0.084326 0.333878 0.78641 -0.51533
0.156212 -0.554778 0.045976 0.091085 -0.350893 0.931836
-0.320041 0.258788 -0.082841 0.063163 -0.542186 -0.837451
0.129588 0.377053 -0.137431 0.41795 -0.123877 -0.89924
-0.121491 0.06555 0.060636 -0.955475 0.177195 0.234862
0.134716 -0.182661 0.097548 0.09365 -0.183767 0.977468
-0.024739 0.387192 0.105816 -0.051186 0.0653 0.996533
-0.005077 -0.107535 -0.090909 0.620997 -0.40195 -0.668931
0.628745 0.064638 0.070803 0.851477 0.513729 0.077838
-0.139817 -0.138179 0.046157 -0.948586 -0.014275 0.315815
0.077275 0.72548 0.06814 0.686439 0.10071 0.719715
0.133593 -0.293279 -0.090658 0.512164 -0.033141 -0.857754
0.130978 0.543173 0.016102 0.238688 0.676731 0.695567
0.565837 0.119563 0.053481 -0.48479 0.175212 0.849619
-0.121971 -0.654734 -0.008257 -0.985098 -0.122931 0.118323
-0.146881 0.498084 -0.090668 -0.458234 0.293504 -0.838246
-0.018132 0.249813 -0.129721 -0.039309 -0.066252 -0.996585
-0.070304 0.025609 0.118341 -0.384783 0.36477 0.845615
-0.09333 -0.581063 -0.097046 -0.462496 0.044429 -0.884939
-0.005007 0.662187 0.021082 -0.704553 -0.591428 0.389318
0.092561 -0.033759 -0.149064 0.047994 -0.351059 -0.934738
0.046377 -0.536567 -0.039889 -0.902495 -0.027424 -0.423306
0.102142 0.108048 0.116049 0.502001 0.096699 0.857145
-0.059302 0.549271 -0.101118 -0.363196 0.517816 -0.774344
0.021784 -0.744558 -0.0516 0.98035 -0.173592 -0.044073
0.092449 -0.443877 -0.094268 -0.55261 0.053016 -0.831658
-0.137095 -0.502172 -0.023888 -0.995306 -0.077656 -0.042638
0.074803 -0.55953 -0.0757 -0.726727 -0.104029 -0.678646
0.165569 0.063302 -0.095893 0.760412 0.195134 -0.618248
-0.049057 -0.75055 -0.128133 0.011563 0.368371 -0.927212
0.243167 0.526398 -0.083786 0.606848 0.643784 -0.464531
-0.056752 -0.396689 0.089457 0.164515 -0.151044 0.974658
0.072683 0.131326 -0.128653 0.066633 0.330491 -0.940594
0.171599 0.128838 -0.059913 0.839468 0.181243 -0.510144
0.147297 -0.389507 0.075314 -0.067174 -0.107731 0.990676
0.153766 0.460323 0.060581 0.59848 0.22678 0.767375
-0.042808 0.354736 0.104643 -0.218802 -0.106188 0.964958
-0.111794 0.217977 -0.03883 -0.900134 -0.150544 -0.406874
-0.072311 0.210828 -0.091906 -0.750085 -0.148551 -0.643539
-0.003231 0.714614 -0.083027 -0.571666 -0.566372 -0.590175
-0.0619 -0.644498 0.033102 0.357516 -0.221159 0.907104
0.158152 0.126192 -0.081189 0.766466 0.176931 -0.617216
0.112942 -0.580821 0.035747 -0.285924 -0.187311 0.939345
-0.43377 0.17819 0.026737 0.059094 0.573787 0.811289
-0.120557 -0.776693 -0.049166 -0.997406 -0.05741 -0.022404
0.415424 0.312269 -0.069035 0.642156 0.693625 0.31383
-0.162682 0.543356 -0.030695 -0.619773 0.765098 -0.16921
-0.019075 -0.638627 0.023007 -0.042278 0.111623 0.990961
0.014003 0.77088 -0.119734 -0.184326 -0.013448 -0.974668
0.183238 -0.03842 0.080717 0.738845 0.022857 0.673372
-0.103821 -0.146599 0.109367 -0.674919 0.007032 0.737362
0.087333 -0.599439 -0.081349 -0.659385 -0.081233 -0.747279
0.064462 -0.723843 -0.027357 -0.822113 -0.218055 -0.524038
-0.016133 -0.832163 -0.020181 0.417296 -0.884108 0.031148
-0.025423 0.328551 0.108373 -0.47214 0.288336 0.824376
-0.010837 0.374827 -0.129135 0.026144 -0.017464 -0.999409
0.000794 -0.5386 -0.067383 0.791218 0.030868 -0.610672
0.074113 -0.794254 -0.062445 -0.910978 0.10736 -0.395847
-0.019561 0.688449 -0.009539 -0.993092 -0.103136 -0.018743
0.09106 0.751778 0.046001 0.92668 -0.016858 0.372787
0.636407 0.052597 0.037076 0.888188 0.457099 -0.0182
0.553619 0.128914 -0.017813 0.369936 0.056919 -0.885668
-0.126896 0.529208 -0.083508 -0.357518 0.599036 -0.715216
-0.113933 -0.095504 0.095158 -0.740853 0.084219 0.666153
0.025212 0.458196 -0.126606 -0.062626 0.057298 -0.995975
-0.020433 -0.586948 -0.087565 0.655023 -0.039871 -0.750743
-0.140495 -0.027203 0.00688 -0.956325 0.289544 0.012777
-0.030746 -0.426352 -0.083121 0.368687 0.243247 -0.895926
0.00902 -0.099085 0.117767 0.5461 -0.23522 0.799677
-0.027596 -0.755238 -0.000406 0.594618 -0.035806 0.756558
-0.12553 -0.280919 -0.021281 -0.944606 0.01093 -0.321107
-0.031031 0.081968 0.121785 -0.242572 0.084395 0.960054
-0.129221 -0.615621 -0.034399 -0.998837 -0.029145 0.03522
-0.080258 -0.167859 -0.087689 -0.57858 -0.137879 -0.803746
-0.024539 -0.259109 0.104867 0.257742 -0.17774 0.94911
0.009151 0.261183 -0.12824 0.13536 -0.047687 -0.98961
0.089509 -0.171894 0.094166 -0.43579 -0.131794 0.889871
-0.020717 -0.823417 0.041615 0.848312 -0.412445 0.300001
-0.428199 0.238762 -0.026103 -0.730992 0.682101 0.005039
0.216553 0.552505 -0.045831 0.52902 0.832968 0.07783
0.175256 0.338525 0.037586 0.879777 -0.05004 0.471763
0.085656 0.836945 0.015936 0.76144 0.580805 0.280647
0.207391 -0.012184 0.034932 0.959318 0.125565 0.24729
0.196583 -0.466598 0.010561 0.967023 -0.04315 0.249223
0.194401 -0.528329 -0.061486 0.843502 0.005996 -0.536735
0.042331 0.610066 -0.078175 0.045651 0.709194 -0.668976
0.531348 0.199004 -0.057456 -0.133694 -0.566222 -0.811753
-0.092192 -0.177021 -0.076408 -0.693359 -0.078524 -0.716159
0.103673 0.543029 -0.124426 0.073428 0.520007 -0.850147
-0.015318 0.295922 -0.131334 0.020356 0.034311 -0.999053
-0.097186 -0.700984 0.019226 -0.306733 -0.433028 0.836474
-0.025145 0.395446 -0.129595 -0.015808 -0.01557 -0.999634
-0.501942 0.09458 0.066107 0.691287 -0.65464 0.277621
0.16793 0.572627 -0.050707 0.382118 0.894588 0.080621
0.07449 -0.234408 0.080064 -0.50183 -0.106431 0.85524
0.140978 0.379285 0.078451 0.571667 0.011909 0.819491
0.179552 0.227203 -0.032142 0.911595 0.006683 -0.410695
0.054001 -0.484759 -0.058796 -0.796947 -0.000964 -0.602757
0.14488 -0.005467 0.110899 0.495538 -0.198073 0.843032
-0.039005 0.306631 0.102453 -0.5281 0.130352 0.837825
0.017276 0.395447 0.10408 0.060806 0.209424 0.975414
0.0206 -0.61025 -0.045848 0.762964 0.128209 -0.63232
-0.334501 0.333959 -0.039149 -0.676604 0.735575 0.031753
-0.021265 -0.703689 -0.099846 0.587735 0.214411 -0.779779
0.099037 -0.510139 0.032357 -0.52435 0.012772 0.85124
-0.124504 -0.328561 0.050311 -0.981982 -0.022903 0.186634
-0.04201 -0.306659 0.099703 0.276382 -0.115386 0.952772
-0.072078 -0.450453 -0.091647 -0.253483 0.224889 -0.938698
-0.006805 0.804452 0.061911 -0.606449 0.437629 0.657509
0.114609 -0.869787 0.052894 -0.004137 -0.999642 -0.024199
0.048437 0.23221 0.127483 0.106146 0.067644 0.990877
-0.012406 0.848785 0.021007 -0.711794 0.557647 0.366719
-0.085893 -0.062712 -0.104336 -0.584993 -0.224828 -0.779227
0.151335 -0.831651 -0.103633 0.633633 -0.229483 -0.736588
-0.105132 -0.778257 -0.096203 -0.843526 0.061505 -0.533334
-0.278836 0.401954 -0.015695 -0.672771 0.682873 0.280955
0.09479 0.74556 0.034235 0.931567 -0.12824 0.331394
0.067281 -0.18127 0.081071 -0.57175 -0.03779 0.818767
0.203959 -0.543791 -0.035653 0.96652 -0.027113 -0.249112
0.016315 -0.305459 -0.038586 0.865499 -0.043413 -0.496933
-0.038413 -0.825464 0.093433 0.457116 0.839483 0.258279
0.08931 -0.852968 0.032019 -0.894683 -0.418974 -0.12857
0.38396 0.266427 -0.123578 -0.353266 -0.421619 -0.833323
-0.033748 0.195489 -0.112417 -0.36695 -0.353361 -0.860036
0.074587 -0.822788 -0.044996 -0.436799 -0.890412 -0.063564
0.296014 0.38839 -0.144611 -0.01987 -0.102346 -0.991745
-0.098149 -0.236015 -0.066685 -0.755789 -0.056217 -0.651259
-0.100683 -0.529822 0.053226 -0.85004 -0.024612 0.525362
0.004693 0.695535 0.077035 -0.71942 0.020559 0.690305
0.199376 0.070858 0.024256 0.97135 0.209609 0.105907
-0.122699 -0.149145 0.088215 -0.839102 0.031861 0.542503
0.193048 -0.211852 0.062841 0.947836 -0.035588 0.314216
-0.063203 -0.799862 0.05312 -0.175243 0.821198 0.530506
-0.082123 -0.863445 0.044425 -0.03146 -0.999402 -0.008074
-0.075849 -0.111857 -0.098971 -0.54164 -0.135615 -0.829023
-0.093342 -0.094403 -0.089069 -0.67511 -0.137986 -0.723633
-0.012356 0.79026 -0.105555 -0.641139 0.103254 -0.754861
-0.044477 0.22438 0.106002 -0.522101 0.048589 0.850888
0.024828 -0.537256 -0.017104 0.982184 -0.078288 -0.081397
-0.10296 -0.826479 -0.069468 -0.963569 -0.185525 -0.14011
-0.035648 -0.359801 0.091843 0.280196 -0.194494 0.938733
0.133436 0.311578 0.086523 0.67338 0.058596 0.733261
0.094643 -0.865756 0.058666 -0.614922 -0.780104 -0.065575
0.025455 -0.685564 -0.054751 0.964774 -0.011814 -0.260898
0.020329 0.751964 0.083784 -0.870981 0.211095 0.433218
-0.376738 0.240537 0.010675 0.053109 0.054783 0.997023
-0.044702 -0.674587 -0.105628 0.405112 0.18448 -0.894627
0.58827 0.050152 -0.014242 0.818087 -0.476467 -0.127463
0.410253 0.226346 -0.050205 -0.627463 -0.67152 0.391812
-0.128112 -0.697718 -0.050275 -0.997512 -0.007207 0.033989
-0.099191 -0.259801 -0.063374 -0.760494 -0.039402 -0.647959
0.080878 -0.367577 0.054194 -0.547662 -0.305598 0.778811
0.080006 -0.042547 0.128397 0.045332 -0.272539 0.954847
0.059535 -0.617201 -0.054202 -0.77028 -0.0597 -0.634587
0.154654 -0.816187 -0.106623 0.651931 -0.181164 -0.729185
0.206102 0.445987 -0.132541 0.058446 -0.173591 -0.980887
0.095255 0.351227 -0.144948 0.045731 -0.040663 -0.996817
0.136378 -0.342282 0.079348 0.032071 -0.049493 0.997285
0.180648 0.274488 0.020623 0.970053 0.032507 0.235693
-0.112154 0.259897 0.001465 -0.999457 0.027922 0.0136
-0.136041 0.48023 0.061576 -0.120854 0.111141 0.981966
-0.082273 -0.802204 -0.128508 -0.718696 -0.176828 -0.671282
-0.003886 0.570876 0.017609 -0.401658 0.36306 0.833288
0.019102 -0.759073 -0.049424 0.990312 -0.111461 0.059362
-0.002585 -0.735434 0.001346 0.635061 -0.374697 0.665979
0.205847 -0.231098 -0.008317 0.998028 -0.060833 -0.014484
0.200008 0.394284 -0.061409 0.979001 -0.191031 0.016651
0.350911 0.279795 -0.063752 -0.669694 -0.679259 0.298021
-0.314573 0.351535 -0.054694 -0.666132 0.720762 -0.191715
0.407173 0.222213 -0.075395 -0.613582 -0.784832 0.081526
0.067296 -0.31607 -0.078533 -0.763755 -0.021381 -0.644142
0.056476 -0.333705 -0.063716 -0.798627 -0.048776 -0.599662
-0.094 -0.355442 -0.070298 -0.789316 0.042217 -0.576611
-0.003575 0.169608 -0.115158 -0.145353 -0.161434 -0.970678
0.13178 0.341981 -0.129018 0.580295 -0.157267 -0.799014
0.187273 -0.589646 0.021691 0.628398 -0.181353 0.752886
-0.004419 -0.579476 -0.072167 0.735431 -0.037189 -0.676261
0.181526 0.36079 -0.090822 0.677934 -0.467632 -0.565502
0.182344 0.397868 -0.118032 0.300605 -0.510675 -0.804057
0.006102 -0.812207 -0.096119 0.917085 -0.277161 -0.281242
