0.329324 0.313956 -0.125554 -0.393409 -0.540689 -0.741292
0.11479 0.094202 0.1081 0.504619 -0.153047 0.846001
0.005127 0.394141 0.104844 0.047245 0.145917 0.987541
0.066104 0.648149 0.026444 0.662091 -0.343497 0.665458
-0.122707 -0.643899 -0.003352 -0.977352 -0.139379 0.154788
-0.089507 -0.828816 0.091637 -0.553859 0.823882 0.114079
0.207507 -0.049345 0.040784 0.945217 0.048204 0.320749
-0.439415 0.158821 0.030219 0.495188 -0.763791 0.387427
0.088 -0.185917 0.092059 -0.406 -0.047193 0.912072
-0.062534 -0.320643 -0.087776 -0.267069 -0.045306 -0.962606
-0.058192 -0.725489 0.017651 -0.34397 0.463935 0.814205
-0.173364 0.534346 -0.030011 -0.627063 0.766827 -0.13255
0.054803 -0.478841 -5.4e-05 -0.664656 0.00107 0.740114
0.087697 -0.843858 -0.006697 -0.965206 -0.256753 -0.030845
0.092151 -0.737363 -0.079184 -0.841794 -0.072152 -0.534516
-0.095108 -0.784924 0.010732 -0.739467 0.21365 0.573045
-0.035298 -0.564749 0.040754 0.416583 -0.219824 0.881968
-0.110088 0.276089 -0.066429 -0.962934 -0.063628 -0.25057
0.200408 -0.54068 -0.046264 0.953014 -0.012051 -0.302468
0.643493 0.030033 0.04525 0.961315 0.096458 0.012676
0.591385 0.083574 -0.002317 0.595698 0.259958 -0.758509
-0.057137 -0.589343 0.043853 0.409402 -0.276292 0.869264
0.158188 -0.719076 -0.077248 0.711272 -0.019394 -0.701778
0.049237 0.255425 0.125902 0.196654 0.087187 0.975165
-0.562238 0.037852 0.008006 0.903763 -0.419808 -0.019179
0.18306 0.212341 0.008042 0.999487 0.027265 0.015505
-0.073247 -0.494172 0.073491 0.354173 -0.180481 0.917355
-0.112051 -0.614284 -0.086957 -0.61959 0.09368 -0.779187
-0.088747 0.084503 0.088916 -0.476327 0.362262 0.777743
0.020198 -0.157232 0.082549 0.902935 -0.157675 0.39677
0.108346 -0.799223 -0.114428 -0.44096 0.300727 -0.837615
-0.120516 0.347506 -0.018462 -0.996819 -0.071787 0.026955
0.263437 0.419616 -0.01165 -0.035632 -0.186061 0.981211
0.095461 0.797339 -0.073901 0.894717 0.149621 -0.409379
0.001871 0.05715 -0.144707 -0.130737 0.193412 -0.972329
0.18175 0.148857 -0.036665 0.853083 0.014649 -0.521308
0.198159 0.381679 -0.027946 0.997305 -0.057728 0.039368
-0.128242 -0.347599 0.015685 -0.999059 0.026152 0.0316
0.199594 -0.112056 0.061415 0.894428 -0.023744 0.446523
0.100912 0.460548 0.079678 0.191777 0.375518 0.905785
0.189859 0.05207 0.064356 0.767861 0.253008 0.587899
-0.102154 0.161231 -0.062358 -0.915896 0.109172 -0.353917
0.201823 -0.168463 0.040745 0.94508 -0.116024 0.299078
-0.176141 0.389285 -0.089085 0.485298 -0.460205 -0.733622
0.105375 -0.556567 -0.100972 -0.464098 -0.121448 -0.875933
0.187616 0.513155 0.019578 0.259914 0.390908 0.881427
0.018275 0.419108 0.098363 0.133386 0.182971 0.97341
0.299302 0.438327 -0.126787 0.42609 0.560233 -0.709438
0.007915 -0.722654 -0.009501 0.791664 0.001039 0.610764
-0.426224 0.163112 -0.028935 0.548545 -0.810215 -0.196989
0.109745 -0.507532 0.039277 -0.611405 -0.067516 0.788139
0.098184 0.810191 -0.050737 0.935477 0.331517 -0.111994
0.029064 -0.157748 0.058804 0.862502 -0.33517 0.352854
-0.163865 0.496221 -0.082424 -0.469959 0.327324 -0.818811
-0.046154 0.257675 0.103434 -0.613832 0.046559 0.786473
0.077447 0.55755 -0.116548 -0.095422 0.564917 -0.819197
0.118565 -0.823385 0.104463 -0.077653 0.985407 0.136573
-0.105644 0.311779 0.037268 -0.932406 0.075801 0.350475
0.195404 0.447222 -0.133962 0.145364 -0.108318 -0.982967
0.145458 0.092894 0.089778 0.658958 0.238845 0.706897
-0.125829 -0.334717 0.040771 -0.992056 -9.7e-05 0.124931
0.117636 0.202535 -0.111141 0.52995 -0.30768 -0.789818
-0.303469 0.361698 -0.028528 -0.691203 0.690869 0.199576
0.018477 -0.660989 -0.05958 0.653059 0.158153 -0.733599
0.165382 -0.844911 0.127985 0.858158 0.494932 0.110406
0.084548 -0.82249 -0.084877 -0.740656 -0.6165 -0.2263
-0.065466 -0.216115 -0.090702 -0.245064 -0.006589 -0.966141
-0.111412 -0.592291 -0.085858 -0.655028 0.025847 -0.75515
-0.086396 -0.543025 0.06695 -0.057733 -0.195331 0.973456
0.014224 0.186839 0.130099 -0.02908 0.028925 0.998986
-0.118609 0.224378 0.01674 -0.950911 0.269479 0.147991
0.006747 0.634781 -0.058793 -0.483514 0.287884 -0.821698
0.319629 0.406701 -0.037131 0.600248 0.359732 0.712997
-0.117981 0.513544 -0.098248 -0.420988 0.431474 -0.793517
-0.119788 -0.056996 -0.0671 -0.845633 -0.119114 -0.520121
-0.120793 -0.380307 0.071092 -0.972169 -0.031926 0.226382
0.042865 -0.180603 0.048096 -0.96941 -0.041191 0.238352
0.031346 0.835225 -0.093868 -0.036224 0.683732 -0.728606
-0.064458 -0.793162 0.045631 -0.347186 0.514298 0.76929
0.143312 0.518136 -0.129698 0.193793 0.423347 -0.88482
0.160154 -0.750576 -0.073989 0.863971 0.133411 -0.480977
0.044728 -0.295941 -0.047449 -0.848255 -0.016171 -0.529268
0.053476 -0.401606 -0.055959 -0.764761 -0.013528 -0.644114
0.601027 0.087739 0.00396 0.439572 0.108829 -0.885728
0.177159 -0.654445 0.020103 0.485644 -0.043077 0.872497
-0.445476 0.218683 -0.009946 -0.787925 0.59676 0.126957
-0.117675 0.005615 -0.074943 -0.850155 0.033082 -0.524974
-0.06826 -0.779225 0.030367 -0.470643 0.51494 0.698421
0.080282 -0.702992 -0.065005 -0.845025 -0.095674 -0.524666
-0.059875 0.045344 0.115827 -0.39262 0.214763 0.890352
0.195908 0.00191 -0.052537 0.962506 0.098927 -0.244964
-0.10031 -0.022145 -0.10089 -0.730872 -0.108046 -0.672968
0.029001 -0.301396 0.016016 0.998371 -0.043241 0.03225
-0.162829 0.522231 -0.066722 -0.517775 0.594865 -0.614388
0.131418 0.43345 0.078744 0.386283 0.190157 0.900409
-0.111438 0.27376 0.01126 -0.994509 0.020925 0.092089
-0.137561 0.441334 0.058089 -0.391356 -0.173332 0.885086
0.014626 0.103145 -0.135642 -0.16487 0.280157 -0.944801
0.019138 0.269255 -0.127235 0.105623 -0.057137 -0.991562
-0.027294 0.459769 0.08837 -0.141141 0.321333 0.93541
0.1134 0.34348 0.094898 0.428671 0.10265 0.893925
0.009858 0.833502 0.057021 -0.503993 0.395454 0.765436
0.045419 -0.580082 -0.03061 -0.992881 -0.048395 -0.051889
0.373468 0.325023 -0.130176 0.390263 0.190709 -0.894261
-0.117317 -0.355997 0.081744 -0.850187 -0.055106 0.521559
-0.045905 -0.802413 -0.149651 -0.190091 -0.022845 -0.970916
0.518964 0.212973 -0.02893 0.481884 0.822039 0.30019
0.089895 0.696738 -0.004319 0.983011 -0.147567 0.012462
-0.29338 0.32724 -0.095499 -0.162585 0.221578 -0.958706
-0.0144 -0.358014 -0.067347 0.681765 -0.105701 -0.72385
-0.200873 0.463823 -0.075115 -0.549126 0.445918 -0.703467
0.165297 -0.501067 -0.094867 0.605283 -0.010402 -0.793785
-0.241876 0.407016 -0.088409 -0.308948 0.474602 -0.823577
-0.023368 0.196537 0.119808 -0.486962 0.119748 0.864936
0.135553 0.185425 -0.096467 0.614434 0.02217 -0.786329
0.171751 -0.599757 0.028582 0.515148 -0.40336 0.755092
-0.071128 0.346897 -0.115453 -0.488262 -0.081048 -0.868826
0.068121 0.41403 -0.139823 -0.377053 0.072157 -0.92196
-0.067215 0.178341 -0.090047 -0.501508 -0.072932 -0.859798
-0.053366 0.329358 -0.123173 -0.380535 -0.021811 -0.924444
0.544025 0.12692 -0.019371 -0.487447 -0.4107 -0.652083
-0.092234 -0.75837 0.018449 -0.572371 -0.156695 0.794963
-0.14077 -0.089887 0.041763 -0.951586 0.036342 0.304441
0.07033 0.334141 -0.141838 -0.341383 -0.032399 -0.939273
-0.073024 -0.823201 0.081859 -0.230418 0.937789 0.253364
0.190765 -0.578046 -0.065307 0.792931 -0.025867 -0.608446
0.108326 -0.462426 0.041887 -0.677809 -0.051349 0.73337
-0.010142 0.621322 -0.002154 -0.905993 0.060372 0.400531
0.097595 0.117105 0.117586 0.466138 0.05401 0.882111
0.121974 0.142307 -0.110229 0.454388 0.227465 -0.860084
-0.045104 -0.234521 -0.092168 0.104738 0.040836 -0.993056
-0.279976 0.323987 0.008347 -0.029666 -0.042379 0.997284
-0.119557 -0.025505 -0.072486 -0.849065 -0.032357 -0.526563
-0.092308 -0.311816 -0.069277 -0.679797 -0.003588 -0.733266
0.104518 -0.754708 0.021732 -0.186322 -0.497264 0.811674
0.162906 -0.838767 0.098688 0.759645 0.648136 0.045387
-0.03743 -0.382388 -0.079965 0.346645 -0.116101 -0.927715
0.008052 -0.317504 -0.048101 0.761922 -0.039064 -0.646408
0.206927 -0.103332 0.045828 0.93456 -0.026734 0.354706
0.009035 -0.108063 0.114302 0.577349 -0.294933 0.760489
0.153405 0.289864 -0.093513 0.855429 -0.126211 -0.501834
-0.1154 0.030263 0.086313 -0.859612 0.117404 0.496057
-0.242579 0.446877 -0.013206 -0.759961 0.618385 0.189191
0.043916 0.752664 -0.117418 0.355801 -0.336708 -0.865786
-0.537217 0.070295 0.030653 0.578528 -0.692235 -0.426484
0.198857 -0.563738 0.001824 0.959111 0.004118 0.282585
0.632407 0.027239 0.033808 -0.913039 -0.348647 -0.113104
-0.016951 -0.827407 0.020066 0.721832 -0.647511 0.233965
0.016753 -0.320646 0.063125 0.837576 -0.149904 0.520339
0.053229 -0.684633 0.006997 -0.976395 -0.000411 0.210536
0.006861 -0.549162 -0.059672 0.807373 0.010097 -0.589759
0.123351 0.231533 -0.11845 0.616035 -0.321202 -0.718484
0.059299 0.731165 0.078646 0.532484 0.341777 0.768187
0.093927 -0.865091 0.127366 -0.4889 -0.860885 0.136957
0.128866 0.018607 -0.140507 0.517494 0.035228 -0.854823
0.147494 -0.606645 -0.096656 0.336869 -0.149463 -0.928894
-0.071191 0.563361 -0.084089 -0.405409 0.628669 -0.660495
0.1185 -0.870027 -0.101437 0.041679 -0.994714 -0.090851
0.05012 -0.293733 -0.055674 -0.822455 -0.014716 -0.568597
-0.007582 0.216685 -0.127376 -0.059753 -0.150433 -0.985107
-0.101756 0.28116 0.058064 -0.859292 0.062976 0.504457
-0.104559 0.033384 0.098254 -0.497529 0.139955 0.845351
0.023807 -0.468857 0.007912 0.887997 -0.10795 0.445503
0.042023 -0.311991 0.014755 -0.971093 -0.023565 0.237122
0.182051 -0.784144 -0.013349 0.92361 -0.360204 0.118293
-0.067168 -0.861621 -0.036951 0.023424 -0.998936 -0.033716
0.166885 -0.862984 0.060116 0.251032 -0.956986 -0.026712
-0.065688 -0.296355 0.106331 0.09956 -0.101154 0.98965
-0.199503 0.496461 -0.050342 -0.6544 0.562492 -0.503593
0.131916 -0.42759 0.066269 -0.350811 -0.083786 0.931167
-0.125542 0.472994 -0.106097 -0.432684 0.135582 -0.890764
-0.007916 0.631287 0.001336 -0.819469 -0.017043 0.570671
0.076311 0.434483 0.088979 0.082579 0.172627 0.981448
0.19949 -0.269688 0.047007 0.935852 -0.053632 0.347885
-0.364198 0.267038 -0.086412 -0.128637 -0.127497 -0.981109
0.140786 -0.06905 -0.124887 0.586829 -0.250073 -0.770079
0.106475 -0.704125 -0.092093 -0.447023 0.090316 -0.885329
0.320022 0.447686 -0.069642 0.743009 0.641738 0.177656
0.033463 -0.091681 -0.099514 -0.6402 -0.507337 -0.569209
-0.102603 0.346013 0.050545 -0.836343 -0.246993 0.488305
0.088679 -0.835874 -0.040335 -0.998483 -0.045076 0.000311
-0.264123 0.417027 -0.011849 -0.724464 0.620393 0.284008
0.142426 -0.301026 -0.083813 0.590515 -0.00839 -0.806714
-0.033674 0.578135 -0.090367 -0.243583 0.662335 -0.707589
-0.184813 0.427197 0.035727 0.172443 -0.417968 0.889311
-0.40344 0.241903 -0.069316 -0.550518 -0.058923 -0.831827
0.089938 -0.849507 0.011542 -0.85161 -0.476672 -0.084855
0.090224 0.37338 0.098251 0.186956 0.104856 0.975217
0.145866 -0.323722 -0.08204 0.581172 0.023562 -0.811849
0.171859 -0.496843 -0.089096 0.693363 0.005792 -0.720468
-0.102229 -0.25691 0.106433 -0.44299 -0.020457 0.893615
-0.469716 0.171634 -0.03503 -0.590824 0.464331 -0.657911
0.3833 0.239578 -0.083289 -0.649323 -0.756205 -0.047912
0.055264 -0.139816 -0.09159 -0.661817 -0.224713 -0.714723
-0.141944 0.469843 -0.098703 -0.425586 0.077806 -0.900629
-0.021672 -0.537914 0.041396 0.405754 -0.192808 0.888952
0.186765 0.16159 -0.02707 0.86979 0.099599 -0.481256
-0.007496 0.854205 -0.041737 -0.492041 0.844725 -0.202759
-0.038095 -0.632631 -0.098315 0.461734 0.025466 -0.886476
0.158752 0.571934 -0.076079 0.352237 0.823092 -0.431963
-0.012566 0.293826 0.115102 -0.235902 0.079055 0.965736
-0.100895 0.534396 0.039584 -0.01778 0.621698 0.782777
-0.107553 0.294855 -0.076696 -0.83688 -0.079472 -0.539509
0.106899 0.183601 -0.111548 0.364498 -0.100298 -0.921084
-0.072255 -0.550143 -0.102226 -0.13573 0.058414 -0.988171
-0.020853 -0.837717 -0.046133 0.87923 -0.47338 0.006013
-0.532059 0.106217 0.044093 -0.821632 0.54907 -0.130416
-0.021516 0.130772 0.122562 -0.418475 0.007849 0.907297
0.001168 0.009267 -0.145057 -0.146718 -0.245423 -0.953941
0.149961 -0.794199 -0.107917 0.509094 0.244145 -0.821211
0.201504 0.484645 0.023276 0.411855 0.234687 0.880212
0.175586 0.155888 -0.048405 0.896522 0.001592 -0.44232
0.076359 0.006277 0.137849 0.250692 0.051496 0.961261
0.076679 -0.569631 -0.075529 -0.698423 -0.136661 -0.702347
-0.270347 0.31473 0.00614 0.222207 -0.261105 0.938317
-0.040982 0.817452 -0.036782 -0.984063 -0.150402 -0.029358
0.262919 0.51237 -0.076629 0.676506 0.696313 -0.231804
-0.123962 -0.306196 -0.026945 -0.878655 0.049973 -0.470131
-0.06806 0.448509 0.083911 -0.26488 0.280174 0.920085
0.110806 -0.869134 0.035459 -0.040333 -0.997391 -0.056287
0.301187 0.441288 -0.031859 0.75752 0.391847 0.489262
0.022697 -0.37838 0.025721 0.927798 -0.12719 0.348211
0.058114 -0.742139 0.018827 -0.959597 -0.240474 0.129729
0.022364 -0.543471 -0.02504 0.951608 0.051592 -0.298457
0.079891 -0.309257 -0.089751 -0.603046 -0.01241 -0.79736
-0.113125 -0.533414 0.032137 -0.872795 -0.058444 0.48448
-0.106393 0.260141 -0.072255 -0.897115 -0.116651 -0.422942
-0.322357 0.342543 -0.019618 -0.64002 0.704152 0.294277
0.159863 -0.164735 -0.08863 0.571901 -0.075732 -0.814734
0.220405 0.491324 0.016629 0.270069 0.165901 0.947514
-0.429269 0.159559 -0.002642 0.519398 -0.853806 0.018608
0.043434 -0.327772 0.023634 -0.987551 -0.038006 0.149651
-0.042316 -0.641358 -0.100792 0.436457 0.054065 -0.897371
-0.031195 -0.596413 0.029264 0.302341 -0.176575 0.93546
0.070972 -0.441215 -0.075526 -0.710521 0.023563 -0.703208
0.017273 -0.458575 0.023195 0.884596 -0.048042 0.463617
0.387094 0.238039 -0.092071 -0.640431 -0.742372 -0.187857
-0.078516 -0.863679 0.067498 -0.05127 -0.998662 -0.00177
0.071104 0.071888 0.13053 0.181484 0.042153 0.977751
-0.089909 -0.000821 0.11633 -0.552897 0.109174 0.815949
0.075285 0.819888 0.04918 0.810773 0.417917 0.408084
0.148251 -0.58617 0.041733 -0.004964 -0.122932 0.992005
0.063574 -0.696002 0.029398 -0.569491 0.289345 0.7594
0.207157 0.014436 0.003306 0.999561 0.018096 -0.021799
0.177076 0.28327 -0.041427 0.933453 -0.140752 -0.32939
0.243543 0.532761 -0.070559 0.680546 0.710294 -0.176312
-0.108675 -0.698182 -0.090487 -0.70201 -0.060138 -0.708925
-0.000204 0.639201 -0.051524 -0.719661 0.231813 -0.651302
-0.034523 -0.288262 0.100573 0.340555 -0.20899 0.915866
-0.082777 -0.792161 -0.12859 -0.7005 0.10736 -0.698866
0.139905 0.552997 -0.109441 0.269958 0.639912 -0.719025
0.204547 -0.221601 0.026853 0.981938 -0.011115 0.184166
0.201534 0.402473 -0.03243 0.959728 -0.273818 0.022744
0.341382 0.281955 -0.090991 -0.626258 -0.76076 -0.129543
-0.072462 0.532226 0.042321 -0.086921 0.612407 0.785442
0.151879 -0.193412 0.095007 0.160597 -0.135897 0.975254
0.55117 0.158665 -0.017106 0.727052 0.111917 -0.66724
-0.444184 0.167584 -0.052436 -0.049762 -0.381064 -0.838775
-0.406461 0.247121 0.005227 -0.434744 0.508352 0.739233
0.622336 0.074889 0.018689 0.858549 0.482554 -0.162398
-0.120827 0.406886 -0.097103 -0.696278 -0.345223 -0.621041
0.028348 -0.151406 0.06645 0.869387 -0.329984 0.358889
0.153234 0.257887 0.067653 0.783294 0.072527 0.617353
0.350395 0.395899 -0.116758 0.876451 -0.214073 -0.392819
-0.110131 -0.851903 0.00487 -0.791623 -0.555199 -0.117213
-0.028769 -0.860101 0.093096 0.778055 -0.541776 0.125583
-0.025301 -0.596315 -0.090967 0.55302 -0.025357 -0.830253
-0.378147 0.296857 -0.038055 -0.716562 0.695641 0.044615
0.067296 -0.31607 -0.078533 -0.763755 -0.021381 -0.644142
0.199483 -0.489218 -0.000448 0.976757 0.078562 0.197467
0.098739 -0.168531 0.09874 -0.35311 -0.176186 0.917407
-0.242341 0.337046 -0.086938 0.408243 -0.487431 -0.770429
0.018494 -0.467878 0.018797 0.893987 -0.07109 0.440289
0.079931 0.648295 0.006658 0.894245 -0.146104 0.412313
0.145579 0.238012 0.078802 0.737505 0.054563 0.673049
-0.015823 -0.455021 -0.076518 0.715357 0.088233 -0.692899
0.050995 0.694344 -0.077934 0.216433 -0.599749 -0.769591
-0.560689 0.064863 0.055287 -0.813184 0.551101 0.119828
0.016616 0.606384 0.022911 -0.472496 -0.068071 0.877574
0.199915 -0.472997 -0.026706 0.998122 0.038012 -0.023155
-0.134727 -0.445724 -0.03054 -0.929626 0.128572 -0.342578
-0.092989 0.253998 0.068836 -0.718692 0.068551 0.6912
0.111512 0.562147 0.00516 0.422697 0.683743 0.593736
-0.018964 0.364088 0.106645 -0.09325 0.005903 0.994261
-0.072504 -0.801959 0.051564 -0.425506 0.768693 0.462342
0.153865 -0.413042 -0.087357 0.592846 0.108712 -0.795084
0.34777 0.385491 -0.116369 0.94692 0.135696 -0.152564
-0.094804 0.398587 0.07324 -0.613785 -0.025522 0.788967
0.036616 -0.340399 -0.024787 -0.986122 -0.061492 -0.143641
0.054435 0.051146 -0.155378 -0.134108 0.31399 -0.938248
-0.114563 0.125259 0.052392 -0.83928 0.107849 0.531182
0.264706 0.419531 -0.140863 -0.084704 0.038978 -0.994451
0.199984 -0.129569 0.0596 0.899415 -0.039069 0.435197
0.33382 0.288231 -0.093413 -0.670683 -0.725095 -0.147822
0.041712 -0.136915 0.058042 -0.088778 -0.531095 0.806929
0.027839 -0.322548 -0.009074 0.9823 -0.006604 -0.164636
0.418739 0.301604 -0.056641 0.447726 0.658497 0.598729
-0.014799 -0.648473 -0.082513 0.651953 0.05033 -0.756547
0.065044 0.489699 0.071241 0.079184 0.503609 0.859199
-0.012356 0.79026 -0.105555 -0.641139 0.103254 -0.754861
0.065376 -0.369622 -0.071467 -0.756235 -0.054875 -0.650145
-0.103821 -0.146599 0.109367 -0.674919 0.007032 0.737362
-0.024194 -0.8545 0.06378 0.927374 -0.291868 0.050448
0.01734 -0.738635 -0.023837 0.920063 -0.120725 0.367861
0.329632 0.292422 -0.078679 -0.672417 -0.722152 0.156921
0.281372 0.428661 -0.013041 0.395949 0.076066 0.913161
-0.07797 0.580544 -0.041046 -0.453337 0.880568 -0.095781
0.081009 0.73903 -0.089561 0.662254 -0.388179 -0.640725
-0.094125 -0.826066 0.055994 -0.736444 0.666088 0.113395
0.088929 -0.560058 0.028513 -0.542858 -0.021492 0.837759
0.131001 0.404783 0.082718 0.411005 0.087249 0.907194
0.063587 -0.100093 0.082061 -0.070767 -0.618449 0.74787
-0.133276 -0.107841 -0.036018 -0.878115 -0.106379 -0.464224
-0.069855 0.380375 0.092757 -0.565483 -0.030375 0.82229
0.20325 -0.03778 0.050488 0.883205 0.020646 0.467829
0.193558 0.090057 0.018576 0.949535 0.239836 0.165017
-0.089374 -0.8264 0.077377 -0.444074 0.871225 0.161708
-0.108194 0.162603 0.057449 -0.807327 -0.005596 0.589649
0.119736 -0.729594 0.022398 0.427328 0.283482 0.842346
0.116212 -0.536198 0.041797 -0.397667 -0.046353 0.91473
0.205427 -0.263602 -0.001855 0.999673 -0.000341 -0.023327
0.135882 -0.52042 -0.10743 0.186514 -0.000461 -0.979575
0.015833 0.611702 -0.074296 -0.145597 0.604995 -0.780322
0.178025 -0.607415 -0.076933 0.643014 -0.079736 -0.761351
-0.116912 0.553536 -0.060556 -0.415523 0.762805 -0.494641
-0.119302 -0.260281 0.08911 -0.860693 -0.054598 0.501273
0.201028 -0.515419 -0.001203 0.935295 -0.007491 0.352952
0.025441 -0.083938 -0.096265 -0.436814 -0.659923 -0.602702
0.586258 0.047146 0.031538 0.570563 -0.788359 0.167661
-0.095516 -0.34516 -0.068366 -0.64088 0.076512 -0.762531
0.1148 -0.13134 0.112803 -0.199513 -0.106851 0.947715
-0.07098 -0.24513 0.112397 -0.053482 -0.068943 0.996024
0.42433 0.245485 -0.11924 0.299516 -0.372091 -0.874353
0.090103 0.595163 -0.011171 0.799125 0.288069 0.518648
0.078283 -0.770741 0.017424 -0.000495 0.812229 0.581828
0.071433 -0.047664 0.126795 0.046685 -0.404309 0.912633
0.046723 -0.606444 -0.027298 -0.98731 -0.087687 0.112606
-0.1352 0.495962 0.05812 -0.158589 0.297848 0.939508
0.354293 0.375172 -0.095208 0.742038 0.668392 0.046984
0.616997 0.086653 0.015976 0.751804 0.655867 -0.067814
-0.396009 0.264505 -0.001959 -0.489431 0.669239 0.554837
0.195685 -0.740232 -0.021664 0.923579 -0.3279 -0.131157
0.254516 0.359493 -0.066279 -0.711273 -0.694349 0.091735
0.189166 -0.117986 -0.065324 0.776005 -0.023951 -0.63004
-0.055718 -0.863839 0.027446 0.002268 -0.999835 -0.016413
-0.105108 -0.612475 0.043418 -0.889162 -0.04918 0.450737
0.172136 0.138861 0.059807 0.740978 0.128643 0.658578
0.052339 -0.17131 -0.079625 -0.77278 -0.17752 -0.606757
0.063409 -0.073662 -0.127849 -0.306048 -0.398382 -0.864251
-0.485935 0.109418 0.049127 0.877693 -0.432768 0.184335
0.07048 -0.76502 0.012068 0.352356 0.137792 0.906027
0.018068 -0.551235 0.003236 0.886935 -0.054467 0.437158
-0.022687 -0.829547 -0.135316 0.615416 -0.601131 -0.496488
0.129463 -0.188106 -0.104237 0.242818 -0.090384 -0.962409
0.336722 0.403223 -0.052633 0.740318 0.128949 0.591608
-0.127568 0.05322 -0.041724 -0.938233 0.128617 -0.31665
-0.10139 -0.031585 -0.098552 -0.74048 -0.085576 -0.666142
0.152535 -0.609453 0.034113 0.339335 -0.384539 0.853574
0.051726 -0.183863 -0.074528 -0.818563 -0.180159 -0.543849
-0.138747 0.032438 -0.00131 -0.955527 0.264319 -0.118149
0.133735 -0.869794 0.055196 0.020396 -0.999401 -0.018794
-0.053591 -0.165795 -0.097369 0.045845 -0.139898 -0.986918
0.092413 0.825351 -0.03482 0.834239 0.529893 -0.050034
0.181815 -0.136795 -0.072075 0.715662 -0.071453 -0.694733
0.155021 -0.862805 0.01447 0.268159 -0.95974 -0.083285
0.00928 -0.449802 -0.046839 0.857385 0.061662 -0.510749
0.064105 0.583521 0.016721 0.529724 0.056389 0.843908
0.131982 -0.25248 -0.094411 0.441681 -0.083088 -0.890526
-0.128413 0.426404 -0.101661 -0.599465 -0.389551 -0.697991
-0.377344 0.268653 0.004625 -0.260477 0.383506 0.883222
-0.000901 0.356488 -0.128218 0.092941 -0.019235 -0.995346
0.164879 -0.862549 0.1283 0.314922 -0.942808 0.060554
-0.02377 -0.500522 0.052314 0.441388 -0.258617 0.858932
0.049382 -0.616388 -0.03775 -0.926118 -0.123409 -0.341237
0.337843 0.361478 -0.136908 0.280504 0.056796 -0.945767
-0.04622 0.062647 0.120233 -0.462601 0.145598 0.873459
0.022452 0.700593 0.089705 -0.445748 -0.195338 0.861836
0.395778 0.256785 -0.036724 -0.361249 -0.129599 0.912399
-0.121639 0.160914 0.031798 -0.938361 -0.050011 0.338017
0.001796 0.641831 0.01848 -0.737092 -0.237148 0.632517
0.171935 -0.546879 -0.087166 0.680985 -0.033052 -0.73154
0.084038 0.660327 -0.009254 0.988122 -0.026277 0.120298
-0.020755 -0.425223 -0.077378 0.670176 0.158113 -0.724601
0.064321 0.847143 0.03949 0.540993 0.555921 0.630285
0.182369 0.264682 -0.019336 0.990682 -0.002465 -0.126205
0.206102 0.445987 -0.132541 0.058446 -0.173591 -0.980887
-0.018323 0.356608 -0.128865 -0.009988 -0.007394 -0.999857
-0.045431 0.224527 -0.118604 -0.525645 -0.249959 -0.81062
-0.127646 -0.348265 0.026338 -0.996166 0.0352 0.076631
-0.128213 0.145204 -0.004403 -0.996178 0.03934 -0.054733
-0.124406 -0.553694 0.005992 -0.876619 -0.165471 0.44794
0.03379 0.0352 0.137161 0.099492 0.203939 0.971624
-0.069742 0.575668 -0.014219 -0.230183 0.885659 0.400202
0.05954 0.643307 -0.060542 0.52677 0.173451 -0.825487
0.054406 -0.073889 -0.124458 -0.365865 -0.40798 -0.836394
0.196935 -0.640289 -0.050514 0.925075 -0.079075 -0.345282
0.02184 -0.23598 0.061401 0.942953 -0.005392 0.330627
0.102176 0.378445 0.095826 0.264038 0.091921 0.958851
0.026093 -0.52789 -0.01514 0.990221 -0.086457 -0.051614
0.139464 -0.246793 0.08513 0.115812 -0.134982 0.983484
-0.103582 -0.626992 -0.095084 -0.550349 0.075971 -0.829956
0.013654 -0.445009 0.029581 0.827746 -0.049754 0.558783
-0.097766 0.211204 0.071698 -0.6435 0.057232 0.763145
0.178417 0.474276 -0.13663 0.115416 0.085472 -0.989249
0.105507 -0.869832 0.057198 -0.130965 -0.982711 -0.022548
-0.03922 0.172164 0.112573 -0.53837 0.108162 0.835682
0.051368 -0.501207 -0.007676 -0.87636 -0.007482 0.481167
0.159715 -0.188022 0.093565 0.260008 -0.102731 0.95982
-0.464611 0.185316 -0.029323 -0.679322 0.514651 -0.504162
-0.162351 0.437181 0.042114 -0.303492 -0.533505 0.784705
-0.092057 -0.373729 -0.07193 -0.543647 -0.032099 -0.838171
-0.113284 0.506598 -0.103731 -0.440084 0.355371 -0.814959
-0.083621 0.172398 -0.07831 -0.622151 0.071221 -0.779395
-0.20313 0.349675 -0.006868 0.527799 -0.717949 0.452804
0.085916 0.320307 -0.143799 -0.036556 -0.068656 -0.996952
0.008096 0.785905 -0.117182 -0.338918 0.235683 -0.910118
0.036655 0.105015 -0.138634 -0.108076 0.313172 -0.940496
0.190291 0.021694 0.0743 0.845106 0.14403 0.513353
0.138553 0.047734 0.109557 0.48967 0.260681 0.824251
-0.033647 -0.825345 0.080664 0.613049 0.72328 0.272103
0.177 0.542068 0.002875 0.248899 0.653512 0.714395
0.070784 -0.715887 -0.041945 -0.84654 -0.221585 -0.481506
-0.006452 0.109493 -0.12969 -0.159975 0.344242 -0.925026
-0.101099 -0.002967 0.108693 -0.635463 -0.034793 0.748639
-0.036463 -0.859062 -0.068718 0.560532 -0.805027 0.191219
-0.393186 0.281291 -0.033903 -0.716487 0.691589 0.083037
-0.214525 0.33643 -0.015971 0.58928 -0.740402 0.321212
0.007005 0.155847 -0.113987 -0.153406 -0.089689 -0.980893
-0.214399 0.333132 -0.038117 0.565072 -0.823714 -0.018474
0.198038 -0.098629 0.065176 0.861293 -0.028873 0.501947
0.124412 0.350872 -0.135561 0.467888 -0.154912 -0.869871
-0.123187 -0.318183 0.062138 -0.986836 -0.065299 0.147139
0.086269 -0.827947 -0.029545 -0.766569 -0.609726 -0.001973
-0.11627 -0.117828 0.095325 -0.728169 0.04517 0.683665
0.019348 -0.471128 -0.031228 0.926207 0.035691 -0.375064
0.052664 -0.617389 -0.01217 -0.854848 0.122685 0.48907
0.092765 -0.852983 -0.019733 -0.801025 -0.563675 0.14927
0.230185 0.544019 -0.037553 0.608401 0.754657 0.241703
0.166698 -0.847704 0.014223 0.972463 0.097135 -0.127874
-0.170608 0.397609 -0.090185 0.439583 -0.392789 -0.800354
-0.102827 -0.813535 -0.010337 -0.952781 -0.117993 0.25005
0.312846 0.387927 -0.026266 0.548976 0.073137 0.821995
0.07898 0.573004 0.00908 0.499831 0.375638 0.77842
0.195405 -0.377253 0.035497 0.945041 -0.048605 0.323162
0.28484 0.334493 -0.095599 -0.629877 -0.76278 -0.141904
0.090223 -0.848593 0.128788 -0.917486 0.341662 0.180926
0.097852 0.069725 -0.147073 0.431525 0.228175 -0.871309
0.008349 0.403768 -0.128231 0.032793 0.011353 -0.999364
0.177106 0.071357 0.073892 0.843598 0.116298 0.48844
0.184412 -0.486078 -0.075615 0.778137 0.019063 -0.627483
-0.119522 -0.578153 0.009606 -0.908017 -0.046539 0.414585
-0.092341 -0.694417 -0.103221 -0.538417 0.082042 -0.836719
-0.011852 -0.269342 -0.077821 0.644674 -0.104519 -0.75701
0.048825 -0.605632 -0.040124 -0.895927 -0.09788 -0.427244
-0.021397 0.817793 -0.088345 -0.503709 0.560017 -0.645837
-0.047456 -0.663851 -0.104993 0.365811 0.123904 -0.921352
-0.035803 0.796187 -0.006416 -0.995978 -0.002222 0.087987
-0.044771 -0.454442 -0.092754 0.211483 0.149896 -0.963419
0.020152 -0.107536 0.105506 0.541181 -0.379107 0.744638
0.195795 -0.358741 0.038692 0.906252 -0.09045 0.412288
-0.140009 -0.108433 0.046008 -0.945343 0.001551 0.325917
-0.293004 0.261409 -0.011478 0.78655 -0.443341 0.407107
-0.518337 0.082631 0.034565 0.511523 -0.709861 -0.452759
0.192475 -0.050235 -0.062788 0.902803 -0.050733 -0.426798
-0.135177 0.051548 -0.010339 -0.984413 0.12541 -0.104356
-0.060341 0.23085 0.095289 -0.557539 0.093824 0.823507
0.166826 0.224531 -0.061279 0.869363 -0.014138 -0.493761
-0.123114 -0.333935 0.05849 -0.987323 0.005174 0.15749
0.092561 -0.033759 -0.149064 0.047994 -0.351059 -0.934738
-0.046545 -0.298179 0.102749 0.258437 -0.155609 0.952571
0.200067 -0.078153 0.062039 0.864446 0.029513 0.50179
-0.052039 -0.832879 -0.144466 -0.042991 -0.259385 -0.960307
0.207491 -0.154236 -0.022406 0.990977 -0.095058 -0.073243
-0.067302 0.189303 -0.091353 -0.577916 -0.155499 -0.800124
-0.570223 0.02744 0.030441 -0.10945 -0.977029 0.08753
-0.023405 -0.136723 -0.094622 0.50954 -0.257988 -0.818439
0.126232 -0.688833 0.028671 0.192897 -0.184141 0.962804
-0.071764 0.13651 -0.096268 -0.502315 0.24446 -0.826276
0.044277 -0.491607 -0.038786 -0.984792 -0.012869 -0.1694
-0.131785 -0.215808 0.067856 -0.930726 -0.048832 0.361969
-0.108501 -0.482505 -0.074349 -0.688946 0.114719 -0.715615
-0.128345 -0.316791 1.5e-05 -0.999818 -0.008581 -0.0164
-0.092408 -0.139377 0.113813 -0.252514 0.015102 0.967345
0.164028 0.551726 -0.100462 0.31106 0.718079 -0.621861
-0.028404 0.826958 -0.069945 -0.653402 0.603611 -0.451654
0.111916 0.266839 0.102655 0.413699 0.050746 0.907255
-0.078709 0.084511 0.095868 -0.535752 0.210604 0.810391
0.111473 -0.834131 0.16498 -0.52267 0.717378 0.433567
-0.318433 0.232924 -0.024246 0.650184 -0.75823 0.04054
-0.136284 -0.125727 0.058112 -0.954307 0.014191 0.294852
0.187797 -0.721214 -0.040496 0.700885 -0.189593 -0.683911
-0.126443 0.398045 0.028272 -0.921388 -0.329888 0.194425
0.15284 -0.451626 0.069274 -0.08698 -0.123105 0.981656
-0.090494 0.013072 -0.113823 -0.718647 -0.01792 -0.694815
-0.084159 -0.305181 0.106686 -0.025787 -0.067586 0.996611
-0.120949 -0.652423 0.00206 -0.981094 -0.123951 0.145512
0.135124 -0.706113 -0.093094 0.429323 0.029471 -0.902009
0.182274 0.006462 -0.080883 0.869545 0.068564 -0.483263
-0.0786 -0.861797 -0.028556 -0.065825 -0.995656 -0.045674
0.023917 -0.54835 -0.012356 0.938575 0.022258 0.32166
-0.064828 -0.51124 0.066057 0.375503 -0.226934 0.898198
-0.021341 0.694962 0.018574 -0.9555 -0.290559 0.033619
-0.146881 0.498084 -0.090668 -0.458234 0.293504 -0.838246
0.182344 0.397868 -0.118032 0.300605 -0.510675 -0.804057
0.157448 -0.684582 -0.078833 0.667694 -0.039237 -0.743113
0.489792 0.201427 -0.004406 -0.041348 0.627632 0.577937
0.155413 0.483576 0.051011 0.454108 0.40244 0.792969
-0.209313 0.481082 0.021013 -0.725413 0.432663 0.525945
-0.092562 -0.272327 0.108175 -0.212429 -0.056746 0.975449
0.065506 0.66479 0.062032 0.630132 -0.762854 0.141481
-0.041732 0.823775 -0.024341 -0.975085 0.021724 0.03478
-0.031001 0.376564 0.106095 -0.047646 0.060079 0.997019
-0.053784 -0.34191 0.099168 0.201583 -0.097057 0.974475
0.182306 0.219518 0.019611 0.994792 0.054777 0.080423
0.092007 0.732755 0.03814 0.973824 -0.067167 0.21407
0.010741 -0.513429 -0.049864 0.841075 0.049184 -0.536892
0.018309 0.132957 -0.122909 -0.133427 0.45187 -0.881835
-0.120457 -0.664295 -0.007087 -0.977033 -0.156245 0.144268
-0.070053 -0.615372 0.043384 0.437427 -0.192451 0.878206
0.032221 0.695249 0.091118 -0.0951 -0.180078 0.975349
0.143766 0.037167 0.108983 0.591452 0.23111 0.770693
0.041584 0.055441 0.134455 0.129311 0.074313 0.988322
-0.107579 0.470267 -0.115464 -0.450871 0.131634 -0.882575
-0.284842 0.335129 -0.095386 -0.175317 0.16605 -0.966634
0.203469 -0.140449 -0.043739 0.890157 -0.019142 -0.452975
-0.120716 -0.69374 -0.015458 -0.95995 -0.217271 0.143747
-0.546921 0.071069 0.088936 0.087694 -0.269423 0.929608
-0.040136 -0.252596 -0.092733 0.173265 0.03979 -0.982909
0.124262 0.48957 -0.142047 0.076668 0.327671 -0.93737
0.172016 0.011734 -0.097591 0.810498 0.037355 -0.583785
-0.135905 -0.193249 0.05631 -0.987601 -0.044245 0.140451
-0.07989 -0.783271 0.02228 -0.5398 0.678165 0.497023
-0.068242 -0.097443 0.121269 -0.250106 -0.001776 0.968209
0.168371 0.279436 -0.061192 0.905736 -0.14859 -0.396334
0.065543 -0.093245 -0.118554 -0.33268 -0.489901 -0.804472
-0.1341 -0.139745 0.065732 -0.90119 0.03083 0.419245
0.363309 0.363967 -0.083194 0.66064 0.710914 0.235978
0.034578 -0.307257 -0.016711 -0.993538 -0.0618 -0.087466
-0.50961 0.085449 0.042071 0.590014 -0.748159 -0.257844
-0.09187 -0.788519 -0.116689 -0.791027 0.130072 -0.597757
0.090896 0.11563 -0.132066 0.220151 0.468796 -0.853181
-0.022767 -0.84324 0.062084 0.97819 0.162716 0.08991
0.124728 -0.008212 0.119187 0.344256 -0.20405 0.914942
0.045463 -0.280779 -0.048928 -0.834477 0.008468 -0.550543
0.190306 0.357271 -0.074453 0.819676 -0.436207 -0.369359
-0.07274 -0.083204 -0.106563 -0.436671 -0.225979 -0.868071
-0.368049 0.200968 -0.039478 0.619822 -0.771077 -0.139808
0.059286 -0.003036 0.140116 0.080514 -0.401289 0.909872
0.14878 -0.229904 0.087679 0.113111 -0.230592 0.966199
0.117891 -0.040767 -0.143546 0.211072 -0.284276 -0.933453
-0.305155 0.361752 -0.038184 -0.67958 0.73144 0.036318
0.179312 0.073669 -0.071885 0.817567 0.193455 -0.542072
0.096939 0.034869 -0.155312 0.352623 0.125211 -0.925948
0.033223 0.704861 0.093485 0.001216 -0.364872 0.919574
0.084089 0.660631 -0.021025 0.986181 0.064095 -0.104407
0.003977 -0.803523 -0.106894 0.936173 -0.097888 -0.333811
-0.109907 -0.167922 0.102944 -0.670803 -0.018929 0.741247
-0.135953 -0.019379 -0.032334 -0.983107 0.027565 -0.175599
0.184651 0.34882 -0.07607 0.775238 -0.430206 -0.460336
-0.09303 -0.133105 -0.083406 -0.665008 -0.090394 -0.741304
0.131873 0.062833 -0.129412 0.595361 0.174274 -0.783793
0.181633 0.253482 -0.023834 0.980166 -0.012323 -0.193958
0.11628 -0.32896 0.079546 -0.140452 -0.087835 0.985293
0.088963 0.710727 -0.05235 0.820202 -0.474392 -0.31235
-0.057351 -0.822398 -0.145029 -0.345624 -0.026777 -0.934205
-0.194558 0.417248 0.033582 0.231613 -0.366616 0.900001
0.156159 -0.836868 0.131873 0.643658 0.739701 0.195511
0.113274 -0.051361 -0.140544 0.19842 -0.363783 -0.90947
0.044322 -0.150985 0.058282 -0.863729 -0.111217 0.478339
-0.182353 0.363965 -0.006455 0.581411 -0.695016 0.421583
-0.100174 -0.783206 -0.104573 -0.793145 0.100893 -0.600501
0.008982 0.573695 -0.100267 -0.062623 0.533513 -0.843305
-0.440704 0.186406 -0.049528 -0.454437 0.281943 -0.841178
-0.039694 -0.70195 0.018212 -0.404379 0.130391 0.896673
-0.020809 0.216321 -0.125457 -0.186031 -0.221233 -0.956411
0.164877 -0.825256 -0.049373 0.771939 -0.635576 -0.005896
0.501266 0.189576 0.005867 -0.319394 0.609549 0.698658
-0.339121 0.329835 -0.051074 -0.65677 0.752094 -0.047122
0.091814 -0.824751 -0.10121 -0.882766 -0.062406 -0.441885
-0.036626 0.4442 0.090944 -0.172844 0.251942 0.950607
0.506792 0.206171 -0.061884 0.163263 -0.411588 -0.896333
0.025748 0.041695 0.137163 0.102364 0.114614 0.987571
-0.111054 -0.014941 -0.086839 -0.831714 -0.04488 -0.553168
0.210113 -0.097863 0.037393 0.93894 -0.021898 0.343172
0.554565 0.110212 0.04308 -0.84684 -0.336388 0.399207
-0.024902 -0.847335 -0.057444 0.686267 -0.721167 0.059357
0.134844 0.49185 0.053704 0.280939 0.553039 0.784219
0.503456 0.162783 -0.0128 -0.606773 -0.794679 0.005082
0.104503 -0.163882 -0.109251 -0.094927 -0.248633 -0.962064
0.090486 -0.829546 0.062101 -0.97084 0.201011 0.116451
-0.003732 -0.471318 -0.06603 0.754521 0.103117 -0.647247
-0.085826 -0.395002 0.094654 0.064316 -0.201428 0.977217
0.498 0.229602 -0.023745 0.635813 0.759607 0.130523
-0.169578 0.53782 -0.005227 -0.656766 0.748128 0.088328
0.132244 -0.165912 -0.105944 0.318823 -0.111481 -0.940422
-0.050908 -0.827517 0.121367 0.424869 0.866796 0.197699
0.188633 -0.641698 -0.062145 0.741131 -0.158453 -0.651924
-0.133086 -0.499557 0.005936 -0.883229 -0.178883 0.429662
-0.127176 -0.309934 -0.01693 -0.982472 0.011029 -0.178303
0.597417 0.066995 0.009032 0.896384 -0.3705 -0.187308
-0.476333 0.131786 0.057278 0.717395 -0.537134 0.440677
0.189151 0.001869 0.074581 0.753877 -0.358419 0.54392
-0.058594 -0.179958 -0.095278 -0.14852 -0.104632 -0.978159
-0.084658 0.503221 -0.116184 -0.298077 0.338052 -0.891213
0.428713 0.207384 -0.096273 -0.479148 -0.858476 -0.133687
-0.020522 0.745156 -0.085438 -0.808826 -0.296126 -0.507473
0.177666 -0.229079 -0.070311 0.588487 -0.043336 -0.806675
0.040576 0.822798 -0.10437 0.09626 0.643025 -0.759037
-0.032648 -0.837857 -0.137339 0.52855 -0.452672 -0.705186
-0.093974 -0.863293 0.061542 -0.028164 -0.998376 -0.00166
-0.091818 -0.053438 -0.101978 -0.632431 -0.229235 -0.739817
0.328136 0.364101 -0.139272 0.170919 -0.086182 -0.97921
-0.134342 0.538963 0.032443 -0.174077 0.706118 0.685825
0.132445 -0.020552 0.11571 0.388428 0.001243 0.921132
0.078452 -0.336626 -0.087852 -0.655267 -0.03523 -0.754545
0.610405 0.063994 0.084241 -0.772822 -0.545327 0.288422
0.484153 0.242612 -0.072978 0.638438 0.481253 -0.580527
-0.016711 0.281073 0.114756 -0.2685 0.021758 0.962963
0.198723 -0.290793 -0.028513 0.878404 -0.089055 -0.469362
-0.131071 -0.095713 0.070075 -0.841258 0.003425 0.540521
0.20622 -0.159318 -0.033228 0.983256 -0.007012 -0.170624
0.578162 0.078856 0.058451 -0.03277 -0.753921 0.634401
0.060996 -0.290557 0.058807 -0.737112 -0.125636 0.663922
0.126701 0.574167 -0.018821 0.299542 0.797555 0.499
-0.002724 0.860174 -0.016395 -0.562471 0.818318 -0.012786
-0.040665 -0.041159 -0.129188 -0.138441 -0.362375 -0.919536
0.102429 0.801927 -0.038305 0.89375 0.425311 -0.065524
0.046909 0.855016 -0.067184 0.152205 0.855469 -0.49464
0.094202 -0.694834 -0.082392 -0.684082 0.020431 -0.729019
0.014391 -0.143765 -0.051377 0.834931 -0.120209 -0.535002
0.199896 -0.426683 0.008112 0.981428 -0.105393 0.159193
-0.194125 0.427574 0.038531 0.174012 -0.44829 0.876009
0.020828 -0.402507 -0.021335 0.96849 -0.093375 -0.225165
-0.072774 -0.506771 0.070698 0.365537 -0.227252 0.902365
0.04176 -0.18957 0.040098 -0.977671 -0.061328 0.200689
0.091402 -0.578374 0.028099 -0.409331 -0.094934 0.903592
0.196512 -0.564373 -0.057266 0.88295 -0.011641 -0.459138
0.045018 0.105492 0.134867 0.106123 0.092836 0.980614
0.116865 -0.22008 -0.101789 0.015764 -0.081201 -0.995108
-0.291399 0.379803 -0.045708 -0.957278 0.207067 -0.010096
-0.109462 0.401751 -0.10527 -0.578615 -0.258456 -0.773472
-0.314546 0.336761 -0.080706 -0.499692 0.605031 -0.617952
-0.123309 0.098729 -0.035807 -0.927834 0.132457 -0.347581
-0.079949 -0.71785 -0.116054 -0.426716 0.219961 -0.873892
-0.079156 -0.800022 0.039809 -0.599995 0.647233 0.466719
-0.062821 -0.441224 0.081137 0.156171 -0.190891 0.969011
-0.072135 0.021301 -0.130686 -0.476978 -0.33638 -0.802794
0.074141 0.70923 0.072276 0.672804 -0.045954 0.737443
0.212805 -0.018714 0.005972 0.987684 0.105059 -0.0878
0.035925 0.156015 0.13145 0.041749 0.058329 0.996954
0.173167 -0.852395 0.041133 0.927047 0.275813 -0.120397
0.079406 -0.753781 -0.055688 -0.862625 0.161545 -0.474061
0.10844 0.278488 0.103522 0.352791 0.042845 0.934474
-0.002774 -0.445151 -0.061034 0.739194 0.064595 -0.670301
-0.074599 -0.526082 -0.099397 -0.228157 0.113627 -0.966164
0.17771 -0.178467 -0.072485 0.647589 -0.005829 -0.760492
0.126209 0.065838 0.106369 0.077739 0.203487 0.973826
0.044001 -0.451802 -0.035168 -0.990537 -0.003881 -0.111804
-0.368422 0.29969 -0.069794 -0.646528 0.622833 -0.438408
-0.035972 0.751736 0.001123 -0.965178 -0.106512 0.232266
-0.106018 -0.1859 -0.0602 -0.800925 -0.05954 -0.595139
0.356109 0.373391 -0.105892 0.739028 0.66818 -0.053997
-0.058254 -0.689737 0.018183 0.145547 -0.325824 0.930881
0.101062 0.043113 0.121669 0.348752 0.208601 0.912509
-0.421716 0.244611 -0.012905 -0.703169 0.699978 0.11321
0.137957 -0.420372 -0.097674 0.437721 0.115432 -0.888651
-0.017955 -0.75934 -0.006138 0.530609 0.027646 0.818472
0.164033 0.397095 -0.124181 0.382341 -0.403311 -0.831098
-0.093232 -0.551375 -0.095425 -0.465986 0.080106 -0.880313
-0.069486 -0.203186 0.116392 -0.305921 -0.087896 0.947883
-0.037741 0.769301 -0.049852 -0.988249 -0.002368 -0.143847
-0.133592 0.00365 -0.038774 -0.94273 0.062614 -0.321009
0.01475 0.654679 0.038984 -0.586057 -0.673136 0.446697
-0.1258 -0.034029 -0.060683 -0.91093 -0.034924 -0.410125
0.049354 0.732617 0.091158 0.855596 0.144142 0.492137
0.441276 0.222791 -0.026566 -0.859821 -0.2426 0.434024
-0.150372 0.405736 -0.07951 0.591638 -0.605229 -0.531582
0.388845 0.251667 -0.042855 -0.601165 -0.419574 0.679636
-0.045004 0.333637 0.100069 -0.305509 -0.148795 0.936475
-0.045696 -0.159549 0.122804 -0.055525 0.008415 0.998234
0.185908 -0.534409 -0.073636 0.750518 -0.030293 -0.659917
0.135771 -0.822926 0.091903 0.21542 0.951869 0.213571
0.054379 0.137752 0.130138 0.115474 0.037658 0.992588
-0.40545 0.214956 0.014982 0.1587 0.186415 0.963585
-0.049784 -0.863459 0.114323 0.093405 -0.990594 0.070482
0.206066 -0.530273 -0.022835 0.998453 0.009878 -0.021426
0.597598 0.069365 0.046635 -0.300938 -0.920346 0.170072
-0.252969 0.337414 -0.092236 0.371689 -0.349685 -0.857833
-0.059911 -0.049925 0.126582 -0.293867 -0.08196 0.949137
0.294853 0.337188 -0.119413 -0.599332 -0.560973 -0.567578
-0.122164 -0.150957 -0.044048 -0.80497 -0.159355 -0.570734
-0.021934 -0.814693 0.053376 0.905221 -0.011255 0.365483
0.207188 -0.157506 0.016663 0.995591 -0.068123 0.05532
0.044099 -0.473301 -0.036429 -0.991553 -0.000816 -0.10254
-0.019133 0.686418 0.024245 -0.961569 -0.247753 0.046347
-0.328843 0.280342 -0.092012 -0.081095 -0.231956 -0.968912
0.19739 0.556579 -0.07625 0.281144 0.85721 -0.422997
-0.105176 -0.819001 -0.030977 -0.927078 -0.333421 0.081198
0.10794 0.230893 -0.129159 0.448547 -0.296672 -0.839617
-0.127991 -0.585625 -0.015987 -0.977568 -0.044606 0.205516
-0.073204 -0.038427 -0.120392 -0.482479 -0.247083 -0.833014
0.053074 -0.71433 -0.000982 -0.991051 -0.089486 -0.085404
-0.23486 0.346446 0.010076 0.377595 -0.401647 0.832377
-0.097252 -0.17985 0.11118 -0.354396 -0.03159 0.927716
0.090952 0.78313 -0.085605 0.863867 0.047598 -0.501116
0.292131 0.48399 -0.06013 0.772224 0.621296 0.111053
-0.131795 -0.502721 -0.046569 -0.85297 0.065109 -0.51769
0.013094 -0.383423 0.049377 0.856066 -0.131577 0.499366
-0.118384 0.050661 -0.06368 -0.848364 0.150604 -0.506223
-0.197464 0.512406 -0.01555 -0.697944 0.71003 0.036051
0.023717 -0.042754 0.124263 -0.012054 -0.408013 0.903911
0.049021 0.476009 -0.129355 -0.258598 0.084404 -0.959485
0.378023 0.290353 -0.129658 -0.063687 -0.153745 -0.980163
0.146914 -0.524536 -0.104138 0.367073 -0.009885 -0.929336
0.134316 -0.761249 -0.102247 0.242517 0.167211 -0.948432
-0.004014 -0.202436 -0.073272 0.644246 0.027091 -0.763327
0.182285 -0.160503 -0.069073 0.667403 -0.06591 -0.741391
-0.196907 0.508087 -0.038631 -0.713974 0.629105 -0.306149
-0.070602 -0.197831 -0.090033 -0.376963 -0.057039 -0.923347
-0.115276 0.428834 0.062197 -0.267216 -0.002889 0.962236
-0.260456 0.286906 -0.059995 0.738148 -0.579775 -0.342214
0.076764 0.655234 -0.043043 0.788633 0.088305 -0.607637
0.20048 -0.024322 -0.043605 0.950645 0.02868 -0.307796
-0.129478 -0.471979 -0.046482 -0.837231 0.068082 -0.542377
-0.125588 -0.191904 0.083592 -0.834433 -0.003864 0.549219
0.063081 0.551231 -0.117883 -0.16808 0.479548 -0.858435
-0.006426 0.730627 -0.094875 -0.550991 -0.489243 -0.670384
0.020343 -0.323113 0.053803 0.909793 -0.12481 0.395338
0.086594 -0.844623 0.061574 -0.918286 0.394192 0.013849
0.616946 0.076656 0.007422 0.531911 -0.093747 -0.826642
-0.014835 0.681438 -0.024184 -0.814798 -0.48208 -0.315938
0.146097 -0.355088 0.078075 0.153809 -0.105128 0.981342
0.026855 0.381302 0.106211 0.056747 0.181229 0.981408
0.011432 -0.744951 -0.081542 0.812369 0.058695 -0.578637
-0.114618 -0.656458 -0.088684 -0.659367 0.004448 -0.748828
0.041209 0.660454 0.08242 0.11787 -0.955777 0.253366
-0.11286 -0.295603 -0.043881 -0.862834 0.034291 -0.503659
0.025855 -0.183542 -0.031212 -0.650162 0.034635 -0.751626
0.001131 -0.571424 -0.066215 0.764211 -0.027577 -0.644305
-0.002465 -0.77839 -0.113921 0.836734 0.286045 -0.465986
0.180795 0.558697 -0.017787 0.238947 0.819482 0.518517
0.198512 -0.351537 0.032603 0.934924 -0.108073 0.336404
0.451935 0.246305 -0.100563 0.644945 -0.257342 -0.717663
-0.128147 -0.3393 -0.00417 -0.999251 0.007196 -0.029696
0.104579 0.359977 0.096493 0.28645 0.09015 0.95176
-0.00205 -0.45677 -0.061808 0.73957 0.095527 -0.666121
-0.023207 0.590746 -0.00943 -0.610586 0.566463 0.550797
0.180804 -0.750774 -0.038147 0.685796 -0.010645 -0.721573
0.119546 -0.867713 0.01346 -0.051704 -0.993023 -0.096618
-0.135188 -0.185674 0.06314 -0.965349 -0.048518 0.247572
0.031128 0.395793 -0.128992 -0.119382 0.004145 -0.992779
0.427318 0.226277 -0.038263 -0.290817 -0.397246 0.857801
-0.026896 -0.581078 0.032168 0.377516 -0.296158 0.877282
0.144166 0.184527 0.084966 0.715543 0.031403 0.697835
0.093219 0.029693 0.127975 0.213839 0.239941 0.946137
0.145422 -0.572319 -0.10246 0.297198 -0.098351 -0.949071
0.020158 -0.419371 -0.01762 0.992303 0.002624 -0.119519
0.012485 -0.565754 -0.051222 0.829682 0.024645 -0.557025
0.176364 0.520858 -0.121851 0.181818 0.519594 -0.834713
-0.051352 0.589292 -0.036239 -0.319125 0.926817 0.160801
-0.288125 0.262603 -0.01994 0.737554 -0.554103 0.383343
-0.109211 -0.115975 0.102006 -0.685244 0.042684 0.726704
-0.101464 -0.719864 -0.097887 -0.776094 0.022642 -0.630069
-0.062405 0.470238 -0.129581 -0.116906 0.078677 -0.989796
0.130584 0.24189 -0.115816 0.692955 -0.202696 -0.690909
0.056608 -0.397047 0.017803 -0.682637 -0.341062 0.646222
0.348007 0.390688 -0.1047 0.942326 -0.324692 0.047177
-0.114879 0.292292 -0.030048 -0.959888 -0.269695 0.018742
0.08144 0.730642 -0.083862 0.686398 -0.418906 -0.593565
0.050883 0.460723 0.084908 0.160647 0.362642 0.917063
-0.127692 0.074247 0.030789 -0.977033 0.150462 0.145411
0.106843 0.126208 -0.122304 0.40017 0.33595 -0.850934
-0.132132 0.534685 -0.075922 -0.378729 0.669781 -0.637875
0.205007 0.000526 -0.024382 0.969388 0.095924 -0.214542
0.008476 -0.748005 -0.016227 0.601276 -0.431177 0.665431
0.027347 -0.309864 0.034036 0.991784 -0.029897 0.121055
-0.117495 -0.297736 -0.035573 -0.828172 0.048323 -0.558357
0.081442 0.474825 0.076304 0.137133 0.417368 0.896757
-0.136635 0.437813 -0.101199 -0.4833 -0.240894 -0.840914
-0.467172 0.134532 0.041834 0.73277 -0.612558 0.275595
0.20194 0.026968 0.050087 0.924962 0.107655 0.363254
0.132092 0.131917 -0.107583 0.561321 0.239457 -0.787624
0.232192 0.536244 -0.022242 0.615844 0.695356 0.364484
-0.021611 0.354664 0.106063 -0.185916 0.00412 0.979124
-0.10326 0.214975 -0.052426 -0.814528 -0.185382 -0.544154
0.087913 0.62728 -0.025569 0.962681 0.20773 0.103434
-0.241329 0.374255 0.019774 -0.023914 -0.16646 0.984794
-0.361635 0.309861 -0.06258 -0.652359 0.721414 -0.231951
-0.045521 0.452804 0.087527 -0.193665 0.318442 0.926899
0.150213 0.477277 0.057077 0.439742 0.376546 0.810887
-0.064405 0.432819 0.089007 -0.200748 0.192375 0.956445
0.177168 0.385605 -0.111597 0.43238 -0.501361 -0.748586
-0.272346 0.33467 -0.096384 0.059222 -0.070227 -0.992724
-0.003136 -0.788319 -0.01209 0.803648 -0.080407 0.583362
-0.120284 0.324483 -0.030312 -0.999277 -0.024692 0.022066
-0.25878 0.425732 -0.052668 -0.731068 0.636846 -0.239615
-0.011194 -0.106969 0.123957 0.257052 -0.185016 0.948197
-0.284586 0.400808 -0.057618 -0.512551 0.842564 -0.151526
0.1926 -0.018951 -0.063317 0.917956 0.041025 -0.394149
0.095567 -0.6331 -0.084765 -0.618192 -0.035152 -0.785134
-0.538281 0.10002 0.058581 -0.733342 0.678895 0.005021
0.093308 -0.855562 0.146383 -0.888905 0.228136 0.391043
-0.190718 0.515706 0.005854 -0.689276 0.69334 0.208226
0.073353 -0.25493 0.076862 -0.543025 -0.121389 0.828851
0.571853 0.086552 0.058804 -0.752867 -0.312056 0.558068
0.071288 -0.756219 -0.040836 -0.855932 0.238294 -0.456483
-0.187635 0.352415 -0.037457 0.608478 -0.788817 -0.06087
-0.00944 0.547742 -0.113181 -0.021849 0.363119 -0.9301
0.044778 0.776458 0.085944 0.474981 -0.238317 0.833935
-0.177216 0.435421 0.038951 0.020397 -0.474528 0.878404
0.019438 -0.688707 -0.018509 0.874871 -0.175679 0.451044
-0.209347 0.337143 -0.046064 0.608199 -0.775835 -0.159577
-0.002117 -0.263674 -0.069058 0.744396 -0.106466 -0.659015
0.146416 0.087416 -0.108492 0.68594 0.224197 -0.691966
-0.353466 0.312734 -0.020215 -0.651867 0.711653 0.259653
0.142331 -0.174088 -0.100066 0.503329 -0.073206 -0.860363
-0.030297 0.780579 -0.082069 -0.863599 -0.019442 -0.503129
-0.095513 -0.704866 -0.101986 -0.630678 0.088451 -0.770367
-0.120571 -0.544536 0.016772 -0.88109 -0.10453 0.460996
0.165598 0.162628 0.063655 0.712677 0.071283 0.697828
-0.419865 0.236797 -0.056277 -0.748713 0.277357 -0.595052
0.047198 -0.362258 0.022468 -0.709576 -0.342365 0.594311
0.016672 0.596376 0.022568 -0.447763 0.035271 0.891228
-0.119577 0.329125 -0.01623 -0.993598 -0.036516 0.104323
-0.088675 0.186938 0.079907 -0.657835 -0.020644 0.752726
-0.001705 0.222893 0.125352 -0.339399 0.151714 0.92714
-0.015238 -0.28753 -0.078177 0.680806 -0.119351 -0.722614
-0.36059 0.2962 -0.004904 -0.330878 0.592354 0.729417
0.360498 0.320603 -0.044583 0.217082 0.277859 0.934805
-0.147507 0.389985 -0.032305 0.743739 -0.665265 -0.05792
-0.029178 -0.055041 0.130511 -0.068572 -0.092864 0.992974
-0.094873 -0.833541 0.099206 -0.642465 0.756908 0.108562
0.157319 -0.835309 0.121019 0.638617 0.75421 0.131952
-0.126337 -0.720625 -0.060626 -0.971593 -0.033028 -0.227565
0.501465 0.216314 -0.009313 0.313104 0.560303 0.742111
0.171145 -0.004585 0.09144 0.696092 -0.229787 0.665351
0.302611 0.462781 -0.049991 0.785832 0.499858 0.345025
0.009211 -0.773476 -0.026943 0.833714 -0.055193 0.546721
0.04924 0.16821 0.129609 0.097124 0.046994 0.994133
0.458526 0.213887 -0.08003 0.618666 -0.408672 -0.663322
0.197062 0.35796 -0.028936 0.986862 -0.10706 0.110122
0.103364 -0.681951 -0.088813 -0.477151 0.063457 -0.874437
0.209235 0.411461 -0.095043 0.078173 -0.88952 -0.131268
-0.10824 -0.839376 0.042573 -0.73899 0.673232 0.021696
-0.000522 0.337727 0.112824 -0.038208 0.055773 0.997252
0.003805 0.7544 -0.112864 -0.438725 -0.271312 -0.853304
-0.049178 -0.863475 0.019704 0.046989 -0.998038 -0.037137
-0.041194 0.030581 0.128595 -0.319396 0.165845 0.928827
-0.018987 0.164218 0.123282 -0.442801 -0.014764 0.894722
0.173699 0.482532 0.037359 0.59022 0.277906 0.754168
0.037853 0.722848 -0.104028 0.0925 -0.699577 -0.660079
