-0.451059 0.17275 0.033353 0.051047 0.722665 0.6892
0.130405 0.08468 0.102703 0.316934 0.149645 0.928222
0.097089 0.599705 -0.028634 0.856686 0.405578 0.295338
-0.101692 -0.841274 0.102591 -0.726854 0.674019 0.126264
-0.081542 0.532005 -0.10281 -0.335062 0.403663 -0.847081
-0.103451 0.066943 -0.085173 -0.826514 0.146527 -0.543091
-0.090767 -0.406094 -0.06978 -0.573365 -0.018746 -0.819031
-0.047871 -0.80773 0.061759 0.304105 0.575355 0.748876
0.194147 -0.36822 0.040715 0.932171 -0.062014 0.356499
-0.127783 0.191018 0.008701 -0.993719 0.093484 0.047841
-0.121508 0.203253 0.026931 -0.94004 0.193802 0.277511
0.086241 -0.845931 0.048113 -0.980224 0.173219 -0.053259
0.232136 0.465726 -0.132112 0.157802 0.246241 -0.952849
0.095244 0.787897 -0.077095 0.891851 0.090675 -0.438964
-0.138624 -0.439704 -0.007757 -0.995079 0.0768 -0.058574
-0.072504 -0.801959 0.051564 -0.425506 0.768693 0.462342
0.056991 0.712617 -0.090274 0.353926 -0.585405 -0.727675
0.001926 0.621381 0.013545 -0.729854 -0.053191 0.68097
-0.09 -0.383538 -0.072681 -0.686046 -0.058038 -0.673505
-0.154125 0.482264 -0.09165 -0.378761 0.199774 -0.899977
-0.118456 -0.517935 -0.069342 -0.752235 0.13649 -0.643877
0.051325 -0.556063 -0.046995 -0.857937 -0.036951 -0.51236
0.000853 0.6871 0.07162 -0.747654 -0.056095 0.6606
0.237226 0.522821 -0.094959 0.549434 0.6245 -0.554368
0.155376 -0.711028 0.007616 0.462803 -0.445055 0.765557
-0.109447 -0.550696 -0.084686 -0.635394 0.128345 -0.760891
0.089078 0.697018 0.031991 0.97087 -0.234759 0.039639
-0.011759 0.649873 -0.018807 -0.999301 -0.000299 -0.021478
-0.12754 -0.460922 -0.047873 -0.821733 0.098678 -0.560911
0.032415 -0.016401 -0.143992 -0.189853 -0.335548 -0.921998
-0.108818 -0.848252 0.088977 -0.88559 0.179182 0.223268
0.048825 -0.605632 -0.040124 -0.895927 -0.09788 -0.427244
-0.135177 0.051548 -0.010339 -0.984413 0.12541 -0.104356
0.172299 -0.815365 -0.065319 0.795816 -0.592749 -0.062712
-0.129139 -0.276409 -0.003828 -0.989102 -0.070111 -0.122026
0.193176 0.503454 0.020908 0.308993 0.269616 0.910999
-0.025162 0.502999 0.06893 -0.101001 0.450962 0.885882
-0.393502 0.190098 0.013366 0.567138 -0.419181 0.634898
0.058725 0.533035 0.047464 0.026476 0.645951 0.759116
0.109507 0.027104 -0.150942 0.451432 0.031572 -0.889959
-0.012858 0.187788 -0.116769 -0.283748 -0.237298 -0.928602
-0.293004 0.261409 -0.011478 0.78655 -0.443341 0.407107
0.156775 0.283522 -0.086511 0.848829 -0.139599 -0.509584
-0.094507 -0.861663 -0.000701 -0.261859 -0.953306 -0.091567
-0.118232 0.302349 -0.031529 -0.965139 -0.250521 0.011001
-0.032276 -0.728129 0.025521 0.266695 -0.30333 0.907458
0.565386 0.113125 -0.013728 0.497486 0.153378 -0.853448
-0.01047 -0.404382 -0.064397 0.551715 0.144989 -0.819593
0.0243 -0.063183 -0.113811 -0.26835 -0.620977 -0.730894
0.075577 -0.099586 0.089606 -0.581888 -0.360897 0.676273
0.471466 0.258396 -0.077674 0.792886 0.549163 -0.25386
-0.018275 0.619242 -0.029792 -0.940434 0.281554 -0.011447
-0.031464 0.725186 -0.033388 -0.759553 -0.614166 -0.192522
-0.102878 0.297876 0.050401 -0.893696 0.197866 0.394482
-0.038479 0.758902 -0.038923 -0.991877 -0.059621 -0.105454
0.301856 0.448872 -0.114637 0.544433 0.628298 -0.555598
-0.049068 -0.319823 0.100512 0.299691 -0.105883 0.947878
0.180874 -0.550372 -0.078368 0.72705 -0.03478 -0.68555
0.119173 -0.362069 0.074774 -0.259131 -0.210336 0.941996
0.014223 0.52667 -0.120529 -0.007869 0.217974 -0.974871
-0.470665 0.184667 -0.009581 -0.813212 0.57877 -0.047
-0.036705 -0.620605 0.028219 0.340233 -0.150257 0.927518
-0.056665 -0.093273 -0.109894 -0.229268 -0.195598 -0.95043
0.105726 -0.175558 0.099195 -0.216373 -0.220729 0.947127
0.065174 -0.359889 -0.072137 -0.779063 -0.070178 -0.622967
0.008979 -0.398171 -0.047024 0.805386 0.050486 -0.589223
0.049894 0.433883 0.091636 0.072599 0.241967 0.966076
-0.118499 -0.302007 0.087171 -0.867812 -0.039336 0.486965
0.179765 -0.53052 -0.080557 0.703852 -0.034432 -0.709442
0.138838 0.409774 0.078169 0.533544 0.080017 0.841597
0.063574 -0.696002 0.029398 -0.569491 0.289345 0.7594
-0.130487 0.11001 0.004701 -0.993734 -0.088571 0.023414
0.07546 -0.756152 0.01675 0.112883 -0.638159 0.744338
0.141633 -0.796667 -0.113281 0.408171 0.261656 -0.873523
0.082392 0.843602 0.009493 0.871628 0.475475 0.107559
-0.11226 -0.779042 -0.083669 -0.90138 0.007461 -0.432195
0.182369 0.264682 -0.019336 0.990682 -0.002465 -0.126205
-0.402888 0.231859 0.012262 -0.027539 0.218297 0.972616
0.108493 -0.652486 0.034097 -0.073653 -0.061031 0.991624
-0.045164 0.554078 -0.103898 -0.275171 0.486224 -0.827997
0.107684 -0.365007 -0.10119 -0.07286 0.013363 -0.991406
-0.471056 0.127615 0.034185 0.740797 -0.650911 0.165092
-0.118136 -0.66448 0.00818 -0.96395 -0.186091 0.189633
0.076946 -0.824034 -0.030534 -0.337883 -0.938737 -0.017248
0.205664 -0.203612 -0.035328 0.98364 -0.020323 -0.167376
0.107448 0.205605 0.108414 0.515913 0.043844 0.854658
0.193098 0.41921 0.028507 0.836803 -0.300934 0.437212
0.056982 -0.336919 0.044532 -0.716327 -0.18657 0.671826
0.205613 -0.212011 0.020864 0.989936 -0.019524 0.133207
-0.099876 -0.605285 -0.094993 -0.477107 0.069707 -0.875191
0.175462 -0.214651 0.08382 0.471159 -0.186328 0.857868
-0.079692 -0.093259 0.117573 -0.435138 -0.014681 0.89942
0.052664 -0.617389 -0.01217 -0.854848 0.122685 0.48907
-0.087335 0.379332 0.077192 -0.689772 -0.105237 0.712184
0.205007 0.000526 -0.024382 0.969388 0.095924 -0.214542
-0.107177 0.171493 -0.052024 -0.852333 0.080517 -0.51667
-0.059359 -0.469279 -0.095776 -0.003698 0.11512 -0.992396
0.083513 -0.852809 0.071858 -0.978952 -0.013544 -0.069445
0.01374 -0.040184 0.129622 0.337927 -0.225649 0.911684
0.11408 0.488788 -0.142699 -0.015286 0.289672 -0.954317
0.206415 0.033169 -0.007883 0.9961 0.03945 -0.077029
0.098104 -0.601861 -0.089473 -0.591968 -0.092277 -0.797494
-0.031409 0.459346 -0.131481 0.087207 0.047176 -0.994723
0.017429 -0.196062 0.081708 0.920752 -0.056765 0.367694
0.121021 -0.807718 0.062952 0.115069 0.764349 0.625619
0.140549 0.499712 0.046765 0.356638 0.525082 0.772473
0.099926 -0.780711 -0.09755 -0.646838 0.411107 -0.636941
-0.146227 0.438273 0.052149 -0.502133 -0.381112 0.774563
-0.033911 0.81025 -0.071565 -0.949604 0.080462 -0.294239
-0.113131 -0.793826 -0.012905 -0.893096 -0.27925 0.335671
0.353858 0.271567 -0.085116 -0.672545 -0.739145 0.008284
0.176085 0.310897 0.033129 0.960395 0.001234 0.277836
-0.074906 -0.789932 -0.135318 -0.60465 0.231924 -0.752632
-0.488974 0.160138 -0.023607 -0.781739 0.538065 -0.307056
0.035273 0.102392 0.136131 0.019955 0.024584 0.996004
-0.015238 -0.28753 -0.078177 0.680806 -0.119351 -0.722614
0.205616 0.032349 0.034047 0.983883 0.085362 0.145937
0.131555 -0.000334 0.120349 0.380716 -0.226666 0.89613
0.021997 -0.41124 -0.008065 0.982725 -0.152774 -0.08613
-0.144051 -0.113814 0.025339 -0.997247 -0.001701 0.068312
0.066158 0.559675 0.020217 0.213861 0.402477 0.879669
-0.303354 0.244357 -0.022505 0.659236 -0.722076 0.207996
-0.330505 0.308442 0.000234 -0.365574 0.225473 0.90093
0.147619 -0.154241 0.103647 0.283244 -0.24661 0.925696
-0.309801 0.239177 -0.031544 0.548438 -0.835056 0.02937
-0.127539 0.179081 -0.009313 -0.976691 0.046145 -0.192627
0.177 0.542068 0.002875 0.248899 0.653512 0.714395
0.038208 -0.256167 -0.035961 -0.802995 0.014819 -0.592307
-0.096074 -0.407459 0.090764 -0.179823 -0.240557 0.942593
0.010118 -0.80436 -0.053816 0.960382 -0.236901 0.139011
0.147032 -0.023778 -0.131378 0.667377 -0.028864 -0.74338
-0.14259 -0.058852 0.029819 -0.986291 0.049421 0.154393
-0.023627 0.761162 -0.088823 -0.782227 -0.218371 -0.581077
0.041996 0.012134 -0.153602 -0.178858 -0.301152 -0.934116
0.1828 0.229552 -0.004318 0.999853 0.006862 -0.002696
-0.530607 0.073625 0.076537 0.20592 -0.854616 0.463119
0.079406 -0.753781 -0.055688 -0.862625 0.161545 -0.474061
0.344653 0.309346 -0.044157 -0.296128 -0.282344 0.888663
-0.104096 -0.207567 -0.061246 -0.82763 -0.050123 -0.558783
-0.136556 -0.204602 0.046222 -0.995566 -0.040222 0.084645
-0.214212 0.425231 0.03648 -0.356254 -0.042378 0.924911
-0.006961 0.447593 0.094991 -0.031949 0.303525 0.950106
0.138799 0.168376 -0.095132 0.606904 0.074976 -0.789703
-0.445391 0.14753 0.004083 0.687065 -0.724432 0.028167
-0.040496 -0.862732 -0.090123 0.105726 -0.99239 0.045885
-0.064418 -0.403188 -0.081565 -0.188789 0.028245 -0.978464
0.193173 -0.289577 -0.038403 0.812265 -0.144164 -0.564277
0.182674 0.224519 -0.014366 0.998032 0.010099 -0.059194
0.132985 -0.074712 0.114407 0.202665 -0.009308 0.978577
-0.29804 0.368145 -0.042055 -0.739927 0.668758 -0.010611
0.015033 -0.354181 0.05472 0.794366 -0.215074 0.566424
-0.146515 0.40572 0.017555 0.51546 -0.732655 0.440078
-0.008128 0.664463 -0.037675 -0.857202 -0.172505 -0.472681
0.023917 -0.54835 -0.012356 0.938575 0.022258 0.32166
0.006814 -0.127064 -0.06636 0.778751 -0.198655 -0.593576
-0.45356 0.167339 -0.049298 -0.426274 -0.094089 -0.804812
-0.018978 -0.572896 -0.087106 0.655899 -0.053233 -0.750492
-0.113211 0.072413 -0.068196 -0.8573 0.145515 -0.492213
-0.417636 0.250061 -0.032665 -0.769199 0.638699 -0.004774
-0.054831 0.217748 0.099571 -0.520758 0.097752 0.848035
0.49116 0.188843 0.014285 0.363708 0.775387 0.461314
-0.033836 0.054658 -0.138543 -0.221678 0.237038 -0.945469
0.090639 -0.840812 -0.094614 -0.976837 0.021648 -0.20895
0.476895 0.182913 -0.013312 -0.594813 -0.799451 0.078211
0.262172 0.448305 -0.008763 0.272889 -0.069271 0.956965
-0.43177 0.169373 -0.049957 0.352439 -0.654468 -0.655481
-0.053784 -0.34191 0.099168 0.201583 -0.097057 0.974475
0.055194 0.765467 0.072178 0.538929 -0.240103 0.804362
0.111701 0.015287 -0.149083 0.47148 -0.027792 -0.880717
0.01964 -0.338027 0.05008 0.892568 -0.140653 0.427451
0.050883 0.460723 0.084908 0.160647 0.362642 0.917063
-0.414648 0.213851 -0.059421 -0.415236 -0.093854 -0.902586
0.074708 -0.822101 0.004944 -0.541965 -0.798826 0.130369
0.158734 -0.083849 -0.107466 0.84016 -0.09607 -0.506063
0.204444 -0.259748 0.029312 0.990349 0.007142 0.132712
0.05102 -0.654196 -0.014051 -0.997339 -0.062788 -0.003642
-0.134449 -0.560913 -0.03156 -0.986013 -0.107759 0.115355
0.003315 0.632364 0.016478 -0.725485 -0.188583 0.660641
-0.108849 0.34035 0.03524 -0.886784 -0.225184 0.402874
0.14966 -0.810921 0.045437 0.599075 0.520565 0.607345
0.399033 0.227329 -0.079092 -0.608529 -0.782813 0.120044
0.006948 -0.803589 -0.040907 0.879056 -0.326971 0.345008
0.003525 0.580209 0.018911 -0.468653 0.218731 0.852965
-0.089654 0.520145 0.049016 -0.034146 0.49771 0.865218
0.066947 0.659545 0.034087 0.667252 -0.558787 0.460371
-0.125176 -0.681222 -0.033125 -0.941532 -0.115023 0.308799
-0.065584 0.057024 -0.124917 -0.407235 0.259514 -0.86044
0.00764 -0.42465 -0.048536 0.785266 -0.016333 -0.618752
0.029245 -0.301729 -0.005129 0.989993 -0.091778 -0.088609
-0.125731 0.403776 0.040063 -0.811618 -0.49575 0.297298
-0.085504 -0.587646 0.05857 0.140096 -0.202484 0.96476
0.203905 -0.355626 -0.023121 0.961963 0.079228 -0.256817
0.095408 0.603509 -0.062356 0.653119 0.718732 -0.220412
0.509453 0.170975 0.018208 -0.010307 0.180556 0.932682
0.208129 -0.060035 0.041048 0.938091 0.083817 0.335076
0.350128 0.406666 -0.07951 0.853028 0.376451 0.320947
0.036935 0.289098 -0.128135 -0.142252 -0.017683 -0.988604
-0.010232 0.167368 0.127344 -0.3227 -0.012293 0.940195
0.09819 -0.63571 0.027217 -0.617608 0.149064 0.756729
-0.128129 -0.220253 -0.015818 -0.921126 -0.063371 -0.383478
0.026895 0.629306 0.030966 -0.221959 -0.43736 0.862794
0.253631 0.438249 -0.007162 0.327565 -0.189268 0.924822
0.194581 0.157905 -0.012338 0.843579 0.373667 -0.358464
0.415821 0.228605 -0.04184 -0.43054 -0.49379 0.727139
0.591971 0.089005 0.06928 -0.831208 -0.179573 0.512213
0.187962 -0.672028 -0.050694 0.705209 -0.296777 -0.642163
-0.09459 0.409125 -0.114707 -0.339991 -0.205423 -0.917421
0.05144 -0.668126 -0.004943 -0.998368 -0.023936 0.038716
-0.397222 0.222254 0.013198 0.11318 0.085341 0.989567
-0.122451 0.002355 0.083806 -0.799879 -0.144246 0.558149
-0.06206 0.197389 0.097898 -0.442968 0.047473 0.894875
0.01594 0.074342 0.136362 0.202724 0.058439 0.977369
-0.020937 -0.790869 0.028192 0.901229 0.263395 0.337318
0.080382 0.446115 0.086224 0.124275 0.299574 0.945646
-0.098234 -0.325214 0.103846 -0.29927 -0.056838 0.944
0.119056 -0.824524 0.124983 -0.078563 0.994119 0.028226
-0.141404 -0.041333 0.030461 -0.964702 0.144036 0.212941
-0.109151 0.208792 -0.041959 -0.854087 -0.016843 -0.516763
-0.053344 0.531941 0.046105 -0.200849 0.612149 0.764791
0.061183 -0.706493 0.031319 -0.794905 0.202435 0.564867
0.032943 -0.247385 0.018524 0.904197 -0.092715 0.413098
0.158988 0.40653 0.062912 0.726339 0.031312 0.686592
-0.184148 0.497644 -0.066257 -0.603607 0.463558 -0.647815
0.176718 0.52223 0.018663 0.346074 0.500811 0.791586
-0.128274 -0.617936 -0.020297 -0.994183 -0.037469 0.097944
-0.104174 -0.336996 -0.059049 -0.739105 0.071752 -0.66821
-0.147662 0.442863 -0.096307 -0.287766 -0.10551 -0.947852
0.156283 -0.845602 0.163527 0.812668 0.459866 0.345005
0.027197 -0.223758 0.046293 0.974138 -0.027233 0.224151
0.010531 -0.527283 0.01788 0.703992 -0.170323 0.689182
-0.068174 -0.782273 -0.136766 -0.430313 0.355903 -0.826729
0.207775 -0.096474 -0.029282 0.933956 0.058581 -0.351971
-0.102859 -0.492599 -0.081314 -0.619532 0.12862 -0.773063
0.166247 -0.256205 0.080345 0.334563 -0.094287 0.934131
-0.086852 -0.396545 -0.073076 -0.51975 -0.079317 -0.850147
-0.218408 0.369054 -0.094659 0.205934 -0.24793 -0.943072
0.129748 -0.857667 0.183372 -0.012526 -0.445647 0.835843
-0.003425 -0.469085 0.046755 0.718076 -0.142679 0.681092
0.364655 0.328748 -0.04905 0.328151 0.35767 0.873988
-0.12786 0.187136 -0.003071 -0.987677 0.077363 -0.112341
0.045095 0.306488 -0.130045 -0.323286 0.002057 -0.943288
0.085841 -0.72459 0.036449 0.017691 -0.115084 0.992456
0.206809 -0.007279 -0.017334 0.981405 0.090184 -0.168887
-0.07298 0.509848 0.057136 -0.171623 0.462747 0.868204
0.078582 0.466102 0.080749 0.106273 0.342279 0.931188
0.209305 0.521171 -0.114832 0.245391 0.64384 -0.723602
0.047081 0.705001 0.089821 0.440633 -0.090535 0.890292
0.166936 -0.694153 -0.068533 0.789961 -0.0561 -0.610204
0.459119 0.276367 -0.063801 0.709127 0.685619 0.150021
0.025679 -0.661467 -0.049578 0.957061 0.063144 -0.263884
0.180986 -0.782479 -0.003557 0.899148 -0.381255 0.206693
-0.142713 -0.168295 0.016426 -0.986848 -0.145767 -0.010371
0.00064 -0.809706 -0.114691 0.873495 -0.170934 -0.437075
-0.059054 -0.198172 -0.093065 -0.287274 -0.107509 -0.951679
0.169822 -0.818603 -0.044462 0.780021 -0.625429 0.00735
0.024232 -0.586147 -0.035138 0.901202 0.113259 -0.405517
0.444268 0.276526 -0.107222 0.727521 0.298834 -0.612397
-0.344567 0.229436 0.005247 0.372716 -0.398214 0.825338
0.195742 -0.477583 -0.057385 0.876685 0.032407 -0.473514
0.193127 -0.378784 -0.049822 0.738538 0.093102 -0.660878
0.191369 0.095697 0.032232 0.990063 0.016052 0.122809
-0.04054 -0.673605 0.021606 -0.041409 -0.180313 0.981134
-0.017078 0.589715 -0.084669 -0.248233 0.689098 -0.675682
-0.123409 -0.5772 -0.073258 -0.777581 0.043492 -0.626562
0.094831 -0.74088 0.030148 -0.000131 -0.449316 0.889504
0.039784 0.124647 0.132322 0.081694 0.062899 0.994376
-0.094623 0.44301 -0.121087 -0.266843 -0.109923 -0.956986
-0.073183 0.349019 0.087998 -0.542859 -0.112108 0.82763
0.263773 0.357163 -0.046995 -0.619949 -0.662999 0.414339
-0.105567 -0.561353 0.041195 -0.878948 -0.060147 0.472188
0.002215 -0.47357 0.040029 0.709769 -0.145596 0.688931
-0.014325 0.534576 -0.11768 -0.083441 0.366239 -0.925589
0.119666 -0.869486 0.041222 -0.009846 -0.999436 -0.031202
-0.133693 0.040891 -0.026627 -0.95926 0.158568 -0.230057
0.121698 -0.013377 -0.146718 0.414071 0.009482 -0.907548
0.042126 -0.237027 0.02479 -0.988502 -0.035529 0.144789
0.171591 -0.199145 -0.077074 0.627465 -0.099152 -0.771927
-0.137139 -0.021619 -0.022712 -0.993148 0.052124 -0.102191
0.051421 -0.160462 -0.081468 -0.769483 -0.186796 -0.610099
0.017602 -0.636831 -0.054771 0.68257 0.148752 -0.715282
0.153464 -0.003468 -0.123222 0.720064 0.109513 -0.68476
0.071868 0.420493 0.091902 0.157428 0.252702 0.954353
-0.012432 -0.389816 0.07671 0.569101 -0.218962 0.792533
-0.215097 0.44046 0.03368 -0.624907 0.212909 0.746377
0.128499 0.428917 -0.144781 0.144202 -0.088599 -0.98542
-0.124783 0.370043 -0.058149 -0.931481 -0.343042 -0.113898
-0.252073 0.430052 -0.058421 -0.674184 0.64523 -0.356557
0.167493 -0.781704 -0.086558 0.735331 0.336341 -0.587318
-0.116104 0.229936 -0.032432 -0.942942 0.040938 -0.298494
-0.016963 -0.278151 -0.080945 0.649978 -0.095973 -0.753611
-0.1102 -0.230086 -0.04945 -0.855036 -0.030749 -0.516865
0.154239 -0.551559 -0.099587 0.520317 -0.03835 -0.853035
-0.05166 -0.86108 -0.026172 0.155412 -0.983101 -0.073448
0.143009 -0.240401 -0.089679 0.495642 -0.148198 -0.855642
0.080862 -0.373253 -0.086686 -0.665457 -0.075012 -0.742333
0.503122 0.194458 -0.057605 0.188698 -0.409666 -0.89129
-0.06931 0.079628 0.105061 -0.454105 0.345161 0.814068
0.164497 -0.547339 -0.093608 0.682774 -0.033679 -0.729851
0.038221 0.077177 0.133039 0.083904 0.086825 0.991697
0.020828 -0.402507 -0.021335 0.96849 -0.093375 -0.225165
0.393147 0.23376 -0.069081 -0.593484 -0.789978 0.152192
-0.111904 -0.811141 -0.047018 -0.868841 -0.491764 0.039722
0.126145 -0.720936 0.018664 0.389296 -0.036195 0.915069
0.097338 -0.816077 -0.107921 -0.732015 0.002199 -0.676251
-0.060803 0.308264 -0.119664 -0.424841 -0.015949 -0.905071
-0.248159 0.440201 -0.047377 -0.717582 0.649631 -0.246022
0.197322 -0.089685 -0.053048 0.89008 0.023642 -0.45451
-0.070197 0.294671 0.086155 -0.448263 -0.022938 0.88102
0.151881 0.353295 0.067344 0.679782 -0.117357 0.723584
0.015091 -0.301771 0.069761 0.802531 -0.166202 0.572267
0.151197 -0.13996 0.105322 0.312475 -0.152008 0.934734
-0.145606 0.551629 -0.033816 -0.434878 0.868552 -0.211291
0.172729 -0.764199 -0.058895 0.808138 0.406023 -0.419963
-0.126212 0.447481 0.061382 -0.06934 -0.017847 0.994713
-0.022767 -0.84324 0.062084 0.97819 0.162716 0.08991
0.018374 -0.405393 -0.031504 0.941499 -0.027448 -0.331894
0.101536 0.021609 0.128401 0.264268 0.260953 0.927509
0.100209 0.71751 -0.01144 0.945671 -0.286041 -0.060172
-0.011244 0.204178 0.124702 -0.530071 0.137614 0.836194
0.23124 0.431383 -0.134003 -0.250903 -0.099781 -0.961886
-0.010837 0.374827 -0.129135 0.026144 -0.017464 -0.999409
0.107561 -0.207153 0.094575 -0.071965 -0.171664 0.980471
-0.065262 -0.574631 -0.103491 -0.014275 0.02205 -0.998761
0.095761 -0.867317 0.070079 -0.489837 -0.868848 -0.039525
0.204394 -0.273923 0.028263 0.986489 -0.022233 0.154431
0.190384 0.540083 0.00034 0.273573 0.642051 0.715042
-0.087532 -0.251831 -0.07747 -0.723571 -0.048963 -0.688402
-0.136441 0.484481 -0.099512 -0.435573 0.181365 -0.881549
0.058819 0.620097 0.021849 0.599814 -0.197668 0.774785
0.10826 0.431841 -0.146395 -0.016944 -0.038789 -0.998809
0.020329 0.751964 0.083784 -0.870981 0.211095 0.433218
0.177936 -0.784563 -0.07134 0.866866 0.169356 -0.435475
-0.036006 -0.047295 0.130889 -0.108321 -0.140236 0.983809
0.025255 -0.184526 0.055347 0.959346 -0.058343 0.270346
0.21114 0.54822 -0.01947 0.399936 0.803293 0.432306
-0.404821 0.206767 -0.061721 -0.207797 -0.297868 -0.929164
0.40794 0.279322 -0.127592 0.154074 0.084345 -0.980435
-0.123344 -0.116453 0.083886 -0.837589 0.032524 0.544503
0.182585 0.245143 0.015213 0.998002 -0.013531 0.060852
-0.098298 0.274845 -0.087177 -0.756555 -0.068343 -0.649971
0.106995 -0.11678 0.109287 -0.623989 -0.072527 0.777912
-0.554746 0.071228 0.001518 -0.617818 0.51995 -0.274083
-0.079727 0.116352 0.088809 -0.613927 0.196406 0.7615
-0.125147 -0.733723 -0.028367 -0.922647 0.069864 0.37577
0.187116 0.327587 -0.051056 0.856976 -0.357078 -0.371543
0.068246 -0.508681 -0.074039 -0.719832 -0.039932 -0.692651
-0.05506 -0.694305 -0.114148 0.130425 0.267005 -0.953686
0.182051 -0.784144 -0.013349 0.92361 -0.360204 0.118293
0.435853 0.205214 -0.063969 -0.542315 -0.826847 0.130954
0.418739 0.301604 -0.056641 0.447726 0.658497 0.598729
-0.412832 0.206043 0.017617 0.011356 0.255234 0.963759
-0.067215 0.178341 -0.090047 -0.501508 -0.072932 -0.859798
-0.014992 -0.505056 -0.082624 0.690496 0.067265 -0.720088
-0.537754 0.089011 0.020989 0.169989 0.431847 -0.726845
-0.564025 0.054558 0.060721 -0.982386 0.166172 0.073096
0.135988 -0.146672 -0.107271 0.402489 -0.220653 -0.886041
0.437559 0.201385 -0.102188 -0.160346 -0.961642 -0.121405
0.094554 0.481915 0.071119 0.198592 0.475482 0.854662
-0.140524 0.546538 -0.054065 -0.504788 0.726094 -0.466403
0.264706 0.419531 -0.140863 -0.084704 0.038978 -0.994451
0.170665 0.234577 -0.053392 0.883628 0.020151 -0.467683
-0.012212 0.088178 0.128479 -0.371187 -0.03958 0.925679
-0.128141 0.385551 -0.034572 -0.996618 -0.079362 -0.001882
0.150074 -0.071745 0.107833 0.55982 0.042391 0.802925
0.175489 0.554913 -0.090872 0.322389 0.750306 -0.576304
0.009474 0.502566 -0.123223 0.064909 0.017149 -0.997258
0.207066 -0.205817 -0.005486 0.998914 -0.043677 0.006474
-0.136585 -0.150201 -0.017792 -0.931196 -0.098884 -0.349368
-0.02898 -0.650562 0.023903 0.015784 0.009921 0.997698
-0.003308 0.389108 0.105746 0.025413 0.090301 0.995288
0.173341 0.31161 0.042472 0.906019 0.049491 0.407677
-0.324006 0.34123 -0.060903 -0.644692 0.727401 -0.226167
0.394612 0.231333 -0.094257 -0.650847 -0.732169 -0.158551
-0.080696 0.014429 0.117234 -0.458149 0.296804 0.837529
0.323795 0.297655 -0.08453 -0.700786 -0.710514 0.037656
0.118836 -0.315977 -0.097655 0.318121 0.027429 -0.945772
0.201399 -0.571951 -0.037188 0.974641 -0.100356 -0.194925
-0.037049 0.726067 -0.020746 -0.836134 -0.525919 0.011636
-0.109057 0.298292 0.027244 -0.957041 0.003598 0.289276
-0.068674 -0.863937 0.040523 -0.022792 -0.99964 -0.012926
0.125886 0.283812 -0.12724 0.600384 -0.048577 -0.798089
0.097798 -0.370247 0.063504 -0.462952 -0.27331 0.842523
-0.087685 0.0254 -0.117127 -0.731941 0.136911 -0.661183
-0.119308 -0.211965 -0.034394 -0.865268 -0.096282 -0.491503
0.520835 0.211365 -0.062604 0.140791 -0.305593 -0.91834
-0.035272 -0.817861 -0.147416 0.163843 -0.241645 -0.950221
-0.052846 0.022289 -0.138829 -0.286272 -0.232647 -0.921092
0.061321 -0.047165 0.127791 0.045699 -0.380431 0.92344
0.188044 0.323273 0.003505 0.961599 -0.115944 0.242332
-0.126144 -0.324246 0.039144 -0.992542 -0.031696 0.116957
-0.109424 0.25139 -0.063031 -0.930845 -0.107527 -0.345907
0.038657 -0.318923 0.00579 -0.89331 -0.074696 0.434975
-0.512696 0.124648 0.005712 -0.830868 -0.027078 -0.497424
-0.073945 -0.800159 -0.137148 -0.64495 -0.133085 -0.744266
0.198654 0.385663 -0.039395 0.997155 -0.065056 0.022226
0.105259 -0.130852 0.107205 -0.601371 -0.051816 0.796392
-0.033656 0.532665 0.050259 -0.202551 0.535179 0.818599
-0.004856 -0.667683 -0.077303 0.520397 0.160328 -0.8376
0.261714 0.515136 -0.044062 0.73 0.672294 0.097955
-0.136676 -0.432675 -0.01631 -0.970716 0.117456 -0.205646
0.276432 0.46861 -0.01708 0.684762 0.159946 0.710914
0.081801 -0.094374 0.09689 -0.498033 -0.393028 0.764909
0.087281 0.450873 -0.144603 -0.175674 0.0176 -0.983996
-0.001806 0.350024 0.112491 -0.073428 0.060704 0.99395
0.025754 -0.698252 -0.039073 0.983997 -0.109972 0.133905
0.156995 -0.8229 0.044632 0.868021 0.426177 0.191883
-0.133086 -0.499557 0.005936 -0.883229 -0.178883 0.429662
0.119829 0.503637 0.0513 0.281599 0.502983 0.816313
-0.130216 0.061642 0.033247 -0.921913 0.33128 0.198374
0.055707 -0.152901 -0.088633 -0.663539 -0.193235 -0.722398
0.074617 0.501303 0.064567 0.110116 0.476293 0.870748
-0.011806 -0.171743 0.114564 0.477661 -0.137255 0.866976
0.022553 -0.435797 0.007933 0.963984 0.149216 0.215205
-0.554873 0.071356 0.081939 -0.840831 0.35038 0.342611
0.066028 0.434819 -0.137975 -0.291357 0.009013 -0.95588
-0.192107 0.505376 0.022361 -0.653481 0.596555 0.465055
-0.080599 -0.274047 0.109655 -0.03083 -0.101156 0.99287
0.186899 0.040793 -0.069941 0.866016 0.117081 -0.485538
-0.027375 0.720461 0.030748 -0.980068 -0.064096 0.184731
0.147842 -0.06317 -0.121416 0.629927 -0.197778 -0.750806
-0.007964 -0.319934 -0.065711 0.711553 -0.087552 -0.69713
-0.004356 0.608822 -0.069747 -0.433075 0.64842 -0.624928
-0.206946 0.451561 0.036085 -0.554694 0.270568 0.786184
-0.125471 -0.64732 -0.023138 -0.964357 -0.141511 0.221017
-0.109048 0.180114 0.056789 -0.814067 -0.037669 0.579537
0.256744 0.384044 -0.133465 -0.458993 -0.342737 -0.816382
-0.148737 0.451155 0.056306 -0.333319 -0.265265 0.902286
0.135771 -0.822926 0.091903 0.21542 0.951869 0.213571
0.08858 -0.770721 0.019807 -0.202103 0.820413 0.532378
-0.412801 0.239655 0.007368 -0.390497 0.507815 0.76506
0.21024 -0.127473 -0.026226 0.915483 -0.047572 -0.396372
0.141201 -0.107443 -0.115537 0.48483 -0.211133 -0.848181
0.161935 0.493019 0.04254 0.453016 0.391813 0.795738
0.134844 0.49185 0.053704 0.280939 0.553039 0.784219
0.313187 0.42295 -0.038759 0.753264 0.24976 0.607093
0.168672 -0.410536 0.071415 0.3342 -0.073708 0.934685
-0.06513 0.302247 0.089185 -0.520977 -0.028879 0.852778
0.146332 0.311263 0.071235 0.774297 0.047137 0.630873
0.066264 0.648539 -0.055353 0.545777 0.163732 -0.821058
0.133262 0.167461 0.095801 0.56504 0.023126 0.822539
-0.036199 -0.237529 0.111411 0.122732 -0.191924 0.973621
-0.002516 -0.829691 -0.029462 0.440356 -0.874667 0.117397
-0.202453 0.346126 -0.061197 0.553344 -0.755479 -0.34617
0.026286 -0.221219 -0.03241 0.1454 -0.073256 -0.901562
-0.092964 0.317363 0.061463 -0.876994 0.091251 0.467481
0.195795 -0.358741 0.038692 0.906252 -0.09045 0.412288
0.248973 0.364697 -0.092624 -0.689432 -0.723568 -0.030863
0.02026 0.467135 0.08709 0.086405 0.446509 0.88627
0.104331 0.771608 -0.002998 0.984245 -0.04351 0.155444
-0.094007 -0.385011 0.096067 -0.07248 -0.183869 0.979104
-0.075924 0.220054 -0.090276 -0.754871 -0.236495 -0.610973
-0.103766 0.390187 0.065506 -0.642273 -0.125525 0.754693
0.201116 -0.569629 -0.006948 0.963532 -0.081501 0.252846
-0.109347 -0.717108 -0.00789 -0.839582 -0.352947 0.410351
0.192203 -0.318101 0.05444 0.912856 -0.060663 0.403543
0.089519 -0.856653 0.13508 -0.925663 -0.106174 0.238833
-0.111509 0.257593 -0.051474 -0.995589 -0.006881 -0.084602
-0.487871 0.105388 0.023909 0.773202 -0.609939 -0.159881
-0.124554 0.083264 -0.039337 -0.940154 0.109741 -0.321779
-0.441501 0.223806 -0.02625 -0.720872 0.69045 -0.040238
0.197887 0.05917 -0.038337 0.959562 0.077922 -0.269251
0.107536 -0.823841 -0.114127 -0.435583 -0.053061 -0.894314
0.028355 -0.181725 0.044771 0.945819 -0.118534 0.294793
0.068242 0.534577 0.045791 0.069437 0.617979 0.776887
0.122331 0.449678 0.077557 0.285082 0.352692 0.890297
-0.002535 -0.181786 0.107455 0.610779 -0.077066 0.787985
-0.025858 0.838619 0.009885 -0.708317 0.351186 0.592196
-0.024531 -0.717439 -0.105601 0.520079 0.289354 -0.802685
-0.099164 -0.500922 -0.085341 -0.539507 0.133696 -0.830296
0.17779 -0.747465 0.009379 0.357024 0.758021 0.544054
0.194414 0.108158 0.022567 0.941586 -0.228123 0.241451
0.620834 0.049358 0.070828 -0.815481 -0.574335 0.000689
-0.289517 0.318833 0.007771 -0.123821 -0.073604 0.98804
-0.053425 -0.327308 -0.089385 -0.073525 -0.046156 -0.994608
-0.244551 0.31992 -0.003711 0.549198 -0.553562 0.624044
0.209978 -0.116528 -0.027419 0.916466 0.032561 -0.397163
-0.060346 0.179007 0.099095 -0.439663 0.021418 0.896597
0.096369 0.728224 0.019338 0.970929 -0.018839 0.228839
0.176081 -0.803972 -0.038772 0.961438 -0.266699 0.028729
-0.128277 -0.428828 0.043726 -0.925277 -0.082225 0.369575
-0.292337 0.336195 0.005457 -0.286997 0.181797 0.938606
-0.064101 -0.628532 -0.10577 0.066471 0.069069 -0.994339
0.178997 -0.677743 0.015336 0.503853 -0.261305 0.822094
0.047025 0.657662 -0.064655 0.189294 -0.102551 -0.975481
0.101651 0.804688 -0.028413 0.886823 0.458102 -0.032027
0.019279 0.22534 0.128259 -0.01999 0.039342 0.998971
-0.555362 0.077428 0.05475 -0.894833 0.445598 0.018155
-0.013783 -0.757831 -0.115046 0.68199 0.337133 -0.647987
0.062636 0.820744 0.062759 0.491013 0.514938 0.70218
0.198863 0.39351 -0.018075 0.984143 -0.152581 0.064346
0.175134 -0.130609 0.092506 0.654954 -0.031713 0.75447
-0.109884 0.565098 -0.003127 -0.133751 0.935043 0.293647
-0.001889 -0.403626 0.063943 0.730571 -0.208335 0.649707
-0.02492 0.052378 -0.141503 -0.227598 0.278519 -0.932628
-0.075651 -0.388615 -0.079483 -0.353243 -0.093989 -0.928571
0.061826 -0.581136 0.003582 -0.704486 -0.113693 0.699768
-0.110417 0.27063 0.020316 -0.982152 0.058085 0.175423
0.003661 -0.760675 -0.094038 0.798745 0.148931 -0.579312
0.099384 -0.189954 0.095926 -0.173159 -0.080186 0.981104
-0.268919 0.278686 -0.064238 0.730385 -0.587224 -0.339544
-0.11007 -0.102958 0.10019 -0.720651 0.078843 0.68863
-0.034686 0.797594 0.004613 -0.984354 0.023879 0.167405
0.046702 -0.546925 -0.014848 -0.825166 -0.010324 0.558601
0.154083 -0.514567 0.058979 -0.016347 -0.251662 0.963225
0.191017 -0.377988 0.047922 0.930187 -0.032587 0.364282
0.510649 0.160834 0.017432 -0.559381 -0.632398 0.441305
-0.458157 0.136229 0.003925 0.55562 -0.823377 -0.04342
-0.049207 -0.6033 -0.101746 0.318868 0.032084 -0.946516
0.007352 0.020121 0.141367 -0.095566 0.166525 0.98097
0.192991 -0.436746 -0.054995 0.829254 0.132976 -0.542676
-0.076918 0.38314 -0.117318 -0.420898 -0.15217 -0.893728
0.245609 0.368143 -0.069649 -0.700339 -0.710467 0.058795
0.475786 0.183336 -0.034329 -0.569289 -0.819706 -0.041337
0.043363 -0.239479 0.03612 -0.986488 -0.033225 0.155
-0.103203 -0.804702 -0.003451 -0.848022 -0.394954 0.347348
-0.116295 0.113788 -0.047868 -0.86436 0.098573 -0.490328
-0.02424 -0.848125 0.073444 0.981106 0.016773 0.148499
-0.136916 -0.022618 0.039815 -0.992136 0.050803 0.114121
-0.092033 -0.839774 0.133073 -0.687214 0.681305 0.247009
0.022772 0.577485 0.026686 -0.122364 0.040289 0.991053
-0.023022 -0.849379 -0.082488 0.940757 -0.31603 0.085858
0.019438 -0.688707 -0.018509 0.874871 -0.175679 0.451044
-0.144128 -0.085301 0.002801 -0.999068 0.010884 -0.036018
0.046377 -0.536567 -0.039889 -0.902495 -0.027424 -0.423306
-0.024194 -0.8545 0.06378 0.927374 -0.291868 0.050448
-0.136332 0.042846 -0.001242 -0.986942 0.141939 -0.034318
0.066895 -0.551812 0.008736 -0.627266 0.018071 0.778364
0.118056 0.555384 0.009205 0.367482 0.681883 0.632229
0.126609 -0.278682 0.083311 0.019365 -0.061824 0.997747
-0.030156 0.804373 0.015635 -0.858301 0.204832 0.470374
0.164623 -0.847194 0.139841 0.876018 0.42922 0.207317
0.139745 0.194801 -0.092535 0.68674 -0.016181 -0.726365
0.310384 0.434154 -0.038394 0.788629 0.251125 0.556752
0.006725 -0.296361 -0.05223 0.769981 -0.102475 -0.629779
0.547838 0.118475 -0.016717 -0.521686 -0.418642 -0.678028
0.089018 -0.748245 0.02506 -0.060012 -0.62242 0.778922
0.025114 0.733937 -0.110579 -0.100176 -0.48305 -0.868564
-0.012373 -0.726719 0.014343 0.640514 -0.259426 0.720793
0.103364 -0.681951 -0.088813 -0.477151 0.063457 -0.874437
0.24333 0.45185 -0.000582 0.353364 -0.137953 0.918791
0.093428 -0.584073 -0.088169 -0.605225 -0.12686 -0.785862
0.199374 -0.553491 -0.04947 0.952419 -0.018191 -0.299675
0.124263 -0.647372 -0.095368 -0.05492 -0.092587 -0.992743
-0.016562 -0.227486 0.108393 0.427533 -0.203938 0.880644
0.061111 0.021037 -0.159548 -0.082054 -0.19757 -0.974101
0.154049 -0.663766 -0.083136 0.567679 -0.110566 -0.815663
-0.124822 -0.216219 -0.0239 -0.856223 -0.094473 -0.507617
0.088808 -0.832471 0.030583 -0.973922 -0.044404 0.027917
0.088596 -0.835876 -0.051236 -0.999104 0.018507 -0.000412
-0.130479 -0.082697 0.070651 -0.84361 0.0244 0.536341
-0.12629 0.11823 -0.024573 -0.949996 0.000175 -0.309964
-0.2201 0.350084 0.004679 0.351155 -0.538332 0.763854
0.045393 -0.270653 -0.048482 -0.831147 0.019064 -0.555166
-0.125549 -0.640255 -0.074452 -0.89051 0.008962 -0.443032
-0.081199 -0.848273 0.156554 -0.532125 0.011169 0.760314
-0.03323 0.324402 -0.128637 -0.123614 0.034993 -0.990703
0.128869 -0.829731 0.163231 0.17811 0.915845 0.344583
0.042814 0.789088 0.083272 0.073661 0.304574 0.948603
0.084913 0.226908 0.115874 0.4736 0.111392 0.871906
-0.087302 0.546521 0.02832 -0.037049 0.741444 0.669788
-0.017634 0.464267 0.087939 -0.102112 0.38118 0.914788
-0.000884 0.331623 -0.128378 0.120605 0.033068 -0.991945
-0.105623 -0.859335 0.036809 -0.670159 -0.741518 -0.029153
0.077103 0.401965 -0.143333 -0.225194 0.040991 -0.972327
0.177936 -0.540727 -0.081694 0.697843 -0.036048 -0.71534
0.153234 0.257887 0.067653 0.783294 0.072527 0.617353
0.136515 -0.293224 0.08225 0.057085 -0.056873 0.996425
0.076719 -0.508696 -0.082561 -0.699429 -0.029788 -0.714003
-0.012928 -0.257063 0.100492 0.444643 -0.210731 0.870501
0.276964 0.47571 -0.10723 0.458661 0.667823 -0.584042
-0.037915 -0.856081 -0.042404 0.544893 -0.833058 0.061257
0.14254 -0.260061 0.08368 0.061533 -0.066313 0.99575
0.054195 0.387312 -0.136174 -0.304242 0.007856 -0.952255
0.111529 0.244151 -0.131363 0.47952 -0.217464 -0.848539
0.168092 0.386815 -0.117758 0.417313 -0.408572 -0.808525
-0.570127 0.031047 -0.01805 0.300676 -0.369084 -0.572937
0.425313 0.210931 -0.061356 -0.493575 -0.836467 0.237073
-0.036626 0.4442 0.090944 -0.172844 0.251942 0.950607
0.166156 0.392142 0.056056 0.690853 -0.002176 0.722689
0.625344 0.064172 0.095202 0.698331 0.621021 0.318905
-0.126708 -0.366422 0.041024 -0.992173 -0.04308 0.113343
0.285802 0.436883 -0.017755 0.607392 0.199005 0.767628
0.113539 -0.319153 0.079878 -0.14129 -0.088509 0.985095
0.192205 0.394368 0.017749 0.959872 -0.098344 0.258044
0.050682 0.522434 -0.12449 -0.244324 0.302196 -0.92044
0.089922 0.460166 0.081251 0.124593 0.286522 0.949396
-0.347699 0.217629 -0.003569 0.575372 -0.737002 0.343738
0.121631 -0.544481 -0.107573 -0.154985 -0.048434 -0.983489
0.18405 0.192301 0.018817 0.974517 0.192431 0.094315
0.155732 0.525132 -0.124023 0.215792 0.581107 -0.781875
-0.115276 0.428834 0.062197 -0.267216 -0.002889 0.962236
0.005882 -0.172101 -0.06182 0.774275 0.04224 -0.631095
0.078193 0.092982 0.127317 0.441714 -0.015313 0.896671
-0.072092 -0.069918 0.121348 -0.351272 -0.045804 0.933096
0.16793 0.572627 -0.050707 0.382118 0.894588 0.080621
-0.29085 0.278868 -0.003681 0.630767 -0.364216 0.62035
0.166976 -0.159963 -0.083664 0.622321 -0.087956 -0.773744
0.003405 -0.208983 0.099577 0.64773 -0.113463 0.751508
-0.038964 0.759916 -0.022784 -0.993273 -0.067559 0.061941
0.016558 -0.760277 -0.035692 0.909813 -0.231864 0.316667
0.220635 0.393551 -0.074049 -0.736899 -0.67577 0.014337
-0.087874 -0.015895 0.112305 -0.555989 -0.244063 0.792047
-0.045031 -0.458488 0.072945 0.209484 -0.239716 0.947942
0.020618 -0.580889 -0.000462 0.799813 0.062589 0.594591
-0.063491 -0.681987 0.022232 0.239718 -0.359928 0.90134
-0.290161 0.347453 0.003608 -0.442342 0.236203 0.860361
-0.213464 0.461578 0.027007 -0.634069 0.334839 0.694945
-0.119144 0.084664 -0.05228 -0.863816 0.171114 -0.465667
0.007916 -0.412376 -0.048564 0.773494 -0.005897 -0.632936
-0.126356 -0.277719 0.066213 -0.961705 -0.093394 0.251631
-0.183498 0.418633 0.031557 0.135439 -0.403018 0.902437
0.206414 0.01071 0.034718 0.993559 0.00218 0.105743
-0.018153 -0.190495 -0.083806 0.580066 -0.007441 -0.814447
0.000332 0.043417 -0.14806 -0.194624 0.326211 -0.92452
-0.034541 -0.263381 0.10589 0.178009 -0.18132 0.967159
-0.027057 0.744747 0.038802 -0.969462 -0.005247 0.239333
0.564662 0.125064 -0.012057 0.553997 0.187518 -0.809468
0.1322 0.290735 0.089011 0.648438 0.05066 0.759528
-0.537217 0.070295 0.030653 0.578528 -0.692235 -0.426484
0.133555 -0.866686 0.005142 0.079438 -0.992941 -0.08021
-0.097692 0.465004 -0.120439 -0.329597 0.074808 -0.940832
-0.018677 -0.257546 -0.08422 0.591098 -0.026676 -0.806018
-0.262095 0.373478 0.017331 -0.303795 0.096116 0.944195
-0.123417 0.485172 0.060891 0.038722 0.122536 0.991274
-0.081576 -0.578662 -0.101703 -0.217514 0.053775 -0.974445
0.089729 0.732602 0.050173 0.958571 -0.008397 0.270544
-0.002465 -0.77839 -0.113921 0.836734 0.286045 -0.465986
0.07385 0.585182 0.00936 0.637004 0.105959 0.759491
0.450436 0.28285 -0.059293 0.58073 0.727806 0.336995
0.453553 0.204878 -0.078541 0.752124 -0.439962 -0.488519
-0.358171 0.272612 0.005709 0.02014 0.232696 0.971943
0.171596 0.515759 0.025731 0.410688 0.437566 0.799334
0.104038 -0.832618 0.147978 -0.766194 0.594545 0.179613
-0.109053 -0.304407 -0.050438 -0.802767 0.034286 -0.595265
0.070226 -0.647854 -0.059821 -0.716966 -0.134636 -0.683961
-0.093609 -0.236066 0.109401 -0.340385 -0.038322 0.939158
-0.115073 -0.66559 0.017452 -0.892103 -0.209513 0.391109
-0.049178 -0.863475 0.019704 0.046989 -0.998038 -0.037137
0.087479 -0.484585 -0.093215 -0.59168 -0.004398 -0.804779
0.199429 -0.175201 -0.050669 0.845484 0.015017 -0.530564
0.00569 0.449961 0.093924 0.05857 0.353886 0.932705
-0.089552 0.333096 0.068783 -0.882214 -0.010321 0.469173
0.085705 -0.139678 -0.111507 -0.336478 -0.208622 -0.917886
0.001187 -0.683074 0.012417 0.772937 -0.193211 0.600308
-0.07274 -0.083204 -0.106563 -0.436671 -0.225979 -0.868071
0.154604 -0.864777 0.131715 0.333371 -0.937038 0.06085
0.140786 -0.06905 -0.124887 0.586829 -0.250073 -0.770079
-0.156642 0.379561 -0.033453 0.712205 -0.698315 -0.056047
0.059463 -0.316945 0.053108 -0.70311 -0.125092 0.696398
-0.021981 0.706028 0.038705 -0.962821 -0.194174 0.179064
0.139905 0.552997 -0.109441 0.269958 0.639912 -0.719025
0.557304 0.094568 0.014532 -0.761564 -0.646886 0.026198
-0.129226 -0.161846 0.077134 -0.873242 0.018912 0.48674
0.067785 -0.747227 0.027496 0.026025 -0.540076 0.791382
0.201196 -0.186592 -0.047951 0.867297 0.026694 -0.495701
-0.120027 -0.772712 -0.060656 -0.98923 -0.065235 -0.123844
0.410253 0.226346 -0.050205 -0.627463 -0.67152 0.391812
-0.120362 0.183453 0.035732 -0.888527 0.058974 0.4531
-0.403843 0.180724 -0.035912 0.478446 -0.83021 -0.271651
0.093165 -0.826614 0.073349 -0.822425 0.512444 0.1972
0.060975 0.280292 -0.135298 -0.324442 -0.042007 -0.944754
-0.138296 -0.008056 0.005708 -0.996375 0.083768 -0.012905
0.176624 -0.694781 0.008412 0.425194 -0.493843 0.757905
-0.324857 0.342822 -0.033559 -0.696419 0.71459 0.058959
-0.018321 0.611004 -0.018551 -0.910772 0.266811 0.297015
0.010154 0.005888 -0.145747 -0.15356 -0.212669 -0.964344
0.206569 0.031864 0.023344 0.997983 0.041647 0.046085
-0.017764 -0.043162 0.132859 -0.026933 -0.213499 0.975637
0.030715 -0.266928 0.017905 0.988253 -0.046013 0.143753
-0.136286 0.510091 -0.091474 -0.423054 0.398045 -0.812595
0.519641 0.151164 0.012019 -0.701442 -0.703372 0.100946
-0.04503 0.238265 -0.122198 -0.541378 -0.15333 -0.826074
-0.081427 -0.207862 0.11312 -0.208959 -0.039845 0.976898
-0.089562 -0.01443 -0.113398 -0.642202 -0.115646 -0.757432
-0.073024 -0.823201 0.081859 -0.230418 0.937789 0.253364
0.171935 -0.546879 -0.087166 0.680985 -0.033052 -0.73154
-0.024057 0.794982 -0.094485 -0.775329 0.02983 -0.621612
0.13446 -0.237755 -0.095072 0.437326 -0.144841 -0.885961
-0.123166 -0.446902 0.049556 -0.859418 -0.187529 0.474047
0.148404 -0.345615 0.078275 0.18756 -0.034839 0.981427
0.156489 0.194522 -0.07483 0.761222 0.034066 -0.647533
0.142495 -0.793382 0.038238 0.570181 0.407781 0.71133
0.008075 -0.057766 0.126673 0.315324 -0.212467 0.923178
-0.076882 -0.142581 -0.094549 -0.463854 -0.127165 -0.875078
-0.062489 -0.017844 -0.129315 -0.259031 -0.117997 -0.957764
-0.015935 0.119525 -0.124396 -0.201687 0.409396 -0.889649
0.061181 -0.51829 0.004676 -0.687232 -0.031173 0.725315
0.055263 -0.011024 -0.152265 -0.235569 -0.234141 -0.940321
0.006695 -0.571781 0.011966 0.657999 -0.089764 0.745783
0.073816 0.769051 -0.10493 0.609574 -0.048297 -0.788392
0.149451 0.191761 0.078921 0.721574 0.050996 0.690428
0.040039 0.021345 -0.157352 -0.162101 -0.330566 -0.920733
-0.058766 0.214889 -0.105332 -0.594377 -0.283079 -0.752101
-0.092465 -0.534076 0.065229 -0.563623 -0.131538 0.773865
0.014003 0.77088 -0.119734 -0.184326 -0.013448 -0.974668
0.046389 0.174469 -0.117696 -0.107284 0.272918 -0.954724
-0.116134 0.217705 -0.02881 -0.918834 -0.11941 -0.373272
0.133267 -0.852641 -0.117246 0.55613 -0.076085 -0.808772
0.089019 -0.138288 0.095905 -0.536632 -0.029895 0.843106
0.019553 -0.751787 -0.062153 0.982228 -0.100723 -0.152065
0.202537 -0.177119 0.036548 0.947101 -0.04892 0.316424
-0.38359 0.227891 0.011528 0.084119 0.030935 0.995837
0.026416 -0.652241 -0.0185 0.968828 -0.100692 0.192987
-0.080284 0.309172 -0.107209 -0.652064 -0.049316 -0.756101
-0.169892 0.370735 -0.052413 0.675674 -0.691787 -0.25337
-0.049285 -0.02207 -0.13199 -0.246398 -0.157732 -0.955476
-0.101759 -0.838087 -0.067265 -0.877417 -0.442601 -0.168302
-0.038045 -0.205951 -0.09171 0.211101 -0.069936 -0.973706
0.197887 0.370382 -0.0305 0.996933 -0.036555 0.063202
-0.223745 0.356362 -0.090785 0.323319 -0.452533 -0.82853
0.167427 -0.56088 0.042365 0.279155 -0.197664 0.934588
0.198593 0.377671 -0.051498 0.999519 -0.024141 0.012657
0.064413 0.049622 -0.156934 -0.065787 0.309374 -0.947099
-0.021454 -0.127023 -0.09577 0.499273 -0.214745 -0.837075
-0.103457 -0.861329 0.075195 -0.535954 -0.816237 0.015169
-0.129783 0.068623 0.020029 -0.948415 0.287257 0.096149
-0.127442 -0.513631 0.011772 -0.863878 -0.139193 0.483437
0.199669 0.395108 -0.04107 0.978519 -0.190676 0.023781
0.084618 -0.383664 0.05172 -0.561909 -0.239954 0.789837
0.124228 0.324614 -0.130949 0.558121 -0.102629 -0.82311
-0.110215 0.398494 0.061698 -0.647758 -0.174682 0.740186
0.591308 0.060157 0.031915 0.906449 -0.32622 0.261764
-0.308337 0.275845 0.005919 0.185155 -0.083372 0.96942
0.162714 -0.131086 0.101366 0.526416 -0.122484 0.84019
0.03686 -0.119467 0.081196 0.641543 -0.576308 0.496313
0.085916 0.320307 -0.143799 -0.036556 -0.068656 -0.996952
-0.045283 0.405285 0.099345 -0.274799 0.198509 0.939279
0.137501 -0.48282 -0.106033 0.211917 0.069135 -0.971907
0.069822 0.37977 0.102221 0.240963 0.220252 0.944126
0.090422 0.138792 -0.123138 0.215767 0.328236 -0.918141
0.083091 -0.060434 -0.138253 -0.121796 -0.370864 -0.920012
0.089347 -0.541928 -0.09145 -0.639364 -0.093472 -0.762336
0.017081 -0.086316 -0.09049 -0.060257 -0.700715 -0.691666
0.040463 0.43803 -0.129023 -0.238808 0.021499 -0.968388
-0.327857 0.340089 -0.043277 -0.685884 0.726783 -0.014695
0.045706 0.034177 -0.158555 -0.147436 0.134429 -0.977142
-0.264203 0.304748 -0.000219 0.482982 -0.527232 0.698946
-0.377344 0.268653 0.004625 -0.260477 0.383506 0.883222
-0.021453 -0.839395 -0.083692 0.915231 -0.360667 -0.022731
-0.026777 -0.440385 0.072822 0.342301 -0.171743 0.918452
0.113274 -0.051361 -0.140544 0.19842 -0.363783 -0.90947
-0.080329 0.381297 0.083939 -0.670969 -0.056089 0.739062
-0.56378 0.03555 0.037135 0.825709 -0.561987 0.033602
0.072796 -0.464559 0.010321 -0.584973 0.03936 0.806624
-0.049057 -0.75055 -0.128133 0.011563 0.368371 -0.927212
0.110622 -0.078749 -0.132061 0.119063 -0.389142 -0.91197
0.085814 -0.587655 -0.081729 -0.659283 -0.113793 -0.743151
0.176457 0.109645 0.063034 0.75125 0.168411 0.638118
0.0575 -0.664837 0.012963 -0.63496 0.191506 0.730295
0.073131 0.263002 -0.137399 -0.174009 -0.081166 -0.980555
0.068645 0.452087 0.085733 0.137589 0.335451 0.931542
0.159471 0.38007 -0.119397 0.478695 -0.305494 -0.822055
-0.048484 -0.468636 -0.095005 0.124463 0.110884 -0.98524
-0.005724 -0.797396 -0.009104 0.867851 0.011109 0.492957
-0.200962 0.342272 -0.038898 0.643834 -0.763866 -0.022646
0.149353 0.371525 -0.122832 0.587435 -0.244837 -0.770309
0.156694 -0.500653 -0.099821 0.473612 -0.002825 -0.880303
-0.068885 -0.808408 -0.13929 -0.566189 -0.136326 -0.80997
-0.085196 -0.340833 -0.075972 -0.558514 0.029905 -0.828224
-0.123093 -0.272133 -0.026194 -0.851225 0.009699 -0.522685
-0.035435 -0.593198 -0.09626 0.407673 -0.011975 -0.912333
-0.076071 -0.786022 0.031123 -0.516753 0.704807 0.483184
-0.118505 0.493529 -0.105158 -0.398477 0.228931 -0.887937
-0.097776 0.147964 0.069897 -0.713345 0.055458 0.698342
0.105102 0.771041 -0.039245 0.998403 -0.037861 -0.036478
0.082982 -0.216357 0.087341 -0.407971 -0.137622 0.898579
0.235397 0.37854 -0.096587 -0.718915 -0.690378 -0.068006
0.04396 -0.462744 -0.033901 -0.995281 -0.004254 -0.063816
-0.126809 -0.747776 -0.051257 -0.982054 -0.144176 -0.093997
0.105375 -0.556567 -0.100972 -0.464098 -0.121448 -0.875933
-0.12146 -0.395491 0.066925 -0.957306 -0.030051 0.275227
-0.11923 -0.793778 -0.054994 -0.955757 -0.256914 -0.06216
0.094588 -0.351983 0.067699 -0.409855 -0.297238 0.862041
0.06885 -0.357003 0.050012 -0.634677 -0.307761 0.707378
0.081821 0.695175 0.060324 0.885452 -0.15676 0.431604
-0.352304 0.256218 -0.083883 0.101521 -0.298314 -0.948561
0.205701 -0.373481 -0.01402 0.997726 0.01078 -0.055134
0.193167 -0.170615 0.070412 0.931594 -0.00102 0.362771
0.054594 -0.270457 -0.061902 -0.827194 0.007904 -0.561233
-0.021488 -0.842526 -0.035094 0.918738 -0.391358 -0.006844
0.192277 -0.249227 -0.052806 0.766577 -0.145258 -0.624526
-0.012809 0.048951 -0.144382 -0.146359 0.20787 -0.966978
0.162218 -0.051333 0.100136 0.602818 0.004982 0.797588
0.16114 -0.536257 0.051999 0.192484 -0.283372 0.934493
0.008889 0.833561 -0.091082 -0.260551 0.730914 -0.629931
-0.036552 0.786894 -0.010475 -0.993343 0.063005 0.094929
0.190222 0.170556 -0.011288 0.962567 0.209458 -0.147897
0.02884 -0.264172 0.029839 0.984259 -0.048361 0.169864
0.105421 -0.43917 0.04562 -0.613838 -0.382867 0.690285
-0.040763 0.068999 -0.134199 -0.369413 0.252601 -0.891631
-0.13634 -0.163468 0.058897 -0.977525 -0.016176 0.203077
0.000108 0.039072 0.137125 -0.172983 0.076119 0.98189
-0.1047 -0.631307 0.041121 -0.815145 -0.113736 0.55514
-0.112836 -0.075611 0.094382 -0.72935 0.034556 0.683128
-0.016951 -0.827407 0.020066 0.721832 -0.647511 0.233965
0.15804 -0.762183 -0.08427 0.766784 0.338086 -0.537681
0.021039 0.576617 -0.099499 -0.077345 0.512312 -0.854944
0.087069 -0.737973 -0.070106 -0.860457 -0.073335 -0.503417
-0.107392 -0.375969 0.09198 -0.673519 -0.074979 0.734424
0.191071 -0.170982 -0.061055 0.701025 0.016943 -0.712048
-0.131322 0.407529 0.011867 -0.559579 -0.671973 0.228504
0.194234 0.435737 0.035344 0.625686 -0.050219 0.775433
-0.10822 -0.722529 -0.088705 -0.818706 -0.058354 -0.57024
0.157374 -0.39719 -0.083223 0.524244 0.159019 -0.836198
0.131985 -0.529839 -0.108351 0.104694 0.017383 -0.992843
0.196553 -0.264007 0.054789 0.896909 -0.058496 0.437763
0.177168 0.385605 -0.111597 0.43238 -0.501361 -0.748586
-0.299425 0.245739 -0.042297 0.643682 -0.760798 -0.034777
0.070777 -0.802225 -0.056895 -0.893904 0.068039 -0.441191
0.095845 -0.322752 -0.098108 -0.304522 0.010749 -0.947878
-0.013334 0.853279 0.006438 -0.537061 0.825099 0.153067
-0.111862 -0.05022 0.094309 -0.72397 0.036373 0.688788
0.153357 -0.03846 0.106269 0.568742 -0.003761 0.821497
0.213316 -0.068016 -0.001158 0.98667 0.06054 -0.141686
0.437031 0.263979 -0.117363 0.59755 -0.001949 -0.794563
0.177492 -0.499533 0.05313 0.659134 -0.188294 0.723528
0.08782 -0.363187 0.06021 -0.488496 -0.312297 0.814341
0.182935 0.256799 -0.011765 0.998193 -0.008025 -0.05077
0.052322 0.36896 0.106442 0.13339 0.22593 0.963591
0.020607 -0.247651 -0.03925 0.929075 -0.060183 -0.364263
-0.00646 -0.012642 -0.140067 -0.135336 -0.220111 -0.965553
-0.108403 0.134273 -0.059882 -0.833443 0.119141 -0.539168
0.083834 0.101108 0.124548 0.458304 0.00751 0.887809
0.175895 0.328504 -0.075372 0.814093 -0.335101 -0.473915
0.196601 0.405521 0.006971 0.932315 -0.196553 0.301707
-0.023966 -0.170594 -0.088068 0.461075 -0.041154 -0.885709
0.618528 0.085861 0.028303 0.869602 0.490936 -0.046759
-0.375175 0.198912 -0.049765 0.529487 -0.785222 -0.310985
0.008006 0.588679 0.01989 -0.462826 0.122998 0.876763
-0.486693 0.163641 0.037998 -0.67685 0.710666 0.188286
0.158543 -0.560191 -0.09651 0.536 -0.048146 -0.841261
0.066104 0.648149 0.026444 0.662091 -0.343497 0.665458
0.112876 -0.711504 -0.095331 -0.227293 0.099385 -0.961704
0.207391 -0.012184 0.034932 0.959318 0.125565 0.24729
-0.127041 0.515067 -0.093441 -0.372212 0.452391 -0.810245
-0.003531 0.615948 -0.063124 -0.503538 0.602562 -0.618851
0.052083 -0.537677 -0.007052 -0.82368 -0.00491 0.566301
-0.230194 0.331837 -0.072726 0.542895 -0.671413 -0.500049
-0.057152 -0.036263 -0.127101 -0.265407 -0.287891 -0.918827
0.022658 -0.507243 -0.026678 0.858732 0.030782 -0.508609
0.32795 0.313616 -0.051295 -0.517061 -0.575238 0.633185
-0.314299 0.349191 -0.020131 -0.60541 0.713802 0.342551
0.405791 0.26791 -0.128087 0.0019 -0.068506 -0.994936
-0.137478 0.019118 -0.0184 -0.984664 -0.005525 -0.168635
0.433127 0.212409 -0.109438 0.305832 -0.211462 -0.832395
-0.064667 -0.170498 -0.095343 -0.215804 -0.161294 -0.959865
0.055725 0.350443 -0.135997 -0.356507 -0.035588 -0.933471
0.194251 -0.045658 0.067923 0.797459 0.031728 0.602121
-0.020312 -0.835608 -0.061702 0.831015 -0.525283 -0.012061
0.082717 0.813851 0.039684 0.866938 0.324568 0.374857
0.060662 0.506374 0.062907 0.056072 0.51329 0.855779
