0.17422 -0.336684 -0.057227 0.733507 0.031213 -0.678791
0.122218 -0.113914 -0.120331 0.125264 -0.19894 -0.971102
0.133419 0.438335 -0.144961 0.141611 -0.077771 -0.986814
-0.06956 0.581496 -0.026676 -0.183521 0.953616 0.194616
0.057935 0.660161 0.056871 0.341797 -0.9201 0.135696
0.038102 -0.105455 -0.095034 -0.668456 -0.42895 -0.605159
-0.503034 0.146141 0.000711 -0.834127 0.535272 -0.081814
0.149337 -0.860422 0.173924 0.299164 -0.763237 0.473227
0.026726 -0.669983 -0.030686 0.990536 -0.070366 0.102309
0.01432 -0.533162 -0.045655 0.84724 0.046832 -0.528643
0.010137 0.394329 -0.12827 0.030459 -0.002487 -0.999456
0.040583 -0.349025 0.001788 -0.939226 -0.126025 0.306938
0.199091 -0.177871 0.048291 0.967462 -0.051322 0.247557
-0.134751 -0.550076 -0.024717 -0.967173 -0.155699 0.176631
-0.105466 0.370534 -0.098599 -0.628246 -0.242625 -0.738618
-0.121114 0.194351 0.032313 -0.92675 0.098595 0.359315
-0.128117 -0.358629 0.026568 -0.997545 0.014493 0.067187
-0.006936 -0.691376 0.020804 0.645 -0.140416 0.739741
-0.012918 -0.008556 0.145894 -0.094472 -0.391933 0.864785
0.149314 0.577072 -0.068128 0.526156 0.787485 -0.308013
0.093546 -0.845711 0.137672 -0.83895 0.456319 0.290653
0.007294 0.788804 0.08002 -0.405969 0.253682 0.873095
0.111242 0.332596 -0.139216 0.415223 -0.108148 -0.902887
0.090383 0.805076 0.03008 0.920985 0.157898 0.352987
0.428713 0.207384 -0.096273 -0.479148 -0.858476 -0.133687
-0.112743 0.280677 -0.021709 -0.997223 -0.069866 0.021182
0.287108 0.354915 -0.035785 -0.091212 -0.796868 0.587571
0.173167 -0.852395 0.041133 0.927047 0.275813 -0.120397
-0.518739 0.111537 0.091455 0.020514 0.173048 0.856934
-0.216811 0.470949 0.017683 -0.766564 0.365146 0.520163
0.113435 -0.462433 -0.104709 -0.176939 0.063564 -0.979554
-0.098472 -0.762729 -0.103595 -0.719933 -0.008912 -0.690892
0.165535 -0.311471 -0.06596 0.67832 -0.00893 -0.734249
-0.1405 0.011738 0.030902 -0.980018 -0.124037 0.12599
0.05437 0.329432 0.114563 0.205354 0.187192 0.960264
0.081512 -0.271177 0.078512 -0.448076 -0.170899 0.874887
-0.070602 -0.197831 -0.090033 -0.376963 -0.057039 -0.923347
0.023175 -0.165066 -0.026438 0.230211 0.010531 -0.905097
0.021362 -0.677702 -0.017639 0.864802 -0.209097 0.45617
-0.023261 -0.147156 0.123625 0.208948 -0.101447 0.972224
0.161148 0.022672 -0.111743 0.71862 0.047298 -0.693781
0.201081 -0.4296 -0.016067 0.993045 -0.110132 -0.037067
0.080542 0.71499 0.065522 0.758373 -0.003598 0.647824
0.197785 0.3939 -0.097876 0.893431 -0.362028 -0.259275
0.410114 0.320385 -0.090164 0.68965 0.722757 -0.002536
0.195065 0.347304 -0.032171 0.953445 -0.298807 0.009777
0.105735 0.555848 0.016559 0.414945 0.644746 0.635409
-0.101322 0.534171 -0.092612 -0.372797 0.573792 -0.728922
-0.103632 -0.366231 0.096598 -0.540005 -0.125532 0.81573
-0.059709 0.455172 0.083229 -0.171922 0.317302 0.932331
0.428046 0.283599 -0.044806 0.280068 0.545442 0.789116
-0.119529 0.098501 0.051504 -0.924557 0.08213 0.367485
-0.043872 -0.183954 -0.094523 0.167482 -0.053264 -0.982528
0.604957 0.101176 0.051768 0.831239 0.551558 0.05563
-0.427094 0.188313 0.021767 -0.048964 0.348303 0.934937
0.633278 0.059106 0.05077 0.853433 0.519103 0.012795
0.160911 0.199759 0.06444 0.771515 0.092008 0.628995
0.632311 0.024392 0.049055 -0.895663 -0.434347 -0.008128
-0.136068 -0.230406 0.028298 -0.999014 -0.041648 -0.000731
-0.089488 -0.33406 0.104527 -0.087072 -0.077944 0.99109
-0.114308 -0.218635 -0.042351 -0.881141 -0.051658 -0.469899
0.206401 -0.197212 0.017796 0.992772 -0.03345 0.108566
-0.00708 -0.155197 -0.077339 0.732402 -0.095443 -0.673719
0.585201 0.047343 -0.00289 -0.838934 -0.543703 -0.012342
-0.301968 0.29419 -0.095064 0.09142 -0.244374 -0.96356
-0.152898 0.383354 -0.025271 0.745672 -0.664597 0.028976
-0.333482 0.236862 -0.066748 0.317009 -0.701281 -0.637056
-0.005374 -0.709017 0.012348 0.771478 -0.259598 0.577329
-0.042006 -0.845302 -0.138519 0.330364 -0.372329 -0.857346
-0.108541 0.093948 0.073191 -0.771441 0.202508 0.602485
-0.049784 -0.863459 0.114323 0.093405 -0.990594 0.070482
0.100969 0.753097 -0.053087 0.946531 -0.234345 -0.214775
-0.260109 0.295224 -0.07131 0.60686 -0.61337 -0.497924
0.038373 0.670506 -0.067886 0.050565 -0.285627 -0.95459
0.181497 -0.726595 -0.008693 0.064492 0.223618 0.967729
0.196512 -0.564373 -0.057266 0.88295 -0.011641 -0.459138
0.000196 -0.101197 0.121289 0.363608 -0.165344 0.916658
-0.102454 -0.168266 0.109441 -0.650553 -0.020315 0.757743
0.16214 -0.835216 0.029577 0.915256 0.388622 0.019895
-0.132055 0.433427 0.060106 -0.29347 -0.160188 0.936844
0.045546 -0.569035 -0.034437 -0.948334 -0.041841 -0.252215
-0.252969 0.337414 -0.092236 0.371689 -0.349685 -0.857833
0.064229 -0.115441 -0.106167 -0.471863 -0.319488 -0.814546
0.185748 -0.645686 0.015972 0.514627 -0.085578 0.851861
-0.167753 0.376434 -0.062577 0.661474 -0.6842 -0.306641
0.164751 -0.43358 0.070734 0.368986 -0.107596 0.917978
-0.104174 -0.336996 -0.059049 -0.739105 0.071752 -0.66821
0.070044 -0.609214 -0.064958 -0.675668 -0.019766 -0.73691
0.056106 -0.724767 0.025641 -0.919669 -0.069475 0.356836
0.05473 -0.65245 -0.037551 -0.881083 -0.151323 -0.447888
0.089509 -0.171894 0.094166 -0.43579 -0.131794 0.889871
0.021445 -0.42661 -0.010385 0.987306 0.102831 -0.102993
-0.129129 0.108829 0.017566 -0.986202 -0.026913 0.159064
-0.124184 -0.46568 0.038799 -0.825482 -0.26457 0.498527
0.063858 0.324825 0.113234 0.240408 0.127643 0.961699
0.151194 -0.693697 -0.083929 0.640532 -0.018544 -0.767345
0.207256 -0.188893 -0.023477 0.996928 -0.01614 -0.076037
-0.021477 0.425695 0.098496 -0.102873 0.241887 0.963794
0.022662 -0.172986 0.068494 0.931924 -0.154456 0.32597
-0.464611 0.185316 -0.029323 -0.679322 0.514651 -0.504162
0.054034 -0.301406 0.049145 -0.740168 -0.097663 0.66464
0.144334 -0.205307 -0.095404 0.632 -0.122022 -0.718712
0.60529 0.092343 0.080692 -0.09345 0.532357 0.711221
-0.371285 0.300933 -0.025995 -0.629356 0.746326 0.207146
-0.053909 -0.639305 0.030899 0.366695 -0.187108 0.910959
0.199937 -0.45843 -0.028532 0.999214 0.002459 -0.033975
0.035477 -0.278308 -0.031757 -0.888293 -0.079008 -0.449346
0.196581 -0.213422 0.051805 0.939993 -0.009471 0.339933
-0.117317 -0.355997 0.081744 -0.850187 -0.055106 0.521559
0.085762 0.69579 -0.038137 0.810293 -0.450771 -0.373113
0.119262 0.403009 0.087605 0.332721 0.129289 0.932457
0.08153 -0.639535 0.01523 -0.593305 0.330533 0.725285
-0.13479 0.01564 -0.032742 -0.965427 -0.00373 -0.25048
0.015031 -0.544859 -0.045663 0.841722 0.044196 -0.537918
-0.052159 0.231392 -0.115721 -0.581184 -0.23321 -0.779604
-0.328491 0.253047 0.00631 0.164998 -0.07383 0.981323
-0.001959 -0.303385 -0.061379 0.755633 -0.108534 -0.645876
-0.063347 -0.86065 -0.126109 -0.104222 -0.927442 -0.316274
-0.034429 0.155532 -0.102869 -0.258032 0.18588 -0.943384
0.037589 0.808129 0.079033 0.035603 0.353196 0.93207
0.437902 0.284444 -0.109982 0.673371 0.4103 -0.61376
-0.088619 -0.80748 0.03342 -0.843197 0.393865 0.363138
0.128902 0.076418 -0.127465 0.553641 0.260141 -0.789804
-0.138372 -0.032806 -0.02127 -0.976587 0.123213 -0.168112
-0.09149 0.174841 -0.070935 -0.694447 0.081982 -0.714559
0.450436 0.28285 -0.059293 0.58073 0.727806 0.336995
-0.24635 0.413042 -0.082095 -0.394923 0.561547 -0.725812
0.172466 -0.803794 -0.083214 0.887449 -0.184579 -0.408374
-0.11781 -0.198056 0.095052 -0.745545 -0.008676 0.663884
0.129195 -0.139398 -0.112125 0.295576 -0.272254 -0.913332
-0.118729 0.172822 0.039986 -0.878773 0.011188 0.476424
0.577123 0.072 -0.016509 -0.730624 0.255659 -0.419443
0.166145 -0.371114 0.073068 0.258245 0.00032 0.965225
0.095706 -0.75897 0.016192 -0.371579 -0.211318 0.856215
-0.005092 -0.648917 -0.074585 0.599876 0.086828 -0.794745
0.113789 -0.520556 -0.106432 -0.266666 -0.006758 -0.960823
0.065032 0.458596 -0.137132 -0.294559 0.075294 -0.952169
-0.080909 -0.029012 -0.117445 -0.58515 -0.181876 -0.790181
0.114975 -0.173334 0.101454 -0.135782 -0.329499 0.931383
0.107996 0.201147 -0.115961 0.445572 -0.374153 -0.811032
0.027347 -0.309864 0.034036 0.991784 -0.029897 0.121055
-0.101445 0.141551 -0.068713 -0.756464 0.199345 -0.622174
-0.093268 -0.59907 0.055112 -0.302088 -0.191093 0.923704
0.225291 0.445315 0.014853 0.428475 -0.221405 0.870899
0.048232 0.747312 0.08593 0.836227 0.222576 0.494675
-0.038798 0.094333 -0.127616 -0.299037 0.258424 -0.918059
0.171524 0.012966 0.096702 0.627473 0.079022 0.764237
0.380961 0.319298 -0.128002 0.40424 0.229844 -0.877147
0.193098 0.41921 0.028507 0.836803 -0.300934 0.437212
-0.128712 -0.467885 0.028539 -0.884063 -0.203017 0.420397
-0.036117 0.81605 -0.062052 -0.953593 0.059428 -0.263929
-0.516892 0.108515 0.0169 -0.42315 -0.453694 -0.761824
-0.047985 -0.546596 0.050596 0.384216 -0.177109 0.905972
0.024273 -0.121494 -0.053986 -0.508026 -0.535546 -0.497178
-0.081403 -0.611928 0.050573 0.345688 -0.220167 0.898191
0.174353 -0.613 0.02123 0.372766 -0.23227 0.894228
-0.011749 0.671446 -0.025147 -0.991658 -0.100714 -0.070454
0.076004 0.848588 0.024149 0.710321 0.613974 0.334688
0.079733 0.373089 0.100561 0.283 0.19041 0.939707
0.045976 -0.558455 -0.037352 -0.928416 -0.025614 -0.347945
-0.136764 -0.012352 0.037956 -0.993229 0.0307 0.110823
0.57221 0.080801 0.049238 -0.746123 -0.624215 0.227241
-0.11031 -0.426988 0.075548 -0.725799 -0.236821 0.644944
0.063623 0.131657 0.129071 0.151307 0.023719 0.987333
0.014814 0.783464 0.083395 -0.289618 0.082272 0.943637
-0.111995 0.543079 -0.07829 -0.397059 0.663316 -0.633431
-0.09162 -0.759955 -0.110938 -0.691303 -0.028132 -0.717506
-0.554746 0.071228 0.001518 -0.617818 0.51995 -0.274083
0.05635 -0.01563 0.134444 0.073287 -0.332184 0.940278
-0.03876 0.473525 0.081245 -0.154225 0.357832 0.920115
0.010118 -0.80436 -0.053816 0.960382 -0.236901 0.139011
0.122047 -0.701939 -0.095283 0.016633 0.070023 -0.992293
0.112964 -0.074924 0.1174 0.026518 -0.318491 0.938071
-0.090585 -0.077246 0.112202 -0.487495 0.031175 0.872111
-0.000642 -0.142945 -0.072237 0.781651 -0.165766 -0.600524
0.199915 -0.472997 -0.026706 0.998122 0.038012 -0.023155
0.085656 0.836945 0.015936 0.76144 0.580805 0.280647
-0.033024 -0.574244 0.037024 0.421892 -0.274721 0.861798
0.016582 -0.588904 -0.04763 0.795185 0.067356 -0.601787
0.195407 0.020875 -0.05316 0.921244 -0.030734 -0.386711
0.010741 -0.513429 -0.049864 0.841075 0.049184 -0.536892
0.002681 -0.769233 -0.02062 0.665551 0.025459 0.736437
-0.126457 -0.654789 -0.029515 -0.979507 -0.059331 0.185996
0.090813 -0.624641 0.02229 -0.721437 -0.275065 0.634602
-0.1286 -0.371219 -0.00453 -0.999762 0.008286 -0.00936
0.081251 -0.395094 0.045273 -0.673927 -0.26986 0.687309
0.181927 -0.076576 -0.079711 0.820705 -0.03972 -0.569276
0.012159 0.457755 -0.126757 0.065919 0.042487 -0.996491
0.212672 -0.049597 0.000805 0.985619 0.021328 -0.163683
-0.007391 0.52243 -0.121374 -0.020975 0.191527 -0.981238
0.354293 0.375172 -0.095208 0.742038 0.668392 0.046984
0.023157 -0.287596 -0.021644 0.843353 -0.074883 -0.512578
0.19125 0.036654 -0.062303 0.905534 0.0649 -0.418483
-0.024979 -0.826006 0.050199 0.920476 -0.194735 0.262127
0.235897 0.508823 0.002317 0.658288 0.347775 0.665385
-0.129812 -0.132161 0.073181 -0.877434 0.043507 0.47767
-0.084916 -0.47063 -0.089791 -0.451397 0.109457 -0.885011
0.198988 0.426823 0.027249 0.666902 -0.419205 0.598428
-0.201973 0.403005 -0.096861 -0.085328 0.065853 -0.992388
0.086594 0.829067 -0.066548 0.824014 0.461577 -0.318014
-0.406687 0.264678 -0.026454 -0.76791 0.624488 0.134105
0.04169 -0.370968 -0.03506 -0.924055 -0.061636 -0.36893
-0.125308 -0.344921 0.047458 -0.990218 0.052007 0.128615
0.168956 -0.280285 -0.066264 0.605121 -0.1638 -0.778704
-0.020433 -0.586948 -0.087565 0.655023 -0.039871 -0.750743
0.091712 -0.853602 0.020378 -0.806335 -0.566029 -0.132492
0.186581 0.301339 -0.007812 0.977158 -0.207702 0.035025
0.62539 0.04596 0.106096 -0.466371 -0.39689 0.695742
-0.129029 -0.150625 -0.033341 -0.857352 -0.134041 -0.496203
-0.092988 0.248426 -0.086367 -0.694452 -0.310671 -0.648472
-0.094335 -0.767233 0.008614 -0.619205 -0.327418 0.694751
0.063141 0.250253 0.122464 0.251008 0.060843 0.966014
0.202354 0.06086 -0.012799 0.981852 0.147364 -0.109309
-0.065218 -0.862135 -0.067182 0.001619 -0.998379 0.056322
0.027677 0.569866 -0.104223 -0.074751 0.413079 -0.907464
-0.180591 0.399534 -0.094928 0.244147 -0.167255 -0.953109
0.063409 -0.073662 -0.127849 -0.306048 -0.398382 -0.864251
0.133451 -0.363964 -0.093751 0.657579 0.255841 -0.646014
-0.388261 0.280162 -0.069907 -0.652313 0.608585 -0.450396
-0.089011 -0.095945 0.113301 -0.401642 0.010712 0.915197
0.085873 -0.3954 -0.089565 -0.62047 -0.040329 -0.7829
-0.136679 -0.212934 0.029766 -0.996742 -0.075549 0.00295
-0.116912 0.553536 -0.060556 -0.415523 0.762805 -0.494641
0.085886 -0.575851 -0.083674 -0.650133 -0.114216 -0.751123
-0.002601 0.38482 -0.128893 0.057045 -0.011676 -0.99825
-0.12749 -0.240025 -0.015737 -0.926973 -0.011726 -0.374577
0.10334 -0.618099 0.033679 -0.363794 0.144665 0.908359
0.170222 -0.016024 -0.104447 0.792048 0.053687 -0.607135
0.043311 -0.40771 -0.029107 -0.998568 -0.030087 -0.035415
-0.101811 -0.583687 -0.092223 -0.54403 0.051964 -0.837281
-0.094069 -0.672354 -0.101608 -0.508502 -0.033333 -0.859499
0.144672 0.172183 0.084872 0.710597 0.026712 0.703082
0.193796 0.161783 0.007356 0.856848 0.501204 0.045297
0.171667 -0.84955 0.09761 0.754121 0.655343 0.039234
0.202722 0.048651 -0.020619 0.964241 0.119815 -0.224739
-0.081423 0.19172 0.086085 -0.627533 0.011594 0.77826
-0.034825 0.78007 -0.068374 -0.983458 0.010836 -0.178553
-0.426548 0.171791 0.031054 0.418008 0.179749 0.878226
-0.192673 0.491952 -0.062543 -0.607438 0.508246 -0.61046
-0.015318 0.295922 -0.131334 0.020356 0.034311 -0.999053
0.194414 0.108158 0.022567 0.941586 -0.228123 0.241451
-0.135504 -0.058462 0.06032 -0.93777 0.028636 0.334496
-0.11627 -0.117828 0.095325 -0.728169 0.04517 0.683665
-0.136428 -0.521528 -0.032018 -0.996077 -0.003946 -0.068175
0.569283 0.15004 0.005325 0.80425 0.574044 -0.094688
-0.080502 -0.318768 0.105714 0.034725 -0.065696 0.996202
-0.096378 -0.425293 0.086019 -0.252152 -0.324373 0.901329
0.18926 -0.66715 0.008878 0.852903 -0.066762 0.5027
-0.023023 0.603977 -0.057679 -0.638497 0.702094 -0.296267
-0.137762 -0.204061 0.024584 -0.996076 -0.087132 -0.010023
-0.004615 0.622815 0.006335 -0.776865 -0.001235 0.628554
0.110671 -0.573546 -0.100753 -0.445071 -0.158523 -0.880971
0.203633 -0.391696 -0.027425 0.961215 -0.052486 -0.264833
-0.041286 0.005847 -0.136826 -0.18609 -0.124006 -0.973282
0.205478 -0.227499 0.01788 0.995705 -0.044748 0.074839
0.578162 0.078856 0.058451 -0.03277 -0.753921 0.634401
0.183088 -0.560936 -0.075391 0.72908 -0.028011 -0.683806
0.018514 -0.439599 -0.030185 0.930318 0.029552 -0.36411
0.018494 -0.467878 0.018797 0.893987 -0.07109 0.440289
-0.106551 -0.851081 0.103574 -0.966179 0.053399 0.215766
-0.079479 0.57523 -0.053232 -0.42351 0.868881 -0.23499
0.548282 0.112258 0.003972 -0.948945 -0.3143 0.022893
0.186758 -0.439581 -0.064928 0.765298 0.170082 -0.620504
-0.013286 0.673884 0.018072 -0.803295 -0.584089 0.059738
0.591971 0.089005 0.06928 -0.831208 -0.179573 0.512213
0.019553 -0.751787 -0.062153 0.982228 -0.100723 -0.152065
0.164286 -0.839634 0.006555 0.931236 0.35788 -0.019797
0.016392 0.039257 0.138223 0.063376 0.110397 0.991735
0.173086 0.248169 -0.048164 0.90924 0.019933 -0.413537
-0.115158 -0.132224 -0.059184 -0.76922 -0.101614 -0.630795
-0.023121 -0.83795 -0.109946 0.897695 -0.372441 -0.107378
-0.126025 0.046346 -0.048992 -0.914092 0.144791 -0.377307
-0.363 0.253318 -0.083828 0.00495 -0.268159 -0.961695
-0.007734 0.48174 0.080857 -0.029358 0.462247 0.88557
0.240333 0.418108 -0.009953 0.204743 -0.505744 0.823008
-0.127508 0.405642 -0.084742 -0.912896 -0.290865 -0.278724
0.155259 -0.752217 -0.083019 0.809988 0.191853 -0.549983
-0.040335 0.570381 -0.095131 -0.314796 0.58649 -0.742532
0.192531 0.340712 -0.03944 0.958088 -0.264909 -0.087525
-0.142635 -0.15461 0.033025 -0.980497 -0.080126 0.165129
-0.033834 -0.467174 0.06692 0.262333 -0.276344 0.924188
0.058038 0.540791 0.039612 -0.040367 0.810169 0.580716
-0.072891 0.155036 0.092799 -0.646458 0.001648 0.762736
-0.014804 -0.444795 -0.07444 0.733745 0.054201 -0.677183
-0.160407 0.468802 -0.091595 -0.374563 0.157768 -0.913431
0.192358 0.156421 0.025606 0.872214 0.30207 0.37946
0.178515 -0.436523 0.063772 0.551999 -0.042163 0.830262
0.376992 0.333668 -0.125103 0.577861 0.36018 -0.729833
0.117577 0.147599 0.105024 0.519202 0.0308 0.854082
-0.098234 -0.325214 0.103846 -0.29927 -0.056838 0.944
0.017046 0.064961 -0.145431 -0.155591 0.209322 -0.965287
-0.177216 0.435421 0.038951 0.020397 -0.474528 0.878404
0.292705 0.367873 -0.021838 0.058166 -0.498472 0.845546
0.039989 -0.216075 -0.040146 -0.970058 0.021087 -0.237595
0.635555 0.053351 0.023843 0.894093 0.444159 -0.0496
0.173566 -0.341962 0.07242 0.232203 -0.043108 0.96415
-0.131602 0.06636 0.00876 -0.894719 0.428214 0.030377
0.07704 -0.68454 0.030811 -0.424005 0.282744 0.859809
-0.284842 0.335129 -0.095386 -0.175317 0.16605 -0.966634
0.032221 0.695249 0.091118 -0.0951 -0.180078 0.975349
0.213332 -0.068848 0.025612 0.987422 0.037473 0.142591
-0.02424 -0.848125 0.073444 0.981106 0.016773 0.148499
0.046134 -0.351032 0.025414 -0.891148 -0.175335 0.406481
0.415935 0.314555 -0.095124 0.692589 0.713004 -0.093355
0.142499 -0.869384 -0.078175 0.186043 -0.97188 -0.024433
-0.42774 0.185309 -0.053878 -0.105148 -0.029574 -0.956332
-0.129172 -0.280656 0.042838 -0.988024 -0.139606 0.0602
0.486077 0.195888 0.007986 0.558435 0.671347 0.43537
-0.082183 0.180658 0.085321 -0.64435 -0.005214 0.764695
0.149969 0.126719 0.081871 0.657656 0.034042 0.751759
-0.016329 0.676326 -0.003767 -0.796199 -0.587405 -0.023641
0.13927 -0.098791 0.112266 0.203403 -0.054933 0.976165
0.23376 0.448311 0.008564 0.614773 -0.076359 0.776689
0.393135 0.260337 -0.124498 -0.350502 -0.347413 -0.86839
0.163007 -0.836943 -0.029092 0.985325 0.168312 0.012644
-0.482691 0.15742 -0.034075 -0.619248 0.478346 -0.620963
0.04644 -0.395459 -0.04709 -0.880836 0.025729 -0.462738
0.104805 0.788397 -0.045207 0.993156 0.055023 -0.095722
0.06237 -0.325837 -0.072213 -0.782782 -0.0282 -0.621561
0.005597 -0.264213 -0.059698 0.774686 -0.116953 -0.621326
0.154108 0.119801 -0.088406 0.74777 0.218726 -0.625834
0.109524 -0.869404 -0.052499 -0.009876 -0.996761 0.078547
0.018363 -0.05553 -0.12001 -0.025918 -0.624797 -0.770839
-0.101282 -0.572504 0.049338 -0.827831 0.066628 0.555703
0.095108 0.160294 0.116197 0.492934 0.069378 0.864288
0.143417 0.142979 -0.094652 0.697764 0.145052 -0.701075
0.001407 0.859654 -0.039866 -0.440134 0.846811 -0.287172
-0.522627 0.119867 0.074468 -0.725946 0.680918 0.084461
0.180058 0.266042 -0.030938 0.949932 -0.00688 -0.311119
0.198763 0.38142 -0.061008 0.999137 -0.040265 0.001293
0.088823 -0.539187 0.02787 -0.561758 0.037607 0.825152
0.158434 0.183607 0.069658 0.734205 0.054698 0.676454
0.108659 -0.100324 0.111923 -0.424205 -0.06179 0.901607
0.126365 -0.822208 0.096026 0.082777 0.969314 0.223631
0.106995 -0.11678 0.109287 -0.623989 -0.072527 0.777912
0.124831 -0.588478 -0.10245 -0.110382 -0.133024 -0.98348
0.492362 0.171008 -0.029064 -0.629742 -0.775891 -0.034511
-0.026698 -0.163926 0.121591 0.207304 -0.114721 0.969097
0.204987 -0.24194 -0.016122 0.997516 -0.046677 -0.052007
-0.031174 -0.28292 -0.089237 0.36281 -0.077165 -0.928407
0.061221 0.800717 -0.110878 0.453958 0.2459 -0.849387
-0.125448 -0.523035 -0.061156 -0.841147 0.109713 -0.528629
-0.123682 -0.505931 0.020489 -0.814374 -0.180533 0.550554
-0.080972 -0.512492 0.072703 0.208735 -0.212156 0.916634
-0.12348 0.120529 0.034456 -0.902715 0.116272 0.412132
-4.4e-05 0.31789 0.115121 -0.225263 0.163535 0.958903
0.138477 0.373309 -0.131504 0.594772 -0.165578 -0.786531
0.028665 -0.175194 -0.03526 -0.814324 -0.030308 -0.562186
0.08561 0.817179 -0.081703 0.723624 0.440131 -0.527145
-0.106018 0.481394 0.061767 -0.0875 0.155787 0.981371
-0.336825 0.22232 -0.027086 0.489255 -0.865704 0.000172
0.554542 0.155303 0.043036 -0.25243 0.10147 0.957381
0.289014 0.350527 -0.124713 -0.556785 -0.473445 -0.681857
0.117801 -0.692367 -0.094897 -0.112137 0.061247 -0.990813
0.13446 -0.237755 -0.095072 0.437326 -0.144841 -0.885961
0.158439 0.359704 0.062121 0.67773 -0.108886 0.72694
0.00997 -0.538637 -0.054709 0.86749 0.041653 -0.495666
0.199769 -0.579402 -0.043632 0.986109 -0.032581 -0.160824
0.036655 0.105015 -0.138634 -0.108076 0.313172 -0.940496
-0.00637 0.504671 0.068722 0.002264 0.458638 0.887043
0.001796 0.641831 0.01848 -0.737092 -0.237148 0.632517
0.14241 -0.20166 0.094132 0.02968 -0.151152 0.982693
0.100347 0.282043 -0.139034 0.176955 -0.037069 -0.98282
0.437446 0.212174 -0.040164 -0.690366 -0.477583 0.518203
0.132228 -0.544027 -0.108511 0.106252 -0.035842 -0.991722
0.057481 -0.702168 0.023468 -0.86767 0.199659 0.454944
-0.117813 0.022446 -0.073533 -0.865436 0.082757 -0.493146
0.19339 0.370918 -0.083943 0.782789 -0.451645 -0.427457
-0.005027 0.148238 -0.112422 -0.191581 0.278571 -0.939487
0.05983 -0.243848 0.065839 -0.732229 -0.140601 0.666098
-0.29938 0.277952 -0.088704 0.272182 -0.385226 -0.878734
0.200688 -0.211201 -0.048559 0.823592 -0.02722 -0.564557
0.071051 -0.227629 -0.083312 -0.616442 -0.085379 -0.782063
-0.093655 -0.8633 0.084943 -0.027543 -0.999611 0.002776
0.195405 -0.377253 0.035497 0.945041 -0.048605 0.323162
-0.094125 -0.826066 0.055994 -0.736444 0.666088 0.113395
0.134979 0.300193 0.085746 0.734479 0.047427 0.676959
0.165103 0.321519 0.052318 0.729763 0.033585 0.680768
0.584522 0.065701 -0.02117 0.400165 0.473816 -0.684584
-0.130173 -0.229728 -0.008821 -0.92821 -0.048139 -0.368594
0.185043 0.565901 -0.061189 0.31038 0.931797 -0.140378
0.155362 0.062055 -0.107164 0.709642 0.193083 -0.677292
0.120488 0.370692 -0.140409 0.429036 -0.122744 -0.894705
-0.314299 0.349191 -0.020131 -0.60541 0.713802 0.342551
0.004125 -0.359459 0.068579 0.750125 -0.126829 0.648331
0.042628 0.740618 0.097671 0.774202 0.267576 0.560181
-0.126713 -0.667837 -0.036114 -0.985538 -0.047788 0.15373
-0.132495 -0.528182 -0.00424 -0.880023 -0.19914 0.430971
0.016083 -0.319394 -0.037992 0.886819 -0.021999 -0.457958
-0.036006 -0.047295 0.130889 -0.108321 -0.140236 0.983809
-0.180441 0.45266 -0.089038 -0.228176 0.268298 -0.935653
-0.125459 0.204998 0.004615 -0.917504 0.384003 0.005226
-0.035018 -0.777359 0.033075 0.410154 0.669996 0.603064
-0.022882 0.4053 0.104247 -0.075622 0.164527 0.983097
0.050883 0.460723 0.084908 0.160647 0.362642 0.917063
0.20033 -0.593452 -0.036599 0.993966 -0.053182 -0.092775
-0.005111 -0.39337 0.070708 0.684109 -0.19265 0.701503
0.088612 0.384132 0.097437 0.152989 0.115057 0.981366
-0.113736 -0.671999 -0.088871 -0.653384 -0.042864 -0.751735
0.012325 -0.425698 0.035042 0.851148 -0.147254 0.503483
-0.328202 0.326206 -0.081416 -0.422003 0.651542 -0.626612
0.633134 0.045771 0.001981 -0.444324 -0.067978 -0.838875
0.061932 0.419596 0.094384 0.196676 0.302699 0.930173
0.058436 -0.166602 -0.087053 -0.64761 -0.186447 -0.738282
0.009053 0.863064 0.014999 -0.177646 0.980451 0.060823
0.20331 -0.09628 -0.040536 0.881911 0.058199 -0.467166
0.035175 0.303379 -0.127886 -0.138923 0.019837 -0.988518
0.045066 -0.57167 -0.024944 -0.983395 -0.069975 0.122792
0.023432 0.294748 0.122819 -0.030689 0.106499 0.993712
0.195433 -0.431277 0.027267 0.957156 -0.080905 0.277112
-0.076175 0.445755 -0.127168 -0.245457 -0.106123 -0.962751
-0.385542 0.19015 -0.030203 0.506423 -0.853594 -0.064076
0.001157 0.5432 -0.114761 0.007791 0.386267 -0.922252
0.159092 -0.807083 0.03162 0.813639 0.278336 0.478296
0.018994 -0.728666 -0.068076 0.930287 0.022187 -0.361007
0.032165 0.202912 -0.118175 0.159933 -0.516171 -0.841109
-0.103799 -0.825213 -0.018305 -0.987932 0.01395 0.039647
0.138136 -0.385724 0.074377 -0.145953 -0.139638 0.977868
-0.114563 0.125259 0.052392 -0.83928 0.107849 0.531182
-0.068608 -0.364052 -0.084017 -0.310285 -0.048626 -0.948624
-0.057225 -0.515286 0.061524 0.410332 -0.278026 0.867788
-0.114997 -0.802943 -0.052982 -0.894426 -0.441408 -0.012479
0.003565 0.076998 0.135884 -0.278559 0.069189 0.94491
-0.128217 0.09255 0.017915 -0.994539 -0.024546 0.093484
-0.240627 0.367557 -0.097823 0.076054 -0.063284 -0.994504
-0.033527 -0.232295 -0.090164 0.239588 0.025041 -0.969318
-0.039662 -0.14542 0.123517 -0.057336 -0.060461 0.996374
0.199132 0.537824 -0.101207 0.287727 0.696402 -0.655586
-0.135921 0.458313 -0.102601 -0.463895 0.047903 -0.88396
0.183053 -0.403939 0.061532 0.816009 -0.056223 0.575124
0.181365 0.127804 0.050823 0.816074 0.112805 0.561733
0.139745 0.194801 -0.092535 0.68674 -0.016181 -0.726365
0.064783 -0.449723 -0.068963 -0.741717 0.024802 -0.670249
-0.114959 0.150638 -0.042613 -0.883465 0.14446 -0.445152
0.232192 0.536244 -0.022242 0.615844 0.695356 0.364484
-0.475225 0.173317 0.028486 -0.439535 0.843713 0.244501
-0.124317 0.196408 -0.012087 -0.891475 0.202403 -0.403877
0.155575 0.273301 0.062546 0.797984 0.053391 0.599662
0.174869 -0.810518 -0.031785 0.931437 -0.353348 0.04644
-0.046167 -0.582224 -0.100693 0.338221 -0.018398 -0.940849
-0.043199 -0.792411 0.051756 0.050495 0.696358 0.699507
0.023877 0.765692 -0.121196 -0.072494 -0.050631 -0.995851
0.547363 0.126118 0.038183 -0.748527 -0.456554 0.458896
0.203469 -0.140449 -0.043739 0.890157 -0.019142 -0.452975
-0.183855 0.485651 -0.074413 -0.510115 0.415508 -0.750583
0.178025 -0.607415 -0.076933 0.643014 -0.079736 -0.761351
-0.094804 0.398587 0.07324 -0.613785 -0.025522 0.788967
0.020416 -0.712162 -0.063151 0.924934 0.008383 -0.377135
-0.081724 0.541852 -0.096423 -0.353713 0.555487 -0.751369
0.116649 -0.640907 -0.095253 -0.252183 -0.085722 -0.961926
-0.020853 -0.837717 -0.046133 0.87923 -0.47338 0.006013
-0.120509 0.336245 -0.041014 -0.99984 -0.015754 0.003086
0.183239 0.115766 0.050927 0.851017 0.192334 0.486897
-0.118222 -0.731182 -0.016945 -0.713689 0.306915 0.620787
0.214469 -0.097409 0.012914 0.99914 -0.001519 0.033062
0.037811 -0.081452 0.111916 0.078242 -0.55046 0.828148
0.165044 -0.3929 -0.077424 0.561362 0.178052 -0.807563
-0.118944 -0.337606 -0.039461 -0.857966 0.100645 -0.502987
-0.50961 0.085449 0.042071 0.590014 -0.748159 -0.257844
0.099497 0.799866 -0.058165 0.936723 0.228967 -0.250023
-0.231132 0.366374 0.01718 0.168374 -0.327792 0.926311
0.172264 0.375905 0.048303 0.772009 -0.086027 0.629602
-0.061992 -0.074321 0.12392 -0.296558 -0.11183 0.948012
0.019732 0.509139 0.065125 0.092515 0.497087 0.861453
-0.189228 0.51909 -0.031684 -0.70677 0.682802 -0.181863
0.119173 -0.362069 0.074774 -0.259131 -0.210336 0.941996
0.101606 0.251446 0.107205 0.368339 0.074168 0.926665
-0.197342 0.362578 0.005048 0.376041 -0.700718 0.596754
-0.07392 0.435022 0.085108 -0.535469 0.186763 0.822812
-0.143528 -0.057509 0.01982 -0.996944 0.042837 0.058422
-0.120457 -0.664295 -0.007087 -0.977033 -0.156245 0.144268
-0.128526 -0.026529 -0.055144 -0.922801 -0.013641 -0.384009
0.35109 0.37331 -0.125036 0.694452 0.432175 -0.574338
0.126232 -0.688833 0.028671 0.192897 -0.184141 0.962804
0.119526 0.408915 -0.144514 0.145508 -0.067734 -0.986805
0.168371 0.279436 -0.061192 0.905736 -0.14859 -0.396334
0.187717 0.006682 -0.070075 0.83845 0.135101 -0.526484
-0.202169 0.478407 0.030323 -0.643788 0.281583 0.710646
0.186207 0.177137 0.02801 0.920531 0.223675 0.312866
-0.103415 -0.725212 -0.004468 -0.668469 -0.337975 0.653452
0.092781 0.470452 0.076336 0.167219 0.397697 0.901827
-0.082817 -0.820976 -0.122987 -0.771511 -0.124237 -0.622438
-0.11364 -0.02496 -0.081817 -0.831215 -0.055447 -0.553014
-0.058576 -0.747852 -0.126819 -0.077434 0.2474 -0.961721
-0.01247 -0.353907 0.083967 0.587871 -0.123774 0.782251
-0.128301 -0.027539 0.070026 -0.870327 0.097521 0.482434
0.020632 -0.387713 0.028709 0.945294 -0.13528 0.29538
-0.037365 0.798134 -0.027825 -0.997717 -0.021241 0.034224
-0.094873 -0.833541 0.099206 -0.642465 0.756908 0.108562
0.088106 -0.834549 -0.010082 -0.975373 -0.124753 0.005223
0.567434 0.141184 -0.006876 0.633084 0.179168 -0.735963
0.221172 0.395036 -0.100302 -0.549597 -0.795695 -0.139447
0.081266 0.627707 -0.002563 0.932966 -0.032446 0.339112
0.064692 -0.423992 -0.068206 -0.744658 -0.000454 -0.667369
-0.033394 -0.862311 -0.105921 0.221876 -0.968737 -0.028869
-0.288931 0.269509 -0.078692 0.517957 -0.525627 -0.674052
-0.366651 0.201587 -0.008 0.640058 -0.758948 0.116598
0.138313 -0.851494 0.182857 0.255626 -0.015953 0.950059
0.129124 -0.208549 -0.101142 0.265415 -0.204753 -0.941197
-0.011515 0.648225 -0.006869 -0.987165 -0.037786 0.130098
-0.137937 -0.004019 0.018531 -0.994799 -0.01848 0.028357
-0.090967 0.571831 -0.052254 -0.452004 0.811693 -0.338655
-0.362419 0.309724 -0.035286 -0.625658 0.766392 0.136194
0.194401 -0.528329 -0.061486 0.843502 0.005996 -0.536735
-0.131785 -0.215808 0.067856 -0.930726 -0.048832 0.361969
0.200352 -0.599676 -0.022907 0.994916 -0.099561 0.007074
-0.168977 0.430806 0.036543 -0.091204 -0.473428 0.871293
-0.096666 -0.632639 0.04642 -0.318899 -0.31659 0.876445
0.061428 -0.67387 0.018688 -0.532413 0.310157 0.780062
-0.120291 -0.384067 -0.0433 -0.841506 -0.040318 -0.537374
-0.060551 0.088251 -0.118565 -0.495089 0.290094 -0.817998
0.108781 0.061317 0.114229 0.500775 0.112743 0.857611
-0.003136 -0.788319 -0.01209 0.803648 -0.080407 0.583362
-0.054378 -0.435933 0.080919 0.178625 -0.198756 0.963617
-0.09333 0.195916 0.076013 -0.672915 -0.003888 0.739479
-0.183498 0.418633 0.031557 0.135439 -0.403018 0.902437
0.021173 -0.542793 -0.004104 0.937628 -0.095831 0.330691
0.165046 -0.852092 0.005603 0.9681 -0.162363 -0.165212
0.199625 -0.443756 -0.031941 0.997356 0.010965 -0.066294
0.101584 0.774926 0.008283 0.940977 -0.030953 0.328181
-0.128638 -0.56249 -0.010418 -0.966789 -0.100787 0.234766
-0.141404 -0.041333 0.030461 -0.964702 0.144036 0.212941
0.05238 0.864348 -0.036119 0.168096 0.969405 -0.166427
0.08297 -0.709461 0.0366 -0.062363 0.037232 0.995517
-0.181061 0.500985 0.038569 -0.564619 0.461932 0.681505
0.178234 0.204728 -0.036075 0.924477 0.020022 -0.380368
0.077971 -0.16776 -0.10098 -0.416556 -0.221521 -0.881414
0.025461 -0.445099 -0.004615 0.987118 0.119622 -0.036006
-0.12815 0.504678 -0.097488 -0.383207 0.320884 -0.865329
-0.115073 -0.66559 0.017452 -0.892103 -0.209513 0.391109
0.071959 -0.107494 -0.113734 -0.367374 -0.361587 -0.856124
-0.053369 0.172128 0.103228 -0.507447 0.065257 0.858796
-0.020633 -0.360118 0.087088 0.415707 -0.15045 0.894223
-0.051627 0.150824 0.10673 -0.548336 0.100162 0.8299
-0.102651 0.382725 -0.104864 -0.542286 -0.221899 -0.807837
-0.12955 -0.282679 0.022 -0.991439 -0.126797 0.002941
0.264838 0.48205 -0.011398 0.564749 0.365364 0.733244
0.015289 -0.087331 0.116394 0.570504 -0.255374 0.7803
-0.352078 0.228676 -0.070549 0.339816 -0.593724 -0.72849
0.052647 0.761127 -0.115476 0.421309 -0.145896 -0.893346
-0.128488 -0.293781 0.030111 -0.997254 -0.060286 0.038275
0.286465 0.337172 -0.060426 -0.503562 -0.757409 0.395671
-0.101099 -0.002967 0.108693 -0.635463 -0.034793 0.748639
0.156294 0.261183 -0.081588 0.861301 -0.085109 -0.500523
-0.006961 0.447593 0.094991 -0.031949 0.303525 0.950106
0.135014 -0.389691 -0.096103 0.464495 0.127619 -0.874584
0.175921 0.290305 -0.04856 0.934587 -0.169576 -0.311848
0.035551 -0.171245 -0.049016 -0.894262 -0.16234 -0.415569
-0.330505 0.308442 0.000234 -0.365574 0.225473 0.90093
-0.053232 -0.785655 0.043885 -0.141218 0.737564 0.656909
-0.069694 -0.348515 0.101418 0.190001 -0.141232 0.971509
0.041669 -0.256378 0.019301 -0.983808 -0.009286 0.172354
-0.129851 -0.246719 -0.008548 -0.948646 -0.017986 -0.314285
-0.053972 0.053134 0.116501 -0.515258 0.215774 0.825622
0.008932 -0.301977 0.078743 0.736219 -0.175293 0.64581
0.012323 -0.311546 0.070999 0.784017 -0.163851 0.598629
0.090978 0.827443 -0.018451 0.899695 0.42167 0.012114
0.199529 0.037739 -0.038166 0.967391 0.068806 -0.242991
-0.268897 0.415002 -0.048027 -0.731524 0.676406 -0.078337
0.451625 0.266308 -0.039195 0.102391 0.59473 0.794978
-0.001915 -0.817411 -0.02022 0.96136 -0.079468 0.26155
0.029552 -0.279138 -0.018341 -0.185829 -0.5154 -0.703877
-0.034984 0.116194 -0.120812 -0.287296 0.336399 -0.895513
0.087443 -0.293274 -0.094513 -0.362613 0.018267 -0.923318
-0.440286 0.151887 -0.00278 0.634927 -0.769233 0.013179
0.15917 -0.566656 0.042942 0.108153 -0.155259 0.978467
0.054377 -0.099118 0.086252 0.453608 -0.666218 0.587009
-0.141844 -0.07022 0.036397 -0.970127 0.027729 0.234366
0.12424 -0.825077 0.134689 0.037517 0.996568 0.055331
0.06366 -0.75197 -0.024942 -0.868475 0.15425 -0.468458
0.181093 0.189876 -0.029793 0.941387 0.06738 -0.326458
0.101282 -0.360239 0.068284 -0.419153 -0.300692 0.856486
-0.297475 0.317573 -0.096828 -0.104429 0.131167 -0.983781
0.405601 0.235474 -0.043562 -0.457061 -0.652214 0.600815
-0.224449 0.442294 0.024198 -0.712084 0.287011 0.639302
-0.192924 0.349428 -0.045165 0.627208 -0.772753 -0.087418
-0.125829 -0.334717 0.040771 -0.992056 -9.7e-05 0.124931
-0.540185 0.095723 0.078231 -0.725607 0.654341 0.202656
-0.025416 0.703626 0.006533 -0.882099 -0.469549 0.013358
-0.375882 0.295175 -0.065604 -0.661676 0.645294 -0.377338
0.165122 -0.812324 -0.095729 0.864378 -0.101228 -0.481703
-0.125546 -0.43789 -0.043259 -0.79827 0.252873 -0.546009
-0.03623 0.395262 -0.129165 -0.082151 -0.024456 -0.995746
-0.046878 -0.2105 0.118265 0.093314 -0.196601 0.975959
-0.554873 0.071356 0.081939 -0.840831 0.35038 0.342611
-0.106825 -0.774431 -0.002367 -0.738272 0.115368 0.662746
-0.39352 0.260748 -0.075604 -0.639291 0.109285 -0.743094
-0.081847 0.074234 0.099494 -0.509406 0.34991 0.780251
0.082521 0.298713 -0.141377 -0.094369 -0.108839 -0.985951
0.263638 0.442319 -0.136494 0.065074 0.316763 -0.940445
0.089465 0.836223 -0.014424 0.933512 0.349941 0.0086
0.262919 0.51237 -0.076629 0.676506 0.696313 -0.231804
0.099779 0.300883 0.104593 0.262474 0.087286 0.960786
0.301187 0.441288 -0.031859 0.75752 0.391847 0.489262
0.140792 0.058858 -0.122305 0.673208 0.207315 -0.708219
0.380953 0.255085 -0.048573 -0.668163 -0.505223 0.543259
-0.041229 -0.863779 0.038999 0.059397 -0.997482 -0.029528
-0.12583 -0.100074 -0.049638 -0.809608 -0.073977 -0.581604
-0.038907 -0.293821 -0.091203 0.211894 -0.085219 -0.973038
-0.383614 0.194599 -0.051368 0.222279 -0.901209 -0.337032
0.151177 -0.867332 0.103078 0.458505 -0.886937 0.015999
0.476103 0.254089 -0.045875 0.713226 0.69522 0.081456
0.182841 0.213764 -0.013593 0.997704 0.012135 -0.062898
0.275013 0.501263 -0.047924 0.722314 0.665154 0.179582
-0.070262 0.087538 -0.112684 -0.558419 0.255979 -0.789009
-0.106941 -0.550969 0.040313 -0.850743 -0.093106 0.516551
-0.343697 0.309764 -0.08466 -0.450916 0.467264 -0.759086
0.019549 -0.272188 -0.036852 0.923378 -0.081699 -0.370227
0.176098 0.532903 0.011161 0.304529 0.602015 0.737063
-0.038446 0.017885 -0.140571 -0.226882 -0.48744 -0.842778
-0.000299 -0.488135 0.038551 0.66647 -0.226691 0.709915
-0.06129 0.147449 0.100665 -0.562732 0.099127 0.82056
0.032258 0.612984 -0.076001 -0.059679 0.375105 -0.91775
-0.032409 -0.20552 0.117184 0.231829 -0.235536 0.943757
0.017582 0.014939 -0.149903 -0.189933 -0.401472 -0.895282
-0.135868 -0.214762 0.009618 -0.991132 -0.060051 -0.112602
-0.105701 0.549739 -0.075071 -0.442977 0.680288 -0.582868
-0.073628 0.371983 -0.117157 -0.449675 -0.117479 -0.884892
-0.013416 0.569268 0.014302 -0.304845 0.600087 0.735726
0.042502 -0.278304 0.022006 -0.991091 -0.018251 0.124691
0.052219 -0.596298 -0.046411 -0.826075 -0.022243 -0.561102
0.140891 -0.869437 0.106941 0.06455 -0.996606 0.019455
0.02522 0.185804 0.130295 0.011113 0.029311 0.999441
0.134246 0.48741 -0.141769 0.139551 0.304303 -0.939756
-0.497968 0.097085 0.034081 0.284106 -0.867246 -0.333369
-0.094751 -0.850124 -0.095116 -0.97074 0.021082 -0.234709
-0.053001 0.27692 0.096762 -0.582988 0.04652 0.810209
0.197925 -0.325187 -0.027147 0.876557 0.042419 -0.478152
-0.06857 0.062906 0.11107 -0.355429 0.165388 0.916989
0.089952 -0.850155 -0.092483 -0.970639 0.049159 -0.233071
-0.005138 0.54657 0.039382 0.32101 0.745111 0.580379
0.079142 -0.281895 -0.088995 -0.552852 0.039512 -0.832084
0.063639 0.587707 -0.093612 0.070825 0.655485 -0.751718
0.16084 0.231788 -0.070399 0.831813 -0.03871 -0.552923
-0.035704 -0.785466 -0.144988 0.148016 0.467484 -0.864349
0.204547 -0.221601 0.026853 0.981938 -0.011115 0.184166
0.08784 0.361211 0.1006 0.370824 0.165707 0.906339
-0.554246 0.060339 0.085981 0.191314 -0.489365 0.762522
-0.042145 0.373585 0.105171 -0.22105 0.063813 0.968609
-0.236197 0.425963 0.019484 -0.650504 0.316477 0.687445
-0.068059 -0.807915 0.06124 -0.396257 0.469802 0.76729
-0.071698 -0.860972 0.14681 -0.005486 -0.973478 0.225315
-0.056473 -0.582949 -0.103291 0.128778 0.001238 -0.990603
-0.028317 -0.35336 0.090676 0.303922 -0.120908 0.944291
-0.052489 -0.797664 0.05347 -0.235307 0.739337 0.621642
-0.126727 -0.300397 -0.01832 -0.974177 0.01841 -0.214196
0.000695 0.794406 -0.112624 -0.367486 0.202627 -0.906088
-0.103217 0.112312 -0.072141 -0.808597 0.123659 -0.572392
0.055596 0.70005 0.085174 0.54158 0.00912 0.836889
0.083577 0.687247 0.049254 0.903462 -0.36304 0.219951
0.053546 -0.57526 -0.04913 -0.821647 -0.048422 -0.567439
0.176244 0.248015 0.040002 0.876762 0.039104 0.477382
0.20812 -0.055507 -0.018038 0.969355 0.041723 -0.241059
0.023655 -0.255601 0.056517 0.910826 -0.021457 0.411004
-0.101406 -0.434051 -0.070494 -0.652431 0.272452 -0.706709
0.184901 0.370655 0.026942 0.894746 -0.168138 0.412775
0.109708 0.081927 0.110545 0.549363 0.106279 0.823283
-0.025145 0.395446 -0.129595 -0.015808 -0.01557 -0.999634
0.187156 -0.770125 -0.021292 0.954699 -0.288836 -0.033701
0.052075 0.106255 -0.139514 -0.055066 0.437456 -0.896605
-0.083933 0.307514 0.076435 -0.631094 -0.029827 0.768972
-0.092757 -0.863254 0.043305 -0.032427 -0.999421 -0.007365
0.170991 0.256611 0.047411 0.744779 0.079365 0.662169
-0.127467 -0.64417 -0.03259 -0.988832 -0.089348 0.110469
0.064235 -0.345166 0.049997 -0.694278 -0.241991 0.675452
0.122633 -0.494865 -0.107681 -0.078739 0.036244 -0.993655
-0.189513 0.51299 0.015886 -0.6564 0.627789 0.418075
-0.044513 0.130209 0.111811 -0.473741 -0.032241 0.87957
-0.034859 0.561655 0.020737 -0.049743 0.801921 0.591258
0.631648 0.03015 0.06976 -0.94918 -0.309245 -0.003048
-0.107013 -0.429063 -0.062393 -0.708704 0.285794 -0.644952
-0.053728 0.50829 0.061166 -0.181863 0.463747 0.866779
0.104808 -0.284546 -0.09935 -0.084911 0.008954 -0.992125
-0.100035 -0.641919 0.043084 -0.379913 -0.26441 0.868244
0.019469 0.001664 0.143894 0.015039 0.145962 0.988915
0.175895 0.328504 -0.075372 0.814093 -0.335101 -0.473915
0.121006 -0.531034 -0.107844 -0.132027 -0.010322 -0.988029
0.04346 -0.283821 0.030485 -0.986469 -0.01767 0.161774
0.066158 0.559675 0.020217 0.213861 0.402477 0.879669
0.013029 -0.391908 -0.040496 0.782179 0.038515 -0.62116
-0.072255 -0.550143 -0.102226 -0.13573 0.058414 -0.988171
-0.137235 -0.000458 0.031912 -0.982248 -0.174194 0.050511
0.138989 0.100939 0.094551 0.657292 0.162178 0.733969
0.103337 -0.315817 -0.099883 -0.095239 0.028977 -0.989855
-0.028404 0.826958 -0.069945 -0.653402 0.603611 -0.451654
0.031725 0.772611 0.088637 -0.108714 0.089412 0.983323
-0.126512 -0.330979 -0.02055 -0.977381 0.003709 -0.203939
0.028355 -0.181725 0.044771 0.945819 -0.118534 0.294793
0.198467 -0.469692 0.001234 0.986599 -0.017659 0.15773
0.01522 0.272625 0.125065 -0.112672 0.11244 0.98648
0.055185 -0.643413 0.006032 -0.650738 0.250931 0.706316
0.182916 0.247543 0.004126 0.999759 -0.012131 0.015891
0.328182 0.354278 -0.138264 0.035577 -0.103147 -0.992953
0.055264 -0.139816 -0.09159 -0.661817 -0.224713 -0.714723
0.159861 -0.078554 0.102934 0.527844 0.064736 0.845855
0.148986 0.249062 -0.09306 0.792002 -0.140055 -0.593463
0.131884 0.152933 0.097042 0.548847 0.026188 0.835422
0.195285 -0.206479 -0.056225 0.728511 -0.06686 -0.681647
-0.035227 -0.658915 0.023851 0.022656 -0.056032 0.990757
0.006014 0.067537 -0.14339 -0.142872 0.206548 -0.967727
-0.21228 0.339373 -0.062208 0.544407 -0.775233 -0.318803
0.042975 -0.35177 0.011291 -0.978823 -0.069799 0.19156
-0.086081 -0.643045 -0.105181 -0.27068 0.05922 -0.960299
0.044778 0.776458 0.085944 0.474981 -0.238317 0.833935
0.049586 0.835889 -0.091191 0.20797 0.676627 -0.704301
-0.044595 -0.477146 0.06721 0.288495 -0.259622 0.921308
-0.415365 0.252438 -0.043708 -0.782898 0.610068 -0.104147
0.132482 0.355694 -0.131649 0.52634 -0.215234 -0.820741
-0.089507 -0.828816 0.091637 -0.553859 0.823882 0.114079
0.194579 0.523828 -0.116307 0.180557 0.641141 -0.745827
-0.058192 -0.725489 0.017651 -0.34397 0.463935 0.814205
-0.028025 -0.856748 0.012913 0.643752 -0.732891 -0.18517
-0.080972 0.444064 0.079395 -0.53757 0.157423 0.826671
0.15444 0.561795 -0.094287 0.369604 0.704616 -0.605141
-0.114326 0.358869 0.032541 -0.916306 -0.250426 0.310707
0.177568 0.194701 -0.038035 0.92815 0.026852 -0.370994
0.466742 0.264811 -0.07095 0.81127 0.577926 -0.050905
-0.113933 -0.095504 0.095158 -0.740853 0.084219 0.666153
0.015984 0.494885 -0.123121 0.032452 0.051755 -0.997208
-0.270171 0.368225 0.013942 -0.578837 0.057118 0.810511
-0.011072 -0.517445 0.039198 0.605277 -0.215664 0.765945
-0.281162 0.278483 -0.079516 0.532747 -0.528369 -0.659832
-0.129933 -0.266309 -0.004166 -0.979901 -0.090178 -0.174282
0.046723 -0.606444 -0.027298 -0.98731 -0.087687 0.112606
-0.004441 0.406861 -0.129042 0.063731 0.003419 -0.997924
0.390817 0.291519 -0.041179 0.169031 0.29634 0.939784
-0.03363 -0.328263 0.09566 0.285687 -0.112989 0.950868
-0.147066 0.534934 -0.064758 -0.466513 0.690026 -0.551986
0.067296 -0.31607 -0.078533 -0.763755 -0.021381 -0.644142
0.013035 -0.675314 -0.00046 0.828748 -0.271821 0.482201
-0.021981 0.706028 0.038705 -0.962821 -0.194174 0.179064
-0.191922 0.481554 0.038274 -0.661489 0.212947 0.718635
-0.080284 0.309172 -0.107209 -0.652064 -0.049316 -0.756101
-0.014857 -0.62199 -0.081843 0.677192 0.009944 -0.735725
0.198512 -0.351537 0.032603 0.934924 -0.108073 0.336404
-0.010157 0.780593 -0.108963 -0.708102 0.010969 -0.704998
-0.077239 0.339985 -0.111704 -0.511504 -0.075942 -0.855802
0.16428 -0.81878 0.014624 0.867789 -0.453647 0.194664
0.197529 -0.018432 0.060567 0.863048 0.093484 0.493864
0.140733 -0.13714 -0.107543 0.483682 -0.250527 -0.838248
-0.029937 0.841192 -0.002019 -0.675804 0.713753 0.169583
-0.214686 0.481045 0.011506 -0.787698 0.473255 0.387239
0.104592 -0.481481 0.037512 -0.635379 -0.039548 0.770969
0.134414 -0.642945 -0.095542 0.148218 -0.089887 -0.984522
0.215102 0.405243 -0.090222 -0.928297 -0.367291 -0.037838
0.006074 -0.024461 0.1333 0.100188 -0.131063 0.981562
-0.07436 -0.306343 0.106151 0.064656 -0.073447 0.995049
0.123054 -0.471185 0.052891 -0.576481 -0.101452 0.810695
-0.093931 -0.470787 -0.084143 -0.555001 0.113419 -0.824007
-0.066069 0.480497 0.072594 -0.185172 0.400959 0.895165
0.176634 0.240695 -0.038432 0.9333 0.017006 -0.358104
0.196484 0.108712 -0.018092 0.959179 -0.102853 -0.238914
-0.005224 -0.28622 0.090083 0.402572 -0.157027 0.901215
0.111759 -0.399008 0.063918 -0.428314 -0.172147 0.884727
-0.002149 0.296276 0.118313 -0.344001 0.125101 0.929485
0.141964 -0.829146 0.131508 0.463409 0.881724 0.076
0.136636 -0.869902 0.07494 0.035581 -0.999088 -0.000505
-0.202453 0.346126 -0.061197 0.553344 -0.755479 -0.34617
0.075113 -0.646812 0.014233 -0.488135 0.396817 0.766072
0.129538 0.176095 -0.100915 0.510548 0.045572 -0.857822
0.200605 0.53395 0.001605 0.253395 0.63743 0.727264
0.087874 -0.242184 -0.091888 -0.448096 -0.02423 -0.893552
0.097399 -0.401682 0.055422 -0.532855 -0.212568 0.817997
0.061571 -0.229975 -0.073558 -0.730775 -0.117183 -0.672031
0.094064 0.554702 0.023467 0.256946 0.697824 0.665883
0.213198 -0.088549 -0.009892 0.982438 0.044099 -0.17018
0.188137 -0.484457 0.03923 0.929006 -0.002752 0.369289
0.196601 0.405521 0.006971 0.932315 -0.196553 0.301707
0.052283 -0.311484 -0.0585 -0.814982 0.005868 -0.579392
0.097775 -0.49753 0.031726 -0.570204 -0.013903 0.821158
-0.050813 -0.468324 0.071786 0.26378 -0.233929 0.934507
-0.216843 0.479338 -0.044797 -0.661169 0.588467 -0.460625
0.199884 0.393281 -0.071593 0.97901 -0.191897 0.002138
0.034503 0.029351 -0.157246 -0.198376 0.032642 -0.965342
0.299735 0.472238 -0.059628 0.831019 0.529887 0.161633
-0.03922 0.172164 0.112573 -0.53837 0.108162 0.835682
0.168672 -0.410536 0.071415 0.3342 -0.073708 0.934685
0.067688 0.830475 -0.088297 0.446419 0.646202 -0.616466
0.205365 -0.272046 -0.007234 0.999351 0.017208 -0.03036
0.295698 0.412419 -0.141884 0.077168 0.296363 -0.948076
0.152556 0.062939 0.093295 0.346973 0.330247 0.87373
-0.040475 -0.226393 0.113963 0.107955 -0.173722 0.978727
-0.02559 0.541288 -0.11409 -0.123716 0.313863 -0.940388
0.264887 0.506283 -0.032288 0.740859 0.564409 0.362585
0.092449 -0.443877 -0.094268 -0.55261 0.053016 -0.831658
-0.144221 -0.117988 0.005738 -0.998719 -0.008437 -0.042069
0.02013 -0.252102 0.066273 0.948628 -0.023108 0.315218
-0.123114 -0.333935 0.05849 -0.987323 0.005174 0.15749
0.214509 -0.112795 0.004077 0.999581 -0.005448 0.00295
0.025352 -0.146903 0.077859 0.842149 -0.318073 0.434971
-0.122274 -0.479097 -0.05827 -0.765663 0.106169 -0.633777
0.108279 0.179325 0.109046 0.545914 0.050763 0.83612
0.015994 -0.249672 -0.04798 0.855989 -0.081027 -0.50977
-0.097564 -0.39981 -0.06547 -0.633115 -0.076332 -0.763558
0.029004 0.867082 0.004076 -0.382421 0.890275 0.239843
-0.45356 0.167339 -0.049298 -0.426274 -0.094089 -0.804812
0.18175 -0.789071 -0.027217 0.934112 -0.347666 0.075034
-0.114879 0.292292 -0.030048 -0.959888 -0.269695 0.018742
0.035016 -0.327625 -0.01589 -0.997087 -0.041421 -0.062004
-0.1256 -0.665208 -0.073805 -0.909857 -0.013929 -0.403139
0.447795 0.221804 -0.09494 0.717883 -0.144799 -0.676576
-0.022903 0.141533 -0.11146 -0.231412 0.514414 -0.823461
0.164328 -0.825786 -0.036434 0.769667 -0.638017 0.021533
0.112993 -0.151668 0.107676 -0.293363 -0.28203 0.898368
-0.120841 0.166922 -0.02625 -0.889093 0.055945 -0.451241
-0.092189 0.286661 -0.094706 -0.702602 -0.041883 -0.710264
-0.081514 -0.415686 0.089361 0.044613 -0.20156 0.977562
0.099149 -0.858424 0.000204 -0.744402 -0.654329 -0.128826
0.201316 -0.353761 0.023314 0.95344 -0.134376 0.269411
3.4e-05 -0.399435 -0.055364 0.624414 0.099111 -0.77465
0.146962 0.418622 0.073297 0.531481 0.084434 0.842367
-0.361635 0.309861 -0.06258 -0.652359 0.721414 -0.231951
-0.052409 0.476294 -0.129894 -0.057278 0.12937 -0.989728
-0.087817 -0.818887 0.053415 -0.625074 0.73059 0.242482
-0.119145 0.333887 -0.064447 -0.968644 -0.118481 -0.20502
0.550177 0.171144 0.011291 0.79625 0.600545 0.041446
0.192465 -0.094195 -0.061441 0.848222 -0.017539 -0.529035
0.188585 0.552956 -0.013082 0.289825 0.758411 0.582403
0.080415 -0.211249 -0.090813 -0.44586 -0.181586 -0.87627
0.072427 -0.217429 -0.085642 -0.529311 -0.142971 -0.834747
-0.107392 -0.375969 0.09198 -0.673519 -0.074979 0.734424
0.186499 0.357973 0.017263 0.90498 -0.149379 0.397522
-0.021204 0.694486 0.004417 -0.945309 -0.319656 -0.027407
0.410466 0.301191 -0.119959 0.482697 0.462662 -0.742451
0.028168 -0.101082 0.104238 0.416537 -0.411069 0.806788
0.051831 0.09374 0.13219 0.141882 -0.367975 0.916723
-0.51668 0.079498 0.046138 0.620846 -0.763881 -0.166252
0.120968 -0.418839 -0.102863 0.078209 0.051801 -0.989084
0.207731 -0.182129 -0.004616 0.9999 -0.002647 0.004083
-0.109183 0.351809 0.041149 -0.861093 -0.245019 0.445466
0.114817 0.517203 -0.134191 0.032365 0.417507 -0.904536
0.07217 -0.796836 0.017273 -0.868396 -0.248586 0.426854
0.104934 -0.516933 0.036052 -0.547772 0.014641 0.833925
-0.021934 -0.814693 0.053376 0.905221 -0.011255 0.365483
-0.089562 -0.01443 -0.113398 -0.642202 -0.115646 -0.757432
-0.031241 0.305182 0.109492 -0.548632 0.117338 0.825216
0.201249 -0.583256 -0.03162 0.991052 -0.067038 -0.110088
0.1228 -0.677661 0.030521 0.115599 -0.07931 0.989173
0.168575 -0.10943 0.098463 0.650749 0.035907 0.758325
-0.071035 -0.056532 0.122094 -0.364707 -0.03724 0.929517
0.109494 -0.84387 0.16885 -0.811388 0.1877 0.553279
-0.526286 0.069617 0.06072 0.208984 -0.974801 0.034941
-0.029619 -0.339758 0.092603 0.297203 -0.09662 0.946517
-0.461662 0.17143 -0.041411 -0.560683 0.431702 -0.706402
-0.052059 -0.558921 0.049927 0.370455 -0.173613 0.912014
0.0857 -0.416443 0.040204 -0.650841 -0.357818 0.668848
-0.131711 -0.423658 0.035506 -0.935994 -0.036056 0.34958
0.110029 -0.765552 0.022048 -0.284616 0.531488 0.797133
-0.028812 -0.853678 -0.074009 0.69995 -0.672489 0.227391
0.088929 -0.560058 0.028513 -0.542858 -0.021492 0.837759
0.635473 0.047775 0.085348 0.917013 0.366717 0.15461
0.104562 -0.671195 -0.088558 -0.458756 0.038343 -0.885949
