-0.064458 -0.793162 0.045631 -0.347186 0.514298 0.76929
0.046224 -0.598881 -0.033534 -0.985628 -0.035188 -0.114923
0.16245 -0.391999 0.074298 0.208302 -0.022776 0.972691
0.098739 -0.127577 -0.117615 -0.244727 -0.214314 -0.943192
0.365264 0.302771 -0.041747 -0.028361 0.095207 0.969908
0.094632 -0.50584 -0.097446 -0.557181 -0.020469 -0.83006
-0.025364 0.31635 0.110868 -0.432613 0.142804 0.878122
0.201686 0.130044 0.01207 0.92747 -0.1936 0.28442
0.153767 -0.60025 0.037322 0.244955 -0.362444 0.885363
-0.10579 0.567864 -0.034064 -0.387862 0.900535 -0.108995
-0.285959 0.271073 -0.01304 0.693934 -0.521868 0.477227
-0.136868 -0.115715 0.055393 -0.962746 -0.00746 0.268823
0.138513 -0.12231 0.110824 0.167965 -0.082318 0.981578
0.365457 0.346494 -0.127936 0.561978 0.361233 -0.741768
0.072298 0.503467 -0.13204 -0.311741 0.190955 -0.928672
0.249714 0.392097 -0.132624 -0.439791 -0.279041 -0.852977
0.076307 -0.481194 -0.082507 -0.702687 0.014661 -0.711297
0.158102 0.106843 0.079251 0.39833 0.169502 0.898221
0.150074 -0.071745 0.107833 0.55982 0.042391 0.802925
-0.033438 0.760632 0.014769 -0.945825 -0.114804 0.296412
0.198988 0.426823 0.027249 0.666902 -0.419205 0.598428
-0.030643 0.76343 -0.078197 -0.815634 -0.244274 -0.51701
-0.092988 0.248426 -0.086367 -0.694452 -0.310671 -0.648472
0.033872 0.864128 0.023692 -0.048134 0.98573 0.15292
0.101203 0.726982 -0.02373 0.922372 -0.345675 -0.10146
0.460069 0.193803 -0.015391 -0.559857 -0.806623 0.133181
-0.35558 0.24363 0.009463 0.063173 0.038681 0.996906
0.397419 0.268998 -0.036842 -0.072933 0.115174 0.98217
0.213692 -0.126048 -0.010335 0.992323 -0.067721 -0.093905
-0.086912 0.522788 -0.105798 -0.292605 0.464762 -0.835644
-0.021458 -0.747862 -0.117955 0.611204 0.309636 -0.726013
0.063707 -0.739497 -0.022761 -0.860483 0.011105 -0.505434
-0.103889 0.240466 0.058697 -0.852976 0.172167 0.477046
0.15795 -0.339054 -0.072632 0.635413 0.012568 -0.772017
-0.055404 0.002484 0.130259 -0.232793 0.367299 0.895494
0.027041 -0.638204 -0.037971 0.987961 0.015145 -0.145234
0.131575 -0.866138 -0.00849 0.065052 -0.996899 -0.022855
0.198925 -0.630879 -0.037444 0.999787 -0.011239 -0.01519
0.038808 -0.345154 -0.033036 -0.934537 -0.086976 -0.338678
-0.290161 0.347453 0.003608 -0.442342 0.236203 0.860361
0.086145 -0.289535 0.076886 -0.390437 -0.215584 0.89491
-0.121189 -0.363661 0.071696 -0.957037 -0.018797 0.283593
-0.527718 0.103904 0.028431 -0.761766 0.290066 -0.481923
0.157114 -0.590251 0.039668 0.164105 -0.167709 0.969538
0.076417 0.637533 0.008882 0.813462 -0.186769 0.550075
0.109658 -0.823423 0.095176 -0.218484 0.94611 0.235764
0.097914 -0.857404 -0.10897 -0.761842 -0.053561 -0.637556
0.132689 -0.198901 -0.102471 0.274611 -0.1365 -0.951026
-0.073945 -0.800159 -0.137148 -0.64495 -0.133085 -0.744266
-0.035629 -0.316306 0.09727 0.249602 -0.071969 0.965447
0.48125 0.201416 -0.061582 -0.061163 -0.590837 -0.799257
-0.009818 0.844553 0.032856 -0.739243 0.424494 0.491999
-0.279553 0.404082 -0.030337 -0.66489 0.739349 0.088194
-0.384103 0.290542 -0.05009 -0.706535 0.705083 -0.052426
0.090118 0.123165 0.120589 0.374152 0.028387 0.926805
0.034946 0.86248 -0.053671 0.000535 0.959688 -0.277254
-0.136845 -0.194435 0.046195 -0.996671 -0.017682 0.079409
-0.101864 0.16221 0.066152 -0.748089 -0.032424 0.662221
0.025819 -0.642585 -0.012278 0.950507 -0.083033 0.280439
-0.020408 -0.392787 -0.07057 0.618424 0.058184 -0.782585
0.105551 -0.759804 -0.091689 -0.774522 0.008365 -0.561358
0.181486 -0.041686 -0.085607 0.850297 -0.090553 -0.517215
0.056234 -0.344461 -0.062208 -0.7991 -0.070458 -0.597042
0.176383 0.473179 0.038698 0.586499 0.255978 0.766953
0.14254 -0.260061 0.08368 0.061533 -0.066313 0.99575
0.20423 -0.344649 -0.017898 0.958116 0.090788 -0.251929
0.520525 0.167177 0.020706 -0.296205 0.214673 0.916179
0.105375 -0.556567 -0.100972 -0.464098 -0.121448 -0.875933
-0.011477 0.643059 -0.027852 -0.985059 0.068034 -0.124811
0.199937 -0.45843 -0.028532 0.999214 0.002459 -0.033975
0.32036 0.44854 -0.084583 0.713071 0.697194 -0.056847
-0.491357 0.101543 0.064265 0.904426 -0.27372 0.277575
0.071104 0.071888 0.13053 0.181484 0.042153 0.977751
-0.079575 -0.124771 0.117672 -0.318634 -0.025299 0.947288
0.197361 -0.202494 0.050963 0.945559 -0.046818 0.321027
0.092948 0.289338 -0.140113 0.114194 -0.06987 -0.990974
-0.139104 -0.027732 -0.010929 -0.968271 0.192224 -0.144016
0.005882 -0.172101 -0.06182 0.774275 0.04224 -0.631095
0.062639 0.78917 -0.111906 0.48019 0.0533 -0.875442
-0.031527 -0.04812 -0.126918 -0.047883 -0.446136 -0.89324
-0.092057 -0.373729 -0.07193 -0.543647 -0.032099 -0.838171
0.202197 -0.369902 -0.031993 0.926134 0.075322 -0.367018
-0.035005 0.433912 -0.130674 0.0024 -0.076402 -0.996376
-0.065049 0.393197 0.095114 -0.361778 0.048197 0.929749
0.021504 0.847645 -0.078584 -0.166639 0.803599 -0.569007
-0.092141 -0.736178 0.00318 -0.620372 0.239035 0.729845
0.05954 0.643307 -0.060542 0.52677 0.173451 -0.825487
0.135495 -0.265266 -0.091245 0.468469 -0.086527 -0.877626
-0.001424 0.580288 -0.095491 -0.070821 0.56929 -0.817976
0.205425 -0.171784 0.02743 0.976154 -0.036806 0.207659
-0.118402 -0.534225 0.023484 -0.855093 -0.098735 0.508778
0.07762 -0.790139 0.028102 -0.706721 -0.210279 0.665855
0.4248 0.20896 -0.075333 -0.502415 -0.859425 0.061698
-0.191922 0.481554 0.038274 -0.661489 0.212947 0.718635
0.236814 0.505789 -0.111946 0.493602 0.552429 -0.671507
0.131916 -0.42759 0.066269 -0.350811 -0.083786 0.931167
0.083535 -0.625349 -0.075498 -0.654646 -0.080849 -0.751357
0.044315 -0.522237 -0.025214 -0.990933 0.001239 0.103732
-0.439415 0.158821 0.030219 0.495188 -0.763791 0.387427
0.092765 -0.852983 -0.019733 -0.801025 -0.563675 0.14927
0.188564 -0.524614 -0.070808 0.800858 0.002113 -0.597438
0.192991 -0.683257 -0.040202 0.789342 -0.154584 -0.592064
-0.002353 -0.215868 -0.072404 0.617669 0.025336 -0.783163
0.151475 -0.862603 -0.002115 0.333522 -0.938173 -0.075243
0.104533 0.291327 0.10395 0.303712 0.080586 0.946794
0.199884 0.393281 -0.071593 0.97901 -0.191897 0.002138
-0.001495 0.541044 0.04727 0.163865 0.806024 0.560129
0.114488 -0.843654 -0.117072 -0.423112 0.021785 -0.905572
0.034578 -0.307257 -0.016711 -0.993538 -0.0618 -0.087466
-0.054867 0.087972 0.11145 -0.518601 0.099064 0.84902
0.242625 0.469031 -0.129506 0.213483 0.313035 -0.924994
-0.457059 0.193972 -0.032167 -0.747797 0.348089 -0.558755
0.268384 0.507298 -0.043089 0.732341 0.645284 0.201845
0.095461 0.797339 -0.073901 0.894717 0.149621 -0.409379
0.197751 -0.367178 0.03067 0.952013 -0.076178 0.296172
0.343064 0.293008 -0.115361 -0.529849 -0.636547 -0.556942
0.110983 0.061909 -0.142562 0.500986 0.193601 -0.842892
0.429222 0.254591 -0.120797 0.414289 -0.231967 -0.877054
-0.115428 0.395196 -0.097785 -0.689212 -0.248479 -0.6781
0.264717 0.348954 -0.079303 -0.697528 -0.715991 -0.01646
-0.036117 0.81605 -0.062052 -0.953593 0.059428 -0.263929
0.078472 -0.64941 -0.068053 -0.713479 -0.090042 -0.69479
0.063353 0.680636 0.080527 0.61933 0.114367 0.775524
0.199594 -0.112056 0.061415 0.894428 -0.023744 0.446523
-0.002843 0.859877 -0.003247 -0.586706 0.80381 0.038575
0.131418 0.43345 0.078744 0.386283 0.190157 0.900409
0.121631 -0.544481 -0.107573 -0.154985 -0.048434 -0.983489
0.024232 -0.586147 -0.035138 0.901202 0.113259 -0.405517
0.001033 -0.819177 -0.031353 0.963139 -0.069913 0.257988
0.138249 -0.161138 0.103775 0.184069 -0.285426 0.938756
-0.069644 0.098747 -0.109543 -0.569049 0.299664 -0.764524
-0.29338 0.32724 -0.095499 -0.162585 0.221578 -0.958706
0.121006 -0.531034 -0.107844 -0.132027 -0.010322 -0.988029
0.141777 0.252945 0.08161 0.727554 0.052697 0.683899
-0.487866 0.132463 -0.015023 0.259961 -0.845954 -0.463634
0.077217 -0.520123 -0.082353 -0.708969 -0.061344 -0.702432
0.062173 0.693027 -0.07104 0.524037 -0.530111 -0.664741
0.054195 0.387312 -0.136174 -0.304242 0.007856 -0.952255
-0.035114 0.11281 0.117435 -0.486476 0.1671 0.854997
0.076539 -0.258962 -0.086058 -0.543362 0.038182 -0.838525
-0.007839 0.702006 0.064725 -0.710156 -0.16081 0.682842
0.259975 0.367333 -0.123456 -0.491037 -0.668299 -0.554659
0.196343 -0.196297 -0.055978 0.771711 -0.028374 -0.632629
0.513139 0.189487 0.01729 -0.476308 0.022938 0.800425
0.459119 0.276367 -0.063801 0.709127 0.685619 0.150021
-0.036352 0.755687 -0.051601 -0.964284 -0.162329 -0.20111
-0.047747 0.209418 -0.111042 -0.557123 -0.318886 -0.766407
0.116583 0.127547 -0.116987 0.497063 0.325243 -0.803721
-0.053149 -0.641766 -0.105053 0.254236 0.068586 -0.963122
-0.114738 -0.802911 -0.042816 -0.884203 -0.457238 0.061316
-0.238325 0.345464 -0.090199 0.323208 -0.472939 -0.817367
0.165555 -0.48649 0.063826 0.384213 -0.166832 0.89863
0.093807 -0.437779 0.03568 -0.636407 -0.366309 0.678604
0.041472 0.870463 -0.014373 0.027355 0.995957 -0.013724
-0.027039 0.121583 -0.12084 -0.21935 0.353614 -0.908975
-0.120457 -0.664295 -0.007087 -0.977033 -0.156245 0.144268
-0.090748 -0.533439 -0.094721 -0.458579 0.095984 -0.880171
0.205003 -0.142307 0.04588 0.931258 -0.133907 0.335147
0.160567 0.313348 -0.090959 0.673974 -0.260334 -0.663575
0.057341 0.293813 -0.134656 -0.347207 -0.047838 -0.936226
0.025855 -0.183542 -0.031212 -0.650162 0.034635 -0.751626
0.073455 -0.050334 -0.140947 -0.203646 -0.414901 -0.886037
0.177085 0.315156 -0.063461 0.862457 -0.305471 -0.399687
-0.049273 0.361727 0.10302 -0.369397 -0.037154 0.925747
-0.501942 0.09458 0.066107 0.691287 -0.65464 0.277621
0.180648 0.274488 0.020623 0.970053 0.032507 0.235693
0.00978 -0.738307 -0.012615 0.751241 -0.203796 0.623121
0.053307 -0.680965 -0.025201 -0.951135 -0.076868 -0.279925
-0.071896 -0.208452 -0.088915 -0.39117 -0.021733 -0.916608
-0.062003 -0.86277 0.134395 0.039031 -0.990549 0.116539
-0.095544 -0.659891 -0.101335 -0.502162 -0.021293 -0.864298
0.046096 0.31072 0.119688 0.118158 0.111081 0.98665
-0.030939 0.597243 -0.033896 -0.677807 0.710749 0.168695
0.001659 0.520004 0.061099 0.069855 0.502826 0.861344
0.199393 -0.525842 0.00307 0.944396 -0.026382 0.326384
0.175134 -0.130609 0.092506 0.654954 -0.031713 0.75447
0.170305 0.300816 0.047881 0.73295 -0.016847 0.678634
0.179927 -0.029914 -0.089083 0.823535 -0.036047 -0.565037
-0.034117 -0.447992 -0.088522 0.364489 0.111835 -0.923154
0.07704 -0.68454 0.030811 -0.424005 0.282744 0.859809
0.110048 -0.869239 0.118226 0.01097 -0.998565 0.050382
0.062674 -0.727588 0.03574 -0.358452 -0.053479 0.928691
0.180726 0.285719 0.020917 0.962122 -0.021484 0.267897
0.097781 -0.819091 0.069213 -0.613587 0.690112 0.354582
0.052958 -0.695958 -0.017025 -0.977883 -0.103269 -0.165197
0.086869 0.714224 -0.061253 0.738157 -0.521793 -0.418503
0.166322 -0.220431 -0.078388 0.559878 -0.06218 -0.825844
0.005975 0.72689 0.073103 -0.504873 0.148891 0.846187
0.1322 0.290735 0.089011 0.648438 0.05066 0.759528
-0.10235 -0.011805 0.104616 -0.672233 -0.220149 0.700946
-0.170608 0.397609 -0.090185 0.439583 -0.392789 -0.800354
-0.070602 -0.197831 -0.090033 -0.376963 -0.057039 -0.923347
0.256007 0.519908 -0.03746 0.701293 0.682637 0.192984
-0.123309 0.098729 -0.035807 -0.927834 0.132457 -0.347581
-0.122384 -0.41817 0.060527 -0.896186 -0.130966 0.421692
-0.095214 -0.58773 0.055975 -0.428852 -0.090779 0.892748
-0.023339 0.57436 0.005514 -0.351888 0.646796 0.672869
0.039405 -0.194732 0.028347 -0.660748 -0.208742 0.598734
0.05626 -0.528784 -0.001125 -0.754401 -0.024182 0.654167
0.166156 0.392142 0.056056 0.690853 -0.002176 0.722689
-0.131561 -0.004031 -0.045861 -0.935002 0.05729 -0.348609
0.139745 0.194801 -0.092535 0.68674 -0.016181 -0.726365
-0.082645 -0.443376 -0.086105 -0.368025 0.277461 -0.885284
0.166487 -0.863168 0.101955 0.219874 -0.965476 0.020195
-0.139952 -0.164656 -0.002729 -0.936816 -0.156532 -0.311614
-0.09149 0.174841 -0.070935 -0.694447 0.081982 -0.714559
0.405936 0.22257 -0.085675 -0.561781 -0.826749 0.020523
0.02906 0.447532 0.091709 0.164955 0.21462 0.961987
-0.054816 -0.537109 0.055596 0.373734 -0.17273 0.911215
0.064746 0.861076 -0.039109 0.441953 0.868263 -0.188841
-0.135456 -0.422945 -0.015956 -0.962014 0.124125 -0.240647
-0.27468 0.278603 -0.016614 0.607019 -0.64382 0.463474
0.121424 -0.567145 -0.105241 -0.18623 -0.134569 -0.970546
0.2117 -0.128828 0.025902 0.965191 -0.155903 0.202832
0.138989 0.100939 0.094551 0.657292 0.162178 0.733969
-0.039324 -0.195968 -0.09306 0.242662 -0.081416 -0.966344
-0.090585 -0.077246 0.112202 -0.487495 0.031175 0.872111
-0.120633 -0.318329 0.077504 -0.973206 -0.065672 0.219607
-0.088185 0.183546 -0.073557 -0.69709 0.057705 -0.714402
-0.126166 -0.574481 -0.005665 -0.945682 -0.091032 0.307488
-0.449002 0.176517 -0.048689 -0.520429 0.377776 -0.763607
0.108022 0.086477 -0.137483 0.457388 0.261092 -0.848716
-0.142814 0.42929 0.05046 -0.638119 -0.350895 0.682093
0.06001 -0.447391 0.002696 -0.529073 -0.060361 0.843576
0.152556 0.062939 0.093295 0.346973 0.330247 0.87373
-0.130375 -0.190188 0.074637 -0.893998 -0.033296 0.44651
-0.485552 0.124429 -0.001077 0.194122 -0.781451 -0.591205
0.035837 0.458048 -0.127757 -0.135373 0.042473 -0.989425
0.450137 0.197078 -0.033873 -0.701767 -0.684882 0.161241
0.089215 0.098515 -0.140618 0.253526 0.396948 -0.879847
0.146962 0.418622 0.073297 0.531481 0.084434 0.842367
0.082597 0.320161 0.107341 0.349075 0.108473 0.927898
-0.126337 -0.720625 -0.060626 -0.971593 -0.033028 -0.227565
0.125232 0.238105 0.096906 0.54539 0.042072 0.837007
-0.034395 -0.791714 0.046603 0.540915 0.640116 0.544509
0.118113 0.589862 -0.049063 0.322636 0.941308 0.082639
0.301224 0.320416 -0.099513 -0.695203 -0.709929 -0.104082
-0.038391 -0.131202 -0.10243 0.241686 -0.197593 -0.948951
-0.01556 0.23004 0.118577 -0.458595 0.115348 0.881095
-0.034328 -0.126 0.125234 0.011221 -0.090735 0.995149
0.153278 -0.827624 0.088664 0.475588 0.865039 0.145816
-0.041714 -0.864034 0.063119 0.05064 -0.998572 -0.002296
-0.201973 0.403005 -0.096861 -0.085328 0.065853 -0.992388
0.078659 -0.413431 0.034301 -0.69582 -0.326546 0.639641
-0.113089 0.290092 -0.006068 -0.98783 -0.139713 0.058605
-0.060494 -0.863744 0.115795 0.002323 -0.999413 0.024495
-0.075204 0.547838 0.027728 -0.068891 0.739802 0.668673
0.109989 0.244826 0.104716 0.390413 0.057794 0.917204
0.032606 0.297505 0.122167 0.051186 0.09796 0.993805
0.022497 -0.495593 -0.026085 0.863724 0.056637 -0.495678
0.107536 -0.823841 -0.114127 -0.435583 -0.053061 -0.894314
0.06682 -0.077908 0.110179 0.021255 -0.629861 0.775545
0.043484 0.58639 -0.095437 -0.010759 0.560008 -0.828137
0.067126 -0.813485 -0.027781 -0.975283 -0.195649 -0.029531
0.02728 -0.326405 0.028806 0.99262 -0.043847 0.109785
0.01627 -0.222228 -0.050572 0.866274 -0.016774 -0.497505
-0.26098 0.285336 -0.030665 0.70635 -0.673087 0.214892
0.104979 0.313256 0.101427 0.411422 0.124516 0.90267
-0.12911 -0.54161 -0.00156 -0.935899 -0.135147 0.32243
0.061808 0.670879 0.082679 0.6772 -0.30662 0.637717
-0.03816 -0.076195 -0.115469 -0.000954 -0.36405 -0.930663
0.124883 -0.521484 -0.108119 -0.040507 -0.00446 -0.998957
0.59854 0.08444 0.077186 -0.816926 -0.073681 0.550905
-0.026698 -0.163926 0.121591 0.207304 -0.114721 0.969097
-0.109149 0.285562 -0.07221 -0.909563 -0.077943 -0.403539
0.151879 -0.193412 0.095007 0.160597 -0.135897 0.975254
0.202702 -0.264484 -0.027552 0.944976 -0.105551 -0.306428
0.201887 0.009416 -0.03181 0.946374 0.028496 -0.319913
0.109172 -0.184619 0.097849 -0.103167 -0.142933 0.983314
-0.058268 0.420919 -0.127563 -0.184125 -0.112229 -0.975321
-0.125614 -0.638266 -0.013576 -0.963368 -0.178539 0.196884
0.193229 0.546522 -0.093473 0.301244 0.735307 -0.606628
0.131001 0.404783 0.082718 0.411005 0.087249 0.907194
-0.064728 0.373748 -0.120602 -0.339061 -0.080335 -0.936792
0.376992 0.333668 -0.125103 0.577861 0.36018 -0.729833
-0.545487 0.071996 0.01614 0.791461 -0.412015 -0.444998
-0.126512 -0.330979 -0.02055 -0.977381 0.003709 -0.203939
0.142861 -0.456452 -0.101676 0.334015 0.138053 -0.932288
-0.216811 0.470949 0.017683 -0.766564 0.365146 0.520163
-0.013807 0.140352 0.125991 -0.428521 0.026219 0.897239
-0.411454 0.175018 0.021803 0.584415 -0.489061 0.549919
0.136119 -0.648832 0.032677 0.173633 0.006913 0.983285
-0.128468 -0.30704 -4e-05 -0.999585 -0.010013 -0.026606
0.080302 0.636538 -0.04436 0.853635 0.244562 -0.442662
0.142891 0.330071 -0.116778 0.694551 -0.174295 -0.697879
0.096083 -0.391372 -0.096104 -0.461892 -0.07006 -0.881096
-0.125394 -0.118546 -0.04774 -0.817821 -0.100582 -0.563457
0.060917 -0.749682 -0.016001 -0.976767 0.019187 -0.205095
0.018197 0.669141 -0.064439 -0.393321 -0.295728 -0.861571
-0.114504 0.232086 0.0286 -0.966649 0.217451 0.131086
0.09745 0.131301 0.117414 0.463843 0.035276 0.884511
-0.101756 0.28116 0.058064 -0.859292 0.062976 0.504457
-0.128242 -0.347599 0.015685 -0.999059 0.026152 0.0316
0.003775 -0.438735 0.044779 0.77841 -0.136966 0.612255
0.018722 -0.765951 -0.061098 0.996374 -0.034388 -0.064585
-0.118617 -0.455861 0.053251 -0.832462 -0.236736 0.500653
-0.042097 0.153697 0.112506 -0.518979 0.073005 0.85116
0.435508 0.243427 -0.024236 -0.23033 0.270466 0.897959
-0.526307 0.088939 0.026352 0.214491 -0.132127 -0.879401
-0.092431 -0.610307 0.052405 -0.125964 -0.233167 0.954333
0.127265 -0.326788 0.080454 -0.028161 -0.071947 0.996437
0.021481 0.770554 0.083913 -0.532336 -0.222966 0.789137
0.042087 -0.239746 -0.04324 -0.895917 -0.06834 -0.438121
0.097362 0.79988 0.012718 0.95996 0.118598 0.246079
0.183015 -0.325328 0.069179 0.76348 -0.057653 0.642183
-0.070574 -0.637866 0.038085 0.390418 -0.248066 0.886382
0.152887 0.494874 -0.136139 0.154501 0.268319 -0.950276
-0.248424 0.297932 -0.039487 0.772207 -0.633931 0.030954
-0.120893 -0.247521 0.087224 -0.883367 -0.034404 0.467045
0.070066 -0.263467 0.073661 -0.606104 -0.119147 0.785584
-0.316004 0.239653 -0.005265 0.692946 -0.572986 0.418891
-0.021488 -0.842526 -0.035094 0.918738 -0.391358 -0.006844
0.139631 -0.593188 0.03922 -0.203218 -0.207175 0.956484
0.194576 -0.186031 0.062696 0.950465 -0.085166 0.296536
0.172368 -0.625351 0.020238 0.302228 0.065794 0.950413
-0.103716 0.41019 -0.111722 -0.438929 -0.213688 -0.866658
-0.016297 -0.054832 -0.123542 0.0151 -0.452758 -0.891345
0.192915 -0.468352 -0.061311 0.853397 0.042629 -0.51944
-0.060353 0.3622 0.096825 -0.497336 -0.083544 0.861498
0.135961 0.235612 0.088662 0.678574 0.060722 0.731399
0.063681 -0.528283 0.006541 -0.653869 -0.031466 0.754315
0.199159 -0.589569 -0.046856 0.985032 -0.017283 -0.171398
-0.000364 0.861612 -0.026542 -0.440972 0.888572 -0.083352
0.189105 -0.514308 -0.069759 0.832883 0.011772 -0.553253
-0.098156 -0.111084 -0.081634 -0.664473 -0.111138 -0.737363
0.55083 0.105591 0.011829 -0.927944 -0.364771 0.052071
0.164877 -0.825256 -0.049373 0.771939 -0.635576 -0.005896
-0.100455 0.079528 -0.085124 -0.732516 0.205565 -0.648394
0.176364 0.520858 -0.121851 0.181818 0.519594 -0.834713
0.413177 0.217922 -0.067911 -0.643429 -0.756584 0.111054
0.109524 -0.869404 -0.052499 -0.009876 -0.996761 0.078547
0.520726 0.161102 -0.038074 0.049835 -0.455104 -0.781132
0.208129 -0.060035 0.041048 0.938091 0.083817 0.335076
-0.111807 0.263333 0.011316 -0.996975 0.039276 0.060052
-0.109214 -0.136525 -0.065661 -0.764687 -0.117015 -0.633254
0.117739 -0.817515 0.081447 -0.054515 0.944264 0.321272
0.202612 -0.419536 -0.015657 0.980805 -0.162047 -0.105714
0.107612 -0.79082 -0.109667 -0.416626 0.420255 -0.798947
0.139874 0.575292 -0.083271 0.351837 0.801453 -0.480865
0.193298 -0.256683 0.061146 0.824067 -0.019366 0.563359
-0.005076 -0.341648 -0.060265 0.713165 -0.067265 -0.697625
-0.114751 -0.229642 -0.040469 -0.887025 -0.030511 -0.46064
0.641795 0.035787 0.006304 0.913786 -0.101509 -0.255894
-0.005128 0.206583 -0.124905 -0.040176 -0.376573 -0.924263
0.003239 -0.785456 -0.10689 0.87018 0.198581 -0.444107
0.10273 -0.091129 0.109446 -0.498674 -0.194692 0.842698
-0.105323 -0.011547 -0.095612 -0.836104 -0.032216 -0.547245
0.17421 -0.772099 0.019144 0.702165 -0.060052 0.693315
0.196607 0.420383 -0.125112 0.385566 -0.496743 -0.776132
-0.106018 0.481394 0.061767 -0.0875 0.155787 0.981371
-0.0144 -0.358014 -0.067347 0.681765 -0.105701 -0.72385
0.164797 -0.33038 0.074822 0.229771 -0.044429 0.971958
0.472179 0.249473 -0.083023 0.859977 0.104085 -0.457658
0.152369 -0.220624 0.089344 0.1083 -0.198534 0.973819
0.161001 -0.193939 -0.085996 0.617893 -0.084948 -0.781564
-0.137478 0.019118 -0.0184 -0.984664 -0.005525 -0.168635
0.10722 -0.779027 0.039738 -0.009384 0.787704 0.608282
-0.045315 -0.862361 0.004747 0.136035 -0.986971 -0.068217
0.325535 0.306788 -0.115761 -0.538295 -0.635305 -0.548443
-0.001019 -0.384918 0.068582 0.725387 -0.157847 0.669519
0.072768 0.245943 0.120359 0.34029 0.06872 0.931883
0.15639 -0.025457 -0.121756 0.726764 -0.031762 -0.685578
0.33743 0.289698 -0.104354 -0.501991 -0.751886 -0.418724
0.05061 -0.646199 -0.008006 -0.990785 -0.048985 0.115996
-0.11781 -0.198056 0.095052 -0.745545 -0.008676 0.663884
0.138515 0.45899 -0.144714 0.115028 0.034315 -0.992719
-0.06888 -0.547344 0.058759 0.354262 -0.188446 0.915902
-0.007112 0.063145 0.133621 -0.37041 0.215087 0.903068
-0.128546 -0.017362 0.067295 -0.891791 0.097129 0.440617
0.001157 0.5432 -0.114761 0.007791 0.386267 -0.922252
-0.174153 0.391234 0.017656 0.298535 -0.581563 0.749859
0.074617 0.501303 0.064567 0.110116 0.476293 0.870748
-0.292475 0.37611 -0.036595 -0.898734 0.407189 0.056084
-0.127163 0.555573 -0.048971 -0.376031 0.815076 -0.430611
0.123023 0.354112 0.089788 0.388312 0.054861 0.919605
0.199429 -0.175201 -0.050669 0.845484 0.015017 -0.530564
0.116249 -0.820986 -0.117526 -0.214011 -0.10329 -0.963052
0.171065 0.348577 -0.09501 0.710629 -0.347768 -0.610739
0.083837 -0.615194 0.018865 -0.729391 -0.235497 0.639933
-0.121971 -0.654734 -0.008257 -0.985098 -0.122931 0.118323
0.285769 0.380066 -0.142248 -0.142841 -0.296273 -0.937906
-0.06513 0.302247 0.089185 -0.520977 -0.028879 0.852778
-0.137483 -0.437912 0.007236 -0.9917 0.013523 0.125888
0.155139 -0.145115 -0.095544 0.479127 -0.153704 -0.847266
0.46704 0.188534 -0.038715 -0.482483 -0.869872 -0.060344
-0.091155 -0.503847 -0.090734 -0.557305 0.120546 -0.818354
0.009979 -0.405416 0.047009 0.859457 -0.1989 0.470835
0.194661 -0.51126 0.018505 0.93695 -0.019514 0.348777
0.438863 0.261688 -0.032952 0.06423 0.550119 0.830258
-0.052204 -0.26785 0.108375 0.176266 -0.212305 0.960761
-0.061708 -0.376713 -0.084412 -0.15682 -0.125398 -0.977515
0.065657 -0.426706 0.012796 -0.650133 -0.324111 0.686856
0.154787 0.552454 -0.001342 0.144127 0.736306 0.660902
0.291121 0.329401 -0.089853 -0.663176 -0.746229 -0.026182
-0.030379 -0.194298 -0.089923 0.351064 -0.041358 -0.934539
-0.095555 0.55379 -0.077322 -0.404672 0.687302 -0.603131
0.093219 0.029693 0.127975 0.213839 0.239941 0.946137
-0.111071 -0.784321 -0.006777 -0.854211 0.004566 0.516428
-0.126483 -0.628001 -0.012174 -0.97873 -0.096686 0.174026
-0.315886 0.284726 0.005911 -0.083155 0.043873 0.994785
-0.129139 -0.276409 -0.003828 -0.989102 -0.070111 -0.122026
0.212605 -0.091806 0.030334 0.970785 -0.006727 0.236643
0.156569 0.301648 -0.092551 0.788126 -0.19391 -0.582497
-0.092234 -0.75837 0.018449 -0.572371 -0.156695 0.794963
-0.035651 -0.863616 0.071175 0.186808 -0.972333 0.010379
-0.107128 0.361927 -0.094612 -0.636089 -0.210969 -0.740117
0.012659 -0.293684 0.075623 0.796711 -0.127444 0.590203
0.003715 0.82588 0.055815 -0.582951 0.44789 0.671692
0.196358 0.358917 -0.060005 0.917123 -0.34179 -0.1902
0.157039 -0.017342 0.103299 0.560718 0.09629 0.821166
-0.301968 0.29419 -0.095064 0.09142 -0.244374 -0.96356
0.117801 -0.692367 -0.094897 -0.112137 0.061247 -0.990813
-0.140524 0.546538 -0.054065 -0.504788 0.726094 -0.466403
0.153075 -0.034351 -0.124126 0.70455 -0.108867 -0.700615
0.014063 0.862353 -0.045263 -0.185075 0.958014 -0.186986
0.107094 0.295129 -0.137726 0.293516 -0.052101 -0.952786
-0.027388 -0.830005 0.066569 0.939948 0.285335 0.168129
0.198339 -0.501652 -0.051502 0.952381 0.016085 -0.29616
-0.473513 0.128931 0.047877 0.785675 -0.54264 0.285842
0.201426 -0.210707 0.036978 0.950154 0.001084 0.311312
-0.039585 0.040455 0.127583 -0.338944 0.163776 0.923265
-0.101282 -0.572504 0.049338 -0.827831 0.066628 0.555703
-0.110739 -0.813345 -0.056853 -0.811079 -0.574673 -0.009925
-0.121654 0.073915 0.054222 -0.948978 0.177555 0.260463
0.058436 -0.166602 -0.087053 -0.64761 -0.186447 -0.738282
0.079601 -0.792459 -0.07322 -0.841597 0.22424 -0.489729
0.158439 0.359704 0.062121 0.67773 -0.108886 0.72694
0.195679 0.364779 -0.016922 0.973972 -0.1235 0.188994
-0.134253 -0.4284 0.026609 -0.96544 -0.02366 0.252951
0.1986 -0.51245 -0.051317 0.948571 0.027871 -0.310848
-0.212118 0.494441 -0.011088 -0.744052 0.664302 0.06054
-0.074327 0.161075 -0.086749 -0.542205 0.190071 -0.815165
-0.334501 0.333959 -0.039149 -0.676604 0.735575 0.031753
0.235367 0.393845 -0.12273 -0.623778 -0.487184 -0.608946
0.377809 0.349362 -0.081804 0.667199 0.688791 0.268322
0.005678 0.438442 -0.127439 0.099146 0.000237 -0.994841
-0.060723 0.127572 0.102054 -0.566937 -0.117458 0.81446
0.19773 -0.581135 0.005813 0.963024 -0.022055 0.264966
0.339244 0.362017 -0.049289 0.583005 0.409014 0.699727
0.138799 0.168376 -0.095132 0.606904 0.074976 -0.789703
0.12003 0.060654 -0.137369 0.508785 0.214301 -0.832723
0.187769 -0.358617 0.057211 0.865923 -0.048466 0.49695
0.509453 0.170975 0.018208 -0.010307 0.180556 0.932682
0.159614 -0.383001 -0.07854 0.534716 0.197766 -0.821543
0.138686 -0.219627 0.09045 0.052626 -0.17757 0.982611
-0.303469 0.361698 -0.028528 -0.691203 0.690869 0.199576
0.271056 0.350309 -0.049554 -0.413246 -0.798461 0.414163
-0.090341 0.151521 0.077396 -0.693521 0.010127 0.719753
0.002811 -0.644728 -0.068503 0.605668 0.112183 -0.787162
-0.019084 -0.101383 -0.102783 0.378909 -0.323663 -0.862528
0.025441 -0.083938 -0.096265 -0.436814 -0.659923 -0.602702
0.202354 0.06086 -0.012799 0.981852 0.147364 -0.109309
0.045546 -0.569035 -0.034437 -0.948334 -0.041841 -0.252215
-0.094283 -0.681514 0.028646 -0.164714 -0.397129 0.900184
0.205456 0.452464 0.025156 0.627813 0.036858 0.776912
0.102643 0.527304 -0.129772 0.007374 0.302641 -0.950747
0.143513 -0.145749 0.106282 0.219881 -0.180248 0.957925
-0.004856 -0.53552 -0.074785 0.79121 0.032944 -0.610533
0.008215 -0.349009 -0.045318 0.745441 -0.054853 -0.663918
-0.113933 -0.095504 0.095158 -0.740853 0.084219 0.666153
-0.227887 0.365072 -0.095691 0.173509 -0.206075 -0.960466
-0.00196 -0.607409 -0.069401 0.696218 0.023893 -0.717303
-0.254625 0.290559 -0.040192 0.74134 -0.668191 0.047569
-0.040667 -0.038029 0.131537 -0.182828 -0.036064 0.981268
-0.141525 -0.051412 -0.013991 -0.97198 0.019645 -0.229499
0.19949 -0.269688 0.047007 0.935852 -0.053632 0.347885
-0.028518 -0.626515 -0.092678 0.538415 0.002805 -0.841764
-0.007303 -0.5615 -0.077345 0.753515 -0.058442 -0.654251
0.182717 -0.700121 0.00155 0.39629 -0.529069 0.745661
0.18001 0.159633 -0.039313 0.843797 0.054725 -0.532389
0.210884 0.41801 -0.113966 -0.184246 -0.871128 -0.439019
-0.092042 -0.802842 0.021075 -0.844754 0.266218 0.457397
-0.098529 0.296479 0.058976 -0.809782 0.189427 0.553369
0.619932 0.052417 0.098312 -0.813376 -0.461911 0.291426
-0.115233 0.413749 -0.105741 -0.561725 -0.309431 -0.765835
0.3833 0.239578 -0.083289 -0.649323 -0.756205 -0.047912
-0.073805 -0.769957 0.020657 -0.484387 0.284834 0.805126
0.069018 -0.56152 0.010533 -0.64468 0.014573 0.764129
0.510649 0.160834 0.017432 -0.559381 -0.632398 0.441305
0.191358 0.333447 -0.018638 0.987895 -0.146296 0.029272
0.047136 0.6492 0.042262 0.305399 -0.622326 0.715085
-0.138372 -0.032806 -0.02127 -0.976587 0.123213 -0.168112
-0.051707 0.581807 -0.016561 -0.204441 0.912765 0.351034
0.035905 0.814606 -0.111504 0.06193 0.541937 -0.832514
0.084899 -0.600008 0.023332 -0.744318 -0.094429 0.660661
0.155575 0.273301 0.062546 0.797984 0.053391 0.599662
-0.060336 -0.426201 0.083943 0.184373 -0.23963 0.953003
0.152292 -0.851207 0.174462 0.693249 0.150935 0.670785
0.008769 -0.465865 -0.049737 0.821349 0.066438 -0.564749
-0.102215 0.431791 -0.117331 -0.411932 -0.108531 -0.903768
-0.024291 -0.857111 0.050071 0.847864 -0.49106 0.024418
-0.000522 0.337727 0.112824 -0.038208 0.055773 0.997252
0.177907 -0.636549 -0.07255 0.604876 -0.162912 -0.778948
0.128633 0.305604 -0.126417 0.600055 -0.050926 -0.798083
-0.061267 0.117481 0.100659 -0.542103 0.12392 0.829716
-0.03652 0.520976 0.057421 -0.169213 0.536322 0.826282
-0.062287 -0.472056 0.07405 0.266189 -0.173562 0.948065
0.012964 -0.489289 -0.044911 0.842435 0.025234 -0.537595
-0.037325 0.590582 -0.028997 -0.395492 0.883628 0.197664
0.190684 -0.128471 -0.063242 0.752905 -0.01706 -0.657531
-0.103924 0.479802 -0.115605 -0.443408 0.198374 -0.872664
-0.374193 0.218744 -0.070926 0.16981 -0.479036 -0.858646
0.032997 0.413072 -0.128908 -0.133278 0.031317 -0.988791
0.530514 0.139206 -0.017584 -0.701559 -0.694878 -0.130611
0.126156 0.364404 0.08813 0.393367 0.050836 0.916661
-0.072774 -0.506771 0.070698 0.365537 -0.227252 0.902365
0.256744 0.384044 -0.133465 -0.458993 -0.342737 -0.816382
0.194998 -0.553287 -0.060041 0.834381 -0.013287 -0.55097
-0.120206 0.329635 -0.051395 -0.997571 -0.044465 -0.047076
-0.010608 0.381968 0.106379 -0.00424 0.063808 0.997887
-0.112901 0.296058 0.007062 -0.988953 -0.098099 0.109225
0.068227 -0.004192 -0.15626 -0.242269 -0.154435 -0.956388
0.366219 0.284874 -0.125365 -0.323721 -0.383562 -0.864013
-0.124554 0.083264 -0.039337 -0.940154 0.109741 -0.321779
0.161148 0.022672 -0.111743 0.71862 0.047298 -0.693781
-0.128873 0.09282 0.000158 -0.999592 -0.026463 -0.000916
-0.005511 -0.311186 0.084849 0.326629 -0.117384 0.929942
-0.437215 0.156902 0.019999 0.531427 -0.822511 0.185877
-0.043961 0.315867 0.099386 -0.398262 0.020363 0.913601
0.061571 -0.229975 -0.073558 -0.730775 -0.117183 -0.672031
-0.030071 -0.303956 -0.08621 0.449624 -0.11371 -0.885863
0.018648 -0.206047 0.07701 0.95275 -0.031032 0.301368
-0.071078 -0.604295 0.046776 0.481544 -0.240266 0.842681
-0.010445 -0.092017 -0.102846 0.416389 -0.395742 -0.814164
-0.103469 -0.693205 0.020054 -0.510756 -0.365549 0.764788
-0.143944 -0.078593 0.021703 -0.998016 0.006981 0.058911
-0.144349 -0.126949 0.017596 -0.999676 -0.002378 0.017087
-0.171248 0.517276 -0.063796 -0.591689 0.543142 -0.594299
0.012488 0.61521 0.021597 -0.565903 -0.096213 0.815122
-0.120845 0.348125 -0.045268 -0.997721 -0.061232 0.000178
-0.093609 -0.236066 0.109401 -0.340385 -0.038322 0.939158
-0.570687 0.039094 0.058861 -0.978971 0.195955 0.051404
-0.01193 0.511654 -0.123504 -0.004694 0.225452 -0.973904
0.02166 0.331723 0.117434 -0.173501 0.314149 0.930827
0.2054 -0.24822 0.00311 0.999827 0.00109 0.002517
0.171979 -0.043825 0.091949 0.690366 0.017241 0.723249
-0.098574 -0.09164 0.108384 -0.548889 0.061451 0.83251
-0.06259 0.37195 0.096397 -0.442598 -0.03321 0.895147
0.087984 -0.053565 0.123564 0.001724 -0.392773 0.918522
-0.017654 0.850854 -0.028233 -0.599999 0.785743 -0.137667
0.177246 -0.382366 -0.065562 0.683901 0.221076 -0.689004
-0.047167 -0.859713 -0.040334 0.203954 -0.978026 0.029588
-0.103238 -0.245132 -0.059397 -0.796345 -0.045891 -0.601148
-0.103134 0.048434 -0.090267 -0.797945 0.208029 -0.563033
-0.090767 -0.406094 -0.06978 -0.573365 -0.018746 -0.819031
-0.071656 0.412933 -0.122765 -0.289153 -0.138881 -0.947082
0.109461 -0.646264 -0.091719 -0.408149 -0.076017 -0.909724
-0.081638 -0.519154 -0.096903 -0.295264 0.090866 -0.948838
0.165525 0.529121 0.019057 0.286993 0.618057 0.730186
-0.12804 -0.685139 -0.050543 -0.996818 0.00709 0.061136
0.033432 0.361847 0.111156 0.035015 0.219679 0.97322
0.0795 0.814228 -0.091774 0.661518 0.407598 -0.62567
-0.206331 0.353756 0.00153 0.431187 -0.656154 0.617223
-0.044008 -0.62445 -0.100822 0.39225 0.037005 -0.917172
-0.114116 -0.656924 0.022712 -0.856824 -0.130283 0.495921
0.203577 -0.324833 -0.016094 0.945768 0.034972 -0.315177
-0.021477 0.425695 0.098496 -0.102873 0.241887 0.963794
0.027151 -0.587909 -0.022396 0.996399 0.041423 -0.044884
-0.116892 0.39326 0.05414 -0.783251 -0.283998 0.549662
0.021949 0.332382 -0.125912 0.002394 0.001265 -0.998671
0.144832 0.287199 -0.106774 0.802821 -0.098437 -0.587075
0.052765 0.819084 0.069793 0.365269 0.537187 0.758261
0.550706 0.115845 0.03141 -0.919947 -0.322303 0.219598
0.057831 -0.001282 -0.154247 -0.201297 -0.11582 -0.972195
-0.140371 -0.079474 0.042123 -0.950806 0.016251 0.308787
-0.120396 -0.2151 0.090957 -0.823212 -0.041974 0.564276
-0.081513 0.270991 0.078218 -0.60271 0.051806 0.79617
-0.230194 0.331837 -0.072726 0.542895 -0.671413 -0.500049
0.187689 -0.462189 0.044429 0.929829 -0.095755 0.354519
-0.090641 -0.682189 -0.103428 -0.583121 0.036335 -0.772726
0.039104 0.219967 0.128655 0.02112 0.040044 0.998974
0.095174 0.744596 -0.072387 0.922731 -0.217644 -0.299949
0.090529 0.204335 -0.123542 0.133086 -0.444886 -0.883439
0.141654 -0.411499 0.071018 -0.260025 -0.124411 0.95621
0.075243 0.803635 -0.100477 0.675589 0.197434 -0.710013
-0.119788 0.122879 -0.040354 -0.890694 0.032468 -0.451162
0.19675 -0.337882 0.04039 0.905318 -0.078632 0.417332
0.031467 0.24383 -0.125534 -0.045511 0.007761 -0.998582
0.05709 -0.4435 -0.060101 -0.757891 0.037785 -0.651096
-0.042472 0.214744 -0.117139 -0.558026 -0.304411 -0.771859
0.023917 -0.54835 -0.012356 0.938575 0.022258 0.32166
0.176244 0.248015 0.040002 0.876762 0.039104 0.477382
0.109708 0.081927 0.110545 0.549363 0.106279 0.823283
0.082668 0.845625 -0.032552 0.809094 0.572777 -0.091547
0.212979 0.493154 -0.128957 0.199948 0.275882 -0.938644
0.059511 -0.778919 -0.012721 -0.997663 -0.003515 -0.060283
0.021231 -0.731976 -0.0358 0.970619 -0.059892 0.231251
0.134979 0.300193 0.085746 0.734479 0.047427 0.676959
-0.382521 0.192103 -0.011438 0.472119 -0.880106 0.040914
0.063409 -0.073662 -0.127849 -0.306048 -0.398382 -0.864251
0.119791 -0.427293 0.060959 -0.459557 -0.232404 0.855669
0.020546 -0.722088 -0.031818 0.957674 -0.044305 0.283121
0.16625 -0.115222 -0.094455 0.729902 -0.153307 -0.664729
-0.010629 -0.831767 -0.083977 0.160615 -0.978628 -0.021352
0.196329 -0.139283 0.065734 0.882821 -0.065273 0.46436
-0.005154 -0.817071 -0.006799 0.968154 -0.019303 0.239059
0.092994 -0.866482 0.103104 -0.501825 -0.863321 0.012425
-0.100683 -0.529822 0.053226 -0.85004 -0.024612 0.525362
-0.124406 -0.553694 0.005992 -0.876619 -0.165471 0.44794
0.536972 0.1579 0.030467 -0.526668 0.160462 0.822485
0.034325 0.747975 -0.117355 0.057697 -0.465671 -0.87737
0.447731 0.278172 -0.049828 0.428953 0.688829 0.568799
0.020193 -0.707726 -0.026809 0.909149 -0.128524 0.393489
-0.061613 -0.824573 0.103911 -0.045939 0.993256 0.09277
-0.065125 -0.863319 0.004807 0.004251 -0.999387 -0.03449
0.083102 -0.434047 0.027485 -0.672909 -0.354409 0.648768
0.180638 0.241007 -0.027701 0.960391 0.00726 -0.264868
0.126609 -0.278682 0.083311 0.019365 -0.061824 0.997747
0.090544 0.576991 -0.102284 0.138573 0.670491 -0.728463
0.194579 0.523828 -0.116307 0.180557 0.641141 -0.745827
-0.552045 0.05558 0.067187 0.819448 -0.557672 0.059888
0.525413 0.187143 0.023299 -0.109029 -0.243031 0.923295
-0.129029 -0.150625 -0.033341 -0.857352 -0.134041 -0.496203
-0.160294 0.54132 -0.041185 -0.526584 0.778663 -0.333371
-0.032075 0.768779 0.021503 -0.918891 -0.034183 0.378053
0.172608 -0.762664 0.020491 0.541892 0.097677 0.83073
0.136293 -0.568252 0.042991 -0.052339 -0.197313 0.977716
0.122127 0.493833 0.056238 0.23275 0.533419 0.812644
-0.133948 0.057823 0.023708 -0.92811 0.317161 0.16071
0.136636 -0.869902 0.07494 0.035581 -0.999088 -0.000505
-0.03339 0.497612 0.070271 -0.150801 0.491479 0.857655
0.080764 0.793115 0.057615 0.802805 0.27015 0.52576
-0.041518 -0.651743 0.025122 0.194185 -0.109721 0.973987
0.074531 -0.807727 0.01815 -0.906813 -0.166786 0.383835
0.185869 -0.328173 -0.044074 0.745006 0.025794 -0.666513
0.058725 0.533035 0.047464 0.026476 0.645951 0.759116
0.035212 0.230806 -0.125855 -0.045067 -0.048385 -0.99548
-0.078254 -0.863266 0.125542 -0.033941 -0.998643 0.036079
-0.000684 0.686139 -0.059154 -0.6934 -0.426199 -0.579793
0.122375 -0.064849 -0.134537 0.237639 -0.28489 -0.927916
-0.09198 -0.105527 -0.08802 -0.633592 -0.162742 -0.753993
0.077103 0.401965 -0.143333 -0.225194 0.040991 -0.972327
0.056733 0.453097 0.08714 0.115145 0.326073 0.938073
0.149947 -0.1007 0.108844 0.487794 -0.012872 0.87276
-0.112022 0.252306 0.018212 -0.991578 0.093109 0.080162
0.163355 0.193855 -0.066756 0.793341 0.039197 -0.607013
0.128898 -0.103669 0.113117 0.112052 -0.059282 0.991517
0.035762 0.257364 -0.126056 -0.10605 -0.057587 -0.990966
0.111512 0.562147 0.00516 0.422697 0.683743 0.593736
0.011824 0.760228 -0.118338 -0.294455 -0.220272 -0.924239
-0.133108 0.402174 -0.021432 -0.16734 -0.975562 0.005412
-0.104396 -0.823013 -0.043029 -0.955083 -0.229747 -0.000693
-0.058586 0.540566 -0.106002 -0.271178 0.435736 -0.858197
-0.124232 -0.468 -0.053651 -0.797045 0.102933 -0.594871
-0.026447 -0.481665 -0.089095 0.512944 0.116361 -0.846695
0.00891 -0.223514 -0.061019 0.765724 -0.028679 -0.641193
0.052655 -0.35209 0.034482 -0.748573 -0.259162 0.60931
0.277034 0.338939 -0.089082 -0.62714 -0.767013 -0.119777
-0.183498 0.418633 0.031557 0.135439 -0.403018 0.902437
-0.03478 0.482274 -0.12929 0.016887 0.129088 -0.991395
-0.187012 0.357035 -0.013634 0.523351 -0.778975 0.338778
0.181708 0.220993 -0.023798 0.982732 0.004314 -0.181087
0.155413 0.483576 0.051011 0.454108 0.40244 0.792969
-0.379273 0.205745 0.010498 0.416591 -0.167255 0.8774
-0.060307 0.297455 -0.119614 -0.436139 -0.028641 -0.899379
-0.037521 0.772707 -0.007739 -0.986049 0.07837 0.143107
0.080683 0.83809 -0.06378 0.679451 0.596784 -0.423728
0.199101 0.393003 -0.028231 0.985849 -0.150742 0.022502
0.637609 0.050428 0.05483 0.867149 0.494064 0.028704
-0.029485 -0.548735 -0.094997 0.407386 -0.006614 -0.912984
0.578174 0.137074 0.029196 0.746176 0.664736 0.02984
0.028642 0.528045 0.053141 0.083438 0.58354 0.803654
-0.06082 -0.613265 0.039668 0.441866 -0.161844 0.882112
-0.423989 0.240655 -0.047478 -0.774177 0.525331 -0.320644
-0.033837 -0.381933 0.087612 0.27105 -0.18407 0.942885
-0.032118 0.337522 0.104329 -0.208106 -0.00049 0.97439
0.109873 0.226595 0.105712 0.428983 0.064189 0.900918
0.183141 0.265544 -0.004509 0.999745 -0.008427 -0.010096
0.066078 -0.138816 -0.10066 -0.611962 -0.20622 -0.763368
-0.098938 -0.838948 -0.07748 -0.961837 -0.179518 -0.198184
0.106899 0.183601 -0.111548 0.364498 -0.100298 -0.921084
0.198439 0.00367 0.060541 0.876715 -0.141646 0.451587
-0.259165 0.384278 -0.094023 -0.320796 0.367573 -0.870178
-0.104255 0.555937 0.016131 -0.069212 0.821492 0.563851
0.139349 0.153184 0.090672 0.679429 0.020134 0.733406
0.231937 0.492259 -0.123512 0.364763 0.42695 -0.827353
-0.124783 0.370043 -0.058149 -0.931481 -0.343042 -0.113898
-0.0409 -0.834109 0.12113 0.626332 0.685417 0.36366
-0.095531 -0.863045 0.032924 -0.12134 -0.982001 -0.019476
-0.102891 0.324062 -0.088967 -0.726763 -0.146047 -0.668906
0.014333 -0.108517 -0.070066 0.425433 -0.600439 -0.669527
-0.068059 -0.807915 0.06124 -0.396257 0.469802 0.76729
0.063784 0.386832 -0.139351 -0.382759 0.022936 -0.922987
0.206809 -0.007279 -0.017334 0.981405 0.090184 -0.168887
-0.12573 -0.287808 0.067173 -0.988859 -0.0424 0.132905
0.2341 0.516922 -0.104017 0.5109 0.60377 -0.611655
0.111242 0.332596 -0.139216 0.415223 -0.108148 -0.902887
-0.204781 0.465489 0.032376 -0.577269 0.265456 0.771157
0.013636 -0.444884 -0.038516 0.83446 0.044707 -0.549186
0.631648 0.03015 0.06976 -0.94918 -0.309245 -0.003048
-0.247729 0.313666 -0.073175 0.672017 -0.502794 -0.54225
-0.009149 -0.123412 0.12096 0.357746 -0.112131 0.925063
0.003314 -0.828027 -0.070982 0.832573 -0.553421 -0.016061
0.21864 0.534678 -0.006895 0.363605 0.674192 0.642305
-0.031907 -0.116349 0.125943 0.048991 -0.100369 0.99349
0.175816 -0.664048 0.019947 0.488221 -0.115907 0.863935
-0.097813 -0.849888 -0.056756 -0.920705 -0.38045 0.035026
-0.026938 -0.83527 0.076583 0.945701 0.298546 0.124659
0.158526 -0.842467 0.147852 0.688896 0.690498 0.205592
-0.092757 -0.863254 0.043305 -0.032427 -0.999421 -0.007365
-0.053486 -0.287806 -0.092166 -0.094471 -0.07422 -0.991188
-0.018446 -0.433874 0.069587 0.58156 -0.178419 0.793075
0.045321 -0.032669 0.131881 0.185881 -0.161242 0.967564
0.123651 -0.380432 -0.09993 0.340551 0.090121 -0.935613
0.089496 -0.861895 -0.083591 -0.858434 -0.442857 -0.14602
0.107991 -0.870529 -0.083186 -0.038242 -0.995499 0.002172
-0.022983 -0.249473 -0.087205 0.465899 0.015711 -0.883077
-0.134342 0.538963 0.032443 -0.174077 0.706118 0.685825
-0.093144 0.433511 -0.120155 -0.24939 -0.152624 -0.95621
-0.022539 0.831649 0.015931 -0.720763 0.282282 0.629825
0.124262 0.48957 -0.142047 0.076668 0.327671 -0.93737
-0.110032 0.014058 0.098304 -0.701185 0.148439 0.694422
0.176081 -0.803972 -0.038772 0.961438 -0.266699 0.028729
0.2064 -0.222703 -0.003239 0.99863 -0.050555 0.005364
-0.135598 -0.24049 0.028702 -0.998974 -0.042522 0.008596
-0.012416 0.027244 -0.148147 -0.240081 -0.082947 -0.952604
0.350557 0.364188 -0.130888 0.547386 0.326737 -0.759688
0.08297 -0.709461 0.0366 -0.062363 0.037232 0.995517
-0.025337 0.285623 0.112741 -0.296885 0.009933 0.952476
0.183646 -0.739783 -0.037938 0.607384 -0.196158 -0.76803
0.144071 -0.715635 0.011562 0.399689 -0.240855 0.873367
-0.123187 -0.318183 0.062138 -0.986836 -0.065299 0.147139
0.031316 0.640429 -0.064847 -0.095923 0.143785 -0.984761
0.056219 0.734039 -0.105399 0.3927 -0.405867 -0.824595
-0.448476 0.145481 0.013638 0.676043 -0.724007 0.08877
-0.072092 -0.069918 0.121348 -0.351272 -0.045804 0.933096
-0.140552 0.399933 -0.045089 0.499695 -0.859348 -0.086844
-0.007905 -0.288831 -0.071238 0.707333 -0.126967 -0.695345
0.070667 -0.284776 -0.083059 -0.680134 0.013038 -0.731989
0.186623 -0.474852 0.043623 0.915407 -0.075051 0.395123
0.415935 0.314555 -0.095124 0.692589 0.713004 -0.093355
-0.128791 -0.360107 0.002739 -0.999888 0.009907 -0.001909
-0.199412 0.472756 -0.070813 -0.594034 0.437737 -0.673208
0.155314 -0.398788 0.074531 -0.003572 -0.068594 0.996516
0.201722 -0.296746 0.03478 0.9408 -0.066797 0.331982
-0.146881 0.498084 -0.090668 -0.458234 0.293504 -0.838246
0.234655 0.542472 -0.048976 0.66547 0.744537 0.042053
-0.023261 -0.147156 0.123625 0.208948 -0.101447 0.972224
0.080213 -0.32822 0.067429 -0.550187 -0.176156 0.774484
0.016451 0.569139 0.025612 -0.191304 0.091406 0.974534
-0.120288 0.344382 -0.062965 -0.994024 -0.059925 -0.087826
0.098672 0.197237 -0.118378 0.320599 -0.432339 -0.837433
-0.044849 -0.731451 -0.120161 0.330763 0.223984 -0.913087
0.062968 0.605628 0.017498 0.538253 -0.04959 0.840559
0.014595 -0.400835 0.039709 0.871076 -0.206303 0.445595
0.242831 0.480185 -0.12484 0.35069 0.430891 -0.831445
0.434285 0.204556 -0.073501 -0.46308 -0.88083 0.09156
0.086672 0.687756 0.025825 0.877463 -0.476073 0.033148
-0.080132 0.084442 -0.10513 -0.629982 0.240382 -0.736436
0.301856 0.448872 -0.114637 0.544433 0.628298 -0.555598
0.051196 -0.56621 -0.046051 -0.843206 -0.036003 -0.535861
-0.011612 -0.578124 -0.07969 0.685161 -0.063359 -0.725609
-0.052709 -0.26123 -0.093676 -0.03148 -0.01528 -0.995552
0.192678 0.404286 -0.117221 0.493126 -0.480175 -0.721692
0.205186 -0.548637 -0.015251 0.975495 -0.051106 0.208838
-0.070691 -0.301654 -0.086429 -0.504181 -0.087668 -0.85557
-0.205705 0.374557 0.016932 0.116493 -0.531839 0.838687
0.157853 -0.501457 0.061838 0.05232 -0.198985 0.971305
-0.030746 -0.426352 -0.083121 0.368687 0.243247 -0.895926
0.009858 0.833502 0.057021 -0.503993 0.395454 0.765436
0.163467 0.559881 -0.09136 0.331123 0.725568 -0.603018
0.197789 -0.424353 0.019871 0.969675 -0.077264 0.231173
0.187866 0.182113 0.01667 0.93116 0.32045 0.166745
-0.532059 0.106217 0.044093 -0.821632 0.54907 -0.130416
-0.072891 0.155036 0.092799 -0.646458 0.001648 0.762736
0.182808 0.338439 -0.070668 0.831843 -0.359116 -0.422085
-0.082809 -0.284742 -0.079167 -0.622282 -0.052699 -0.780798
0.142256 -0.635604 -0.093804 0.294439 -0.109036 -0.942458
0.119173 -0.362069 0.074774 -0.259131 -0.210336 0.941996
-0.020015 0.271466 -0.130919 -0.054523 -0.050983 -0.996473
-0.075807 0.127716 0.091852 -0.647944 -0.014014 0.7613
-0.194329 0.350891 -0.016571 0.567267 -0.76223 0.308182
0.072683 0.131326 -0.128653 0.066633 0.330491 -0.940594
-0.135649 -0.463206 0.012736 -0.962168 -0.077835 0.254039
-0.083975 -0.60336 0.054183 0.375622 -0.22911 0.881674
0.041195 0.65407 0.050654 0.134221 -0.871988 0.420998
0.188268 -0.686702 0.006325 0.64901 -0.258146 0.701449
0.109451 0.072027 0.112798 0.50994 0.137878 0.848524
0.097798 -0.370247 0.063504 -0.462952 -0.27331 0.842523
-0.063492 0.537712 0.039454 -0.172156 0.613798 0.769928
-0.082777 -0.792161 -0.12859 -0.7005 0.10736 -0.698866
0.51338 0.189489 -0.052683 0.221595 -0.367849 -0.902208
0.01621 -0.329504 -0.037238 0.845868 -0.029696 -0.529143
-0.124923 0.015369 -0.059661 -0.893396 0.034078 -0.447903
0.526437 0.14964 0.022338 -0.722636 -0.316111 0.586618
-0.115034 -0.254497 0.095549 -0.792529 -0.032983 0.580373
0.181526 0.36079 -0.090822 0.677934 -0.467632 -0.565502
0.101805 -0.483104 -0.102444 -0.393088 0.015719 -0.919086
0.189981 0.075561 -0.053345 0.886119 0.12737 -0.444221
-0.340711 0.296606 2.6e-05 -0.199296 0.272531 0.940798
-0.036731 0.548301 -0.109331 -0.24615 0.492963 -0.833515
0.12109 -0.825784 0.146592 -0.021325 0.990769 0.093694
-0.037214 0.805572 -0.017158 -0.986537 -0.117486 0.076573
0.025465 0.429609 -0.127172 -0.069882 0.04871 -0.995933
-0.037795 0.584233 -0.082008 -0.360687 0.723518 -0.584268
0.196987 -0.175344 0.057599 0.960072 -0.050423 0.273181
-0.391 0.270955 -0.075862 -0.625526 0.365193 -0.67444
0.151177 -0.867332 0.103078 0.458505 -0.886937 0.015999
0.122569 0.071655 -0.132947 0.549369 0.244976 -0.798572
-0.099191 -0.259801 -0.063374 -0.760494 -0.039402 -0.647959
-0.349395 0.321464 -0.05845 -0.576546 0.806745 -0.101038
0.205365 -0.272046 -0.007234 0.999351 0.017208 -0.03036
-0.124269 -0.728708 -0.065703 -0.867284 -0.037041 -0.486891
0.194702 -0.06882 -0.057333 0.871675 -0.008659 -0.489088
0.019147 0.554485 0.028471 -0.019572 0.414662 0.908279
0.168957 -0.742287 -0.057929 0.864586 -0.108547 -0.490057
-0.071976 -0.855952 0.156869 -0.077674 -0.715187 0.671867
0.142422 0.581764 -0.062537 0.255351 0.95446 -0.091948
0.198521 -0.572564 -0.051198 0.956401 -0.024273 -0.278591
0.020828 -0.402507 -0.021335 0.96849 -0.093375 -0.225165
-0.060998 -0.224518 0.11507 -0.06139 -0.160877 0.983624
0.006814 -0.127064 -0.06636 0.778751 -0.198655 -0.593576
-0.202453 0.346126 -0.061197 0.553344 -0.755479 -0.34617
0.174095 -0.735668 -0.003582 0.25351 0.547191 0.786636
0.156857 -0.416198 0.07313 0.003376 -0.085837 0.994082
0.021638 0.735782 0.096639 -0.873846 0.110532 0.442815
0.614973 0.059239 0.029986 -0.742695 -0.639248 -0.186444
0.437446 0.212174 -0.040164 -0.690366 -0.477583 0.518203
0.030941 -0.257128 0.023312 0.983135 -0.063429 0.170709
-0.012228 0.672091 -0.015576 -0.953744 -0.27862 -0.083309
-0.278202 0.271022 -0.023642 0.635879 -0.650959 0.413198
0.163664 0.43441 -0.137415 0.188411 -0.19639 -0.962069
0.083182 0.739497 0.060974 0.6862 0.108749 0.716474
0.314002 0.315619 -0.114785 -0.55941 -0.666439 -0.489311
0.080615 -0.635101 -0.071805 -0.657036 -0.083976 -0.748582
-0.117825 -0.138415 0.095073 -0.771682 0.079454 0.626378
-0.076719 0.203659 -0.085554 -0.760818 -0.076364 -0.644282
0.160677 0.323118 -0.094653 0.728808 -0.270954 -0.626943
0.002752 0.533639 -0.118624 0.001325 0.331312 -0.941581
0.135036 -0.835757 -0.114629 0.446674 -0.032305 -0.891155
-0.060341 0.23085 0.095289 -0.557539 0.093824 0.823507
0.029904 -0.164345 0.049746 0.898319 -0.269722 0.341762
0.042514 -0.065686 -0.12268 -0.401879 -0.432021 -0.807305
0.027383 0.291023 -0.127455 -0.021286 0.000268 -0.998384
-0.442571 0.20307 -0.043649 -0.602866 0.106374 -0.790657
-0.112835 -0.615622 0.026527 -0.896582 0.046691 0.439301
-0.016133 -0.832163 -0.020181 0.417296 -0.884108 0.031148
-0.032867 -0.856307 -0.006745 0.566151 -0.806195 -0.16599
0.021784 -0.744558 -0.0516 0.98035 -0.173592 -0.044073
-0.082278 -0.041431 -0.11333 -0.58247 -0.234046 -0.77694
0.095384 -0.861358 0.029764 -0.685024 -0.692391 -0.205159
0.339331 0.302661 -0.121932 -0.431579 -0.608456 -0.659603
-0.051637 0.219603 -0.112288 -0.577729 -0.283345 -0.765174
-0.07581 -0.829677 0.1285 -0.252301 0.949796 0.178229
0.036267 0.178646 0.130148 0.054118 0.03649 0.997713
-0.559398 0.044953 0.014635 0.900987 -0.417468 -0.075074
0.182893 0.242717 -0.008162 0.999582 -0.012815 -0.022171
-0.024542 -0.613974 0.02483 0.220084 -0.173277 0.958247
0.154654 -0.816187 -0.106623 0.651931 -0.181164 -0.729185
0.087959 -0.843026 -0.016757 -0.973435 -0.224234 -0.002972
0.246607 0.428149 -0.007247 0.457714 -0.354839 0.812663
