0.017491 0.524723 0.056735 0.114657 0.522957 0.843808
0.073968 -0.660397 -0.061492 -0.744898 -0.11111 -0.657604
0.086438 0.779313 -0.093835 0.791743 0.038437 -0.608572
0.13327 -0.399716 -0.098541 0.397474 0.096238 -0.91193
0.037033 0.316529 0.120018 0.082024 0.113278 0.989911
-0.094433 -0.457064 -0.08168 -0.559128 0.148124 -0.815623
0.103147 -0.024489 -0.151286 0.164399 -0.233091 -0.95698
-0.068622 -0.115596 0.120883 -0.211302 -0.034252 0.97667
-0.020823 -0.346619 0.08886 0.381557 -0.092341 0.916965
-9.3e-05 0.212232 0.127426 -0.198554 0.11138 0.972734
-0.045329 -0.19893 0.119987 0.076226 -0.141523 0.986816
-0.04937 0.56227 -0.096537 -0.353999 0.547667 -0.757904
-0.074321 -0.540453 0.062651 0.406954 -0.215232 0.887516
0.142191 -0.38346 -0.090343 0.558079 0.163116 -0.813554
-0.133693 0.040891 -0.026627 -0.95926 0.158568 -0.230057
0.044099 -0.473301 -0.036429 -0.991553 -0.000816 -0.10254
0.46957 0.255021 -0.031808 0.342502 0.673068 0.628405
0.007288 -0.783817 -0.097585 0.874216 0.164548 -0.454253
-0.069528 -0.628017 0.040462 0.394152 -0.228778 0.889729
-0.114415 -0.239812 -0.04054 -0.889688 -0.021627 -0.455781
-0.014669 0.840657 -0.062526 -0.530548 0.726825 -0.436132
0.112521 0.486776 0.063633 0.266631 0.535034 0.799506
0.080194 0.646556 -0.040601 0.882353 0.160219 -0.433404
0.166698 -0.847704 0.014223 0.972463 0.097135 -0.127874
-0.230194 0.331837 -0.072726 0.542895 -0.671413 -0.500049
0.108568 -0.475489 -0.104284 -0.282335 0.043862 -0.957412
-0.346815 0.223223 -0.061176 0.460878 -0.720507 -0.505736
0.093611 0.819421 0.005075 0.806416 0.554003 0.202615
-0.099683 -0.052042 -0.095297 -0.69035 -0.233666 -0.683771
0.204611 -0.510947 -0.027475 0.977346 0.101321 -0.159216
0.063774 -0.601667 -0.059145 -0.6962 -0.025363 -0.717385
0.091692 0.604454 -0.021724 0.831462 0.365866 0.376209
0.058773 0.217687 -0.126242 -0.209013 -0.302174 -0.929202
-0.03604 -0.398001 0.084323 0.287446 -0.22562 0.930797
-0.108501 -0.482505 -0.074349 -0.688946 0.114719 -0.715615
0.203628 0.042296 0.037018 0.954503 0.188506 0.229068
0.205003 -0.142307 0.04588 0.931258 -0.133907 0.335147
-0.070028 -0.848534 0.163106 -0.035002 -0.379474 0.908732
-0.107553 0.294855 -0.076696 -0.83688 -0.079472 -0.539509
0.199255 -0.458254 -0.002434 0.993346 -0.02228 0.106129
0.088059 -0.328627 -0.094929 -0.445621 -0.004631 -0.893594
0.067462 0.861281 -0.029529 0.450448 0.867181 -0.137915
0.186719 -0.687905 -0.045842 0.655568 -0.188991 -0.730357
0.201622 0.559001 -0.045687 0.257759 0.958617 0.041492
0.208334 -0.04011 0.036903 0.952979 0.030094 0.30139
-0.010189 -0.487684 0.047618 0.600301 -0.248558 0.759018
0.152346 -0.796625 0.031392 0.629689 0.44129 0.638088
-0.020496 0.333509 -0.129191 -0.032756 0.04575 -0.998131
-0.022203 -0.437559 -0.08131 0.600064 0.113859 -0.787713
-0.31824 0.320155 0.002173 -0.286476 0.263388 0.918403
-0.125562 -0.386882 0.047124 -0.967896 0.102183 0.221908
0.582641 0.116702 -0.000717 0.634442 0.165947 -0.753523
-0.264123 0.417027 -0.011849 -0.724464 0.620393 0.284008
0.13534 -0.738461 -0.097951 0.339692 0.165406 -0.918621
-0.009836 -0.335056 -0.06577 0.712812 -0.081083 -0.696621
-0.135837 -0.515117 -0.008036 -0.983169 -0.076168 0.164201
-0.0127 0.622052 -0.013596 -0.945379 0.147527 0.280605
-0.10613 -0.507756 0.047463 -0.8025 -0.192923 0.56453
0.024324 -0.400887 -0.004417 0.974755 -0.195177 -0.027015
0.205717 -0.316069 0.011375 0.996141 -0.004046 0.070134
-0.109205 -0.611322 0.03445 -0.902774 -0.001669 0.429765
0.019887 0.105218 0.135106 -0.015516 0.150608 0.987097
0.2062 -0.024958 -0.025566 0.972042 0.023135 -0.231221
0.154341 0.31354 -0.099246 0.778458 -0.164061 -0.605328
0.341382 0.281955 -0.090991 -0.626258 -0.76076 -0.129543
0.016451 0.569139 0.025612 -0.191304 0.091406 0.974534
-0.008815 -0.723477 -0.098002 0.584616 0.30102 -0.75245
-0.018102 0.783554 -0.100464 -0.722981 -0.050037 -0.688381
-0.501942 0.09458 0.066107 0.691287 -0.65464 0.277621
0.027729 0.009219 0.142885 -0.010918 0.128347 0.991617
-0.458659 0.18275 -0.037186 -0.623297 0.403072 -0.66868
-0.05544 0.580064 -0.075484 -0.40722 0.794461 -0.442521
0.016013 0.739352 0.081008 -0.817399 0.218295 0.528422
0.131648 -0.462283 -0.10527 0.128606 0.103699 -0.985047
0.1228 -0.677661 0.030521 0.115599 -0.07931 0.989173
0.050104 -0.199604 0.062587 -0.809571 -0.080517 0.581104
-0.095199 0.127532 0.0749 -0.670396 0.049497 0.74013
0.176081 -0.803972 -0.038772 0.961438 -0.266699 0.028729
0.036655 0.105015 -0.138634 -0.108076 0.313172 -0.940496
0.086115 -0.857901 0.124902 -0.914283 0.289765 0.281155
-0.136374 -0.030124 0.048208 -0.984648 0.069194 0.153357
0.468831 0.186983 -0.02598 -0.524616 -0.851077 0.000803
-0.02505 -0.838534 -0.12385 0.855441 -0.390406 -0.257753
0.117679 0.181078 0.104175 0.483195 0.027984 0.874607
0.024232 -0.586147 -0.035138 0.901202 0.113259 -0.405517
-0.068777 0.31605 0.086559 -0.592749 0.018267 0.803382
0.031346 0.835225 -0.093868 -0.036224 0.683732 -0.728606
0.213022 -0.019659 0.016302 0.990873 0.087607 0.078716
-0.053001 0.27692 0.096762 -0.582988 0.04652 0.810209
-0.100955 0.018108 -0.102046 -0.741328 0.054477 -0.667145
0.021362 -0.677702 -0.017639 0.864802 -0.209097 0.45617
0.005196 -0.323468 0.074957 0.646849 -0.201144 0.735495
0.07227 -0.205465 -0.088313 -0.515367 -0.220848 -0.825616
0.077982 0.589108 -0.090765 0.087737 0.71172 -0.648085
0.160529 -0.834594 0.077272 0.81219 0.580604 0.033684
0.144179 -0.227596 -0.091353 0.505335 -0.147473 -0.850185
0.176944 -0.477791 -0.083248 0.698303 0.065937 -0.712535
-0.062755 0.226931 -0.106117 -0.617139 -0.266598 -0.740296
0.205425 -0.171784 0.02743 0.976154 -0.036806 0.207659
-0.127641 -0.322504 -0.014705 -0.99066 -0.002259 -0.132886
-0.064828 -0.51124 0.066057 0.375503 -0.226934 0.898198
0.167292 -0.69554 0.012927 0.38649 -0.502484 0.772851
0.053022 -0.425162 0.0013 -0.700541 -0.22941 0.672927
0.199927 -0.425041 -0.031131 0.987571 -0.025205 -0.153221
-0.457225 0.150662 -0.031822 0.347429 -0.828386 -0.435885
0.084272 -0.568927 0.025101 -0.615098 -0.03717 0.781916
0.071606 0.392412 -0.142508 -0.298998 0.035738 -0.952428
-0.029178 -0.055041 0.130511 -0.068572 -0.092864 0.992974
0.153892 -0.738771 -0.082164 0.776985 0.087874 -0.621655
0.129698 0.148989 -0.104618 0.503955 0.189033 -0.8409
0.401577 0.22795 -0.065155 -0.599507 -0.782311 0.167857
-0.012809 0.048951 -0.144382 -0.146359 0.20787 -0.966978
0.137957 -0.420372 -0.097674 0.437721 0.115432 -0.888651
-0.009798 0.692752 -0.052612 -0.805323 -0.412446 -0.416919
-0.086447 0.028838 0.109035 -0.515127 0.378033 0.768211
0.405464 0.324221 -0.082508 0.675468 0.728602 0.096601
0.52252 0.214984 -0.038457 0.519883 0.782047 0.34174
0.145103 -0.835204 0.161527 0.465257 0.844239 0.255001
0.179214 -0.593691 0.026114 0.555434 -0.330273 0.762931
-0.058184 -0.864255 0.08164 0.000203 -0.999972 0.003031
0.178283 0.039953 0.084682 0.729729 0.214509 0.648545
0.141424 0.242753 -0.102837 0.786135 -0.154494 -0.597991
0.185538 -0.372789 0.059757 0.845126 -0.04024 0.532371
0.171462 -0.43409 -0.079167 0.649837 0.17413 -0.739226
0.122992 0.226791 0.098907 0.543317 0.041309 0.838374
-0.225382 0.458645 -0.058301 -0.587593 0.643249 -0.488981
0.161758 -0.831256 -0.001176 0.975369 0.016511 0.020836
-0.467172 0.134532 0.041834 0.73277 -0.612558 0.275595
0.071082 0.677889 0.072829 0.816711 -0.134333 0.516437
0.154083 -0.514567 0.058979 -0.016347 -0.251662 0.963225
0.008883 -0.379764 0.057443 0.832313 -0.113344 0.541248
0.071959 -0.107494 -0.113734 -0.367374 -0.361587 -0.856124
0.450436 0.28285 -0.059293 0.58073 0.727806 0.336995
-0.114247 -0.684817 0.009552 -0.868981 -0.172997 0.450557
-0.019073 0.526092 -0.119966 -0.073385 0.257485 -0.962601
-0.06513 0.302247 0.089185 -0.520977 -0.028879 0.852778
0.120374 -0.199716 0.096301 0.051126 -0.186516 0.980401
0.020416 -0.712162 -0.063151 0.924934 0.008383 -0.377135
0.064413 0.049622 -0.156934 -0.065787 0.309374 -0.947099
0.089465 0.836223 -0.014424 0.933512 0.349941 0.0086
-0.134241 -0.027036 -0.040458 -0.948087 0.019849 -0.314438
0.165374 -0.401278 0.073501 0.26119 -0.036568 0.961021
0.1332 0.268754 -0.11968 0.706561 -0.098861 -0.699184
0.601834 0.105646 0.062455 0.752405 0.603703 0.25554
-0.028288 -0.080209 -0.113082 0.112196 -0.374245 -0.918893
-0.14677 0.552904 -0.015434 -0.52228 0.843903 0.017813
-0.349537 0.213683 -0.043004 0.587338 -0.779779 -0.201475
-0.363836 0.210274 -0.056993 0.457828 -0.735623 -0.495186
0.097357 0.229906 -0.133124 0.220987 -0.298991 -0.919666
-0.231627 0.386161 -0.096268 -0.005313 0.109956 -0.993261
-0.002108 -0.443458 0.051241 0.765822 -0.145151 0.626442
0.342994 0.402653 -0.126896 0.672379 0.346632 -0.644869
-0.090767 -0.406094 -0.06978 -0.573365 -0.018746 -0.819031
-0.005329 -0.484793 -0.070133 0.767334 0.08464 -0.635623
-0.004834 -0.336845 0.080145 0.632676 -0.070632 0.769092
0.178387 0.121067 0.057297 0.773189 0.15686 0.613704
0.119942 -0.454353 -0.104961 -0.045403 0.071541 -0.993954
-0.287759 0.361214 -0.083605 -0.645439 0.424343 -0.630854
0.007294 0.788804 0.08002 -0.405969 0.253682 0.873095
0.199625 -0.443756 -0.031941 0.997356 0.010965 -0.066294
0.044 -0.509228 -0.029605 -0.996795 -0.009305 0.018902
-0.096964 0.066878 -0.093271 -0.734411 0.154869 -0.660141
0.62539 0.04596 0.106096 -0.466371 -0.39689 0.695742
0.128611 -0.349047 0.078761 -0.127205 -0.156843 0.969132
-0.134289 -0.250129 0.048953 -0.983992 -0.084308 0.147075
0.627479 0.06482 0.080868 0.861041 0.490175 0.114901
-0.063255 -0.064551 0.124536 -0.316236 -0.055701 0.946846
0.055152 0.441769 0.089703 0.083709 0.192799 0.977652
-0.011237 0.710847 0.062743 -0.704291 -0.109623 0.701168
0.17652 -0.625542 -0.075638 0.605902 -0.139967 -0.782736
0.098788 -0.731575 -0.088611 -0.710164 -0.037843 -0.69267
-0.027542 -0.581774 -0.092797 0.495089 -0.04339 -0.865357
0.153278 -0.827624 0.088664 0.475588 0.865039 0.145816
0.044198 0.448188 0.089453 0.113012 0.190281 0.974186
0.094738 -0.664238 -0.08199 -0.603244 -0.0065 -0.797454
0.530514 0.139206 -0.017584 -0.701559 -0.694878 -0.130611
-0.118499 -0.302007 0.087171 -0.867812 -0.039336 0.486965
-0.0204 -0.547663 -0.089577 0.578207 -0.006643 -0.814597
-0.127591 -0.712424 -0.055121 -0.993192 -0.032235 -0.10639
-0.375175 0.198912 -0.049765 0.529487 -0.785222 -0.310985
0.010797 0.516639 0.062097 0.140315 0.533923 0.833173
0.177168 0.385605 -0.111597 0.43238 -0.501361 -0.748586
0.146416 0.087416 -0.108492 0.68594 0.224197 -0.691966
0.146962 0.418622 0.073297 0.531481 0.084434 0.842367
0.044483 -0.045945 -0.133702 -0.33013 -0.437063 -0.835694
0.12989 0.103092 0.101116 0.521359 0.108737 0.845898
0.017297 -0.134323 -0.049491 0.811851 -0.249086 -0.522864
0.229232 0.513093 -0.111498 0.458643 0.578778 -0.673368
-0.023177 -0.689299 -0.097356 0.56037 0.232533 -0.794766
-0.080258 -0.167859 -0.087689 -0.57858 -0.137879 -0.803746
0.292705 0.367873 -0.021838 0.058166 -0.498472 0.845546
-0.316717 0.248835 -0.073916 0.257948 -0.689317 -0.664557
-0.232986 0.338483 -0.082323 0.449928 -0.595163 -0.663427
-0.299425 0.245739 -0.042297 0.643682 -0.760798 -0.034777
-0.008781 -0.436453 -0.066993 0.736597 0.046804 -0.674584
-0.508768 0.114476 0.085597 0.444666 -0.04846 0.871233
-0.00077 0.649036 -0.048693 -0.749817 0.070395 -0.656134
0.152749 0.321994 0.063631 0.721648 0.002913 0.692009
0.08784 0.361211 0.1006 0.370824 0.165707 0.906339
0.165569 0.063302 -0.095893 0.760412 0.195134 -0.618248
0.543984 0.179128 0.012417 0.778975 0.586639 0.20778
0.077598 -0.695092 0.033622 -0.264762 0.186373 0.945512
0.102103 0.549354 0.025479 0.391582 0.635262 0.664345
0.164623 -0.847194 0.139841 0.876018 0.42922 0.207317
0.182935 0.256799 -0.011765 0.998193 -0.008025 -0.05077
0.030921 0.122231 -0.130172 -0.137899 0.441952 -0.885804
-0.136448 0.03854 0.028985 -0.979273 0.188218 0.070154
0.209472 0.547425 -0.084326 0.333878 0.78641 -0.51533
-0.347643 0.289022 0.001767 -0.04876 0.287468 0.954501
0.026174 -0.48474 -0.003949 0.97672 0.025947 0.167342
0.072298 0.503467 -0.13204 -0.311741 0.190955 -0.928672
-0.126025 0.046346 -0.048992 -0.914092 0.144791 -0.377307
0.259975 0.367333 -0.123456 -0.491037 -0.668299 -0.554659
0.476895 0.182913 -0.013312 -0.594813 -0.799451 0.078211
0.179918 -0.274782 0.073738 0.453424 -0.012685 0.890257
-0.142814 0.42929 0.05046 -0.638119 -0.350895 0.682093
0.428046 0.283599 -0.044806 0.280068 0.545442 0.789116
0.186785 -0.09061 -0.071091 0.8155 -0.071781 -0.574064
0.093219 0.029693 0.127975 0.213839 0.239941 0.946137
0.174091 -0.860709 0.09352 0.754198 -0.523711 0.012183
-0.005902 0.119916 -0.126257 -0.142438 0.361706 -0.920466
0.204784 -0.017691 0.045463 0.90722 0.102507 0.402371
-0.007211 -0.677431 -0.080935 0.552186 0.203726 -0.80728
0.061183 -0.706493 0.031319 -0.794905 0.202435 0.564867
0.031163 -0.105095 -0.085549 -0.748914 -0.407264 -0.522448
-0.130487 0.11001 0.004701 -0.993734 -0.088571 0.023414
0.152295 -0.253473 -0.082496 0.501706 -0.111888 -0.857708
-0.244653 0.430884 -0.067188 -0.56344 0.618271 -0.54364
-0.027003 0.737391 -0.066216 -0.873929 -0.356149 -0.324711
-0.025435 -0.297149 0.096222 0.304212 -0.138037 0.942289
0.084719 0.601958 -0.005483 0.76595 0.207484 0.603349
0.135652 0.419108 0.079056 0.465135 0.112562 0.874515
-0.109536 -0.844414 0.077678 -0.87186 0.438393 0.183734
0.044728 -0.295941 -0.047449 -0.848255 -0.016171 -0.529268
0.090422 0.138792 -0.123138 0.215767 0.328236 -0.918141
-0.115908 -0.205859 -0.041595 -0.851762 -0.098907 -0.513364
0.199101 0.393003 -0.028231 0.985849 -0.150742 0.022502
-0.081513 0.270991 0.078218 -0.60271 0.051806 0.79617
0.007468 -0.573246 -0.05857 0.790641 -0.005505 -0.612064
0.205537 -0.285424 0.015853 0.99903 0.010619 0.037404
-0.041628 -0.834165 -0.142743 0.191102 -0.338756 -0.919417
0.314934 0.395247 -0.143504 0.181238 0.088788 -0.971613
-0.384976 0.288005 -0.062145 -0.69587 0.682325 -0.221958
0.045018 0.105492 0.134867 0.106123 0.092836 0.980614
0.090118 0.123165 0.120589 0.374152 0.028387 0.926805
-0.04431 0.421795 0.096219 -0.209865 0.237051 0.947653
0.108768 0.406236 0.089817 0.203315 0.127159 0.970726
0.104704 0.729325 -0.012662 0.690799 -0.581231 0.309631
-0.269898 0.405645 -0.006051 -0.722749 0.522175 0.451749
-0.234022 0.437579 0.01481 -0.726245 0.388992 0.565778
0.045126 0.145352 0.130906 0.126117 0.016502 0.991692
0.070348 -0.705876 -0.045835 -0.814596 -0.254912 -0.520706
0.003775 -0.438735 0.044779 0.77841 -0.136966 0.612255
0.040568 -0.329231 0.007691 -0.939182 -0.087336 0.33056
-0.109592 -0.015469 0.094333 -0.747642 -0.100172 0.655706
0.190993 -0.063743 0.073327 0.759955 0.073151 0.645471
0.180332 -0.762408 -0.043393 0.768948 0.342546 -0.524924
0.102064 0.473152 0.073901 0.204417 0.402806 0.890285
0.129422 0.366375 -0.135972 0.457646 -0.16131 -0.872057
-0.411777 0.172681 -0.014827 0.611915 -0.788194 -0.034506
-0.061408 -0.357433 -0.086292 -0.231542 -0.067448 -0.967583
0.095008 -0.464064 -0.097474 -0.53248 0.057993 -0.84418
0.203217 -0.321807 0.026059 0.959086 -0.047339 0.277774
0.102108 -0.863842 0.15098 -0.293424 -0.930518 0.208267
0.096977 0.186135 -0.11501 0.244785 -0.202098 -0.944509
-0.051362 -0.153834 -0.09894 0.102468 -0.196175 -0.970818
-0.518393 0.09678 0.024239 0.111562 -0.382191 -0.895564
-0.101464 -0.719864 -0.097887 -0.776094 0.022642 -0.630069
-0.470037 0.183466 0.013523 -0.641517 0.710269 0.259214
0.154788 -0.066523 -0.114252 0.679258 -0.143822 -0.719412
0.144682 -0.825866 0.097062 0.293647 0.94107 0.150767
0.110937 -0.627818 -0.093939 -0.444754 -0.086763 -0.889952
-0.144289 0.402476 0.008244 0.519252 -0.745135 0.410644
0.191479 -0.753194 -0.008611 0.957026 -0.271453 0.088914
0.068252 -0.459128 -0.073132 -0.725766 0.027313 -0.687312
0.018554 0.533047 0.049916 0.09633 0.71053 0.692125
-0.124737 -0.368083 0.052833 -0.976441 -0.082256 0.199173
-0.021361 0.846348 0.005756 -0.779771 0.547406 0.257182
-0.393801 0.191384 -0.04889 0.281855 -0.810532 -0.48621
-0.049742 0.247402 0.101193 -0.628827 0.056583 0.774927
0.065675 0.71183 0.079473 0.580378 -0.025585 0.810182
0.148404 0.00511 -0.126814 0.677191 0.120987 -0.725704
-0.103184 -0.846617 0.111697 -0.889894 0.320088 0.218201
-0.371134 0.277411 0.002874 -0.262057 0.384699 0.883951
-0.108922 -0.123072 -0.06788 -0.766904 -0.083405 -0.636252
-0.054625 0.336636 0.098417 -0.409666 -0.12448 0.903392
0.01457 -0.184897 -0.051098 0.831764 0.066583 -0.550993
0.576833 0.068288 0.030566 -0.865443 -0.484782 0.123751
0.333127 0.43073 -0.096482 0.779624 0.612678 -0.093731
-0.003531 0.615948 -0.063124 -0.503538 0.602562 -0.618851
0.029632 -0.295006 0.006027 0.996691 -0.06697 0.040122
0.545857 0.122221 0.025337 -0.819095 -0.546739 0.168209
0.121111 -0.86995 0.067099 -0.004018 -0.999968 0.000345
-0.482691 0.15742 -0.034075 -0.619248 0.478346 -0.620963
-0.060803 0.308264 -0.119664 -0.424841 -0.015949 -0.905071
0.157357 -0.640173 -0.085492 0.517392 -0.180604 -0.8364
0.380953 0.255085 -0.048573 -0.668163 -0.505223 0.543259
-0.045774 0.513895 0.059923 -0.168845 0.512752 0.84151
-0.08781 -0.727127 -0.113297 -0.620512 0.134077 -0.770171
0.165571 0.309316 -0.081759 0.714121 -0.253101 -0.607343
0.13761 -0.012819 -0.138574 0.622943 0.054563 -0.779848
0.046861 0.865858 0.013491 0.220765 0.942527 0.241264
-0.113838 -0.572422 -0.083056 -0.683748 0.0423 -0.728321
0.132501 -0.479084 0.058151 -0.486353 -0.099352 0.867659
-0.142134 0.016221 0.015445 -0.990548 -0.115877 -0.015321
0.049234 -0.583924 -0.016536 -0.904251 -0.095459 0.416027
-0.013866 0.629132 -0.031649 -0.88667 0.384297 -0.214567
-0.238472 0.45173 -0.046329 -0.763219 0.602625 -0.228024
-0.102606 -0.103522 0.106874 -0.591841 0.084622 0.800311
-0.084619 -0.703345 -0.109593 -0.430665 0.205619 -0.877962
-0.206946 0.451561 0.036085 -0.554694 0.270568 0.786184
-0.069486 -0.203186 0.116392 -0.305921 -0.087896 0.947883
-0.111763 -0.637418 -0.089797 -0.606833 0.06557 -0.792107
0.210113 -0.097863 0.037393 0.93894 -0.021898 0.343172
0.102218 0.03239 0.124439 0.472845 0.33328 0.812464
-0.032987 0.833224 -0.049539 -0.719919 0.622978 -0.291588
-0.128046 -0.37382 -0.020399 -0.994374 0.015008 -0.097577
0.198654 0.385663 -0.039395 0.997155 -0.065056 0.022226
0.181432 -0.207204 0.081717 0.596658 -0.148598 0.785067
0.173755 -0.532439 0.047818 0.537982 -0.215445 0.813519
-0.010473 0.823353 0.042949 -0.818245 0.363688 0.44098
0.105314 -0.161301 0.102589 -0.351536 -0.197611 0.907348
-0.068095 -0.230225 -0.090249 -0.303848 -0.006574 -0.948902
0.140453 -0.068744 0.11232 0.328391 0.022211 0.944147
-0.039891 0.034179 -0.142614 -0.285037 0.164916 -0.941375
-0.131895 -0.237957 -0.003902 -0.936132 -0.037094 -0.349405
0.185615 0.303917 -0.028772 0.926533 -0.316343 -0.195937
0.075219 -0.116773 -0.111561 -0.283598 -0.23916 -0.921729
-0.023914 0.160831 -0.105907 -0.332831 -0.104645 -0.926744
0.05392 -0.369217 0.028362 -0.725593 -0.276432 0.628608
-0.423989 0.240655 -0.047478 -0.774177 0.525331 -0.320644
0.170891 0.569563 -0.063767 0.533193 0.812815 -0.212254
0.068645 0.452087 0.085733 0.137589 0.335451 0.931542
-0.133568 -0.463354 -0.039127 -0.896905 0.078299 -0.43377
-0.015513 -0.367999 0.083032 0.414806 -0.149956 0.897315
-0.034328 -0.126 0.125234 0.011221 -0.090735 0.995149
-0.257447 0.427133 -0.017932 -0.751627 0.624967 0.210845
0.055848 0.512188 -0.127912 -0.15403 0.119909 -0.979511
-0.130207 -0.036734 -0.05019 -0.922869 -0.030928 -0.383795
-0.052986 -0.449153 -0.093015 0.063047 0.201093 -0.975356
0.163693 -0.840918 -0.019559 0.981435 0.187244 -0.006261
-0.517032 0.125999 0.027233 -0.790143 0.608664 -0.067153
0.175667 -0.574743 -0.0823 0.677937 -0.051866 -0.730754
0.062937 0.350036 0.109016 0.303487 0.254521 0.917891
0.024511 -0.663085 -0.017216 0.896838 -0.18913 0.374172
-0.315886 0.284726 0.005911 -0.083155 0.043873 0.994785
0.132871 0.582305 -0.072328 0.323512 0.912106 -0.246089
-0.042316 -0.641358 -0.100792 0.436457 0.054065 -0.897371
0.271685 0.424846 -0.010644 0.121913 -0.113966 0.981575
-0.115276 0.428834 0.062197 -0.267216 -0.002889 0.962236
0.537876 0.13035 -0.000267 -0.751517 -0.659485 -0.003121
-0.059488 -0.127789 -0.10326 -0.179937 -0.125024 -0.972381
-0.093824 -0.732645 -0.108111 -0.763911 0.088256 -0.63907
0.180831 0.300782 0.021015 0.92678 0.023628 0.360211
-0.004846 0.741597 -0.101968 -0.524842 -0.415056 -0.74239
0.152292 -0.851207 0.174462 0.693249 0.150935 0.670785
-0.303354 0.244357 -0.022505 0.659236 -0.722076 0.207996
-0.083628 0.042555 0.10548 -0.451443 0.165906 0.87207
-0.124822 -0.216219 -0.0239 -0.856223 -0.094473 -0.507617
-0.168375 0.527833 -0.055065 -0.584818 0.658789 -0.471676
0.081062 -0.199872 -0.094236 -0.404139 -0.233716 -0.883861
-0.030787 -0.41676 0.078989 0.335294 -0.180218 0.924484
-0.076024 -0.249179 -0.085837 -0.564411 -0.021814 -0.825169
-0.107535 -0.022958 -0.091232 -0.816338 -0.061244 -0.574299
-0.430248 0.220019 0.010006 -0.375008 0.397715 0.83288
0.080637 -0.577317 0.021316 -0.684338 -0.05154 0.727253
0.10261 0.042722 -0.151904 0.381734 0.198479 -0.900563
-0.004856 -0.53552 -0.074785 0.79121 0.032944 -0.610533
0.145146 -0.851012 -0.106199 0.714917 -0.025195 -0.696436
0.141964 -0.829146 0.131508 0.463409 0.881724 0.076
0.094837 -0.834804 -0.105745 -0.765317 -0.034314 -0.633004
0.315041 0.306895 -0.098873 -0.684986 -0.706445 -0.157983
0.156694 -0.500653 -0.099821 0.473612 -0.002825 -0.880303
-0.1282 -0.150989 0.078702 -0.887733 0.019233 0.45845
-0.122164 -0.150957 -0.044048 -0.80497 -0.159355 -0.570734
0.074945 0.482663 -0.136798 -0.240645 0.164057 -0.956411
0.200658 -0.317197 0.034307 0.93628 -0.06028 0.345624
-0.060013 0.097123 0.106998 -0.498157 0.133487 0.845512
0.28941 0.36399 -0.134319 -0.295336 -0.52586 -0.794227
-0.103217 0.112312 -0.072141 -0.808597 0.123659 -0.572392
-0.321922 0.330282 -0.004748 -0.456668 0.498581 0.730954
0.01355 -0.282726 0.076321 0.804681 -0.090016 0.585938
0.192991 -0.436746 -0.054995 0.829254 0.132976 -0.542676
0.140057 0.308839 0.079166 0.732184 0.051739 0.679116
0.068999 -0.820848 -0.035824 -0.760673 -0.586086 -0.059834
0.162239 -0.062279 -0.107901 0.709621 -0.116056 -0.693944
0.192977 -0.610232 0.012968 0.766574 -0.142931 0.613693
0.161589 -0.622119 0.024655 0.380438 -0.097556 0.90552
-0.34005 0.328019 -0.028622 -0.680097 0.722913 0.11631
0.032609 -0.125023 -0.074067 -0.839388 -0.296487 -0.455144
0.044258 -0.364707 0.012782 -0.958332 -0.093477 0.262656
0.17227 -0.245579 0.078937 0.465066 -0.125298 0.875549
0.272461 0.341542 -0.080003 -0.639308 -0.766352 -0.004046
0.151799 0.075897 -0.107247 0.678567 0.240406 -0.69199
0.064207 0.314127 0.11446 0.285555 0.14814 0.946446
0.177246 -0.382366 -0.065562 0.683901 0.221076 -0.689004
-0.12887 -0.259869 0.065612 -0.955924 -0.124466 0.261574
0.196384 -0.68223 -0.009171 0.959526 0.025089 0.274326
0.599678 0.112319 0.03566 0.75002 0.661087 0.002264
0.13792 -0.869718 -0.069016 0.05594 -0.997987 0.012035
0.087569 -0.859455 0.065884 -0.779278 -0.599353 -0.176779
0.031562 0.038652 -0.155154 -0.192364 0.226279 -0.954612
-0.261296 0.373958 -0.095965 -0.233768 0.188399 -0.951412
-0.124495 0.415986 -0.09861 -0.696595 -0.384981 -0.60301
-0.123017 0.406424 0.049664 -0.785416 -0.448779 0.411609
0.299735 0.472238 -0.059628 0.831019 0.529887 0.161633
-0.11031 -0.426988 0.075548 -0.725799 -0.236821 0.644944
0.021465 -0.435909 -0.017086 0.964786 0.127958 -0.223666
-0.114116 -0.656924 0.022712 -0.856824 -0.130283 0.495921
-0.003231 0.714614 -0.083027 -0.571666 -0.566372 -0.590175
-0.061263 -0.440269 -0.090411 -0.092363 0.258438 -0.960835
-0.003522 0.229612 -0.128313 0.033489 -0.057365 -0.995995
-0.10235 -0.011805 0.104616 -0.672233 -0.220149 0.700946
-0.220789 0.473421 0.008344 -0.84804 0.413386 0.327942
0.177666 -0.229079 -0.070311 0.588487 -0.043336 -0.806675
0.141198 0.049284 -0.125534 0.636644 0.291456 -0.713516
0.197887 0.370382 -0.0305 0.996933 -0.036555 0.063202
0.32909 0.410432 -0.132398 0.437941 0.561412 -0.700137
0.155417 0.532545 0.018294 0.129975 0.657389 0.741775
0.109837 -0.529372 -0.104886 -0.344292 -0.020763 -0.937935
-0.031945 0.261399 -0.129 -0.153333 -0.049461 -0.985589
-0.288826 0.372435 -0.010144 -0.792219 0.450759 0.409122
0.126322 -0.219997 -0.099838 0.228769 -0.110843 -0.966139
0.082226 -0.022448 0.130507 0.112737 -0.087205 0.988633
0.10549 -0.821491 0.085605 -0.360939 0.868184 0.325777
0.196758 -0.456494 0.011444 0.972964 -0.059435 0.220424
0.015033 -0.354181 0.05472 0.794366 -0.215074 0.566424
0.042858 -0.250639 0.02962 -0.993651 -0.008268 0.112069
-0.109077 -0.583055 0.032691 -0.905633 0.020846 0.42225
-0.261059 0.35094 0.014985 -0.250289 -0.323698 0.910486
-0.307164 0.261561 -0.082724 0.22051 -0.558816 -0.793002
-0.036508 0.733564 -0.033976 -0.865172 -0.361906 -0.328082
0.054728 -0.712602 0.021777 -0.95163 0.10305 0.287054
0.061571 -0.229975 -0.073558 -0.730775 -0.117183 -0.672031
0.133506 0.326511 -0.125143 0.643784 -0.134888 -0.752241
-0.135905 -0.193249 0.05631 -0.987601 -0.044245 0.140451
0.080827 -0.280558 0.076168 -0.475983 -0.181592 0.859721
0.360997 0.267632 -0.098781 -0.703438 -0.676158 -0.20873
-0.132319 -0.255788 0.001567 -0.966219 -0.112581 -0.230884
0.009193 0.547024 0.034048 0.083253 0.707754 0.700038
-0.058586 0.540566 -0.106002 -0.271178 0.435736 -0.858197
0.075884 0.308133 -0.141146 -0.199458 -0.095112 -0.97492
-0.022163 -0.329666 0.09126 0.392322 -0.113257 0.911933
-0.113619 0.380688 -0.094497 -0.694749 -0.238848 -0.678179
0.01294 -0.691547 -0.071614 0.626792 0.157739 -0.761955
0.195592 -0.223038 0.05463 0.928579 0.03167 0.368783
-0.230591 0.442314 -0.070056 -0.577419 0.556337 -0.597411
-0.021488 -0.842526 -0.035094 0.918738 -0.391358 -0.006844
0.070754 -0.23904 -0.082241 -0.646526 -0.04292 -0.76102
0.028913 -0.290486 0.021148 0.993477 -0.040733 0.102229
0.143251 -0.664615 0.029554 0.142839 -0.158438 0.976863
0.184072 -0.025023 0.07946 0.7411 0.060762 0.668123
0.063784 0.386832 -0.139351 -0.382759 0.022936 -0.922987
0.099146 0.01419 -0.153978 0.305107 -0.069614 -0.949362
-0.216585 0.484433 0.001486 -0.784903 0.545804 0.291823
0.111138 -0.721269 0.026291 0.514894 -0.034483 0.847746
0.075853 -0.746191 -0.047286 -0.898216 0.075982 -0.431055
-0.092988 0.248426 -0.086367 -0.694452 -0.310671 -0.648472
0.350302 0.410051 -0.096447 0.744673 0.666413 0.003755
0.103756 0.141122 -0.119029 0.345397 0.275201 -0.894871
-0.018837 -0.60238 -0.085449 0.690235 -0.015479 -0.723381
0.363309 0.363967 -0.083194 0.66064 0.710914 0.235978
0.313921 0.307342 -0.088141 -0.703115 -0.71056 0.001091
-0.229554 0.433599 0.022514 -0.716683 0.294277 0.629835
-0.128259 -0.60825 -0.018489 -0.993442 -0.000211 0.113263
0.205164 0.052532 -0.0043 0.98199 0.156065 -0.085262
-0.084307 -0.682407 0.029032 0.137219 -0.367962 0.914809
0.022117 -0.520897 0.001362 0.868362 -0.171903 0.463673
0.153471 0.205369 -0.078217 0.766788 -0.005218 -0.641441
-0.022264 -0.484797 0.057109 0.455769 -0.285547 0.839808
-0.034523 -0.288262 0.100573 0.340555 -0.20899 0.915866
0.132128 -0.869926 -0.083356 0.030121 -0.999487 -0.003118
0.172832 0.139186 -0.055208 0.881135 0.080633 -0.464573
0.097733 -0.098572 -0.125151 -0.127089 -0.371718 -0.918073
0.126365 -0.822208 0.096026 0.082777 0.969314 0.223631
-0.129851 -0.246719 -0.008548 -0.948646 -0.017986 -0.314285
-0.094308 0.145068 -0.075093 -0.6962 0.203699 -0.688254
0.058038 0.540791 0.039612 -0.040367 0.810169 0.580716
-0.184315 0.50784 0.029614 -0.652389 0.528285 0.542165
-0.01236 0.313376 0.113646 -0.11639 0.078011 0.989747
-0.131808 -0.169992 0.072286 -0.824047 0.015682 0.564347
-0.129714 -0.256979 -0.008745 -0.966169 -0.036721 -0.251005
-0.114896 -0.239233 0.096079 -0.686909 -0.022999 0.72632
-0.315405 0.2971 -0.095592 -0.076086 -0.084678 -0.992276
0.133212 -0.323086 -0.091276 0.509322 0.03157 -0.859034
0.021601 0.398444 -0.128123 -0.035037 0.001285 -0.999041
-0.057775 -0.375805 0.094034 0.230698 -0.288197 0.928961
0.115869 -0.156681 -0.110643 0.091602 -0.165284 -0.98112
-0.10326 0.214975 -0.052426 -0.814528 -0.185382 -0.544154
0.083232 -0.031074 -0.150238 -0.039829 -0.351599 -0.934355
0.019356 -0.455909 -0.029418 0.925863 0.048547 -0.374646
0.612868 0.059574 0.05429 -0.756854 -0.647525 -0.066421
0.186464 0.492303 0.026865 0.321173 0.252301 0.91097
0.233737 0.531239 -0.088842 0.523201 0.670288 -0.525172
-0.087518 -0.602468 -0.101115 -0.459953 0.051205 -0.886343
-0.191114 0.398883 -0.096827 0.117645 -0.075087 -0.987572
0.111419 -0.218578 0.092134 -0.028396 -0.193925 0.979845
0.489142 0.227486 -0.072314 0.292081 -0.116691 -0.929969
0.123979 -0.167624 0.103391 0.045885 -0.321403 0.944489
0.060528 -0.728559 -0.018774 -0.878 -0.173417 -0.435973
0.084546 0.706861 0.059693 0.830318 -0.136281 0.538779
0.2341 0.516922 -0.104017 0.5109 0.60377 -0.611655
0.033365 0.240814 0.127826 0.020802 0.033613 0.999013
0.515619 0.153625 -0.006697 -0.654549 -0.755616 0.022728
-0.081465 0.555744 0.017686 -0.050221 0.767295 0.639241
0.010624 0.595055 -0.086861 -0.107448 0.624061 -0.772969
-0.128791 -0.360107 0.002739 -0.999888 0.009907 -0.001909
0.005758 0.858459 -0.049242 -0.410585 0.824788 -0.385714
0.120606 -0.827439 0.158619 -0.078797 0.947679 0.251309
0.038373 0.670506 -0.067886 0.050565 -0.285627 -0.95459
0.172608 -0.762664 0.020491 0.541892 0.097677 0.83073
0.150658 0.538379 -0.117666 0.279693 0.57194 -0.769116
0.166183 -0.475668 0.065245 0.309698 -0.124832 0.935252
0.165461 -0.025991 0.097244 0.638342 0.023467 0.768973
0.177228 -0.162003 0.089562 0.533031 -0.044812 0.843901
0.191021 -0.416289 0.045383 0.933484 -0.037558 0.355101
0.055138 0.314284 0.117736 0.320481 0.182991 0.927631
0.087146 -0.278529 -0.09375 -0.431136 0.062135 -0.90003
-0.038172 -0.744283 0.012012 0.405228 -0.703197 0.580219
0.0857 -0.416443 0.040204 -0.650841 -0.357818 0.668848
0.183188 -0.538711 0.0379 0.789337 -0.119994 0.601046
-0.018403 -0.265343 0.100779 0.446333 -0.257718 0.856424
0.031844 -0.030024 -0.137666 -0.195583 -0.428175 -0.881781
0.104403 -0.837181 0.157235 -0.765302 0.452512 0.44757
0.173435 0.464474 0.043186 0.576308 0.190771 0.793533
-0.154786 0.394979 -0.071125 0.667068 -0.623456 -0.407479
0.096939 0.034869 -0.155312 0.352623 0.125211 -0.925948
-0.31993 0.285864 -0.093888 -0.03579 -0.208142 -0.976946
-0.050621 -0.863964 0.036234 0.008918 -0.999752 -0.017176
0.130681 -0.364283 0.077177 -0.158224 -0.18031 0.969478
-0.566707 0.046851 0.022126 -0.883243 0.468162 -0.0195
-0.061011 0.575396 -0.008698 -0.186439 0.863299 0.464543
0.262986 0.379059 -0.028154 -0.393149 -0.458437 0.790044
-0.277736 0.401763 -0.067289 -0.498997 0.785156 -0.346684
0.195627 0.097484 -0.003313 0.985869 0.025924 0.065349
0.242759 0.422563 -0.136699 -0.255843 -0.027083 -0.965686
0.096311 -0.704455 -0.08505 -0.693712 0.053644 -0.718122
-0.133276 -0.107841 -0.036018 -0.878115 -0.106379 -0.464224
0.105822 -0.808989 -0.115131 -0.504286 0.057394 -0.848806
-0.134379 -0.229413 0.003384 -0.977148 -0.036906 -0.201315
0.349536 0.381051 -0.106467 0.847094 0.504752 0.004792
0.11581 0.182612 -0.107535 0.423761 -0.042782 -0.902215
-0.516892 0.108515 0.0169 -0.42315 -0.453694 -0.761824
0.009035 -0.108063 0.114302 0.577349 -0.294933 0.760489
0.141584 -0.676169 -0.089928 0.445085 -0.019279 -0.894623
0.040452 -0.279459 -0.040673 -0.879745 0.010736 -0.473893
0.282038 0.335821 -0.074623 -0.596589 -0.775495 0.198999
-0.071076 0.507284 -0.119326 -0.231716 0.352148 -0.906281
0.208767 0.511103 -0.122317 0.219808 0.499464 -0.835478
0.040844 0.480971 -0.127222 -0.181594 0.070442 -0.980739
-0.375882 0.295175 -0.065604 -0.661676 0.645294 -0.377338
0.039364 0.830552 0.06676 0.112405 0.49718 0.859202
-0.092874 -0.835118 0.116508 -0.639203 0.706237 0.278847
-0.128756 0.397252 -0.036497 -0.926162 -0.354195 -0.004036
0.063838 0.204543 0.12685 0.22507 0.037344 0.973232
-0.025364 0.31635 0.110868 -0.432613 0.142804 0.878122
0.019276 -0.408324 0.022684 0.969751 -0.091333 0.224682
-0.0251 -0.391574 0.082539 0.341917 -0.223116 0.912455
-0.134342 0.538963 0.032443 -0.174077 0.706118 0.685825
0.09134 0.006698 -0.155867 0.278848 -0.057277 -0.957566
-0.10444 0.449189 -0.118625 -0.375653 -0.03747 -0.923613
0.187837 -0.217173 -0.06253 0.630232 -0.036345 -0.774672
0.162967 -0.361888 -0.070612 0.621448 0.16893 -0.764439
-0.108096 0.086843 -0.070882 -0.801536 0.20713 -0.560368
0.11291 -0.413044 -0.102253 -0.121425 0.040036 -0.987674
0.580185 0.069209 0.041562 -0.802601 -0.41281 0.411179
-0.090748 -0.533439 -0.094721 -0.458579 0.095984 -0.880171
0.008768 -0.729835 -0.083461 0.732333 0.108027 -0.671821
0.201092 0.022429 -0.035598 0.949413 0.004635 -0.312285
0.159861 -0.078554 0.102934 0.527844 0.064736 0.845855
0.172084 -0.389327 -0.071641 0.666001 0.141871 -0.713569
0.039553 -0.053779 -0.127546 -0.329022 -0.432695 -0.839217
0.050146 -0.34678 -0.053563 -0.837127 -0.070481 -0.541866
0.066947 0.659545 0.034087 0.667252 -0.558787 0.460371
0.22105 0.394589 -0.058974 -0.76019 -0.627513 0.148374
-0.014192 -0.309697 0.0897 0.439525 -0.13061 0.888189
-0.388889 0.187631 -0.002014 0.666034 -0.738751 0.090689
0.139349 0.153184 0.090672 0.679429 0.020134 0.733406
-0.036399 -0.16455 -0.093422 0.371199 -0.116746 -0.92093
0.014897 -0.706203 -0.016331 0.801627 -0.139927 0.57948
-0.071976 -0.855952 0.156869 -0.077674 -0.715187 0.671867
0.083133 0.07263 -0.15089 0.159571 0.248317 -0.95035
0.05144 -0.668126 -0.004943 -0.998368 -0.023936 0.038716
0.040715 0.468444 0.083441 0.135682 0.346437 0.928043
0.205672 -0.285266 0.005108 0.99973 0.020149 0.00954
0.23124 0.431383 -0.134003 -0.250903 -0.099781 -0.961886
-0.409489 0.233211 -0.064364 -0.527241 -0.084752 -0.843779
0.11563 0.315221 -0.135743 0.456745 -0.060439 -0.886176
0.177004 -0.278627 -0.060134 0.640015 -0.195955 -0.742129
0.07709 0.051354 0.129904 0.37553 0.12464 0.914182
0.000173 0.475595 0.083522 -0.006109 0.434793 0.899874
0.063574 -0.696002 0.029398 -0.569491 0.289345 0.7594
0.254716 0.487707 -0.113927 0.473044 0.53993 -0.696151
0.018634 0.683407 -0.071469 -0.40171 -0.512825 -0.756683
-0.402958 0.190527 -0.053063 0.250679 -0.726141 -0.629777
-0.052836 0.130946 0.107073 -0.520995 -0.0304 0.852536
0.203881 -0.398765 0.00858 0.955127 -0.080757 0.279414
0.047768 0.644112 -0.064384 0.155658 0.109205 -0.972803
-0.11461 0.338758 0.019063 -0.94429 -0.17459 0.275769
-0.128242 -0.347599 0.015685 -0.999059 0.026152 0.0316
0.11922 0.282797 0.09796 0.496955 0.041656 0.866078
-0.128108 -0.280745 0.055715 -0.986281 -0.0992 0.127533
0.171494 0.036538 -0.096892 0.790373 0.125181 -0.597883
0.066997 0.313551 -0.139143 -0.333635 -0.066938 -0.939592
0.079054 -0.814324 0.026423 -0.893467 -0.155057 0.401357
0.161034 0.568606 -0.028335 0.344916 0.834093 0.425354
0.120598 0.541763 0.021553 0.34208 0.633168 0.693707
0.181486 -0.041686 -0.085607 0.850297 -0.090553 -0.517215
-0.056436 0.407988 -0.126791 -0.226407 -0.090095 -0.969518
0.072683 0.131326 -0.128653 0.066633 0.330491 -0.940594
0.152179 0.168652 -0.08251 0.747517 0.056357 -0.661107
0.029817 0.402535 0.100986 0.100936 0.312148 0.944207
-0.427581 0.160943 0.008213 0.510968 -0.856055 0.058489
0.054377 -0.099118 0.086252 0.453608 -0.666218 0.587009
-0.545487 0.071996 0.01614 0.791461 -0.412015 -0.444998
-0.335485 0.307903 -0.08954 -0.354075 0.331093 -0.869834
0.016803 0.859331 0.037672 -0.339327 0.797811 0.497191
0.025467 -0.614768 -0.007091 0.946887 -0.013563 0.313612
-0.123369 -0.391446 -0.037692 -0.856048 -0.039988 -0.51359
0.033557 -0.227112 0.021813 0.866866 -0.151864 0.472105
-0.03237 0.204855 -0.117858 -0.319492 -0.363162 -0.873125
0.112327 0.590307 -0.037537 0.390197 0.865915 0.304519
-0.321111 0.30715 -0.094567 -0.217134 0.167046 -0.957765
-0.083608 -0.010316 0.119146 -0.517511 -0.277169 0.804657
-0.108986 -0.099337 -0.071629 -0.768149 -0.119024 -0.628771
0.091409 -0.860114 -0.04039 -0.811073 -0.512877 0.237795
-0.137879 -0.018521 -0.013607 -0.992645 0.058942 -0.088846
0.132169 0.539651 -0.121549 0.176901 0.476272 -0.86107
0.14966 -0.810921 0.045437 0.599075 0.520565 0.607345
0.63001 0.034697 0.089487 -0.872032 -0.445976 0.048461
-0.018028 0.071468 -0.137849 -0.184916 0.229166 -0.955006
0.194222 -0.423052 0.033192 0.959124 -0.064018 0.275578
0.100134 -0.081621 0.112131 -0.244794 -0.442764 0.850925
-0.011612 -0.578124 -0.07969 0.685161 -0.063359 -0.725609
-0.010633 -0.44838 0.05961 0.696779 -0.204145 0.686095
-0.098624 0.361419 0.062696 -0.687571 -0.246168 0.682265
0.140707 -0.869159 -0.051234 0.085087 -0.993836 0.062134
0.077183 0.513108 0.057839 0.147073 0.487114 0.860659
0.029347 0.060665 0.13536 0.083956 0.062283 0.99438
0.030203 -0.29112 -0.005236 0.990317 -0.104869 -0.066227
0.121424 -0.567145 -0.105241 -0.18623 -0.134569 -0.970546
0.073397 0.806881 0.062535 0.774228 0.261813 0.57242
-0.050614 -0.862622 -0.115739 0.02755 -0.992432 -0.113744
0.062541 -0.74016 0.033937 -0.271797 -0.366807 0.880694
-0.019084 -0.101383 -0.102783 0.378909 -0.323663 -0.862528
0.10489 0.471649 -0.145134 -0.058354 0.106489 -0.992391
-0.076071 -0.786022 0.031123 -0.516753 0.704807 0.483184
-0.021516 0.130772 0.122562 -0.418475 0.007849 0.907297
0.192922 -0.004642 0.066289 0.790961 -0.125034 0.585582
0.235296 0.378163 -0.082703 -0.709171 -0.704961 -0.005146
0.136293 -0.568252 0.042991 -0.052339 -0.197313 0.977716
0.126736 -0.725758 -0.097482 0.145287 0.170077 -0.969907
-0.12908 -0.49274 -0.049953 -0.849912 0.070577 -0.521835
0.118217 0.386099 -0.143015 0.28869 -0.085043 -0.952378
-0.031279 0.729776 -0.04324 -0.820109 -0.425459 -0.367145
-0.008299 0.847288 -0.058383 -0.474182 0.790736 -0.385577
0.55117 0.158665 -0.017106 0.727052 0.111917 -0.66724
0.311943 0.411193 -0.032238 0.71638 0.238339 0.652453
0.182738 0.279385 0.00854 0.994849 -0.018377 0.094147
0.20033 -0.593452 -0.036599 0.993966 -0.053182 -0.092775
-0.330454 0.225241 -0.038271 0.507663 -0.85182 -0.121968
0.071288 -0.425477 -0.075335 -0.705932 0.009781 -0.708034
-0.100683 -0.529822 0.053226 -0.85004 -0.024612 0.525362
0.07409 -0.785064 -0.059495 -0.874488 0.159725 -0.457028
-0.118086 -0.474427 0.044312 -0.822331 -0.267219 0.502239
0.166126 -0.49627 0.061474 0.344212 -0.192851 0.911377
-0.170935 0.50652 -0.072035 -0.580318 0.428885 -0.691191
0.0443 -0.544757 -0.026764 -0.993768 -0.007885 0.019296
-0.096043 -0.480377 -0.084055 -0.581181 0.125694 -0.802744
0.064256 0.403784 -0.138865 -0.353922 0.04667 -0.932598
0.089018 -0.748245 0.02506 -0.060012 -0.62242 0.778922
0.204827 -0.2661 -0.016074 0.994489 -0.003005 -0.100261
-0.05493 0.193974 -0.10024 -0.526635 -0.234407 -0.816872
-0.021891 -0.847687 0.011046 0.93729 -0.283723 -0.057744
0.425313 0.210931 -0.061356 -0.493575 -0.836467 0.237073
0.158224 -0.674921 -0.078858 0.630451 -0.076153 -0.771944
0.02184 -0.23598 0.061401 0.942953 -0.005392 0.330627
0.132252 0.410809 -0.14203 0.330628 -0.166499 -0.926173
0.066616 0.410202 0.095814 0.132704 0.240991 0.959355
0.129017 -0.505003 -0.108151 0.045386 0.013068 -0.995792
-0.131831 0.056512 -0.023729 -0.955075 0.185387 -0.229095
-0.143821 -0.060835 0.00663 -0.999305 0.030966 -0.013013
0.142949 -0.434058 -0.097522 0.402849 0.166218 -0.899958
-0.086098 -0.74961 -0.117193 -0.577848 -0.010815 -0.815322
0.197322 -0.089685 -0.053048 0.89008 0.023642 -0.45451
-0.103924 0.479802 -0.115605 -0.443408 0.198374 -0.872664
0.204776 0.002624 0.043088 0.961283 -0.059308 0.24868
-0.455124 0.142556 0.026765 0.647981 -0.734543 0.18986
-0.128351 -0.380652 0.022534 -0.986992 0.124529 0.070221
0.31005 0.408651 -0.140944 0.225829 0.376624 -0.897168
0.181921 0.288895 -0.029423 0.963977 -0.155649 -0.211397
-0.035294 -0.31379 -0.087672 0.345195 -0.090577 -0.928515
0.060989 -0.789528 -0.027975 -0.981138 -0.026643 -0.170638
0.133648 -0.416518 0.067497 -0.298767 -0.131697 0.943996
0.206878 0.027255 0.002142 0.999557 0.02285 -0.017644
-0.002601 0.38482 -0.128893 0.057045 -0.011676 -0.99825
-0.367592 0.306544 -0.055453 -0.668409 0.734591 -0.105251
0.145073 -0.625173 -0.094311 0.339417 -0.154034 -0.926963
0.151734 0.179425 -0.081997 0.716091 0.160986 -0.671668
-0.071347 0.541393 0.034527 -0.098293 0.681143 0.72501
0.10866 -0.609073 0.031796 -0.197659 0.220656 0.954407
0.139908 0.349416 -0.124013 0.641218 -0.211227 -0.7374
0.104036 0.493817 0.062217 0.31674 0.529476 0.783422
0.132921 -0.669852 0.030124 0.117184 -0.133023 0.984109
-0.07407 -0.740494 -0.123175 -0.334029 0.042614 -0.931415
0.161391 -0.265809 -0.074743 0.521297 -0.177099 -0.834306
0.080382 0.446115 0.086224 0.124275 0.299574 0.945646
0.045546 -0.569035 -0.034437 -0.948334 -0.041841 -0.252215
0.54543 0.180058 0.001937 0.832126 0.533495 0.119673
-0.105567 -0.561353 0.041195 -0.878948 -0.060147 0.472188
0.019715 -0.398975 0.025086 0.960981 -0.136965 0.238502
0.521705 0.150024 -0.032409 -0.672697 -0.609606 -0.300996
0.025764 -0.606861 -0.036657 0.934045 0.082262 -0.323056
0.113274 -0.051361 -0.140544 0.19842 -0.363783 -0.90947
-0.132076 -0.43628 0.032439 -0.917847 -0.088468 0.386655
0.642296 0.036202 0.025636 0.98453 0.165261 -0.017427
-0.050523 -0.862408 -0.005563 0.104704 -0.991955 -0.056369
0.608113 0.096235 0.015804 0.774649 0.617007 -0.118426
0.041472 0.870463 -0.014373 0.027355 0.995957 -0.013724
0.070945 -0.013263 0.134495 0.139177 -0.333998 0.931791
0.010919 0.007517 0.143107 -0.017964 0.135951 0.990017
-0.11214 0.083215 0.072402 -0.844259 0.269019 0.45906
-0.069224 -0.400615 0.090794 0.134261 -0.160128 0.977807
-0.030936 -0.826743 -0.143144 0.316624 -0.388502 -0.863307
0.164524 0.190775 0.061479 0.765923 0.100915 0.634677
-0.017304 -0.80368 -0.141182 0.616051 -0.088221 -0.779823
-0.059656 0.5158 0.056407 -0.160626 0.51117 0.844028
0.064229 -0.115441 -0.106167 -0.471863 -0.319488 -0.814546
0.174641 -0.31602 0.073509 0.244976 -0.021083 0.960266
-0.12574 0.129387 0.025586 -0.939119 0.126359 0.312511
-0.320782 0.34707 -0.043843 -0.689305 0.722987 -0.028736
-0.086125 -0.544966 -0.098121 -0.35159 0.086356 -0.931826
-0.125043 -0.169282 0.084098 -0.820964 0.003508 0.570828
-0.080015 0.231757 -0.090963 -0.697142 -0.326456 -0.637467
-0.056547 0.386627 0.098266 -0.346904 0.072288 0.934263
-0.004228 0.609351 0.006858 -0.712206 0.046558 0.699877
-0.11781 -0.198056 0.095052 -0.745545 -0.008676 0.663884
-0.036956 -0.861837 0.01396 0.2481 -0.955284 -0.099764
0.053074 -0.71433 -0.000982 -0.991051 -0.089486 -0.085404
0.543105 0.190388 -0.002226 0.980009 0.098194 0.144378
0.151925 -0.08171 0.107591 0.68642 0.03938 0.677733
0.131234 0.585648 -0.050901 0.552474 0.810211 0.163113
-0.044595 -0.477146 0.06721 0.288495 -0.259622 0.921308
0.05473 -0.65245 -0.037551 -0.881083 -0.151323 -0.447888
-0.048484 -0.468636 -0.095005 0.124463 0.110884 -0.98524
0.254516 0.359493 -0.066279 -0.711273 -0.694349 0.091735
-0.128488 -0.293781 0.030111 -0.997254 -0.060286 0.038275
-0.109303 -0.380705 -0.057126 -0.710106 -0.026587 -0.703342
-0.036664 -0.526545 -0.097496 0.319446 0.036504 -0.945527
0.502064 0.205363 -0.001578 0.033461 0.641278 0.735602
0.056219 0.734039 -0.105399 0.3927 -0.405867 -0.824595
0.033489 0.84716 -0.080991 -0.008898 0.876464 -0.458164
0.184383 -0.779794 -0.029586 0.970274 -0.234403 -0.003338
0.135934 -0.445261 -0.102308 0.270042 0.127941 -0.952031
-0.125526 0.076486 0.039977 -0.939197 0.200102 0.27822
-0.102154 0.161231 -0.062358 -0.915896 0.109172 -0.353917
0.134684 -0.751694 0.031258 -0.086227 -0.753048 0.634887
0.000434 0.813474 0.061301 -0.578261 0.45912 0.674316
0.180578 -0.725325 -0.045598 0.725507 -0.23573 -0.646371
0.410466 0.301191 -0.119959 0.482697 0.462662 -0.742451
-0.028196 -0.85488 -0.122862 0.699959 -0.442849 -0.472361
0.191823 0.470304 -0.135282 0.114176 0.022108 -0.993019
0.029761 0.803876 -0.115969 -0.046988 0.304984 -0.950245
0.194472 0.394294 0.007836 0.965393 -0.106721 0.23617
0.20959 -0.146761 -0.000292 0.935178 -0.345804 0.026205
-0.127467 -0.64417 -0.03259 -0.988832 -0.089348 0.110469
0.175921 -0.733056 -0.049397 0.833521 -0.185153 -0.52027
-0.095607 -0.155348 0.112764 -0.319119 -0.048524 0.940897
0.095183 -0.837288 0.122512 -0.788479 0.591838 0.1602
0.035471 0.56102 0.026271 0.104318 0.154351 0.974822
-0.127766 0.002296 -0.055295 -0.925333 0.073116 -0.371174
0.120617 -0.652594 0.033989 0.083244 -0.123638 0.987694
0.193127 -0.378784 -0.049822 0.738538 0.093102 -0.660878
0.073688 -0.140217 0.085941 -0.595639 0.032011 0.802553
0.010154 0.005888 -0.145747 -0.15356 -0.212669 -0.964344
0.209169 -0.112078 0.038891 0.945059 -0.016032 0.326455
0.132759 0.009337 -0.138725 0.548671 0.107239 -0.828383
-0.207571 0.492553 -0.043156 -0.711676 0.559365 -0.421825
0.179516 -0.289307 -0.055232 0.681653 -0.16847 -0.711927
0.139836 -0.860353 -0.108832 0.615011 -0.461828 -0.626672
0.060917 -0.749682 -0.016001 -0.976767 0.019187 -0.205095
-0.451061 0.143949 -0.015295 0.448509 -0.832166 -0.298376
0.114488 -0.843654 -0.117072 -0.423112 0.021785 -0.905572
-0.10273 0.102347 -0.07531 -0.789491 0.162619 -0.588893
0.151748 -0.686607 0.023592 0.312359 -0.394352 0.86288
0.165598 0.162628 0.063655 0.712677 0.071283 0.697828
0.048866 -0.208688 -0.06258 -0.849615 -0.119589 -0.513439
0.001366 -0.354234 -0.052362 0.720102 -0.071135 -0.690015
0.060996 -0.290557 0.058807 -0.737112 -0.125636 0.663922
0.326719 0.295096 -0.094549 -0.680177 -0.720588 -0.1175
0.133485 0.560374 -0.004061 0.242771 0.73852 0.628864
0.093102 0.727418 0.030066 0.951097 -0.057102 0.297269
0.213605 0.50268 -0.125399 0.240963 0.390089 -0.887876
0.057818 -0.228584 0.067186 -0.702448 -0.133977 0.698447
0.087959 -0.682223 0.034706 -0.199459 0.143725 0.964793
0.083091 -0.060434 -0.138253 -0.121796 -0.370864 -0.920012
0.198205 -0.006712 0.057048 0.877291 -0.067104 0.464782
-0.449002 0.176517 -0.048689 -0.520429 0.377776 -0.763607
0.189505 0.317605 -0.029875 0.981107 -0.163022 -0.079423
0.067984 0.145251 0.128088 0.238096 0.034701 0.967858
0.156995 -0.8229 0.044632 0.868021 0.426177 0.191883
0.341629 0.282174 -0.079218 -0.621142 -0.757841 0.187339
0.002177 0.853716 -0.057102 -0.376653 0.849669 -0.364459
-0.231546 0.459375 -0.047733 -0.700252 0.620833 -0.351428
-0.003499 0.129803 -0.122014 -0.11753 0.417787 -0.89976
-0.096367 -0.847361 -0.08459 -0.983208 -0.054004 -0.162972
-0.393502 0.190098 0.013366 0.567138 -0.419181 0.634898
-0.058268 0.420919 -0.127563 -0.184125 -0.112229 -0.975321
0.130132 -0.864897 -0.111382 0.360245 -0.677969 -0.627026
0.039117 -0.223298 0.014391 -0.278315 -0.28535 0.895902
-0.028666 0.731211 -0.053554 -0.887977 -0.342701 -0.284949
-0.04622 0.062647 0.120233 -0.462601 0.145598 0.873459
0.10142 0.08018 0.115105 0.436484 0.152425 0.882151
-0.045696 -0.159549 0.122804 -0.055525 0.008415 0.998234
0.061837 -0.220755 0.072457 -0.683039 -0.103929 0.722815
-0.047035 0.214919 0.105009 -0.522179 0.04552 0.851422
0.093342 0.253472 -0.137673 0.042837 -0.100049 -0.993842
-0.07486 -0.239363 -0.086835 -0.500804 -0.026989 -0.860652
0.118314 -0.298915 0.081999 -0.045278 -0.073396 0.99612
0.089297 0.702331 0.04266 0.965566 -0.206357 0.144299
0.346543 0.319597 -0.133341 -0.108137 -0.241163 -0.962793
0.435257 0.274296 -0.117625 0.576309 0.197188 -0.790249
0.198795 -0.289671 0.045485 0.924927 -0.073362 0.371327
0.029287 0.426954 0.095735 0.133385 0.186081 0.973053
-0.079727 0.116352 0.088809 -0.613927 0.196406 0.7615
-0.123874 -0.205358 -0.027832 -0.855755 -0.09832 -0.507717
0.004718 0.102577 -0.134214 -0.143262 0.29706 -0.942615
-0.398867 0.267531 -0.067214 -0.86473 0.348537 -0.357531
0.18337 0.501395 0.025413 0.380003 0.283831 0.878945
-0.060213 -0.416794 0.086446 0.211274 -0.232052 0.948005
-0.101445 0.141551 -0.068713 -0.756464 0.199345 -0.622174
0.024758 -0.353006 -0.016144 0.952888 -0.042448 -0.298883
-0.041015 0.054246 0.124224 -0.495853 0.178408 0.849745
0.1189 -0.352533 0.076921 -0.234431 -0.197063 0.951729
-0.08912 -0.236305 -0.076778 -0.717228 -0.040881 -0.69551
0.182247 0.453974 0.040261 0.492165 0.17948 0.851598
0.05954 0.643307 -0.060542 0.52677 0.173451 -0.825487
0.149968 -0.282495 -0.079492 0.586868 -0.101491 -0.80315
0.212776 -0.13716 -0.008434 0.975222 -0.193726 -0.064851
0.18094 -0.525429 0.043449 0.74661 -0.143941 0.645559
0.095735 -0.246355 -0.095626 -0.365953 0.019363 -0.928569
0.109586 0.256948 0.104261 0.365954 0.052253 0.928972
0.029781 0.506152 0.065761 0.105035 0.499473 0.859768
0.180795 0.558697 -0.017787 0.238947 0.819482 0.518517
0.089908 0.538002 0.040486 0.301733 0.502666 0.806143
-0.04058 -0.095457 -0.110005 0.077884 -0.235504 -0.967694
-0.060346 0.179007 0.099095 -0.439663 0.021418 0.896597
-0.067552 -0.095681 -0.106267 -0.354662 -0.17279 -0.916883
-0.115822 -0.004988 0.088645 -0.77537 -0.247905 0.576458
-0.271588 0.272033 -0.042205 0.725619 -0.685068 0.048994
0.063595 0.143841 -0.124304 -0.050807 0.396995 -0.913769
