-0.0513520000 0.5892920000 -0.0362390000
-0.0540530000 -0.4780830000 0.0702650000
-0.0551080000 0.3463290000 0.0992700000
0.3416130000 0.4047920000 -0.0612120000
0.0783930000 -0.0582910000 0.1216530000
-0.0770530000 -0.6877800000 0.0242150000
-0.0168630000 -0.1156050000 0.1234980000
-0.1379690000 -0.0073150000 -0.0073090000
-0.3635410000 0.3061020000 -0.0234280000
-0.0716470000 -0.1815450000 0.1168140000
0.0969870000 0.7570600000 -0.0727980000
-0.0980440000 -0.1407900000 -0.0772110000
0.0213440000 -0.2664620000 0.0614690000
-0.0605510000 0.0882510000 -0.1185650000
0.3495360000 0.3810510000 -0.1064670000
0.2004800000 -0.0243220000 -0.0436050000
0.1424490000 -0.4316190000 0.0693400000
0.3011300000 0.3200090000 -0.0883690000
-0.1277650000 -0.7173180000 -0.0448010000
-0.3145730000 0.3515350000 -0.0546940000
0.0469090000 0.8550160000 -0.0671840000
0.1776660000 -0.2290790000 -0.0703110000
0.1564830000 0.3520800000 -0.1109640000
0.0142480000 -0.7549740000 -0.0276890000
0.1808040000 -0.7507740000 -0.0381470000
0.0232780000 0.1431210000 -0.1189600000
0.0254670000 -0.2994670000 0.0479960000
0.1009120000 0.4605480000 0.0796780000
0.1551980000 -0.7297690000 0.0035550000
0.1899480000 0.5605860000 -0.0694650000
0.1886400000 -0.5382010000 0.0296340000
0.0557070000 -0.1924000000 -0.0768970000
0.0953240000 -0.6847940000 -0.0832570000
0.1944140000 0.1081580000 0.0225670000
0.0909780000 0.8274430000 -0.0184510000
-0.1264570000 -0.6547890000 -0.0295150000
0.1822740000 0.0064620000 -0.0808830000
0.0607190000 -0.5484860000 -0.0612480000
0.1942220000 -0.4230520000 0.0331920000
-0.0068690000 -0.6966320000 -0.0862030000
-0.0297890000 0.7156430000 -0.0137290000
0.0938110000 0.3620890000 -0.1453690000
0.0822260000 -0.0224480000 0.1305070000
-0.0684370000 -0.8269990000 0.1213450000
-0.0374200000 0.7895900000 -0.0217470000
-0.1349640000 -0.4729860000 0.0123430000
0.1987230000 -0.2907930000 -0.0285130000
-0.2560300000 0.4220390000 -0.0654730000
0.0647830000 -0.4497230000 -0.0689630000
0.1261450000 -0.7209360000 0.0186640000
0.1741680000 0.1915630000 -0.0474140000
-0.0303790000 -0.1942980000 -0.0899230000
-0.1038890000 0.2404660000 0.0586970000
0.1589810000 0.1067150000 -0.0878840000
0.0956200000 0.3556670000 0.0990290000
-0.1100880000 0.2760890000 -0.0664290000
-0.0179550000 -0.7593400000 -0.0061380000
-0.0680600000 0.4485090000 0.0839110000
-0.0484270000 0.0984990000 -0.1214100000
-0.1195290000 0.0985010000 0.0515040000
-0.0172430000 -0.2069340000 0.1125070000
-0.0050610000 -0.0982440000 -0.0962930000
-0.4114540000 0.1750180000 0.0218030000
-0.0388440000 0.8326000000 -0.0269940000
-0.2889310000 0.2695090000 -0.0786920000
-0.0945910000 0.3508760000 -0.1013000000
-0.0748960000 0.1974080000 0.0907460000
-0.0520390000 -0.8328790000 -0.1444660000
-0.3768040000 0.1947350000 -0.0389670000
-0.0208230000 -0.3466190000 0.0888600000
-0.0324530000 -0.5096020000 0.0532680000
0.1817500000 -0.7890710000 -0.0272170000
0.3316930000 0.3527830000 -0.0412990000
-0.0484840000 -0.4686360000 -0.0950050000
-0.0212040000 0.6944860000 0.0044170000
-0.0944330000 -0.4570640000 -0.0816800000
0.0337740000 0.7120030000 -0.0956010000
0.0946430000 -0.8657560000 0.0586660000
0.1377500000 -0.7262510000 -0.0938800000
0.0730710000 -0.5479420000 -0.0753220000
-0.0398800000 -0.7216740000 -0.1161220000
-0.0293700000 -0.2724270000 -0.0892590000
0.0895260000 -0.8270990000 -0.0921580000
-0.1284660000 0.3931870000 -0.0525550000
0.5061780000 0.1616410000 -0.0010650000
-0.5450850000 0.0624010000 0.0383360000
-0.1143080000 -0.2186350000 -0.0423510000
0.1610040000 -0.4470730000 -0.0906520000
0.0746030000 0.7324590000 -0.0924810000
0.3363160000 0.4008310000 -0.1343880000
0.0240680000 -0.2365980000 -0.0300640000
0.1065710000 0.1305260000 0.1128350000
-0.1287770000 -0.2942780000 0.0174470000
0.0259740000 0.8630520000 -0.0487840000
0.1764120000 0.4351380000 0.0467990000
-0.0844840000 -0.6725320000 0.0330750000
-0.0392200000 0.1721640000 0.1125730000
-0.0945380000 0.5702040000 -0.0119890000
-0.3182380000 0.2960300000 0.0049940000
-0.4239890000 0.2406550000 -0.0474780000
-0.0037540000 0.2762370000 0.1195150000
0.0279420000 -0.2745340000 0.0328240000
-0.1425900000 -0.0588520000 0.0298190000
0.0827460000 0.7648490000 0.0563560000
0.2021140000 -0.2865350000 0.0356360000
0.0194640000 -0.6464590000 -0.0553080000
0.3155120000 0.4287930000 -0.1248960000
0.1640280000 0.5517260000 -0.1004620000
0.6157760000 0.0559120000 0.0901200000
0.0114890000 0.8632720000 -0.0322260000
0.0404520000 -0.2794590000 -0.0406730000
0.0125840000 -0.5885860000 0.0071920000
-0.3345010000 0.3339590000 -0.0391490000
0.0215780000 0.1345560000 0.1324990000
0.3709990000 0.2814860000 -0.0412870000
0.2973470000 0.4234240000 -0.0211540000
0.0471360000 0.6492000000 0.0422620000
-0.0457020000 0.2028030000 0.1061620000
0.1676080000 -0.0831560000 -0.0986130000
-0.0305000000 0.2620650000 0.1114790000
0.1881710000 0.5423840000 -0.1006550000
0.3628800000 0.2826470000 -0.0465240000
-0.0554040000 0.0024840000 0.1302590000
0.1288290000 -0.0192150000 -0.1438250000
-0.0165620000 -0.2274860000 0.1083930000
-0.0267650000 0.4680650000 -0.1304580000
-0.1237570000 -0.4883760000 0.0281100000
-0.1215330000 -0.3145230000 -0.0320440000
-0.1271630000 0.5555730000 -0.0489710000
0.1704270000 0.5663950000 -0.0288630000
0.2020690000 -0.0007370000 -0.0346130000
0.0283730000 0.6856430000 -0.0745950000
0.2040180000 0.0536710000 0.0212080000
-0.0395940000 -0.5374910000 -0.0988990000
0.1298900000 0.1030920000 0.1011160000
-0.0330660000 0.0766660000 -0.1341900000
0.3499950000 0.2825010000 -0.1100050000
-0.1374780000 0.0191180000 -0.0184000000
-0.1139360000 0.2380520000 0.0199050000
0.0302500000 -0.1958130000 0.0333590000
-0.3542880000 0.2944150000 -0.0855510000
0.0320300000 0.5363220000 -0.1189330000
0.1812890000 0.3150630000 -0.0539780000
0.1850430000 0.5659010000 -0.0611890000
-0.1372800000 -0.1039180000 0.0541400000
-0.0385260000 0.5873870000 -0.0196760000
0.2544340000 0.3620210000 -0.0569020000
0.1424220000 0.5817640000 -0.0625370000
0.1666330000 0.3601040000 -0.1057590000
0.3930780000 0.2939950000 -0.1286830000
0.0451020000 -0.1523390000 -0.0758990000
0.0433630000 -0.2394790000 0.0361200000
0.0942020000 -0.6948340000 -0.0823920000
0.1651220000 -0.8123240000 -0.0957290000
-0.1277610000 0.5479460000 0.0235940000
-0.0000760000 -0.6413270000 0.0211790000
0.1562120000 -0.5547780000 0.0459760000
0.0967000000 0.8116160000 -0.0601600000
-0.2367650000 0.4345280000 -0.0714520000
0.2615260000 0.3579240000 -0.1069930000
-0.0891200000 -0.2363050000 -0.0767780000
0.1336480000 -0.4165180000 0.0674970000
-0.0233390000 0.5743600000 0.0055140000
0.1970040000 -0.5549750000 0.0069410000
0.0386950000 0.8583440000 -0.0633190000
0.1941470000 -0.3682200000 0.0407150000
-0.0781700000 -0.1126780000 0.1182090000
0.0209910000 0.4768230000 0.0822980000
0.2864650000 0.3371720000 -0.0604260000
0.1589880000 0.4065300000 0.0629120000
-0.0111940000 -0.1069690000 0.1239570000
-0.0203540000 0.4923470000 -0.1275820000
0.2352960000 0.3781630000 -0.0827030000
-0.1154690000 0.0722230000 0.0740050000
0.0083810000 -0.1486690000 -0.0589470000
0.0160830000 -0.3193940000 -0.0379920000
-0.2438650000 0.3971900000 -0.0927990000
-0.1469930000 0.5185440000 0.0457900000
-0.0201380000 -0.4463870000 0.0682920000
-0.0136570000 -0.6144210000 0.0225490000
-0.0553860000 -0.4968340000 0.0655360000
-0.0373650000 0.7981340000 -0.0278250000
-0.1069010000 0.2688070000 0.0365790000
0.0218780000 0.7148930000 -0.0968260000
-0.1282050000 -0.3296620000 0.0175380000
-0.0042830000 -0.0752300000 -0.1100790000
0.1158850000 0.1002980000 -0.1289240000
-0.2166640000 0.4639760000 -0.0617580000
-0.0117150000 -0.6015740000 0.0244520000
0.0172970000 -0.1343230000 -0.0494910000
-0.0916200000 -0.7599550000 -0.1109380000
0.1362870000 0.4473820000 0.0738000000
0.1693930000 -0.1738530000 -0.0804210000
0.2067340000 -0.1870940000 0.0172140000
-0.0826200000 0.4936350000 0.0619110000
0.0038980000 -0.0392750000 0.1331920000
0.3354480000 0.3266660000 -0.0412790000
-0.1173980000 0.1916800000 0.0411810000
-0.0969640000 0.0668780000 -0.0932710000
-0.0387560000 0.8165980000 -0.0115580000
-0.4706650000 0.1846670000 -0.0095810000
0.0427480000 -0.0637130000 0.1206120000
0.0136700000 0.2073580000 -0.1239860000
0.5756770000 0.0689560000 0.0195740000
0.1148600000 -0.8546900000 -0.1191330000
0.1620520000 0.0550060000 -0.1023920000
-0.0260020000 -0.7567810000 -0.1250070000
-0.1136790000 0.0972600000 -0.0578600000
0.5913600000 0.1213030000 0.0203620000
-0.0024650000 -0.7783900000 -0.1139210000
-0.1733640000 0.5343460000 -0.0300110000
0.2064010000 -0.1972120000 0.0177960000
-0.1291870000 0.4050530000 -0.0708680000
0.0195490000 -0.2721880000 -0.0368520000
0.0741410000 0.7092300000 0.0722760000
0.0789800000 0.5730040000 0.0090800000
0.0624250000 0.3290240000 -0.1377960000
0.0014070000 0.8596540000 -0.0398660000
-0.1260390000 -0.7372220000 -0.0600280000
0.1477100000 -0.1842910000 0.0964650000
-0.0252870000 -0.8562060000 -0.1135010000
-0.0581840000 -0.8642550000 0.0816400000
0.1045920000 -0.4814810000 0.0375120000
0.0990570000 0.5266200000 0.0435160000
-0.1973110000 0.4559140000 -0.0821990000
-0.1339340000 0.0387220000 0.0475620000
0.2040290000 0.5037520000 -0.1269660000
0.0503270000 0.6572900000 0.0509420000
-0.0396620000 -0.1454200000 0.1235170000
0.1822000000 -0.3191000000 -0.0481140000
-0.0381070000 0.5894980000 -0.0715780000
-0.3867100000 0.2165260000 -0.0700270000
0.0768430000 0.6161070000 0.0044120000
0.1317800000 0.3419810000 -0.1290180000
0.1320920000 0.1319170000 -0.1075830000
-0.1204400000 0.3785180000 0.0311390000
0.4827890000 0.2170870000 -0.0086720000
0.0921280000 -0.1058080000 0.1013620000
-0.0036180000 0.6492130000 0.0124310000
-0.0310010000 0.3765640000 0.1060950000
0.1206170000 -0.6525940000 0.0339890000
0.0668950000 -0.6753070000 -0.0496570000
-0.1528070000 0.5504160000 -0.0244760000
-0.0362550000 0.1855400000 -0.1083090000
-0.0870420000 -0.8633000000 0.0931510000
0.0248360000 -0.2818090000 0.0499860000
-0.3947030000 0.1842230000 0.0049260000
0.1991010000 0.3930030000 -0.0282310000
0.0199280000 -0.1966130000 0.0719720000
-0.1122660000 -0.3375380000 -0.0491800000
0.0851730000 -0.4775860000 0.0217400000
0.5005720000 0.1794250000 -0.0510330000
-0.0419980000 0.2845200000 -0.1274900000
-0.0370810000 0.7606700000 -0.0033070000
0.1658420000 -0.7052340000 0.0069830000
-0.1245540000 0.0832640000 -0.0393370000
0.0434290000 0.6080820000 0.0257720000
0.0817370000 0.6379970000 -0.0028870000
0.0631020000 0.8489110000 -0.0677810000
-0.0510500000 0.0972820000 0.1120980000
-0.0732500000 0.5760630000 -0.0633010000
0.1820920000 0.3374220000 0.0233530000
0.4509420000 0.2682320000 -0.1026680000
0.0936340000 0.7084840000 0.0089020000
-0.0533370000 -0.1380500000 -0.1027700000
0.0925870000 -0.7921490000 -0.0955830000
0.0762620000 -0.0707650000 0.1167300000
0.1045330000 0.2913270000 0.1039500000
-0.0026830000 0.8403280000 0.0415130000
-0.1761410000 0.3892850000 -0.0890850000
-0.1255300000 -0.2809190000 -0.0212810000
0.0426620000 -0.1652810000 0.0499330000
-0.0538010000 0.4302680000 0.0910590000
-0.1399030000 0.0106420000 0.0010860000
-0.1930110000 0.3607240000 -0.0741790000
0.5628960000 0.0886520000 0.0225180000
-0.1251760000 -0.6812220000 -0.0331250000
0.1101360000 0.3825060000 0.0922170000
-0.1128350000 -0.6156220000 0.0265270000
0.0831020000 -0.4340470000 0.0274850000
-0.0110710000 0.7488690000 -0.1002260000
-0.0471670000 -0.8597130000 -0.0403340000
-0.0424720000 0.2147440000 -0.1171390000
-0.1373330000 -0.1718220000 0.0492480000
0.0885960000 -0.8358760000 -0.0512360000
-0.4613620000 0.1386420000 -0.0107580000
0.0645660000 0.5423840000 -0.1216540000
0.5583370000 0.1621070000 0.0294760000
-0.0736280000 0.3719830000 -0.1171570000
-0.1038240000 0.1928990000 -0.0529690000
0.1877170000 0.0066820000 -0.0700750000
-0.0843310000 -0.1783180000 0.1145690000
-0.0571850000 -0.8610960000 -0.0400080000
-0.0453290000 -0.1989300000 0.1199870000
-0.1207780000 0.0498060000 0.0723970000
-0.0534250000 -0.3273080000 -0.0893850000
0.0669470000 0.6595450000 0.0340870000
0.1976600000 -0.6957250000 -0.0260920000
0.4824100000 0.1783630000 -0.0270790000
0.0597140000 -0.4792770000 -0.0651260000
0.0225450000 -0.7123630000 -0.0359050000
0.5570070000 0.0950420000 -0.0112050000
0.1636760000 -0.8383060000 0.0481720000
0.0443220000 -0.1509850000 0.0582820000
-0.0048560000 -0.5355200000 -0.0747850000
0.0643430000 -0.7934960000 0.0090280000
-0.1039850000 -0.7290460000 -0.0944670000
0.4918140000 0.2363220000 -0.0300420000
0.1002870000 0.0258820000 -0.1547130000
-0.0319920000 -0.4087490000 -0.0792700000
0.1047040000 0.7293250000 -0.0126620000
-0.1015990000 -0.8216870000 0.0040360000
0.2041890000 -0.3875560000 0.0090340000
-0.1101310000 -0.8519030000 0.0048700000
-0.0703600000 -0.5882530000 0.0500260000
-0.0282770000 0.2383240000 -0.1277660000
0.6205190000 0.0809780000 0.0428620000
0.1991540000 0.4150640000 0.0081590000
0.1840720000 -0.0250230000 0.0794600000
0.2144420000 -0.1018780000 0.0016250000
0.1965120000 -0.5643730000 -0.0572660000
0.1087680000 0.4062360000 0.0898170000
-0.4759590000 0.1495590000 -0.0402850000
-0.0004890000 0.4292510000 -0.1283620000
-0.1360680000 -0.2304060000 0.0282980000
0.1652150000 0.1221420000 -0.0735060000
0.1359340000 -0.4452610000 -0.1023080000
-0.1403710000 -0.0794740000 0.0421230000
0.0578310000 -0.0012820000 -0.1542470000
0.0614360000 -0.5385240000 0.0040080000
0.1267620000 0.4153080000 0.0828640000
-0.0922340000 -0.7583700000 0.0184490000
0.2127760000 -0.1371600000 -0.0084340000
-0.1249910000 -0.2077670000 0.0838340000
-0.0912730000 0.5564830000 0.0161290000
-0.0428740000 -0.3302740000 0.0977790000
0.0165820000 -0.5889040000 -0.0476300000
0.1668490000 -0.8016630000 -0.0932000000
0.1095070000 0.0271040000 -0.1509420000
0.4891420000 0.2274860000 -0.0723140000
0.4054640000 0.3242210000 -0.0825080000
-0.1124180000 -0.2708580000 -0.0437950000
0.1754540000 -0.3631810000 -0.0605620000
-0.1055450000 -0.1571520000 0.1072860000
-0.0490430000 0.5895770000 -0.0559480000
0.0234090000 0.0517830000 0.1364610000
0.3468910000 0.3509280000 -0.1356210000
-0.4037000000 0.1785070000 0.0082020000
0.1027300000 -0.0911290000 0.1094460000
-0.2220840000 0.3887870000 -0.0961900000
0.0804810000 0.1850640000 -0.1183500000
0.0779110000 -0.1593550000 0.0888380000
-0.0058760000 -0.2275000000 0.1035480000
0.0405680000 -0.3292310000 0.0076910000
0.1389890000 0.1009390000 0.0945510000
0.0420230000 -0.3119910000 0.0147550000
-0.0956070000 -0.1553480000 0.1127640000
-0.0824940000 0.1076610000 -0.0958300000
0.1033200000 -0.8673700000 -0.0385310000
-0.1051760000 -0.8190010000 -0.0309770000
0.1476970000 -0.8596170000 -0.1018450000
0.0119900000 0.1623750000 0.1305370000
0.1900300000 -0.3184480000 -0.0392520000
0.0175820000 0.0149390000 -0.1499030000
0.1647510000 -0.4335800000 0.0707340000
0.1976080000 0.1130910000 0.0139740000
-0.0409820000 0.8174520000 -0.0367820000
0.0167530000 -0.3206460000 0.0631250000
0.0379940000 0.7610740000 0.0910930000
0.0827580000 0.3514040000 0.1038830000
0.0094740000 0.5025660000 -0.1232230000
0.0939680000 -0.7890890000 0.0439910000
0.1735110000 0.2887650000 0.0418200000
0.1809660000 -0.2637960000 0.0730900000
-0.1129010000 0.2960580000 0.0070620000
0.3899090000 0.3055670000 -0.1279460000
0.4227500000 0.3056830000 -0.0671120000
-0.0885050000 0.4526420000 -0.1237860000
-0.0124160000 0.0272440000 -0.1481470000
0.0499200000 0.6284200000 0.0283570000
0.0061050000 0.5281410000 0.0558260000
0.1669360000 -0.6941530000 -0.0685330000
-0.0826540000 0.0355210000 -0.1181810000
0.0399830000 0.7357610000 0.1058030000
-0.4875600000 0.1657370000 0.0166560000
0.1628090000 -0.6113980000 0.0278750000
-0.0844410000 0.4536990000 0.0748910000
0.1667110000 -0.7175010000 -0.0027010000
0.0901030000 0.5951630000 -0.0111710000
0.1716090000 -0.8489070000 0.0817900000
0.0561240000 0.8655880000 0.0043070000
-0.1114480000 -0.4368890000 0.0711170000
0.0998330000 0.1521800000 -0.1173770000
0.1220440000 -0.2945290000 -0.0961950000
0.1267280000 0.2210990000 -0.1111530000
0.2390610000 0.3794650000 -0.1140220000
0.1988250000 -0.6211130000 -0.0436490000
0.1082600000 0.4318410000 -0.1463950000
0.0584390000 -0.1880380000 0.0736130000
0.0517260000 -0.1838630000 -0.0745280000
-0.4976450000 0.0950010000 0.0564080000
-0.0027720000 0.4862740000 -0.1267430000
-0.0733480000 -0.3509760000 -0.0826310000
0.3561340000 0.3063460000 -0.0417350000
-0.0508640000 0.0225730000 0.1260260000
0.5098280000 0.2205990000 -0.0380990000
-0.0448490000 -0.7314510000 -0.1201610000
0.1679300000 0.5726270000 -0.0507070000
0.1545990000 0.1019450000 -0.0952550000
0.4850560000 0.1774000000 -0.0057420000
-0.0598970000 -0.4254610000 -0.0868650000
-0.0503850000 -0.7915340000 -0.1468300000
-0.0972520000 -0.1798500000 0.1111800000
0.1996810000 -0.4116190000 -0.0341430000
-0.0000440000 0.3178900000 0.1151210000
0.0899100000 -0.3829040000 -0.0932770000
0.1246280000 0.0927750000 0.1039980000
-0.0955570000 -0.8158810000 0.0247380000
0.0938590000 0.4679240000 -0.1445730000
-0.1207990000 0.2041040000 -0.0169390000
-0.5584710000 0.0667820000 0.0644690000
0.1855710000 0.3023770000 0.0031230000
0.0979340000 -0.4362460000 -0.0975240000
-0.0240670000 0.5762390000 -0.0948170000
-0.0423160000 -0.6413580000 -0.1007920000
-0.1281500000 0.5046780000 -0.0974880000
0.1416360000 0.4478640000 -0.1442530000
0.0728470000 -0.7757660000 -0.0534000000
-0.0090790000 -0.4584040000 0.0552270000
0.0492400000 0.1682100000 0.1296090000
0.1794020000 0.5102230000 0.0236020000
0.1963840000 -0.6822300000 -0.0091710000
0.5525480000 0.1034000000 0.0240150000
0.1181020000 0.4707660000 0.0706780000
0.2049870000 -0.2419400000 -0.0161220000
0.0920120000 0.7073120000 0.0290130000
-0.2433340000 0.3094900000 -0.0172690000
-0.0376710000 0.1456870000 -0.1053500000
-0.1037660000 0.3901870000 0.0655060000
-0.0638950000 -0.6542390000 0.0311800000
0.2059450000 0.0248780000 -0.0160430000
0.0397840000 0.1246470000 0.1323220000
0.6316480000 0.0301500000 0.0697600000
0.0190110000 -0.4494700000 0.0197000000
-0.0429060000 -0.1336840000 0.1243750000
-0.1062160000 -0.5967940000 0.0409420000
-0.0535950000 -0.6127680000 -0.1034910000
-0.1157420000 -0.5710060000 0.0189910000
-0.0421040000 -0.1501440000 -0.0976420000
0.2054780000 -0.2274990000 0.0178800000
0.0088830000 -0.7058820000 -0.0084970000
0.1475510000 -0.1821600000 -0.0969710000
0.0334890000 0.8471600000 -0.0809910000
0.1151350000 -0.0054960000 -0.1495710000
-0.0564880000 0.0419490000 -0.1344070000
-0.0398910000 0.0341790000 -0.1426140000
-0.5236900000 0.1174790000 0.0842570000
-0.1136400000 -0.0249600000 -0.0818170000
0.1279170000 0.3046940000 0.0907940000
0.1385650000 0.3423750000 0.0799320000
-0.0362360000 0.7714110000 0.0028540000
0.1857480000 -0.6456860000 0.0159720000
0.0292870000 0.4269540000 0.0957350000
0.5802730000 0.1325760000 0.0091190000
-0.0286660000 0.7312110000 -0.0535540000
-0.0242400000 -0.8481250000 0.0734440000
-0.2265760000 0.3252400000 -0.0527000000
-0.0804700000 -0.0106030000 -0.1211990000
0.0645270000 0.7470800000 -0.1061150000
-0.1119720000 0.3845480000 0.0558150000
-0.0696940000 -0.3485150000 0.1014180000
-0.0811850000 -0.8268070000 0.0985730000
-0.1566880000 0.4909380000 -0.0880370000
0.0254670000 -0.0205260000 0.1320020000
0.5067920000 0.2061710000 -0.0618840000
0.0240530000 -0.6938950000 -0.0299640000
0.1876160000 0.5131550000 0.0195780000
-0.1342530000 -0.4284000000 0.0266090000
-0.1839060000 0.5218650000 -0.0402400000
0.3099510000 0.3704150000 -0.1412590000
0.1706650000 0.2345770000 -0.0533920000
-0.1232540000 -0.7490470000 -0.0645920000
-0.0419000000 -0.7339440000 0.0273730000
-0.1063930000 0.2601410000 -0.0722550000
0.0160820000 -0.7254960000 -0.0198850000
0.5936250000 0.1101400000 0.0667430000
0.0764850000 -0.2885670000 0.0724420000
-0.4298030000 0.2365570000 -0.0165900000
0.1051020000 0.7710410000 -0.0392450000
0.1667750000 -0.7447720000 0.0131380000
0.1932810000 -0.0396520000 -0.0624700000
-0.0275820000 -0.1801880000 -0.0892020000
-0.1244990000 0.2050060000 0.0141780000
0.0872810000 0.4508730000 -0.1446030000
-0.0316330000 -0.2201900000 -0.0895970000
0.0809140000 0.6758030000 0.0240780000
0.1396160000 -0.8260720000 0.1063740000
-0.4913570000 0.1015430000 0.0642650000
0.1179320000 -0.6942530000 0.0294340000
-0.3972060000 0.1859570000 -0.0415370000
0.0721320000 -0.6020530000 0.0078480000
-0.1352200000 0.4162600000 0.0475450000
0.1901300000 0.3267700000 -0.0073570000
0.3726770000 0.3147860000 -0.1314410000
-0.1068660000 -0.6011780000 -0.0898520000
0.1706070000 -0.2092100000 -0.0762120000
0.1499680000 -0.2824950000 -0.0794920000
-0.0913190000 -0.1901310000 0.1123330000
-0.0525200000 -0.0627950000 0.1275920000
0.0461260000 -0.2086140000 0.0551420000
0.1000530000 -0.1543290000 -0.1111740000
-0.0722550000 -0.5501430000 -0.1022260000
0.1986150000 -0.4306900000 -0.0395790000
0.1890730000 -0.7112280000 -0.0407450000
-0.0461670000 -0.5822240000 -0.1006930000
-0.0238710000 0.1560080000 0.1210390000
-0.0399630000 -0.8636990000 0.0912100000
0.1539830000 0.1370860000 0.0776730000
-0.0473940000 0.0146820000 -0.1366310000
-0.1021540000 0.1612310000 -0.0623580000
0.2864850000 0.4891070000 -0.0732880000
0.0496770000 -0.4477620000 -0.0509210000
0.1023640000 0.7565400000 0.0015380000
-0.0903410000 0.1515210000 0.0773960000
-0.0692560000 -0.1384260000 -0.0991330000
0.0547280000 -0.7126020000 0.0217770000
0.2021460000 0.4026300000 -0.0958850000
-0.0801450000 0.4818980000 -0.1240510000
-0.1373090000 -0.4497250000 0.0084270000
0.0205460000 -0.7220880000 -0.0318180000
0.0265590000 -0.3704390000 -0.0025810000
0.1326890000 -0.1989010000 -0.1024710000
0.0559800000 -0.1393610000 0.0716060000
0.3057060000 0.4298020000 -0.1300480000
-0.0062960000 -0.3468470000 0.0808500000
0.1132250000 0.5326740000 -0.1280050000
0.0131600000 0.2970270000 0.1215680000
-0.2013990000 0.3928610000 -0.0969030000
0.2093380000 0.4583410000 -0.1338760000
0.3442960000 0.3205450000 -0.0417080000
0.0879360000 -0.8567770000 0.0539960000
-0.0164660000 0.7132810000 -0.0632730000
0.1017030000 -0.1050780000 0.1066190000
-0.4953060000 0.1428820000 0.0737580000
0.1650610000 0.5392960000 0.0102300000
0.1992570000 -0.5302250000 -0.0505270000
0.2138800000 -0.1032410000 0.0218170000
-0.0148020000 0.6995530000 0.0552240000
0.0623990000 0.0634780000 -0.1530300000
-0.2798160000 0.3261060000 -0.0963800000
-0.1696420000 0.5304580000 0.0176340000
0.0523650000 0.3840270000 0.1040260000
0.0208000000 -0.3003270000 0.0583140000
0.0302070000 -0.1154530000 0.0919620000
0.2775280000 0.4970710000 -0.0787320000
-0.1014640000 -0.7198640000 -0.0978870000
-0.0380950000 -0.6326310000 -0.0983150000
0.2475690000 0.4013470000 -0.1345450000
0.0619500000 0.5298600000 -0.1252540000
-0.1476620000 0.4428630000 -0.0963070000
0.1998840000 0.3932810000 -0.0715930000
-0.0957010000 0.3402010000 0.0584790000
0.0713360000 0.0592170000 0.1311910000
0.0176700000 -0.4189970000 0.0259300000
0.0478370000 0.4938250000 0.0705780000
0.0437930000 -0.2000410000 0.0489980000
-0.0493700000 0.5622700000 -0.0965370000
0.1074260000 0.1431640000 0.1118220000
-0.0525630000 0.4657560000 -0.1310410000
0.1693280000 -0.7531300000 -0.0580640000
0.1114050000 -0.8643300000 0.1537540000
-0.1639110000 0.5431620000 -0.0197220000
0.2971120000 0.3242930000 -0.0763280000
0.1134990000 -0.4460520000 -0.1038700000
0.0021390000 -0.8278820000 -0.0387050000
0.0069170000 -0.4296170000 0.0426690000
-0.0143530000 -0.5898230000 0.0267360000
0.0879840000 -0.0535650000 0.1235640000
-0.0981010000 -0.5116740000 -0.0876610000
0.0072880000 -0.7838170000 -0.0975850000
0.1089010000 -0.1835950000 -0.1060000000
-0.1367930000 0.0131140000 0.0520710000
-0.0755370000 0.1166790000 -0.0983290000
0.1085040000 0.0958840000 -0.1346870000
-0.1056070000 -0.4108700000 -0.0580290000
-0.0167110000 0.2810730000 0.1147560000
0.0579350000 0.6601610000 0.0568710000
-0.0152180000 0.6020320000 -0.0711720000
0.1780720000 -0.1881650000 0.0865550000
0.0826660000 0.6819420000 0.0333830000
-0.0120910000 -0.0259160000 -0.1366050000
-0.0093380000 -0.3049780000 -0.0693300000
0.0311280000 0.3957930000 -0.1289920000
-0.1051460000 0.3156580000 -0.0844020000
-0.3630000000 0.2533180000 -0.0838280000
-0.1036590000 -0.8382570000 -0.0472640000
0.0417770000 0.6298710000 -0.0680170000
0.1080220000 0.0864770000 -0.1374830000
-0.2253820000 0.4586450000 -0.0583010000
-0.0299610000 -0.7477510000 -0.1226570000
0.5826410000 0.1167020000 -0.0007170000
0.1259460000 -0.8352940000 -0.1179090000
-0.0814650000 0.5557440000 0.0176860000
-0.0562370000 0.2048160000 0.1003940000
-0.1362860000 0.5100910000 -0.0914740000
0.0704450000 0.8314940000 0.0474170000
0.1544540000 -0.1871970000 -0.0916220000
-0.0617080000 -0.3767130000 -0.0844120000
-0.0464970000 0.3647130000 -0.1265920000
-0.5456530000 0.0860020000 0.0145800000
0.0794060000 -0.7537810000 -0.0556880000
0.1209900000 0.2946700000 0.0962730000
-0.0709460000 0.2472280000 -0.1065760000
0.0675970000 -0.5197890000 -0.0724220000
-0.1105670000 0.3615730000 0.0444350000
0.0968410000 0.6053850000 -0.0365200000
0.0897940000 -0.5274400000 0.0278760000
0.0550120000 0.3373450000 -0.1353490000
-0.4502590000 0.1978420000 0.0120010000
0.3392440000 0.3620170000 -0.0492890000
-0.0759890000 0.1457990000 0.0905150000
0.0138530000 0.8400950000 -0.0850580000
-0.0209870000 0.1740340000 0.1226110000
-0.1566420000 0.3795610000 -0.0334530000
-0.0566510000 -0.1222740000 0.1236050000
0.2543430000 0.4047870000 -0.0163360000
-0.0202040000 0.0937350000 -0.1318330000
0.0882730000 -0.4624110000 0.0233010000
0.1050740000 0.1609360000 0.1117430000
-0.1648660000 0.5390530000 0.0084370000
-0.0408540000 0.3856060000 -0.1284350000
-0.0687710000 0.0467560000 -0.1267600000
-0.0300500000 0.4946790000 -0.1274210000
-0.1283930000 -0.4416010000 0.0395700000
-0.0768420000 0.2404020000 0.0838980000
-0.1314480000 -0.4818070000 0.0169030000
-0.1142410000 -0.3243250000 0.0909080000
0.1789970000 -0.6777430000 0.0153360000
-0.0281430000 0.8437720000 -0.0260970000
0.0951080000 0.1602940000 0.1161970000
-0.5048070000 0.1373380000 0.0742170000
0.1462500000 -0.8640660000 -0.0180900000
-0.0600830000 0.5824180000 -0.0289330000
-0.0770360000 -0.8635550000 0.0357220000
-0.1302520000 -0.0789570000 -0.0453000000
0.6158180000 0.0656990000 0.0136530000
-0.1198100000 0.2235600000 -0.0138860000
0.1295880000 0.3770530000 -0.1374310000
0.0775980000 -0.6950920000 0.0336220000
0.1189000000 -0.3525330000 0.0769210000
0.3416290000 0.2821740000 -0.0792180000
0.5682530000 0.0800990000 -0.0048250000
0.1573440000 -0.2953310000 0.0789600000
-0.0215950000 -0.8062190000 0.0458210000
0.2727960000 0.4475770000 -0.1328370000
-0.1073500000 0.1475380000 -0.0573990000
0.1688920000 0.1820640000 0.0576200000
0.2003850000 0.0616690000 0.0294200000
-0.0036500000 0.6799060000 -0.0518130000
0.4649210000 0.2236880000 -0.0800910000
0.0997350000 0.7434500000 -0.0490450000
0.2125570000 -0.1185770000 0.0269440000
-0.0361680000 -0.6887610000 -0.1051620000
-0.0138110000 0.8140720000 0.0434790000
-0.0912310000 0.5325460000 0.0410900000
-0.0526070000 -0.3150520000 -0.0899830000
-0.0960430000 -0.4803770000 -0.0840550000
0.1541590000 -0.8238380000 0.0624090000
0.0753290000 -0.7173170000 -0.0506630000
0.1441660000 0.1845270000 0.0849660000
0.0853130000 0.2455430000 -0.1370250000
0.0035250000 0.5802090000 0.0189110000
0.1813980000 -0.0516760000 0.0832570000
0.0391040000 0.2199670000 0.1286550000
-0.0548160000 -0.5371090000 0.0555960000
-0.0683440000 -0.3902880000 0.0924710000
0.5312090000 0.2103240000 -0.0255610000
-0.1034510000 0.0669430000 -0.0851730000
-0.0257960000 0.3009910000 -0.1308820000
0.6052900000 0.0923430000 0.0806920000
-0.0767190000 0.2036590000 -0.0855540000
-0.0705260000 0.5716370000 -0.0743640000
-0.0260270000 -0.2806480000 0.0994860000
0.1981590000 0.3816790000 -0.0279460000
0.0288180000 -0.2807650000 0.0252280000
0.0957610000 -0.8673170000 0.0700790000
0.1280800000 -0.2684690000 0.0839900000
-0.1119460000 0.2800020000 0.0036100000
0.0036770000 -0.1283270000 0.1121390000
0.1916210000 0.1226940000 -0.0249810000
0.0906390000 -0.8408120000 -0.0946140000
-0.0952470000 -0.1883330000 -0.0724210000
-0.0492670000 -0.5447270000 -0.1017200000
0.0202730000 -0.4143440000 0.0148250000
0.1876130000 -0.6022940000 0.0191260000
-0.4586590000 0.1827500000 -0.0371860000
0.0904220000 0.1387920000 -0.1231380000
0.0081140000 -0.7047310000 -0.0791900000
0.0882330000 -0.6155010000 -0.0804980000
0.0626360000 0.8207440000 0.0627590000
0.0968310000 -0.4929300000 -0.0993560000
0.1060330000 -0.4916490000 -0.1039070000
-0.0338880000 -0.4936940000 -0.0942840000
0.1335470000 -0.4030430000 0.0703280000
0.0727660000 0.5266760000 0.0502250000
-0.2520730000 0.4300520000 -0.0584210000
0.1197910000 -0.4272930000 0.0609590000
0.2778910000 0.4940590000 -0.0410980000
0.0796980000 -0.4661890000 -0.0852920000
0.1513350000 -0.8316510000 -0.1036330000
-0.0925160000 0.1594010000 -0.0728350000
-0.0050920000 -0.6489170000 -0.0745850000
0.0290180000 0.6635030000 -0.0659620000
0.2037420000 0.0603220000 0.0030230000
0.4613820000 0.2596990000 -0.0346590000
-0.0407630000 0.0689990000 -0.1341990000
0.0948720000 0.4206500000 0.0897960000
-0.0123420000 0.7684820000 0.0610940000
-0.0907630000 0.2654320000 -0.0939860000
0.4605080000 0.2752790000 -0.0732470000
-0.0425530000 -0.3421330000 -0.0876350000
0.2578450000 0.3557730000 -0.0767270000
0.1742200000 -0.3366840000 -0.0572270000
0.4694060000 0.2050110000 -0.0642670000
-0.1085880000 0.0966170000 -0.0673230000
-0.1264090000 -0.7218910000 -0.0341570000
0.0538780000 -0.5852250000 -0.0488850000
0.1826970000 -0.4734090000 0.0531170000
0.0745010000 -0.4545750000 0.0117780000
-0.0809720000 0.4440640000 0.0793950000
0.0937890000 0.0156900000 0.1309800000
-0.0282880000 -0.0802090000 -0.1130820000
0.1478420000 -0.0631700000 -0.1214160000
-0.1234260000 -0.4263140000 0.0554340000
0.1381360000 -0.3857240000 0.0743770000
-0.5520450000 0.0555800000 0.0671870000
0.0087240000 -0.4189490000 0.0435130000
-0.1016270000 -0.7827170000 0.0038880000
-0.0672150000 0.1783410000 -0.0900470000
-0.4859350000 0.1094180000 0.0491270000
-0.0857120000 0.3470930000 0.0745550000
-0.0725040000 -0.8019590000 0.0515640000
0.1776940000 -0.2421890000 -0.0687690000
-0.1439860000 -0.1333610000 0.0264030000
0.1322440000 -0.1659120000 -0.1059440000
0.1983390000 -0.5016520000 -0.0515020000
0.0320280000 0.8696590000 -0.0060540000
0.0536490000 0.7233770000 0.0855350000
0.0762200000 0.6703200000 -0.0440700000
0.1066340000 0.7446780000 -0.0271750000
-0.0309340000 -0.8628010000 0.0422220000
0.2153170000 0.4355380000 -0.1301160000
0.1930460000 -0.4689520000 0.0220940000
0.2547160000 0.4877070000 -0.1139270000
0.1797350000 -0.4386210000 -0.0728660000
0.2333740000 0.4690840000 0.0078510000
0.0783310000 0.7711510000 0.0622800000
0.1983990000 -0.0291020000 0.0603770000
-0.0761260000 -0.0919230000 -0.1025120000
0.3254110000 0.4381760000 -0.1022140000
-0.0518630000 0.2741040000 -0.1223090000
-0.1252820000 -0.7121870000 -0.0323430000
-0.1028420000 0.2180060000 0.0662180000
-0.1091490000 0.2855620000 -0.0722100000
0.1992960000 0.0419320000 0.0523230000
0.1633790000 -0.0074140000 0.0974250000
0.1107450000 0.5412490000 0.0270510000
-0.2871920000 0.2568060000 -0.0560930000
0.1730860000 0.2481690000 -0.0481640000
-0.0611380000 -0.1917510000 0.1202870000
0.2993020000 0.4383270000 -0.1267870000
0.3163340000 0.4493950000 -0.0607690000
0.0656750000 0.7118300000 0.0794730000
-0.0952140000 -0.5877300000 0.0559750000
-0.3604490000 0.2174330000 -0.0630480000
-0.0851200000 0.3371790000 -0.1059040000
0.3484130000 0.4078490000 -0.1173580000
0.0107410000 -0.5134290000 -0.0498640000
-0.5701270000 0.0310470000 -0.0180500000
0.1952770000 -0.0792410000 -0.0564720000
0.1883130000 -0.4075450000 -0.0576850000
-0.1163060000 0.0087250000 0.0921150000
0.1904040000 -0.6943470000 0.0008580000
-0.1164320000 0.5326100000 -0.0860750000
-0.0485450000 -0.5917440000 0.0390610000
-0.3194420000 0.3075520000 0.0037770000
0.2415340000 0.4967800000 -0.1157960000
-0.0538690000 -0.8337760000 0.1429060000
0.2050590000 -0.3842660000 -0.0213180000
-0.0550600000 -0.6943050000 -0.1141480000
0.6327780000 0.0381640000 0.1078310000
-0.0182330000 0.3960580000 0.1054160000
0.2064150000 0.0331690000 -0.0078830000
-0.1347630000 -0.1636790000 -0.0185040000
0.4104660000 0.3011910000 -0.1199590000
0.4502130000 0.2564670000 -0.1051130000
-0.1123020000 -0.7568420000 0.0004370000
0.0257640000 -0.6068610000 -0.0366570000
0.1500530000 0.0831060000 0.0884880000
0.2030100000 0.0513280000 0.0309480000
0.0306780000 0.8653440000 0.0146550000
-0.1085450000 -0.4496100000 0.0718420000
0.0185570000 0.2292740000 -0.1263870000
-0.0337350000 -0.7762480000 -0.1390200000
0.0492340000 -0.5839240000 -0.0165360000
0.1394640000 -0.2467930000 0.0851300000
-0.0932490000 -0.0468220000 0.1100190000
0.0321690000 0.2690230000 0.1262560000
0.0639190000 -0.5714780000 -0.0624500000
-0.0437570000 0.5779580000 -0.0057400000
-0.0122120000 0.0881780000 0.1284790000
-0.4410730000 0.1727400000 0.0323950000
0.1926000000 -0.0189510000 -0.0633170000
0.1987630000 0.3814200000 -0.0610080000
-0.0400640000 -0.1893430000 0.1209250000
0.1680920000 0.3868150000 -0.1177580000
-0.0086550000 -0.1694450000 -0.0773220000
-0.0374120000 0.7789120000 -0.0464320000
0.0791130000 -0.7490130000 0.0240690000
0.1771680000 0.3856050000 -0.1115970000
0.0493820000 -0.6163880000 -0.0377500000
-0.2380110000 0.4546120000 -0.0211140000
0.1699780000 -0.4416840000 0.0672580000
0.0036360000 0.7174570000 0.0741740000
0.0076010000 -0.7524080000 -0.0880140000
-0.1137360000 -0.6719990000 -0.0888710000
0.0726920000 0.2893240000 0.1158070000
-0.1204780000 -0.0127910000 0.0799230000
0.1263220000 -0.2199970000 -0.0998380000
-0.3034690000 0.3616980000 -0.0285280000
0.1946610000 -0.5112600000 0.0185050000
-0.2806060000 0.2628670000 -0.0419080000
0.4758960000 0.2499200000 -0.0263450000
-0.0275870000 0.5258790000 0.0561430000
0.1587490000 -0.6044070000 -0.0912680000
0.1574070000 0.4255230000 0.0632690000
0.4980000000 0.2296020000 -0.0237450000
-0.0918700000 -0.7885190000 -0.1166890000
0.1776310000 -0.6663740000 -0.0638900000
-0.0386980000 0.8104700000 -0.0274330000
0.0542270000 -0.6069860000 -0.0100510000
-0.0101040000 -0.7844630000 -0.1295850000
0.1309170000 0.2106080000 0.0950050000
-0.0046150000 0.6228150000 0.0063350000
0.0080960000 0.7859050000 -0.1171820000
-0.1914150000 0.4662510000 -0.0798700000
0.1490090000 -0.1104010000 0.1091790000
0.3045210000 0.3816130000 -0.0209490000
-0.0843070000 -0.6824070000 0.0290320000
0.1905550000 -0.7482880000 -0.0271430000
0.0682370000 -0.6636170000 -0.0542410000
-0.1184870000 -0.0517580000 0.0870050000
0.1181130000 0.5898620000 -0.0490630000
0.1302170000 0.1937570000 -0.1005220000
0.0368570000 0.4406130000 0.0915440000
0.1989130000 0.4050900000 -0.0033330000
0.0822220000 -0.7128310000 -0.0664600000
0.1763830000 0.4731790000 0.0386980000
0.1832380000 -0.0384200000 0.0807170000
0.4897970000 0.2162280000 -0.0690460000
-0.1246680000 0.0451960000 0.0646360000
-0.0116120000 -0.5781240000 -0.0796900000
-0.1289230000 0.0733700000 -0.0177960000
0.1705300000 -0.2375650000 -0.0742090000
-0.2742380000 0.3956740000 -0.0791630000
-0.1256630000 0.3709830000 -0.0363480000
0.2629860000 0.3790590000 -0.0281540000
0.1391080000 -0.5514210000 -0.1061660000
0.2063170000 -0.2125600000 0.0109660000
-0.0357860000 -0.4374030000 0.0757550000
0.1156830000 0.2101690000 0.1041790000
-0.1276460000 -0.3482650000 0.0263380000
0.0786370000 -0.0317100000 0.1300400000
-0.0936550000 -0.8633000000 0.0849430000
-0.1284530000 0.3975200000 0.0026570000
0.0612210000 0.8007170000 -0.1108780000
0.0897590000 0.7131640000 0.0489480000
0.1048900000 0.4716490000 -0.1451340000
0.0541770000 0.6515040000 -0.0627940000
-0.0109700000 0.2514260000 0.1185650000
0.0727960000 -0.4645590000 0.0103210000
-0.4146530000 0.1731980000 -0.0348610000
0.0958450000 -0.3227520000 -0.0981080000
-0.0331680000 0.7464460000 -0.0540880000
0.1797190000 -0.7789580000 0.0071540000
-0.0590540000 -0.1981720000 -0.0930650000
-0.0916280000 -0.6127840000 -0.0998470000
0.1918040000 -0.1826130000 0.0722190000
-0.0827840000 -0.8609430000 -0.0493630000
0.1871560000 -0.7701250000 -0.0212920000
0.0482050000 -0.5758600000 -0.0408150000
0.0128130000 0.8634510000 0.0055320000
-0.0693100000 0.0796280000 0.1050610000
0.1674930000 -0.7817040000 -0.0865580000
0.1284990000 -0.1922190000 0.0968310000
-0.5259330000 0.1059660000 0.0876340000
0.0855000000 0.6373090000 -0.0260500000
0.1337350000 -0.8697940000 0.0551960000
0.0419960000 0.5137680000 -0.1247790000
-0.4189380000 0.1661940000 0.0038190000
-0.0727520000 -0.1649630000 -0.0935280000
-0.1044400000 0.4491890000 -0.1186250000
0.3659000000 0.2576960000 -0.0828470000
-0.1359730000 0.0501610000 0.0124720000
0.0826550000 -0.7797380000 -0.0727690000
-0.0435250000 -0.8635070000 0.0280760000
0.2858020000 0.4368830000 -0.0177550000
-0.1400090000 -0.1084330000 0.0460080000
0.0295740000 -0.1270820000 0.0836170000
0.0286560000 -0.0058040000 -0.1464230000
0.0468120000 -0.0071680000 0.1382970000
0.0709040000 -0.5739110000 -0.0691020000
-0.2698980000 0.4056450000 -0.0060510000
-0.5374320000 0.0674440000 0.0678380000
0.0011110000 0.2635740000 0.1221810000
0.1056040000 -0.3444230000 -0.1004240000
0.0366260000 0.1692080000 -0.1181920000
0.1889640000 -0.1365900000 0.0797290000
-0.3368250000 0.2223200000 -0.0270860000
0.1823060000 0.2195180000 0.0196110000
-0.1378540000 -0.0880380000 0.0514770000
-0.0381600000 -0.0761950000 -0.1154690000
0.0189140000 -0.3110760000 0.0604300000
0.0987720000 0.7920830000 -0.0662590000
-0.0329070000 -0.7382780000 0.0180210000
0.0324150000 -0.0164010000 -0.1439920000
-0.1398830000 -0.1594910000 0.0416800000
-0.1763750000 0.3730990000 -0.0706800000
0.0850140000 0.0161480000 -0.1582460000
-0.0738260000 0.5009460000 0.0610990000
-0.1161140000 0.1382410000 0.0471520000
0.0595900000 -0.7594790000 -0.0056560000
0.4331270000 0.2124090000 -0.1094380000
0.1831410000 0.2655440000 -0.0045090000
-0.0154160000 0.4506140000 -0.1300130000
-0.0905850000 -0.0772460000 0.1122020000
-0.0412860000 0.0058470000 -0.1368260000
-0.0257000000 0.4702380000 0.0842200000
0.0611940000 -0.7579940000 0.0175140000
0.2017440000 -0.1994700000 -0.0475680000
-0.1780230000 0.5202360000 -0.0529170000
-0.1102340000 -0.6707820000 0.0240070000
-0.2689190000 0.2786860000 -0.0642380000
-0.1058050000 -0.8365700000 0.0325980000
0.1889640000 -0.0383410000 -0.0723510000
-0.0409080000 0.4852610000 0.0751770000
-0.2322080000 0.4634120000 -0.0379420000
0.1651380000 0.0871440000 -0.0881890000
0.0082150000 -0.3490090000 -0.0453180000
-0.3145460000 0.3367610000 -0.0807060000
-0.1015940000 0.5642770000 0.0019000000
0.0420870000 -0.2397460000 -0.0432400000
0.0309410000 -0.2571280000 0.0233120000
0.1015840000 0.7749260000 0.0082830000
-0.1120640000 0.2647670000 -0.0331940000
0.1796310000 -0.1508860000 -0.0727490000
-0.0050760000 -0.3416480000 -0.0602650000
0.1997850000 0.5505250000 -0.0841030000
-0.0255480000 -0.5156160000 0.0495020000
0.1781740000 0.4891990000 0.0314080000
0.1066120000 -0.8648770000 -0.0277210000
-0.0475570000 -0.0504830000 0.1288860000
-0.0851960000 -0.3408330000 -0.0759720000
-0.0963780000 -0.4252930000 0.0860190000
-0.0549360000 -0.4811600000 -0.0973140000
0.6331340000 0.0457710000 0.0019810000
0.0440010000 -0.4518020000 -0.0351680000
0.0523220000 0.3689600000 0.1064420000
-0.0742600000 -0.6284320000 -0.1057070000
0.0933080000 -0.8555620000 0.1463830000
0.1518490000 -0.3763600000 -0.0821530000
-0.0596090000 -0.8642360000 0.0623990000
0.0190510000 -0.5010240000 -0.0335860000
0.1355530000 0.1854250000 -0.0964670000
0.0170810000 -0.0863160000 -0.0904900000
0.0016510000 -0.6577660000 0.0181780000
0.1713700000 -0.7720040000 -0.0722920000
-0.0986240000 0.3614190000 0.0626960000
0.1086590000 -0.1003240000 0.1119230000
-0.5396040000 0.0883340000 0.0883070000
-0.4034400000 0.2419030000 -0.0693160000
0.0637740000 -0.6016670000 -0.0591450000
0.0035650000 0.0769980000 0.1358840000
-0.0877310000 -0.1883750000 -0.0796800000
0.1545910000 -0.1294380000 -0.1005330000
0.1983830000 -0.6845310000 -0.0223170000
-0.1718690000 0.4071820000 -0.0938730000
0.1662500000 -0.1152220000 -0.0944550000
0.1246030000 -0.6330430000 -0.0968450000
0.0968310000 -0.1165020000 0.1020790000
0.0599070000 -0.7682040000 -0.0151900000
-0.1193020000 -0.2602810000 0.0891100000
0.3430010000 0.2999430000 -0.0508660000
-0.0599110000 -0.0499250000 0.1265820000
0.0824090000 -0.2507770000 0.0818030000
0.1600130000 -0.8638170000 0.0503910000
0.1878240000 -0.5005200000 0.0375810000
0.0888840000 0.7686730000 -0.0898060000
0.4412760000 0.2227910000 -0.0265660000
0.0210680000 -0.4919180000 0.0083850000
0.1086050000 -0.1196090000 -0.1200470000
-0.0026870000 0.8524890000 0.0300750000
0.0274460000 0.8223370000 -0.1053500000
0.0439210000 -0.4260320000 -0.0163470000
0.1582990000 0.3887900000 -0.1232730000
-0.0307060000 0.1761330000 0.1170550000
-0.0389900000 -0.7122450000 0.0223340000
-0.3638360000 0.2102740000 -0.0569930000
0.0677320000 -0.2599080000 -0.0789150000
-0.5447140000 0.0899680000 0.0283650000
0.1993740000 -0.5534910000 -0.0494700000
0.0791470000 0.8498770000 -0.0411780000
0.1016800000 0.2059430000 -0.1220830000
0.0366550000 0.1050150000 -0.1386340000
-0.0571520000 -0.0362630000 -0.1271010000
-0.0014240000 0.5802880000 -0.0954910000
-0.1110710000 -0.7843210000 -0.0067770000
0.0343250000 0.7479750000 -0.1173550000
0.1848480000 -0.5614090000 0.0314250000
0.2270680000 0.4112870000 -0.1265120000
0.1451460000 -0.8510120000 -0.1061990000
0.1605670000 0.3133480000 -0.0909590000
-0.4784570000 0.1511340000 0.0623070000
-0.4126820000 0.1903000000 -0.0559740000
0.1945760000 -0.1860310000 0.0626960000
0.0844000000 -0.2354350000 0.0850050000
0.1694020000 0.0689310000 -0.0883190000
0.1807950000 0.5586970000 -0.0177870000
0.1921030000 0.1060500000 0.0319200000
0.1415530000 -0.1721490000 0.0992140000
0.1591700000 -0.5666560000 0.0429420000
0.1989250000 -0.6308790000 -0.0374440000
0.1647480000 0.5537850000 -0.0053410000
0.1504970000 0.2834320000 0.0682090000
-0.3355950000 0.2330410000 0.0029000000
0.0273920000 -0.5986620000 -0.0246970000
-0.0148950000 -0.2366720000 0.1056190000
0.0210850000 -0.6477420000 -0.0036900000
0.1661250000 0.2134880000 -0.0621640000
-0.0700280000 -0.8485340000 0.1631060000
-0.1205710000 -0.5445360000 0.0167720000
-0.1043400000 -0.0409350000 -0.0934640000
0.0579920000 -0.7358200000 0.0261370000
-0.0949780000 0.1842030000 -0.0662840000
-0.0447710000 -0.4544420000 -0.0927540000
0.0628780000 0.8392710000 0.0467610000
-0.1127010000 -0.4581550000 -0.0656580000
-0.1020650000 -0.5543200000 0.0483460000
-0.1251640000 0.0358690000 0.0679580000
-0.1058710000 0.2800910000 0.0442660000
0.0292450000 -0.3017290000 -0.0051290000
0.0351100000 -0.1348260000 -0.0720780000
0.3264520000 0.3011760000 -0.1079300000
0.0926960000 -0.6617080000 0.0316140000
-0.0050050000 -0.0149280000 0.1365080000
0.0412890000 0.5207220000 0.0558120000
-0.0527090000 -0.2612300000 -0.0936760000
-0.0273590000 0.7336040000 0.0320800000
-0.1074340000 0.2784780000 0.0327220000
0.5687990000 0.1511660000 0.0149680000
0.2209870000 0.4643510000 -0.1335850000
0.1068520000 -0.3058850000 -0.0994280000
0.1053020000 -0.4197950000 -0.1005750000
-0.0943150000 0.3852130000 -0.1098960000
0.1079960000 0.2011470000 -0.1159610000
-0.1356490000 -0.4632060000 0.0127360000
-0.1087940000 -0.7368730000 -0.0870770000
0.0486340000 0.2820410000 0.1224250000
0.0951390000 -0.4296400000 0.0417390000
0.2025370000 -0.1771190000 0.0365480000
0.0535530000 -0.2561590000 -0.0603180000
0.1239900000 -0.6424350000 0.0349620000
-0.5183930000 0.0967800000 0.0242390000
0.0082310000 -0.1545010000 0.1034640000
0.0531440000 -0.5499640000 -0.0054990000
-0.1283300000 0.5601400000 -0.0342070000
0.1899830000 0.1501610000 0.0335370000
0.3584640000 0.3370140000 -0.1340870000
0.1307080000 -0.0652160000 0.1148180000
0.1493140000 0.5770720000 -0.0681280000
0.0643360000 0.1747480000 0.1277450000
0.1779070000 -0.6365490000 -0.0725500000
0.0563750000 -0.7172880000 -0.0141340000
0.0882520000 0.7763440000 0.0520980000
0.0178170000 0.5684490000 -0.1039350000
0.0387950000 -0.1488380000 0.0497890000
0.0973380000 -0.8160770000 -0.1079210000
0.1720290000 -0.1980150000 0.0889150000
0.1931830000 -0.3277900000 0.0503150000
-0.1562490000 0.5400040000 0.0184180000
0.0865940000 -0.8446230000 0.0615740000
0.0832740000 -0.8242610000 -0.0715470000
0.0166720000 0.5963760000 0.0225680000
0.1517990000 0.0758970000 -0.1072470000
-0.0495460000 0.0692050000 -0.1294950000
0.0985230000 -0.8564270000 0.1579500000
0.0477680000 0.6441120000 -0.0643840000
0.2637730000 0.3571630000 -0.0469950000
0.1639150000 -0.8055150000 0.0228860000
-0.2848420000 0.3351290000 -0.0953860000
0.1618290000 -0.3306950000 -0.0693370000
-0.0730240000 -0.8232010000 0.0818590000
0.0594630000 -0.3169450000 0.0531080000
0.2015340000 0.4024730000 -0.0324300000
0.1932220000 -0.3413080000 -0.0375780000
-0.5647470000 0.0342260000 0.0210250000
0.1058180000 -0.7222910000 -0.0938210000
0.1505450000 0.2489090000 0.0720960000
0.1359610000 0.2356120000 0.0886620000
-0.0754230000 -0.0623860000 -0.1110470000
-0.1154000000 0.0302630000 0.0863130000
0.0082490000 0.6376600000 0.0244260000
0.3095140000 0.3332120000 -0.0468660000
0.3136210000 0.3248410000 -0.0516420000
0.1594710000 0.3800700000 -0.1193970000
0.1823440000 0.3978680000 -0.1180320000
0.0250670000 -0.0835980000 0.1122870000
-0.0548310000 0.2177480000 0.0995710000
-0.3379640000 0.2278020000 -0.0587980000
0.1916470000 -0.3076910000 -0.0376910000
-0.0982470000 -0.2704350000 -0.0640090000
0.1400570000 0.3088390000 0.0791660000
-0.0148040000 -0.4447950000 -0.0744400000
0.2087670000 0.5111030000 -0.1223170000
-0.0337110000 0.5775260000 -0.0023390000
0.2282050000 0.4226450000 -0.0042690000
-0.1438210000 -0.0608350000 0.0066300000
0.0599350000 0.4657740000 0.0822630000
0.1868330000 -0.1012790000 0.0805260000
-0.1014720000 0.2965060000 -0.0850870000
0.2045510000 -0.2046250000 0.0274640000
0.1864120000 -0.7671250000 -0.0322840000
0.4122680000 0.2364540000 -0.1172510000
0.1400280000 -0.8693210000 0.1166540000
-0.0110570000 0.7558650000 0.0621080000
-0.1033380000 -0.3376380000 0.1006890000
-0.1340360000 -0.4578360000 0.0208900000
0.0973990000 -0.4016820000 0.0554220000
0.1985800000 -0.6475320000 -0.0221210000
-0.0283920000 -0.0977660000 -0.1069450000
0.0191470000 0.5544850000 0.0284710000
0.0152200000 0.2726250000 0.1250650000
0.1539950000 0.2987770000 0.0631290000
-0.0367560000 -0.5825400000 -0.0971770000
-0.1230170000 0.4064240000 0.0496640000
0.0609750000 0.2802920000 -0.1352980000
0.1124610000 -0.3712090000 0.0700620000
0.1823280000 0.2440010000 -0.0179050000
0.1390170000 0.2690110000 -0.1120110000
0.0405760000 0.8227980000 -0.1043700000
0.1800650000 0.5634920000 -0.0263510000
0.1861630000 -0.2468490000 -0.0601930000
-0.0324510000 -0.1361910000 0.1243670000
0.1864310000 0.4529320000 -0.1357520000
-0.4694870000 0.1568270000 0.0523700000
0.1187790000 -0.7052900000 0.0262520000
-0.3178000000 0.2349740000 -0.0494850000
0.0795000000 0.8142280000 -0.0917740000
0.1024480000 -0.2947880000 0.0811360000
-0.5712070000 0.0381650000 0.0472500000
0.0471980000 -0.3622580000 0.0224680000
0.2054210000 -0.2717780000 0.0042280000
0.1629880000 0.2617470000 0.0549500000
-0.1041740000 -0.3369960000 -0.0590490000
0.0708210000 0.0064460000 -0.1578300000
-0.1471390000 0.5081980000 0.0507120000
0.2037190000 -0.5247800000 -0.0357280000
-0.1252390000 0.4200110000 0.0573910000
-0.0941920000 -0.8568160000 -0.0238830000
-0.0973630000 -0.7929410000 -0.1099070000
-0.1426350000 -0.1546100000 0.0330250000
-0.1473720000 0.4788310000 0.0590620000
0.4906090000 0.1723820000 -0.0192370000
-0.1258360000 -0.2911160000 -0.0210200000
0.1835490000 -0.2482550000 0.0716650000
0.4628450000 0.1971870000 -0.0597570000
0.1825720000 -0.3541780000 0.0663110000
-0.5062510000 0.1431090000 0.0375510000
-0.4425900000 0.1941870000 0.0177150000
0.1041560000 -0.5979450000 0.0302450000
0.1979180000 -0.6305580000 -0.0492860000
0.0358370000 0.4580480000 -0.1277570000
0.0101090000 -0.8109880000 -0.0643810000
0.0573080000 -0.6059830000 -0.0523560000
-0.0627550000 0.2269310000 -0.1061170000
0.0623790000 0.4830350000 -0.1331380000
