0.047679 0.201154 -0.116589 -0.136328 -0.390903 -0.903482
0.075527 -0.719722 0.035795 -0.056303 -0.040943 0.995748
-0.097889 -0.848113 -0.074118 -0.987581 -0.117898 -0.074994
0.067462 0.861281 -0.029529 0.450448 0.867181 -0.137915
-0.042049 -0.361201 -0.085555 0.258792 -0.148795 -0.950027
0.083771 0.782136 0.059481 0.766457 0.149337 0.605514
0.05057 -0.329669 -0.055938 -0.823277 -0.034263 -0.565812
-0.045702 0.202803 0.106162 -0.483429 0.01937 0.874736
-0.513167 0.129705 0.067698 -0.760166 0.6343 0.102856
0.114426 -0.61853 0.036171 -0.167803 0.208836 0.955569
0.33686 0.4258 -0.086898 0.778248 0.62375 0.066086
-0.318433 0.232924 -0.024246 0.650184 -0.75823 0.04054
0.059583 -0.769496 0.009583 -0.991814 0.04483 0.108627
0.194239 -0.148864 -0.058153 0.753272 -0.031674 -0.656596
0.13069 0.124504 0.098436 0.550316 0.026703 0.833011
0.405104 0.323883 -0.102248 0.678731 0.702698 -0.199578
0.342878 0.333704 -0.042617 0.234011 0.118084 0.9548
0.063632 0.661816 0.047617 0.5383 -0.836807 0.076398
-0.031031 0.081968 0.121785 -0.242572 0.084395 0.960054
0.199295 -0.470387 -0.040265 0.995802 0.01211 -0.084943
0.095108 0.160294 0.116197 0.492934 0.069378 0.864288
-0.128848 0.558482 -0.000976 -0.220122 0.953867 0.196498
0.008438 -0.235446 -0.060549 0.768614 -0.07742 -0.634594
0.567434 0.141184 -0.006876 0.633084 0.179168 -0.735963
-0.035635 0.453649 0.088884 -0.145602 0.266516 0.952326
0.048473 -0.472027 -0.050326 -0.8565 0.007799 -0.514718
0.129614 -0.869274 0.119407 -0.005729 -0.999405 0.032541
0.096255 -0.275775 0.082098 -0.170325 -0.131514 0.975303
-0.069694 -0.348515 0.101418 0.190001 -0.141232 0.971509
-0.041335 -0.030408 -0.132299 -0.169743 -0.214441 -0.961055
0.198931 -0.449558 -0.041074 0.987534 0.033317 -0.138156
-0.491133 0.09862 0.049717 0.76132 -0.619262 0.040781
-0.071191 0.563361 -0.084089 -0.405409 0.628669 -0.660495
-0.102323 -0.539463 0.050107 -0.842052 -0.06152 0.535799
0.196484 0.108712 -0.018092 0.959179 -0.102853 -0.238914
0.077447 0.55755 -0.116548 -0.095422 0.564917 -0.819197
0.097914 -0.857404 -0.10897 -0.761842 -0.053561 -0.637556
-0.335172 0.224147 -0.01032 0.491344 -0.851509 0.170517
0.158299 0.38879 -0.123273 0.398745 -0.331128 -0.853136
0.164328 -0.825786 -0.036434 0.769667 -0.638017 0.021533
0.151914 0.229886 0.071904 0.777578 0.054451 0.626284
0.02111 -0.741697 -0.06144 0.966582 -0.097207 -0.229799
-0.225707 0.378611 -0.096485 0.062012 -0.00356 -0.996938
0.095615 -0.01442 -0.153865 0.131272 -0.151711 -0.977301
0.05437 0.329432 0.114563 0.205354 0.187192 0.960264
-0.071408 0.371023 0.091014 -0.603594 -0.049903 0.794812
0.147068 0.048175 0.101819 0.683894 0.302021 0.662967
0.178272 0.170485 -0.040288 0.902475 0.103278 -0.417199
-0.128339 -0.65064 -0.051265 -0.999285 -0.017696 0.024487
0.542443 0.201202 0.000833 0.84999 0.34757 0.346949
0.11244 -0.194008 0.097105 -0.044531 -0.128765 0.990064
0.180804 -0.750774 -0.038147 0.685796 -0.010645 -0.721573
-0.129139 -0.276409 -0.003828 -0.989102 -0.070111 -0.122026
0.08387 0.564013 0.011422 0.234097 0.611651 0.735346
0.472179 0.249473 -0.083023 0.859977 0.104085 -0.457658
0.411798 0.315601 -0.105863 0.666745 0.639218 -0.366914
-0.036337 -0.055657 -0.122811 -0.05798 -0.380094 -0.922252
-0.129714 -0.256979 -0.008745 -0.966169 -0.036721 -0.251005
-0.075643 0.194034 -0.085526 -0.691417 -0.082723 -0.717035
-0.213519 0.358339 0.008216 0.250413 -0.548169 0.797141
-0.059709 0.455172 0.083229 -0.171922 0.317302 0.932331
0.574912 0.069783 0.007358 -0.866243 -0.496415 0.011525
-0.078958 -0.076857 0.11831 -0.450659 -0.027738 0.89075
0.133555 -0.866686 0.005142 0.079438 -0.992941 -0.08021
-0.12348 0.120529 0.034456 -0.902715 0.116272 0.412132
0.642296 0.036202 0.025636 0.98453 0.165261 -0.017427
-0.147266 0.392699 -0.044854 0.717496 -0.676229 -0.164629
0.020425 -0.030537 0.128633 0.094951 -0.17431 0.956621
0.142449 -0.431619 0.06934 -0.307647 -0.101109 0.945829
0.158905 -0.340059 0.075805 0.240961 -0.040625 0.969654
0.029071 0.560248 -0.107841 -0.087126 0.445593 -0.888704
0.55083 0.105591 0.011829 -0.927944 -0.364771 0.052071
0.184035 -0.127447 -0.070695 0.734262 -0.058607 -0.67609
0.060512 -0.7807 -0.02383 -0.985417 0.019244 -0.166413
0.087281 0.450873 -0.144603 -0.175674 0.0176 -0.983996
0.064207 0.314127 0.11446 0.285555 0.14814 0.946446
0.037598 0.789833 -0.120221 0.07533 0.123998 -0.985752
-0.026726 0.149997 -0.105856 -0.235081 0.281099 -0.921286
0.045408 -0.335871 0.030415 -0.927914 -0.105163 0.351384
0.110983 0.061909 -0.142562 0.500986 0.193601 -0.842892
0.056345 -0.635564 -0.045916 -0.830463 -0.14478 -0.537425
0.204279 -0.563547 -0.027337 0.985633 -0.097643 -0.106122
-0.093553 0.032624 0.103708 -0.419492 0.258944 0.869983
0.5938 0.057349 0.020232 0.944766 -0.272898 0.0849
-0.272098 0.411389 -0.02804 -0.732786 0.676002 0.068669
-0.280772 0.355724 -0.092062 -0.510336 0.247403 -0.818989
0.143191 0.276935 -0.10764 0.810233 -0.096189 -0.577374
0.046096 0.31072 0.119688 0.118158 0.111081 0.98665
0.431262 0.211892 -0.04918 -0.534363 -0.741962 0.39389
-0.016297 -0.054832 -0.123542 0.0151 -0.452758 -0.891345
0.166849 -0.801663 -0.0932 0.842421 0.00534 -0.531312
0.142185 0.431641 -0.142583 0.253718 -0.166488 -0.952602
0.441378 0.294632 -0.090342 0.694516 0.703688 -0.12119
0.154083 -0.514567 0.058979 -0.016347 -0.251662 0.963225
0.002186 -0.546973 0.021556 0.732117 -0.158046 0.662431
-0.110739 -0.813345 -0.056853 -0.811079 -0.574673 -0.009925
0.1808 -0.792988 -0.04276 0.923438 -0.36634 0.025516
0.01169 0.174286 -0.116452 -0.01872 0.026042 -0.996379
0.0818 0.849488 -0.019676 0.845713 0.532678 -0.010022
-0.109378 -0.003996 -0.089735 -0.824812 -0.001154 -0.565103
-0.062489 -0.017844 -0.129315 -0.259031 -0.117997 -0.957764
0.314339 0.307735 -0.076782 -0.675413 -0.71849 0.14529
-0.062 -0.306555 -0.088709 -0.260955 -0.069684 -0.962066
-0.025145 0.395446 -0.129595 -0.015808 -0.01557 -0.999634
0.030941 -0.257128 0.023312 0.983135 -0.063429 0.170709
0.021601 0.398444 -0.128123 -0.035037 0.001285 -0.999041
0.19373 0.381894 0.006157 0.967976 -0.119906 0.219967
0.17321 -0.698874 -0.059111 0.814929 -0.071662 -0.574758
0.015519 -0.38263 -0.036988 0.823506 0.020009 -0.566571
-0.076054 -0.217427 -0.086531 -0.493526 0.004083 -0.866717
-0.079538 0.261678 0.080425 -0.600353 0.065898 0.796909
-0.126483 -0.628001 -0.012174 -0.97873 -0.096686 0.174026
0.200786 -0.428834 -0.001988 0.987581 -0.134594 0.07538
-0.125043 -0.169282 0.084098 -0.820964 0.003508 0.570828
-0.240874 0.435318 0.007248 -0.735295 0.505686 0.450927
0.129674 0.02977 -0.139399 0.546957 0.105911 -0.829535
0.022966 -0.736328 -0.045584 0.991029 -0.083065 0.079693
0.008265 0.690236 -0.07132 -0.440501 -0.593736 -0.670975
0.040187 0.52686 -0.121463 -0.101943 0.182063 -0.977881
0.038795 -0.148838 0.049789 0.094959 -0.478552 0.821564
0.177106 0.071357 0.073892 0.843598 0.116298 0.48844
-0.103044 -0.307841 -0.058362 -0.760623 0.024339 -0.648065
-0.048938 -0.239185 0.112445 0.093976 -0.161743 0.982013
-0.042959 -0.139951 -0.101013 0.238768 -0.303842 -0.920977
-0.126507 0.063895 -0.040625 -0.945913 0.133056 -0.294913
0.025249 -0.008481 0.143298 0.139748 -0.544657 0.80486
0.550706 0.115845 0.03141 -0.919947 -0.322303 0.219598
0.000464 -0.682483 -0.077858 0.488372 0.216791 -0.845074
0.009151 0.261183 -0.12824 0.13536 -0.047687 -0.98961
-0.056488 0.041949 -0.134407 -0.413316 0.281299 -0.863886
0.198002 -0.508317 0.008974 0.954743 -0.008462 0.296756
0.164939 -0.321272 -0.066578 0.680974 0.002575 -0.731999
0.147619 -0.154241 0.103647 0.283244 -0.24661 0.925696
-0.072774 -0.506771 0.070698 0.365537 -0.227252 0.902365
-0.34382 0.239035 0.007724 0.260884 -0.180339 0.947852
0.193436 0.14089 0.028909 0.869651 0.053518 0.489028
-0.126356 -0.277719 0.066213 -0.961705 -0.093394 0.251631
0.284527 0.459338 -0.022127 0.691369 0.217444 0.688316
0.547838 0.118475 -0.016717 -0.521686 -0.418642 -0.678028
0.153893 -0.652071 -0.08509 0.533874 -0.155492 -0.830966
0.20561 -0.395258 -0.000188 0.993515 -0.02242 0.10818
-0.041015 0.054246 0.124224 -0.495853 0.178408 0.849745
0.075399 -0.205489 0.084698 -0.530383 -0.116918 0.838414
-0.013788 -0.249704 -0.080933 0.571188 -0.026024 -0.820194
-0.469716 0.171634 -0.03503 -0.590824 0.464331 -0.657911
0.065833 0.164934 -0.120425 0.009372 0.096825 -0.994802
0.062852 -0.527295 -0.065883 -0.763815 -0.083017 -0.63996
0.077607 0.700366 0.068142 0.746817 -0.067468 0.659918
0.202245 -0.048139 0.053056 0.888602 0.041699 0.45603
0.204587 -0.282638 -0.015802 0.97965 -0.031733 -0.193527
0.399411 0.306303 -0.123681 0.319221 0.282171 -0.885984
-0.049057 -0.75055 -0.128133 0.011563 0.368371 -0.927212
0.327548 0.327785 -0.132328 -0.254996 -0.326675 -0.906222
0.155198 -0.729769 0.003555 0.509212 0.171393 0.814165
-0.060083 0.582418 -0.028933 -0.235331 0.953659 0.163666
-0.184608 0.437946 -0.091917 -0.129595 0.234977 -0.96297
-0.469487 0.156827 0.05237 0.359842 0.606355 0.705065
-0.053927 0.262851 0.096495 -0.59543 0.034486 0.802147
-0.099987 -0.463994 0.077845 -0.564835 -0.321609 0.754785
0.105604 -0.344423 -0.100424 -0.058452 0.029113 -0.990666
0.096693 -0.868006 0.083472 -0.404918 -0.903642 -0.017372
-0.057089 -0.769795 0.028574 -0.030116 0.547237 0.823655
-0.311451 0.271591 -0.08889 0.112224 -0.399941 -0.90709
0.156522 0.216019 0.067617 0.77764 0.081035 0.62345
0.023399 -0.394903 -0.015398 0.947863 -0.105824 -0.29917
0.109524 -0.869404 -0.052499 -0.009876 -0.996761 0.078547
-0.037096 0.797771 -0.040032 -0.997061 -0.029948 -0.062052
0.108448 -0.778064 -0.10267 -0.472406 0.434108 -0.766485
0.027363 -0.234459 0.043517 0.979693 -0.019076 0.199205
0.040844 0.480971 -0.127222 -0.181594 0.070442 -0.980739
0.125334 -0.1771 0.099916 0.085744 -0.299614 0.948159
0.112942 -0.580821 0.035747 -0.285924 -0.187311 0.939345
0.257329 0.374286 -0.035858 -0.546418 -0.558739 0.622434
0.088226 -0.062693 0.120451 -0.034597 -0.313944 0.948199
0.094865 -0.746515 -0.081793 -0.801568 -0.069944 -0.593112
0.060996 -0.290557 0.058807 -0.737112 -0.125636 0.663922
-0.011072 -0.517445 0.039198 0.605277 -0.215664 0.765945
-0.067168 -0.861621 -0.036951 0.023424 -0.998936 -0.033716
0.053978 0.745666 0.075109 0.648244 0.176149 0.707749
0.168646 -0.730106 -0.062168 0.843406 -0.125642 -0.521691
-0.100571 -0.525693 -0.088191 -0.557917 0.110601 -0.82202
0.109873 0.226595 0.105712 0.428983 0.064189 0.900918
0.026247 -0.685603 -0.036512 0.985865 -0.068989 0.125168
0.081779 0.122523 -0.130655 0.151417 0.399424 -0.900527
-0.174683 0.469699 0.047601 -0.438406 -0.078902 0.892154
-0.105871 0.280091 0.044266 -0.98304 -0.004485 0.180219
0.032997 0.413072 -0.128908 -0.133278 0.031317 -0.988791
0.140095 0.479177 0.059907 0.306932 0.458934 0.831861
0.196394 -0.706874 -0.011225 0.951832 -0.026107 0.276413
-0.06539 -0.862912 -0.005859 0.004032 -0.999248 -0.038431
-0.417342 0.168561 -0.022816 0.636813 -0.763892 -0.100523
0.075014 0.616214 -0.064251 0.415001 0.61157 -0.666103
0.044198 0.448188 0.089453 0.113012 0.190281 0.974186
0.078385 -0.44131 -0.082705 -0.689053 0.038449 -0.723623
-0.000489 0.429251 -0.128362 0.119359 0.013881 -0.992679
0.013708 0.750853 -0.115702 -0.290918 -0.359491 -0.884321
-0.029961 -0.747751 -0.122657 0.378965 0.413783 -0.824695
-0.458157 0.136229 0.003925 0.55562 -0.823377 -0.04342
-0.076024 -0.249179 -0.085837 -0.564411 -0.021814 -0.825169
0.484153 0.242612 -0.072978 0.638438 0.481253 -0.580527
0.018707 -0.295449 -0.034463 0.924951 -0.053067 -0.369356
-0.091841 -0.862054 0.124725 -0.26415 -0.949922 0.123774
-0.132076 -0.43628 0.032439 -0.917847 -0.088468 0.386655
-0.003575 0.169608 -0.115158 -0.145353 -0.161434 -0.970678
-0.415654 0.230715 0.011021 -0.268438 0.381596 0.880094
0.131001 0.404783 0.082718 0.411005 0.087249 0.907194
-0.27468 0.278603 -0.016614 0.607019 -0.64382 0.463474
-0.101282 -0.572504 0.049338 -0.827831 0.066628 0.555703
0.077179 -0.113306 0.088421 -0.664087 -0.060482 0.743616
-0.034888 0.835292 -0.037824 -0.710478 0.683207 -0.159849
0.087507 0.748559 0.054859 0.835332 0.089919 0.537396
-0.095819 0.375251 -0.106439 -0.483079 -0.225176 -0.845531
0.076495 -0.600844 -0.07112 -0.684283 -0.047823 -0.727527
-0.136916 -0.022618 0.039815 -0.992136 0.050803 0.114121
0.213244 -0.050861 0.020002 0.991246 0.033149 0.112901
0.033857 -0.046071 -0.129814 -0.263004 -0.487712 -0.832089
0.035593 0.865631 -0.038024 -0.033771 0.956978 -0.27054
0.082398 0.212278 0.11936 0.417965 0.084266 0.903018
0.323551 0.360792 -0.038289 0.47338 0.055887 0.874154
0.163387 0.340713 0.054931 0.674222 -0.077959 0.733923
0.067017 0.777602 0.07541 0.47953 -0.286123 0.788033
0.061094 -0.507704 0.004798 -0.671986 0.001185 0.739943
-0.019832 0.341037 0.107817 -0.430694 0.127924 0.888258
-0.083628 0.042555 0.10548 -0.451443 0.165906 0.87207
0.024068 -0.236598 -0.030064 0.422184 -0.084907 -0.886368
0.052945 0.826972 -0.098468 0.218695 0.631261 -0.743065
0.243878 0.509996 -0.102367 0.519772 0.602307 -0.605719
-0.130648 0.041831 -0.036717 -0.949037 0.140872 -0.281349
0.056124 0.865588 0.004307 0.317123 0.934952 0.143012
0.026777 -0.249544 0.045915 0.979607 -0.015364 0.200096
0.035697 -0.304275 -0.02608 -0.975468 -0.049378 -0.205723
0.327479 0.432285 -0.065258 0.796839 0.471942 0.369665
-0.002683 0.840328 0.041513 -0.616276 0.362643 0.690883
-0.120027 -0.772712 -0.060656 -0.98923 -0.065235 -0.123844
-0.06229 -0.856193 0.153709 0.266029 -0.753235 0.582258
-0.001385 0.559186 0.024146 -0.163107 0.613382 0.765696
0.038695 0.858344 -0.063319 0.062936 0.844897 -0.530598
-0.014125 0.58341 -0.091325 -0.153674 0.640044 -0.752481
0.068519 0.216702 0.12432 0.342404 0.09699 0.934502
-0.054347 -0.188867 -0.095346 -0.074448 -0.092191 -0.991962
0.168885 -0.678222 0.020312 0.393562 -0.265684 0.878239
-0.42269 0.172072 -0.046019 0.482247 -0.720365 -0.495899
0.132757 -0.571323 -0.105951 0.063473 -0.135944 -0.988558
0.121827 0.00923 -0.14457 0.427662 0.063819 -0.901135
0.093807 -0.437779 0.03568 -0.636407 -0.366309 0.678604
-0.137969 -0.007315 -0.007309 -0.997199 0.058814 -0.042036
0.17457 -0.165912 -0.075954 0.707419 -0.05095 -0.704669
-0.033836 0.054658 -0.138543 -0.221678 0.237038 -0.945469
0.40741 0.252534 -0.033281 -0.257046 -0.012413 0.956343
0.011065 -0.328863 0.067675 0.753291 -0.218505 0.619837
0.126781 -0.789965 0.047083 0.304882 0.497156 0.806408
0.3833 0.239578 -0.083289 -0.649323 -0.756205 -0.047912
-0.088227 -0.56599 0.062038 -0.248692 -0.153055 0.912728
0.144682 -0.825866 0.097062 0.293647 0.94107 0.150767
-0.083387 -0.243596 -0.081207 -0.594168 -0.041074 -0.802398
-0.020823 -0.346619 0.08886 0.381557 -0.092341 0.916965
0.254343 0.404787 -0.016336 -0.176697 -0.376693 0.908298
-0.118456 -0.517935 -0.069342 -0.752235 0.13649 -0.643877
-0.121148 -0.724796 -0.023902 -0.788392 0.18569 0.580936
0.079098 0.441995 -0.142758 -0.293757 -0.006038 -0.954821
0.417398 0.313378 -0.084657 0.679912 0.731559 0.041512
0.076171 0.452221 -0.141621 -0.350849 0.038362 -0.934745
-0.5199 0.123407 0.054962 -0.744453 0.667047 0.01162
0.096599 0.202171 0.113722 0.389466 0.046129 0.919732
-0.02937 -0.272427 -0.089259 0.371937 -0.051012 -0.923741
0.063141 0.250253 0.122464 0.251008 0.060843 0.966014
0.044077 0.03113 0.13737 0.066763 0.282073 0.957014
-0.082278 -0.041431 -0.11333 -0.58247 -0.234046 -0.77694
0.202976 -0.573431 -0.027383 0.961362 -0.23338 -0.11062
-0.118805 0.381225 0.040763 -0.915344 -0.229769 0.305561
-0.020918 0.701288 -0.026647 -0.942897 -0.291606 -0.138119
0.185512 -0.769438 -0.002064 0.920112 -0.308431 0.228843
0.345603 0.407528 -0.070562 0.823294 0.397132 0.3958
-0.121857 -0.041394 -0.066889 -0.853454 -0.087288 -0.513394
0.045706 0.034177 -0.158555 -0.147436 0.134429 -0.977142
-0.289659 0.254197 -0.046824 0.668508 -0.74353 -0.007906
-0.047394 0.014682 -0.136631 -0.259844 -0.281124 -0.921681
0.131352 -0.129681 0.11127 0.133265 -0.089012 0.986712
0.356096 0.317682 -0.133558 0.000779 -0.143834 -0.988291
0.518964 0.212973 -0.02893 0.481884 0.822039 0.30019
-0.057732 -0.808852 -0.145388 -0.398858 -0.07368 -0.910846
-0.395313 0.183997 -0.030356 0.505167 -0.847653 -0.150713
0.123327 0.580447 -0.026754 0.266304 0.892248 0.340178
-0.107502 -0.090981 0.10126 -0.680789 0.081015 0.727631
0.165682 0.043368 0.095375 0.479717 0.207561 0.84614
-0.083797 0.481856 0.066291 -0.294905 0.309651 0.902557
-0.11178 0.234228 -0.047651 -0.93744 -0.154352 -0.302146
-0.022804 -0.06236 0.130449 0.021162 -0.102465 0.994158
-0.011829 0.658501 -0.014317 -0.999595 -0.013975 -0.000955
0.212557 -0.118577 0.026944 0.975501 -0.052316 0.203431
0.010559 -0.36103 -0.042132 0.730043 -0.018527 -0.682757
-0.127866 -0.331994 -0.010844 -0.995518 -0.004798 -0.083943
0.024848 0.43768 0.094584 0.170617 0.179464 0.96804
0.160523 -0.863816 0.118249 0.261768 -0.963744 0.02939
-0.570223 0.02744 0.030441 -0.10945 -0.977029 0.08753
0.153983 0.137086 0.077673 0.692585 0.064636 0.718356
0.008096 0.785905 -0.117182 -0.338918 0.235683 -0.910118
-0.11981 0.22356 -0.013886 -0.990015 0.113334 -0.069557
-0.0651 -0.362208 0.098329 0.139934 -0.16965 0.975479
0.547523 0.177405 -0.007372 0.859152 0.51015 -0.0121
0.206401 -0.197212 0.017796 0.992772 -0.03345 0.108566
0.072298 0.503467 -0.13204 -0.311741 0.190955 -0.928672
0.085548 0.507817 0.059036 0.137747 0.456714 0.878863
-0.10434 -0.040935 -0.093464 -0.798903 -0.135357 -0.585134
-2.3e-05 -0.456294 0.04553 0.743413 -0.147191 0.652117
0.115381 -0.870374 -0.091646 0.017745 -0.999551 -0.0173
0.042551 -0.262781 -0.043704 -0.859387 0.012251 -0.509226
0.07709 0.051354 0.129904 0.37553 0.12464 0.914182
-0.164071 0.496265 0.051003 -0.381174 0.277482 0.88088
0.113317 -0.868839 -0.110156 -0.012513 -0.921211 -0.303758
-0.127247 -0.678899 -0.042505 -0.988163 -0.032739 0.140346
0.153601 0.432861 -0.139329 0.257617 -0.219709 -0.940001
-0.038698 0.81047 -0.027433 -0.958049 -0.261381 0.070932
0.140945 0.081459 0.097636 0.651758 0.19304 0.732268
0.041712 -0.136915 0.058042 -0.088778 -0.531095 0.806929
0.042237 -0.208161 -0.047617 -0.95063 -0.053401 -0.30366
-0.059187 -0.86278 -0.077786 0.009084 -0.998525 0.052389
-0.042144 -0.580724 0.039435 0.493784 -0.315709 0.809183
-0.086912 0.522788 -0.105798 -0.292605 0.464762 -0.835644
0.148699 -0.865613 0.021838 0.280551 -0.953345 -0.10976
-0.073454 -0.601783 -0.104027 -0.087455 0.0464 -0.99324
-0.094308 0.145068 -0.075093 -0.6962 0.203699 -0.688254
-0.129296 -0.043182 0.071024 -0.847529 0.055313 0.525335
0.053553 -0.256159 -0.060318 -0.808036 -0.016025 -0.587902
-0.120943 0.366114 0.014692 -0.966199 -0.205166 0.154583
0.084029 -0.146932 0.092521 -0.600893 -0.016914 0.798293
-0.023267 0.221483 0.114905 -0.422548 0.106862 0.89918
0.070833 -0.320436 0.064505 -0.560834 -0.148194 0.813379
0.204987 -0.24194 -0.016122 0.997516 -0.046677 -0.052007
0.087558 -0.841762 -0.070207 -0.98385 0.15142 -0.079325
-0.570265 0.026472 0.018718 -0.102365 -0.98795 0.041202
0.103433 -0.860441 -0.009411 -0.565202 -0.81245 -0.066739
0.1852 -0.123229 0.083086 0.719672 0.029277 0.693375
-0.114997 -0.802943 -0.052982 -0.894426 -0.441408 -0.012479
0.132501 -0.479084 0.058151 -0.486353 -0.099352 0.867659
-0.025008 0.515142 0.063126 -0.130693 0.516875 0.844702
0.014865 -0.348809 -0.037916 0.783774 -0.038736 -0.61675
-0.118764 0.30587 -0.041903 -0.978616 -0.18931 -0.064174
0.111566 -0.548351 -0.104612 -0.344198 -0.079583 -0.932943
-0.028949 0.365486 0.106419 -0.017784 -0.031856 0.999082
-0.039181 -0.748916 -0.126734 0.211511 0.429502 -0.877096
0.099052 -0.82675 0.093788 -0.53349 0.814163 0.191901
0.084548 -0.82249 -0.084877 -0.740656 -0.6165 -0.2263
0.475679 0.240723 -0.079195 0.569552 -0.1115 -0.811365
-0.147139 0.508198 0.050712 -0.20928 0.37747 0.901863
0.013936 -0.609446 -0.053225 0.728811 0.097803 -0.67748
0.08492 -0.448049 -0.089108 -0.639335 0.055434 -0.766321
-0.12588 0.089613 -0.032212 -0.955287 0.11537 -0.26524
-0.007148 -0.632244 0.023018 0.149437 0.150328 0.975111
-0.036956 -0.861837 0.01396 0.2481 -0.955284 -0.099764
-0.045072 -0.049899 -0.124346 -0.15987 -0.417133 -0.89251
-0.026316 0.706289 0.019004 -0.911471 -0.388954 0.118714
0.026108 -0.115778 -0.065983 -0.899462 -0.302708 -0.311797
-0.002772 0.486274 -0.126743 0.157583 0.120729 -0.978828
0.193155 -0.116711 0.07249 0.824849 -0.01528 0.563258
-0.180905 0.360235 -0.050617 0.646663 -0.726756 -0.231404
0.130917 0.210608 0.095005 0.513216 0.05404 0.856517
0.055012 0.337345 -0.135349 -0.39352 -0.028287 -0.918856
-0.097776 0.147964 0.069897 -0.713345 0.055458 0.698342
-0.103632 -0.366231 0.096598 -0.540005 -0.125532 0.81573
0.19909 -0.263692 -0.03661 0.90004 -0.16087 -0.404116
0.046394 0.131624 0.131117 0.101855 0.039954 0.993951
-0.155165 0.473122 0.057108 -0.277177 0.025401 0.958923
0.014063 0.862353 -0.045263 -0.185075 0.958014 -0.186986
-0.018185 0.751863 -0.092518 -0.763992 -0.260773 -0.589317
0.029761 0.803876 -0.115969 -0.046988 0.304984 -0.950245
0.031128 0.395793 -0.128992 -0.119382 0.004145 -0.992779
0.158102 0.106843 0.079251 0.39833 0.169502 0.898221
0.183141 0.265544 -0.004509 0.999745 -0.008427 -0.010096
-0.505138 0.087904 0.050756 0.660358 -0.738534 -0.053814
-0.165472 0.388299 0.009646 0.411858 -0.710627 0.569855
0.545857 0.122221 0.025337 -0.819095 -0.546739 0.168209
0.145724 -0.41461 -0.0924 0.507581 0.106277 -0.854807
0.200385 0.061669 0.02942 0.966151 0.215865 0.139147
-0.056436 0.407988 -0.126791 -0.226407 -0.090095 -0.969518
0.195694 0.099076 -0.013313 0.991704 0.013415 -0.045901
-0.325533 0.28172 0.004809 -0.12609 0.08749 0.987671
0.574421 0.071009 -0.004181 -0.869863 -0.4609 -0.127332
-0.131831 0.056512 -0.023729 -0.955075 0.185387 -0.229095
-0.426548 0.171791 0.031054 0.418008 0.179749 0.878226
0.0434 -0.41707 -0.02408 -0.999646 -0.012648 0.012239
-0.030871 0.127076 0.11868 -0.428491 2.5e-05 0.903497
0.349493 0.276253 -0.093924 -0.637555 -0.746351 -0.189957
0.201426 -0.210707 0.036978 0.950154 0.001084 0.311312
0.149822 0.094988 -0.102884 0.701144 0.209941 -0.681003
0.059511 -0.778919 -0.012721 -0.997663 -0.003515 -0.060283
-0.385114 0.202779 -0.062625 0.080252 -0.688594 -0.696371
-0.073278 0.232343 -0.098853 -0.672976 -0.289862 -0.679356
0.203742 0.060322 0.003023 0.962428 0.264049 0.034929
-0.125866 -0.3169 0.046277 -0.988734 -0.065644 0.133092
0.064943 -0.300406 0.061305 -0.71163 -0.11168 0.693448
-0.134289 -0.250129 0.048953 -0.983992 -0.084308 0.147075
-0.388117 0.187832 -0.019246 0.624434 -0.778609 -0.013629
0.049723 0.292 0.121313 0.123456 0.10502 0.98645
0.018682 0.375566 0.107915 0.077389 0.235247 0.968655
-0.113204 0.244394 -0.01678 -0.963877 0.245246 -0.007716
0.163467 0.559881 -0.09136 0.331123 0.725568 -0.603018
-0.005511 -0.311186 0.084849 0.326629 -0.117384 0.929942
-0.001431 0.70195 -0.072596 -0.637215 -0.5322 -0.557024
0.047837 0.493825 0.070578 0.101211 0.547666 0.830111
-0.106598 0.565697 -0.047584 -0.361473 0.890546 -0.275168
0.614799 0.057848 0.040757 -0.800744 -0.597032 -0.041361
0.464899 0.251175 -0.089597 0.782667 -0.062195 -0.584043
0.07605 -0.568191 0.017206 -0.69774 -0.008397 0.716202
0.003405 -0.208983 0.099577 0.64773 -0.113463 0.751508
0.139836 -0.860353 -0.108832 0.615011 -0.461828 -0.626672
-0.089472 0.209579 -0.069869 -0.783559 -0.067003 -0.615631
0.027733 0.262894 -0.126214 0.006957 -0.074147 -0.995499
0.050883 0.460723 0.084908 0.160647 0.362642 0.917063
-0.015949 -0.298561 0.092092 0.405104 -0.17383 0.897226
0.143602 -0.311617 -0.083173 0.578058 0.032215 -0.814937
0.447731 0.278172 -0.049828 0.428953 0.688829 0.568799
-0.07325 0.576063 -0.063301 -0.447766 0.822303 -0.349167
-0.532059 0.106217 0.044093 -0.821632 0.54907 -0.130416
0.103721 0.483363 0.068063 0.225755 0.471476 0.851158
-0.040653 -0.760051 0.013249 0.523815 0.563164 0.621507
0.044099 -0.473301 -0.036429 -0.991553 -0.000816 -0.10254
-0.036168 -0.688761 -0.105162 0.450248 0.269162 -0.851182
-0.010494 -0.687428 -0.086154 0.65349 0.210402 -0.727064
0.179381 -0.007429 -0.088848 0.820829 0.073279 -0.566262
-0.040985 0.182619 0.109864 -0.555607 0.088195 0.826369
0.083834 0.101108 0.124548 0.458304 0.00751 0.887809
-0.182353 0.363965 -0.006455 0.581411 -0.695016 0.421583
0.152577 0.321919 -0.103727 0.746635 -0.204872 -0.631335
-0.11855 0.216657 0.026729 -0.94331 0.236033 0.228491
-0.043695 0.576698 -0.087572 -0.394284 0.661283 -0.635537
-0.115158 -0.132224 -0.059184 -0.76922 -0.101614 -0.630795
0.043325 0.71518 -0.09713 0.176149 -0.617344 -0.76354
0.135684 -0.868141 -0.037014 0.05404 -0.99395 0.0848
-0.08912 -0.236305 -0.076778 -0.717228 -0.040881 -0.69551
-0.052073 -0.073184 0.127008 -0.212888 -0.079681 0.971853
0.161969 -0.858054 -0.049755 0.870033 -0.456762 0.046643
-0.035786 0.76634 -0.061555 -0.982879 -0.068095 -0.169511
0.102395 0.771479 -0.057785 0.942188 -0.062992 -0.320523
-0.03463 -0.155611 0.122998 0.017438 -0.053324 0.99692
0.045287 0.51178 0.060742 0.064456 0.530964 0.844425
-0.124039 -0.161009 -0.038506 -0.818974 -0.171558 -0.547122
-0.099683 -0.052042 -0.095297 -0.69035 -0.233666 -0.683771
0.003877 0.462105 0.089419 0.015104 0.338724 0.940079
-0.048295 -0.126871 -0.10415 0.03146 -0.125059 -0.990054
-0.079727 0.116352 0.088809 -0.613927 0.196406 0.7615
-0.08446 -0.107151 -0.093841 -0.563816 -0.159159 -0.808511
0.072112 -0.413357 -0.076104 -0.702145 -0.013106 -0.711854
-0.049792 0.032334 -0.1393 -0.313315 0.170733 -0.933913
0.047782 -0.282073 0.043558 -0.858145 -0.04989 0.509315
0.054452 0.843274 0.051935 0.49513 0.565955 0.658356
-0.019758 0.55007 0.038456 0.041675 0.838562 0.533922
0.46974 0.197197 0.001998 -0.558992 0.330926 0.713639
-0.009384 -0.458235 -0.070057 0.73056 0.115423 -0.672826
0.640244 0.044356 0.017835 0.887976 0.455365 -0.054053
0.355721 0.355471 -0.131219 0.505294 0.306876 -0.803098
0.117389 -0.260832 0.08548 0.053524 -0.232981 0.96769
0.117405 -0.793407 0.050917 0.115162 0.546659 0.828544
-0.249258 0.368036 0.018823 0.022521 -0.113322 0.992939
0.075219 -0.116773 -0.111561 -0.283598 -0.23916 -0.921729
0.018816 -0.484206 0.015591 0.915065 -0.077506 0.395781
-0.025208 -0.454752 0.068448 0.393064 -0.290348 0.869581
-0.387833 0.259483 0.005711 -0.242518 0.385009 0.884471
0.154989 -0.358174 -0.076249 0.628339 0.122615 -0.767734
0.046768 0.658442 0.062916 0.189098 -0.971361 0.143205
0.089465 0.836223 -0.014424 0.933512 0.349941 0.0086
0.020152 -0.107536 0.105506 0.541181 -0.379107 0.744638
-0.4798 0.117111 0.019163 0.708244 -0.679805 -0.142828
-0.016412 -0.037637 -0.132459 -0.073565 -0.350065 -0.933547
0.150074 -0.071745 0.107833 0.55982 0.042391 0.802925
-0.135695 -0.040053 0.056618 -0.95779 0.082287 0.261709
-0.0419 -0.733944 0.027373 0.068651 -0.261488 0.930398
0.084546 0.706861 0.059693 0.830318 -0.136281 0.538779
-0.046463 -0.087354 -0.111729 -0.017319 -0.230561 -0.972572
0.192945 0.348961 -0.00962 0.984332 -0.084698 0.152142
0.138565 0.342375 0.079932 0.680904 -0.023298 0.729605
0.174448 -0.4463 -0.079497 0.651158 0.181981 -0.736791
-0.060111 0.441792 0.08782 -0.18043 0.254061 0.948608
-0.10444 0.449189 -0.118625 -0.375653 -0.03747 -0.923613
-0.099685 -0.812652 0.001237 -0.969544 0.062939 0.232917
-0.06392 -0.28129 -0.090249 -0.277349 -0.057593 -0.95628
-0.048237 0.286912 0.099234 -0.579894 0.08192 0.810097
-0.123962 -0.306196 -0.026945 -0.878655 0.049973 -0.470131
0.190291 0.021694 0.0743 0.845106 0.14403 0.513353
-0.076005 -0.840044 0.156315 -0.481232 0.686155 0.532619
-0.094125 -0.826066 0.055994 -0.736444 0.666088 0.113395
0.187837 -0.217173 -0.06253 0.630232 -0.036345 -0.774672
0.107426 0.143164 0.111822 0.50259 0.058317 0.861264
0.132927 -0.86992 0.08423 0.006005 -0.999907 0.010047
0.077971 -0.16776 -0.10098 -0.416556 -0.221521 -0.881414
-0.136441 0.484481 -0.099512 -0.435573 0.181365 -0.881549
0.571014 0.104067 0.059129 -0.626684 0.031519 0.774014
-0.035597 0.091023 0.120783 -0.368505 0.009971 0.925281
0.042858 -0.250639 0.02962 -0.993651 -0.008268 0.112069
-0.108675 -0.698182 -0.090487 -0.70201 -0.060138 -0.708925
0.287254 0.432173 -0.135926 0.263285 0.366416 -0.889944
0.016753 -0.320646 0.063125 0.837576 -0.149904 0.520339
-0.004307 -0.81806 -0.118363 0.8255 -0.366527 -0.423212
0.14771 -0.184291 0.096465 0.111716 -0.115938 0.986404
0.054018 0.030178 0.137115 0.034095 0.254618 0.966105
0.005368 -0.388401 -0.049048 0.659932 0.098292 -0.744376
0.017355 0.588478 -0.092071 -0.11734 0.685979 -0.711664
0.131985 -0.529839 -0.108351 0.104694 0.017383 -0.992843
-0.08202 0.094855 -0.100487 -0.649874 0.208444 -0.730765
0.019356 -0.455909 -0.029418 0.925863 0.048547 -0.374646
0.197594 0.456987 0.030497 0.594799 0.144663 0.788873
0.17421 -0.772099 0.019144 0.702165 -0.060052 0.693315
-0.042874 -0.330274 0.097779 0.231896 -0.095286 0.968006
0.197782 -0.439432 -0.045242 0.963446 0.058091 -0.25047
0.142191 -0.38346 -0.090343 0.558079 0.163116 -0.813554
0.131677 -0.447251 0.062222 -0.574147 -0.212591 0.788787
0.188667 -0.765014 -0.010446 0.948896 -0.297697 0.077874
-0.021361 0.846348 0.005756 -0.779771 0.547406 0.257182
0.028756 -0.251055 0.034344 0.98139 -0.031635 0.188206
-0.081513 0.270991 0.078218 -0.60271 0.051806 0.79617
0.185435 -0.154418 0.083541 0.700245 -0.018395 0.711094
0.111624 -0.806007 0.060873 -0.08921 0.708077 0.695139
-0.012874 0.482506 -0.128171 0.083292 0.09096 -0.99217
0.107665 -0.242071 0.088472 -0.029051 -0.130905 0.989946
0.209338 0.458341 -0.133876 0.032918 -0.044524 -0.997497
0.195277 -0.079241 -0.056472 0.861047 0.013588 -0.508317
0.172205 0.1497 -0.055167 0.863961 0.016835 -0.502898
-0.109168 0.189785 0.057549 -0.826821 -0.053421 0.559761
0.199374 -0.553491 -0.04947 0.952419 -0.018191 -0.299675
0.024884 -0.369171 0.022282 0.963544 -0.112017 0.233979
0.398964 0.295728 -0.044217 0.206065 0.352631 0.911294
0.180191 0.389284 0.041413 0.773303 -0.152634 0.613198
-0.002465 -0.77839 -0.113921 0.836734 0.286045 -0.465986
0.150502 -0.307087 -0.077865 0.606292 0.01618 -0.795006
0.014972 -0.212531 0.084287 0.85674 -0.062492 0.511641
0.104808 -0.284546 -0.09935 -0.084911 0.008954 -0.992125
0.073071 -0.547942 -0.075322 -0.71219 -0.070267 -0.698382
-0.127339 0.196438 8.7e-05 -0.986014 0.138888 -0.063883
-0.08047 -0.010603 -0.121199 -0.569948 -0.081431 -0.816505
-0.316717 0.248835 -0.073916 0.257948 -0.689317 -0.664557
0.11524 -0.86643 0.004794 -0.147124 -0.98023 -0.092557
-0.11214 0.083215 0.072402 -0.844259 0.269019 0.45906
-0.065756 -0.847841 -0.136704 -0.392422 -0.317244 -0.858265
0.014223 0.52667 -0.120529 -0.007869 0.217974 -0.974871
0.063733 -0.649147 -0.052607 -0.759785 -0.159267 -0.629338
0.045463 -0.280779 -0.048928 -0.834477 0.008468 -0.550543
-0.078546 -0.276885 -0.082787 -0.60024 -0.045762 -0.798399
-0.040908 0.485261 0.075177 -0.164154 0.439679 0.882796
-0.007029 0.132919 0.128706 -0.243455 -0.001267 0.969435
0.135087 -0.723231 0.014886 0.427185 0.022427 0.898768
0.608147 0.071764 0.012449 -0.274394 -0.707029 -0.623968
0.042206 -0.096467 0.099661 0.466051 -0.550318 0.690171
0.100145 0.759655 -0.060864 0.956109 -0.127065 -0.26041
0.062282 -0.061981 -0.132582 -0.314856 -0.407041 -0.857414
-0.01526 -0.693983 -0.092594 0.609352 0.22055 -0.761479
0.020039 -0.285587 0.061983 0.934309 -0.050103 0.352162
0.125159 -0.514695 0.048521 -0.506914 -0.128191 0.852335
-0.099939 -0.741683 -0.001076 -0.630085 0.464618 0.609456
-0.027039 0.121583 -0.12084 -0.21935 0.353614 -0.908975
-0.021117 -0.474853 -0.084556 0.691329 0.096119 -0.716107
0.144672 0.172183 0.084872 0.710597 0.026712 0.703082
0.188223 -0.044895 0.075397 0.767027 0.029182 0.640894
-0.126451 -0.537217 -0.062267 -0.876795 0.087988 -0.471941
0.075853 -0.746191 -0.047286 -0.898216 0.075982 -0.431055
0.171477 0.467478 -0.138059 0.162674 0.064952 -0.984186
0.197395 -0.541881 -0.055959 0.908803 -0.00943 -0.409212
-0.070304 0.025609 0.118341 -0.384783 0.36477 0.845615
0.021578 0.134556 0.132499 -0.061831 0.02465 0.997266
0.282812 0.446369 -0.130146 0.336611 0.520263 -0.782835
-0.035272 -0.817861 -0.147416 0.163843 -0.241645 -0.950221
0.120948 0.172946 -0.105538 0.427271 0.078458 -0.900112
0.146962 0.418622 0.073297 0.531481 0.084434 0.842367
0.329632 0.292422 -0.078679 -0.672417 -0.722152 0.156921
0.177152 0.414078 -0.127846 0.204515 -0.377135 -0.903095
0.02054 -0.285086 -0.031607 0.949531 -0.065777 -0.305314
-0.144047 -0.068234 0.013736 -0.999664 0.01908 0.011915
-0.108284 -0.480571 0.059075 -0.781629 -0.311279 0.54038
-0.135797 0.001669 -0.027883 -0.987669 0.043303 -0.143525
-0.005007 0.662187 0.021082 -0.704553 -0.591428 0.389318
-0.097803 -0.801458 0.010279 -0.854465 -0.132458 0.464736
0.04445 -0.558586 -0.027209 -0.990856 -0.029253 0.015692
0.197236 -0.581896 -0.055384 0.924077 -0.020897 -0.374063
0.073945 0.548997 -0.120574 -0.104699 0.392632 -0.910862
-0.072498 0.360675 -0.116284 -0.42691 -0.106374 -0.897421
0.335861 0.316139 -0.044291 -0.328736 -0.37002 0.854357
0.04169 -0.370968 -0.03506 -0.924055 -0.061636 -0.36893
0.110446 0.576134 -0.099027 0.206925 0.703306 -0.678239
-0.135077 0.422985 -0.093244 -0.386428 -0.603065 -0.676532
0.156569 0.301648 -0.092551 0.788126 -0.19391 -0.582497
-0.513367 0.130464 0.056679 -0.789299 0.607183 0.035484
-0.134241 -0.027036 -0.040458 -0.948087 0.019849 -0.314438
-0.330505 0.308442 0.000234 -0.365574 0.225473 0.90093
0.022773 -0.313992 0.051287 0.885334 -0.094418 0.453898
0.16849 -0.858195 0.026333 0.809825 -0.491255 -0.218998
-0.137879 -0.018521 -0.013607 -0.992645 0.058942 -0.088846
-0.263547 0.421725 -0.038534 -0.79064 0.611696 -0.012245
-0.015973 0.84548 -0.050998 -0.529165 0.788038 -0.312306
-0.276545 0.396402 -0.004575 -0.676863 0.554548 0.483369
-0.068974 -0.258139 -0.089831 -0.386127 -0.016136 -0.920467
0.163096 0.272591 0.054076 0.742548 0.021385 0.669353
-0.126123 -0.654282 -0.073011 -0.918637 -0.012563 -0.376569
0.263886 0.404298 -0.139948 -0.227783 -0.103608 -0.966714
0.150994 -0.239561 0.084878 0.129569 -0.185264 0.973248
0.166247 -0.256205 0.080345 0.334563 -0.094287 0.934131
-0.472145 0.16475 0.044699 0.051227 0.744016 0.656146
-0.523215 0.08518 0.096062 -0.072036 0.18101 0.898296
0.061619 -0.768716 -0.026205 -0.951285 0.087113 -0.277344
0.082655 -0.779738 -0.072769 -0.838871 0.235048 -0.490487
-0.025491 0.753692 -0.082494 -0.821871 -0.284445 -0.488522
-0.090767 -0.406094 -0.06978 -0.573365 -0.018746 -0.819031
-0.128001 -0.347125 -0.011346 -0.996189 0.037713 -0.069085
-0.038522 -0.067056 0.129196 -0.082039 -0.053933 0.995148
0.030207 -0.115453 0.091962 0.560499 -0.54443 0.620077
0.066028 0.434819 -0.137975 -0.291357 0.009013 -0.95588
0.051831 0.09374 0.13219 0.141882 -0.367975 0.916723
-0.508613 0.135489 0.004708 -0.921754 0.312291 -0.182153
0.058725 0.533035 0.047464 0.026476 0.645951 0.759116
0.078975 -0.68272 -0.065323 -0.813823 -0.034229 -0.579861
-0.445391 0.14753 0.004083 0.687065 -0.724432 0.028167
-0.122384 -0.41817 0.060527 -0.896186 -0.130966 0.421692
-0.093508 -0.26276 0.108432 -0.233054 -0.042987 0.97136
-0.015238 -0.28753 -0.078177 0.680806 -0.119351 -0.722614
0.135824 0.365306 0.082365 0.574376 0.029168 0.816216
0.146416 0.087416 -0.108492 0.68594 0.224197 -0.691966
0.008889 0.833561 -0.091082 -0.260551 0.730914 -0.629931
0.126546 -0.345409 -0.095409 0.409206 0.059642 -0.910477
-0.095232 -0.5017 0.067513 -0.866771 -0.158005 0.471512
-0.129812 -0.132161 0.073181 -0.877434 0.043507 0.47767
0.522514 0.19563 0.01955 -0.120793 0.69342 0.675725
0.040452 -0.279459 -0.040673 -0.879745 0.010736 -0.473893
0.20622 -0.159318 -0.033228 0.983256 -0.007012 -0.170624
0.24333 0.45185 -0.000582 0.353364 -0.137953 0.918791
-0.033735 -0.776248 -0.13902 0.224185 0.476293 -0.843329
0.025007 0.323183 -0.126153 -0.025816 0.02566 -0.997951
-0.129187 0.405053 -0.070868 -0.881419 -0.376027 -0.24551
0.069588 -0.520439 0.011247 -0.620258 -0.014992 0.784115
0.07385 0.585182 0.00936 0.637004 0.105959 0.759491
0.13804 -0.65187 -0.093034 0.376002 -0.119601 -0.918561
-0.136925 -0.419414 -0.006856 -0.987896 0.081354 -0.125016
0.088884 0.768673 -0.089806 0.825318 -0.023511 -0.561374
0.02428 0.611886 0.027014 -0.214772 -0.098162 0.968879
0.082964 -0.349897 0.062978 -0.500439 -0.324935 0.800987
-0.05544 0.580064 -0.075484 -0.40722 0.794461 -0.442521
0.019469 0.001664 0.143894 0.015039 0.145962 0.988915
0.161762 -0.82839 -0.021344 0.957928 -0.271027 0.03086
-0.328339 0.322464 -0.003769 -0.462533 0.420485 0.77542
0.175612 -0.024807 -0.096148 0.841447 -0.004056 -0.539876
0.203004 -0.232705 -0.039839 0.939616 -0.145597 -0.305115
-0.135598 -0.24049 0.028702 -0.998974 -0.042522 0.008596
-0.082666 -0.0426 0.116705 -0.5482 -0.026626 0.835686
-0.136925 0.557877 -0.007265 -0.3135 0.935677 0.110421
-0.305487 0.265312 0.003646 0.381283 -0.217279 0.895594
-0.049462 0.437928 -0.130352 -0.087892 -0.108227 -0.990068
0.537739 0.199224 0.010818 0.378708 0.741891 0.511386
-0.111053 0.238913 0.03953 -0.942973 0.232013 0.2378
0.10722 -0.779027 0.039738 -0.009384 0.787704 0.608282
0.106995 -0.11678 0.109287 -0.623989 -0.072527 0.777912
0.206292 -0.223065 -0.014777 0.998072 -0.05711 -0.0216
-0.089085 -0.830726 0.108493 -0.46617 0.860522 0.139525
0.032258 0.612984 -0.076001 -0.059679 0.375105 -0.91775
0.262056 0.395395 -0.019123 -0.172599 -0.449069 0.87417
0.095008 -0.464064 -0.097474 -0.53248 0.057993 -0.84418
0.039514 0.167328 0.130651 0.063479 0.059143 0.996205
-0.411087 0.258103 -0.035748 -0.813682 0.580643 -0.006256
0.013853 0.840095 -0.085058 -0.243036 0.72217 -0.64601
0.328136 0.364101 -0.139272 0.170919 -0.086182 -0.97921
0.172882 -0.708675 -0.000115 0.394741 -0.61019 0.685796
0.042894 0.316805 -0.129252 -0.302872 0.00552 -0.947474
0.078662 0.107609 -0.138087 0.11797 0.443926 -0.887206
0.01522 0.272625 0.125065 -0.112672 0.11244 0.98648
-0.159534 0.448132 0.050611 -0.429117 -0.402372 0.80586
-0.075172 0.25725 -0.106 -0.613933 -0.180834 -0.768074
-0.220652 0.338321 -0.005098 0.480773 -0.657955 0.569094
0.026778 -0.579786 -0.01528 0.990837 0.032118 0.124341
-0.129519 -0.530498 -0.054053 -0.889004 0.04082 -0.454826
0.140594 0.008446 -0.133009 0.619576 0.129804 -0.772863
0.075113 -0.646812 0.014233 -0.488135 0.396817 0.766072
-0.033275 -0.216946 0.114643 0.16265 -0.191919 0.967105
-0.194558 0.417248 0.033582 0.231613 -0.366616 0.900001
-0.250935 0.328257 0.004844 0.260728 -0.472077 0.8405
0.180573 -0.197632 0.084195 0.574797 -0.107579 0.807876
-0.063965 0.507292 0.059871 -0.14437 0.444227 0.884133
0.177632 0.181334 -0.039116 0.926378 0.068286 -0.370087
-0.042218 0.458296 -0.131973 -0.019217 0.038629 -0.99763
0.012668 0.30849 0.120262 -0.153877 0.127571 0.979251
0.183159 0.479106 0.032866 0.477908 0.310694 0.82092
0.025679 -0.661467 -0.049578 0.957061 0.063144 -0.263884
-0.314299 0.349191 -0.020131 -0.60541 0.713802 0.342551
-0.235559 0.317377 -0.057408 0.707207 -0.648284 -0.2599
0.492951 0.193873 0.000659 0.015518 0.813877 0.453642
0.06774 0.855884 -0.048931 0.50277 0.8063 -0.301878
0.017429 -0.196062 0.081708 0.920752 -0.056765 0.367694
0.282984 0.38451 -0.019062 -0.231371 -0.212723 0.938066
0.200652 -0.242756 0.042917 0.957075 0.040175 0.285144
-0.393766 0.239381 0.011194 -0.037558 0.185891 0.98123
0.166119 0.417209 0.055275 0.599131 0.071635 0.794881
0.030241 -0.281771 0.015614 0.989397 -0.092682 0.111024
0.198825 -0.621113 -0.043649 0.994174 -0.007658 -0.089384
0.119829 0.503637 0.0513 0.281599 0.502983 0.816313
-0.03632 -0.178217 -0.092861 0.366516 -0.030074 -0.929897
0.083789 -0.047885 -0.143725 -0.084063 -0.368315 -0.92496
0.153464 -0.003468 -0.123222 0.720064 0.109513 -0.68476
0.161661 0.283654 -0.076917 0.868282 -0.162366 -0.467412
-0.029357 0.817883 -0.077517 -0.785354 0.373824 -0.476748
0.140886 -0.471401 0.063168 -0.439769 -0.125089 0.887924
0.025114 0.733937 -0.110579 -0.100176 -0.48305 -0.868564
-0.443614 0.211721 0.006192 -0.595346 0.495891 0.625699
0.597706 0.066386 0.0205 0.71883 -0.588338 0.018906
-0.016464 -0.423379 0.070963 0.554337 -0.210474 0.803559
-0.053425 -0.327308 -0.089385 -0.073525 -0.046156 -0.994608
-0.014443 -0.108746 -0.097306 0.499572 -0.350324 -0.791186
0.24021 0.373243 -0.090129 -0.706433 -0.707477 -0.015694
0.580185 0.069209 0.041562 -0.802601 -0.41281 0.411179
-0.020768 0.769971 -0.094953 -0.759996 -0.146431 -0.632743
0.052133 -0.093255 -0.112511 -0.444351 -0.440281 -0.769275
0.297869 0.472524 -0.084687 0.716083 0.646319 -0.258803
-0.134285 0.047214 -0.019193 -0.975064 0.119451 -0.182023
-0.061471 -0.159483 -0.09766 -0.13325 -0.156581 -0.976533
0.110104 -0.276467 -0.099425 0.025291 -0.009251 -0.996999
0.164236 -0.82413 -0.008893 0.797399 -0.599288 0.069136
0.075886 -0.528399 0.01675 -0.678072 -0.003351 0.734888
-0.13916 0.552828 -0.041231 -0.466571 0.811118 -0.34937
-0.072562 -0.368775 0.098125 0.134223 -0.184785 0.973497
-0.128931 0.075525 0.012976 -0.985155 0.134136 0.039965
-0.071976 -0.855952 0.156869 -0.077674 -0.715187 0.671867
0.053357 0.547074 -0.118682 -0.1543 0.450829 -0.876316
0.176098 0.532903 0.011161 0.304529 0.602015 0.737063
-0.280079 0.29022 -0.001857 0.366501 -0.531116 0.763847
-0.110032 0.014058 0.098304 -0.701185 0.148439 0.694422
0.197165 0.381202 -0.013504 0.986657 -0.113933 0.111457
0.008699 -0.328655 -0.046741 0.755242 -0.044029 -0.653914
0.360997 0.267632 -0.098781 -0.703438 -0.676158 -0.20873
-0.099411 -0.827775 -0.0823 -0.927181 -0.270557 -0.253984
0.154787 0.552454 -0.001342 0.144127 0.736306 0.660902
0.18864 -0.538201 0.029634 0.88104 -0.080544 0.464423
-0.060998 -0.224518 0.11507 -0.06139 -0.160877 0.983624
0.20742 -0.170774 -0.022871 0.997831 -0.003661 -0.064031
0.084106 0.601687 -0.075548 0.291683 0.704739 -0.644353
-0.393186 0.281291 -0.033903 -0.716487 0.691589 0.083037
-0.096761 0.541643 -0.088597 -0.384073 0.594793 -0.705321
0.046795 -0.497662 -0.046089 -0.884281 -0.053615 -0.457476
0.028818 -0.280765 0.025228 0.987322 -0.046238 0.150155
0.110745 0.541249 0.027051 0.410056 0.575966 0.705857
0.023157 -0.287596 -0.021644 0.843353 -0.074883 -0.512578
0.084354 0.224852 -0.132665 -0.022548 -0.380788 -0.922905
-0.102933 0.134484 0.06699 -0.753754 0.077405 0.651659
0.30185 0.459242 -0.101497 0.598962 0.649025 -0.468715
-0.126337 -0.720625 -0.060626 -0.971593 -0.033028 -0.227565
-0.001789 -0.70672 -0.086435 0.531376 0.275107 -0.800726
-0.162351 0.437181 0.042114 -0.303492 -0.533505 0.784705
-0.014941 -0.224823 -0.082053 0.515277 0.015364 -0.856769
-0.116063 -0.675231 0.008599 -0.940305 -0.1457 0.296357
-0.129367 0.542747 -0.068341 -0.377782 0.722394 -0.578383
0.010621 0.274532 -0.128667 0.129446 -0.035672 -0.990898
0.024273 -0.121494 -0.053986 -0.508026 -0.535546 -0.497178
-0.184813 0.427197 0.035727 0.172443 -0.417968 0.889311
0.174037 0.275396 -0.047538 0.923794 -0.113057 -0.364218
0.232136 0.465726 -0.132112 0.157802 0.246241 -0.952849
-0.097102 0.572632 -0.028414 -0.381884 0.904063 0.011649
0.529835 0.202662 -0.000987 -0.119978 0.935763 0.32288
0.039479 -0.213691 0.019329 -0.45708 -0.259188 0.675037
0.102843 0.746245 0.001974 0.821498 -0.116414 0.535512
-0.466955 0.140658 0.049602 0.712984 -0.519182 0.464468
0.0612 0.02273 0.138187 0.107942 0.163064 0.980364
0.095756 0.393604 0.095146 0.203149 0.18185 0.960014
-0.045964 -0.661563 0.024865 0.187369 -0.173004 0.965993
0.000332 0.043417 -0.14806 -0.194624 0.326211 -0.92452
-0.00684 -0.764802 -0.111177 0.734325 0.358326 -0.572932
-0.082795 0.417122 -0.120221 -0.274166 -0.160787 -0.94813
-0.019217 0.035742 -0.145926 -0.170572 0.13094 -0.974656
0.138989 0.100939 0.094551 0.657292 0.162178 0.733969
0.437698 0.201197 -0.089517 -0.449096 -0.880301 -0.015118
0.162019 -0.17536 -0.086479 0.616313 -0.045448 -0.786171
-0.230591 0.442314 -0.070056 -0.577419 0.556337 -0.597411
-0.333482 0.236862 -0.066748 0.317009 -0.701281 -0.637056
0.178725 -0.003682 0.083672 0.694936 -0.248867 0.655148
0.613906 0.066547 0.095059 -0.840149 -0.002708 0.482971
0.636407 0.052597 0.037076 0.888188 0.457099 -0.0182
-0.008299 0.847288 -0.058383 -0.474182 0.790736 -0.385577
0.198845 -0.447032 0.002858 0.990137 -0.042637 0.12694
0.173086 0.248169 -0.048164 0.90924 0.019933 -0.413537
-0.298277 0.361063 -0.067496 -0.691841 0.654012 -0.3044
-0.113736 -0.671999 -0.088871 -0.653384 -0.042864 -0.751735
0.196507 -0.649539 -0.009479 0.96714 -0.091983 0.233304
0.166633 0.360104 -0.105759 0.630001 -0.371951 -0.680627
0.141943 0.340321 -0.119885 0.662977 -0.173535 -0.727925
0.041601 0.458416 0.087548 0.1353 0.314514 0.937982
0.028355 -0.181725 0.044771 0.945819 -0.118534 0.294793
-0.079209 -0.446054 0.082327 0.081174 -0.149466 0.984501
-0.005876 -0.2275 0.103548 0.510262 -0.143375 0.84455
0.093428 -0.584073 -0.088169 -0.605225 -0.12686 -0.785862
-0.05166 -0.86108 -0.026172 0.155412 -0.983101 -0.073448
0.182947 -0.782087 -0.051952 0.988511 0.003759 -0.104747
-0.129715 -0.005703 0.063974 -0.888957 -0.199257 0.400819
-0.111077 0.535775 0.038086 -0.035742 0.647013 0.760796
-0.088243 -0.861349 -0.079951 -0.161396 -0.984791 -0.009063
-0.347219 0.300768 -0.087049 -0.423513 0.310942 -0.849349
0.167994 0.248632 -0.058236 0.891416 0.02001 -0.45262
0.099129 0.451126 -0.146245 -0.108852 0.026312 -0.993322
0.154007 -0.480022 -0.099927 0.441291 0.087803 -0.892994
0.548963 0.113674 0.019949 -0.918438 -0.366243 0.12073
0.199132 0.537824 -0.101207 0.287727 0.696402 -0.655586
0.062911 -0.307559 -0.073358 -0.787403 -0.009148 -0.616305
0.553469 0.16757 0.022471 0.696643 0.711083 0.073981
-0.127483 0.012881 0.073414 -0.840524 0.233555 0.481305
0.101651 0.804688 -0.028413 0.886823 0.458102 -0.032027
-0.268802 0.322918 -0.093921 0.347761 -0.209539 -0.913068
-0.213464 0.461578 0.027007 -0.634069 0.334839 0.694945
0.177505 -0.05187 -0.089192 0.814267 -0.108065 -0.569972
-0.024847 0.706484 -0.019524 -0.676645 -0.667564 -0.147126
0.177936 -0.540727 -0.081694 0.697843 -0.036048 -0.71534
-0.123196 -0.365004 0.062351 -0.980876 -0.05313 0.185735
-0.089631 0.124468 -0.084709 -0.693371 0.122436 -0.709911
0.620899 0.078388 0.064079 0.869724 0.4906 0.050229
-0.014822 0.607425 -0.062325 -0.528173 0.690712 -0.490925
-0.033283 -0.08155 0.128415 -0.034896 -0.055022 0.997453
0.114609 -0.869787 0.052894 -0.004137 -0.999642 -0.024199
-0.097325 -0.81382 0.014286 -0.952117 0.205157 0.220447
0.242349 0.371055 -0.078806 -0.702716 -0.711416 0.007826
0.199492 -0.541279 0.000974 0.938568 -0.037279 0.342962
0.009211 -0.773476 -0.026943 0.833714 -0.055193 0.546721
0.025255 -0.184526 0.055347 0.959346 -0.058343 0.270346
0.138686 -0.219627 0.09045 0.052626 -0.17757 0.982611
-0.102065 -0.55432 0.048346 -0.846424 -0.051852 0.529801
0.425579 0.307338 -0.085465 0.587616 0.808551 0.016499
0.175328 -0.071285 -0.0897 0.812629 -0.073958 -0.577823
0.197009 0.034794 0.059554 0.878851 0.111217 0.458303
0.194998 -0.553287 -0.060041 0.834381 -0.013287 -0.55097
-0.125115 0.459917 -0.108136 -0.491062 0.093795 -0.865783
-0.06259 0.37195 0.096397 -0.442598 -0.03321 0.895147
-0.268488 0.280074 -0.024682 0.664401 -0.672937 0.320582
0.141964 -0.829146 0.131508 0.463409 0.881724 0.076
0.128499 0.428917 -0.144781 0.144202 -0.088599 -0.98542
0.345436 0.396234 -0.070607 0.740913 -0.583703 0.233695
0.187295 -0.069515 -0.071601 0.824718 -0.029339 -0.564694
-0.533298 0.068855 0.043087 0.454833 -0.858888 -0.185983
-0.075764 -0.834577 0.148092 -0.300748 0.887165 0.321412
0.085173 -0.477586 0.02174 -0.631787 0.09001 0.769581
-0.423989 0.240655 -0.047478 -0.774177 0.525331 -0.320644
0.19949 -0.269688 0.047007 0.935852 -0.053632 0.347885
0.119897 -0.606816 0.033682 -0.17556 0.125823 0.967551
-0.191871 0.370662 0.010902 0.371081 -0.613663 0.694391
0.092413 0.825351 -0.03482 0.834239 0.529893 -0.050034
0.173946 -0.559117 -0.084639 0.706011 -0.029965 -0.707465
0.335079 0.389303 -0.061569 0.892061 -0.155219 0.386432
-0.261101 0.395142 -0.087438 -0.361145 0.493152 -0.789558
-0.108849 0.34035 0.03524 -0.886784 -0.225184 0.402874
0.043484 0.58639 -0.095437 -0.010759 0.560008 -0.828137
0.177568 0.194701 -0.038035 0.92815 0.026852 -0.370994
-0.066968 0.222769 0.092247 -0.541171 0.124374 0.831585
-0.131561 -0.004031 -0.045861 -0.935002 0.05729 -0.348609
0.191358 0.333447 -0.018638 0.987895 -0.146296 0.029272
0.064746 0.861076 -0.039109 0.441953 0.868263 -0.188841
0.198738 -0.651647 -0.03417 0.998684 -0.031492 -0.029203
-0.044802 -0.4905 0.063595 0.331366 -0.286772 0.898404
-0.51771 0.09205 0.091886 0.322191 -0.084908 0.826334
-0.039103 0.7481 -0.009768 -0.957511 0.068635 0.239143
0.190758 -0.754396 -0.01969 0.949199 -0.257004 -0.139607
-0.081389 -0.680654 -0.107306 -0.32432 0.077869 -0.940573
0.168734 -0.064643 -0.100046 0.780216 -0.08055 -0.62028
-0.021782 0.074791 0.127118 -0.331757 0.195066 0.920465
0.016405 -0.641603 0.006116 0.802762 -0.087082 0.586676
-0.115275 0.29353 -0.039598 -0.957025 -0.279291 -0.041162
