-0.066685 -0.835434 0.154846 0.215736 0.819775 0.506838
0.07023 0.031518 -0.160955 0.004575 0.065224 -0.997631
0.163061 -0.308818 0.076186 0.25952 -0.06562 0.963378
-0.021708 0.563907 0.017742 -0.058363 0.74928 0.65071
-0.545487 0.071996 0.01614 0.791461 -0.412015 -0.444998
-0.13567 -0.472659 -0.03409 -0.943787 0.045858 -0.319608
0.343997 0.341223 -0.136577 0.074393 -0.025502 -0.994113
0.126817 -0.000389 -0.143595 0.408332 0.133951 -0.90115
-0.051623 -0.56992 0.047517 0.420441 -0.209648 0.879123
0.279895 0.352415 -0.041904 -0.224617 -0.794323 0.562893
0.075577 -0.099586 0.089606 -0.581888 -0.360897 0.676273
-0.132313 -0.403666 0.028714 -0.962525 0.138218 0.229997
0.17206 -0.656542 -0.071767 0.58643 -0.222459 -0.77873
0.017433 -0.719423 -0.071151 0.883645 0.058245 -0.457121
-0.078048 -0.535336 -0.099487 -0.267277 0.099794 -0.958359
0.176438 -0.219262 -0.071176 0.605917 -0.001009 -0.795263
-0.395313 0.183997 -0.030356 0.505167 -0.847653 -0.150713
0.161829 -0.330695 -0.069337 0.650824 0.004421 -0.758829
-0.113109 -0.792955 -0.080377 -0.93842 -0.102791 -0.318291
0.102587 0.327657 0.100473 0.371165 0.12708 0.919635
-0.053344 0.531941 0.046105 -0.200849 0.612149 0.764791
-0.012416 0.027244 -0.148147 -0.240081 -0.082947 -0.952604
0.139583 -0.616655 -0.097238 0.237505 -0.13887 -0.959977
0.146951 -0.524592 0.055667 -0.200313 -0.276869 0.936766
0.129039 -0.090732 0.113991 0.099624 -0.063744 0.992613
0.062311 0.474689 0.078844 0.099932 0.392213 0.913088
-0.23001 0.335163 -0.000288 0.463033 -0.598129 0.653234
-0.127202 0.380494 -0.061915 -0.977165 -0.173199 -0.099432
-0.06129 0.147449 0.100665 -0.562732 0.099127 0.82056
0.048113 -0.135364 -0.0864 -0.649966 -0.302722 -0.694521
0.09554 0.511142 0.055199 0.230907 0.549311 0.800526
-0.037486 -0.115384 -0.104879 0.166425 -0.179317 -0.968529
0.634662 0.053334 0.076044 0.920041 0.379845 0.091634
-0.070946 0.247228 -0.106576 -0.621406 -0.242121 -0.744844
0.092602 0.23908 -0.135876 0.046237 -0.177816 -0.981655
0.323683 0.323078 -0.046337 -0.415121 -0.502878 0.756094
0.087936 -0.856777 0.053996 -0.816391 -0.565516 -0.115528
-0.116081 -0.067083 0.090528 -0.743278 0.02436 0.668257
0.00807 -0.617767 -0.06041 0.706558 0.091178 -0.701672
-0.043961 0.315867 0.099386 -0.398262 0.020363 0.913601
0.313857 0.364004 -0.034028 0.363767 -0.244914 0.882142
0.025412 -0.379704 0.015826 0.980915 -0.08308 0.171706
0.082388 -0.383174 -0.087149 -0.664918 -0.075622 -0.742376
-0.017701 0.322242 -0.129827 -0.008599 0.063238 -0.997371
-0.229412 0.321577 -0.030967 0.703073 -0.708351 0.053653
-0.125233 0.137233 -0.026052 -0.912868 0.146077 -0.372833
0.313241 0.339631 -0.133073 -0.320111 -0.340776 -0.882977
-0.117398 0.19168 0.041181 -0.88745 0.030609 0.4583
0.100845 0.725462 -0.000753 0.989592 0.017348 0.108471
-0.056624 -0.798845 -0.146789 -0.358062 0.068957 -0.923434
-0.29338 0.32724 -0.095499 -0.162585 0.221578 -0.958706
-0.043522 0.428536 -0.129928 -0.065852 -0.077701 -0.994441
-0.020877 0.426423 -0.129954 0.041705 -0.020016 -0.998772
-0.03922 0.172164 0.112573 -0.53837 0.108162 0.835682
0.143771 0.577094 -0.034038 0.310664 0.856802 0.398161
-0.000642 -0.142945 -0.072237 0.781651 -0.165766 -0.600524
-0.084497 -0.632935 -0.104789 -0.235438 0.069771 -0.96799
-0.034257 0.295307 0.108083 -0.579504 0.070046 0.811082
0.137027 0.569972 -0.092695 0.369978 0.693704 -0.615917
0.1852 -0.123229 0.083086 0.719672 0.029277 0.693375
-0.143532 0.529193 -0.07382 -0.453567 0.616416 -0.642198
0.002201 -0.179493 -0.066808 0.745211 0.042859 -0.665093
-0.093536 -0.244699 -0.071275 -0.739318 -0.054176 -0.671048
-0.315306 0.240024 -0.060148 0.425723 -0.834058 -0.335051
-0.03413 -0.154795 -0.094551 0.365547 -0.192004 -0.907133
-0.051106 0.326071 0.097701 -0.326063 -0.085484 0.938685
-0.502474 0.121823 0.081513 0.549474 -0.149195 0.793503
0.121698 -0.013377 -0.146718 0.414071 0.009482 -0.907548
0.253772 0.422489 -0.011039 0.095743 -0.273158 0.950239
0.425313 0.210931 -0.061356 -0.493575 -0.836467 0.237073
-0.028392 -0.097766 -0.106945 0.238599 -0.290223 -0.92577
0.040187 0.52686 -0.121463 -0.101943 0.182063 -0.977881
-0.105792 0.24926 0.050203 -0.945037 0.138171 0.289645
-0.108022 0.158555 -0.053144 -0.839609 0.136222 -0.525598
0.098515 0.367475 0.097353 0.21875 0.084195 0.97171
0.044001 -0.451802 -0.035168 -0.990537 -0.003881 -0.111804
0.085968 -0.111579 0.096194 -0.572177 -0.146182 0.806684
-0.075067 -0.862736 0.135236 -0.024662 -0.992777 0.108895
0.170087 0.180225 -0.056519 0.867351 0.071573 -0.492401
-0.023267 0.211673 0.116546 -0.512554 0.177883 0.839551
-0.108938 -0.747566 -0.00252 -0.454209 0.491036 0.735119
-0.088747 0.084503 0.088916 -0.476327 0.362262 0.777743
0.17421 -0.772099 0.019144 0.702165 -0.060052 0.693315
-0.093609 -0.236066 0.109401 -0.340385 -0.038322 0.939158
0.181211 0.443528 0.042562 0.499643 0.121747 0.856859
0.592919 0.11739 0.007383 0.235163 0.832153 -0.430366
0.225848 0.485573 -0.128013 0.235674 0.287058 -0.92737
-0.371685 0.303057 -0.046736 -0.688433 0.725076 -0.011166
0.141463 -0.095833 -0.118234 0.495953 -0.163445 -0.852022
0.288704 0.422766 -0.016046 0.447279 0.204741 0.869553
0.061963 -0.558327 -0.062062 -0.726608 -0.061855 -0.682839
0.106224 -0.539163 -0.103124 -0.405108 -0.065732 -0.910478
0.166318 0.013443 -0.105806 0.709804 0.014704 -0.676136
-0.050002 -0.722803 -0.120963 0.310282 0.15488 -0.932358
-0.468891 0.148786 0.058653 0.637874 0.073652 0.752327
-0.278493 0.375059 -0.086329 -0.635907 0.290146 -0.713749
-0.232339 0.415289 -0.087495 -0.33038 0.437772 -0.834862
-0.016988 0.449413 0.093187 -0.133244 0.371587 0.918094
0.126513 0.274059 -0.126022 0.619917 -0.077155 -0.780635
0.21076 -0.022783 -0.00713 0.959021 0.047784 -0.27777
0.30685 0.314796 -0.07723 -0.691508 -0.712386 0.101642
0.081577 0.695794 -0.049204 0.848215 -0.377756 -0.362813
0.02906 0.447532 0.091709 0.164955 0.21462 0.961987
0.083473 0.649049 -0.028849 0.969208 0.058701 -0.225732
-0.057385 0.56905 0.003309 -0.129315 0.796316 0.589701
0.066825 -0.379486 -0.072417 -0.740503 -0.052718 -0.66903
0.137507 0.175632 0.09172 0.680657 0.020111 0.732237
-0.051699 -0.171923 0.1226 -0.077296 -0.012228 0.995086
0.178355 0.140378 0.052434 0.755269 0.103008 0.647141
0.093675 0.718505 -0.048424 0.837131 -0.450003 -0.30925
0.123552 -0.307036 -0.09531 0.3952 0.008049 -0.916927
-0.08912 -0.236305 -0.076778 -0.717228 -0.040881 -0.69551
0.186464 0.492303 0.026865 0.321173 0.252301 0.91097
0.097073 0.71434 0.016317 0.840971 -0.369334 0.220763
-0.146244 0.511245 -0.085468 -0.434865 0.441382 -0.783985
0.197568 0.046556 -0.043386 0.95079 0.097181 -0.290495
0.082392 0.843602 0.009493 0.871628 0.475475 0.107559
0.17929 -0.647083 -0.068992 0.60763 -0.210703 -0.765516
0.120741 0.442525 -0.14664 0.069006 -0.036142 -0.996535
0.012351 0.21508 0.128605 -0.048419 0.057334 0.996774
0.089078 0.697018 0.031991 0.97087 -0.234759 0.039639
0.004522 -0.813839 -0.043138 0.944843 -0.225255 0.224218
0.20017 0.069285 -0.02275 0.985011 0.108738 -0.133492
-0.114751 -0.229642 -0.040469 -0.887025 -0.030511 -0.46064
-0.507479 0.085721 0.065046 0.697343 -0.691678 0.106378
-0.473191 0.159148 -0.040461 -0.373784 0.222625 -0.876734
-0.018321 0.611004 -0.018551 -0.910772 0.266811 0.297015
-0.183498 0.418633 0.031557 0.135439 -0.403018 0.902437
0.164028 0.551726 -0.100462 0.31106 0.718079 -0.621861
-0.068174 -0.782273 -0.136766 -0.430313 0.355903 -0.826729
0.025622 -0.469551 -0.016064 0.962789 0.037466 -0.262258
-0.030849 -0.693111 0.022463 -0.499065 0.039509 0.864403
-0.045602 -0.478486 -0.095677 0.173257 0.10765 -0.977838
0.146134 -0.210492 0.091768 0.076371 -0.22258 0.96887
0.016409 -0.33028 0.059817 0.843468 -0.200523 0.494524
-0.011695 0.715101 -0.073489 -0.687363 -0.544554 -0.475001
-0.018028 0.071468 -0.137849 -0.184916 0.229166 -0.955006
-0.065125 -0.863319 0.004807 0.004251 -0.999387 -0.03449
-0.084201 -0.176965 -0.083437 -0.607579 -0.095846 -0.787966
0.135809 -0.628873 -0.096582 0.182527 -0.114371 -0.973458
-0.013477 0.010702 0.139029 -0.206118 0.194023 0.958295
0.210528 -0.142442 0.015002 0.917729 -0.376163 0.109951
0.205624 0.041114 0.027229 0.983565 0.128668 0.117502
0.12932 0.560798 -0.1064 0.244391 0.659806 -0.710362
-0.464627 0.153344 -0.037958 0.239612 -0.583824 -0.74895
0.189849 0.468409 0.032744 0.462513 0.214865 0.859345
0.043193 0.567726 0.024852 0.235889 0.021182 0.965883
0.494357 0.227556 -0.0125 0.456736 0.548012 0.651412
0.043793 -0.200041 0.048998 -0.962952 -0.04894 0.248466
0.093973 -0.858274 -0.028552 -0.630074 -0.695255 0.336373
0.034503 0.029351 -0.157246 -0.198376 0.032642 -0.965342
-0.03816 -0.076195 -0.115469 -0.000954 -0.36405 -0.930663
-0.492336 0.159935 0.027669 -0.753756 0.65479 0.048128
-0.0914 -0.854551 -0.10496 -0.830017 -0.286475 -0.37251
0.358464 0.337014 -0.134087 0.30539 0.067993 -0.949048
-0.105616 -0.818875 -0.063095 -0.874819 -0.459186 -0.030788
0.037395 0.714913 0.096812 0.211747 -0.331041 0.911856
-0.028692 -0.014084 -0.137039 -0.116108 -0.129066 -0.984743
0.139836 -0.860353 -0.108832 0.615011 -0.461828 -0.626672
0.194859 -0.638036 0.000866 0.934452 -0.117832 0.334581
-0.234415 0.357936 -0.094963 0.192026 -0.29449 -0.934988
-0.009647 -0.814627 0.00696 0.952584 0.034686 0.275284
-0.038003 -0.76687 0.019913 0.428603 0.75914 0.479903
0.172264 0.375905 0.048303 0.772009 -0.086027 0.629602
0.348574 0.296172 -0.122643 -0.464255 -0.580878 -0.665646
-0.108923 -0.796514 -0.00464 -0.841009 -0.309597 0.432992
-0.222035 0.430814 0.03085 -0.626118 0.185687 0.755211
0.19134 -0.306731 0.058101 0.901993 -0.081602 0.421719
0.173612 0.451073 -0.137763 0.189637 -0.061136 -0.979496
0.142517 -0.869061 0.04457 0.155754 -0.980809 -0.043612
0.041953 0.490991 -0.126656 -0.210711 0.083022 -0.97384
-0.064532 -0.863643 0.018972 -0.006111 -0.999856 -0.014786
-0.28546 0.401408 -0.047218 -0.553206 0.832348 -0.008509
0.017956 -0.196741 -0.047215 0.881653 0.048905 -0.468626
0.099878 -0.345105 0.072689 -0.350731 -0.225011 0.907052
-0.291792 0.255826 -0.065047 0.52592 -0.785861 -0.307576
-0.110693 -0.842343 0.018472 -0.864717 0.466179 -0.042257
0.095945 0.599177 -0.072918 0.424294 0.821711 -0.347676
-0.493414 0.137855 -0.023795 -0.321167 -0.585746 -0.66001
0.096311 -0.704455 -0.08505 -0.693712 0.053644 -0.718122
0.140394 -0.835984 0.170708 0.436383 0.792295 0.423426
-0.058433 -0.863119 -0.087396 0.001288 -0.999588 0.025578
0.402439 0.257118 -0.126127 -0.1507 -0.243047 -0.953819
-0.031195 -0.596413 0.029264 0.302341 -0.176575 0.93546
0.088252 0.776344 0.052098 0.893858 -0.024013 0.410524
0.610755 0.060741 0.066729 -0.721892 -0.689752 -0.025285
-0.068608 -0.364052 -0.084017 -0.310285 -0.048626 -0.948624
-0.073795 0.395174 0.089981 -0.566474 0.007118 0.819597
-0.068955 -0.046103 0.123542 -0.399318 -0.059087 0.914575
-0.550984 0.08341 0.038799 -0.822614 0.563661 -0.022833
0.070739 -0.529174 -0.074762 -0.718672 -0.070637 -0.691734
-0.079902 -0.55842 0.0612 0.440788 -0.175386 0.879474
-0.113817 -0.485931 0.045815 -0.859604 -0.240554 0.450439
-0.058011 -0.009237 0.133432 -0.273804 -0.566883 0.739439
0.213316 -0.068016 -0.001158 0.98667 0.06054 -0.141686
0.157475 -0.792153 -0.101274 0.651328 0.232738 -0.720012
0.100624 0.792354 0.006095 0.916076 0.193807 0.346153
-0.102878 0.297876 0.050401 -0.893696 0.197866 0.394482
0.181486 -0.041686 -0.085607 0.850297 -0.090553 -0.517215
-0.048545 -0.591744 0.039061 0.481402 -0.291019 0.826746
0.156749 0.007125 0.107675 0.520913 -0.032808 0.8483
0.206617 0.484376 -0.132163 0.17156 0.208465 -0.962741
0.1003 -0.417698 0.052211 -0.556169 -0.331451 0.760924
0.011824 0.760228 -0.118338 -0.294455 -0.220272 -0.924239
-0.026935 0.25253 0.112452 -0.277288 0.011763 0.960681
0.04675 -0.316882 0.036799 -0.890362 -0.059558 0.448488
0.119219 0.385436 0.089206 0.333259 0.072197 0.938471
-0.457059 0.193972 -0.032167 -0.747797 0.348089 -0.558755
0.154239 -0.551559 -0.099587 0.520317 -0.03835 -0.853035
-0.016354 0.718317 0.05856 -0.781066 -0.077596 0.613917
0.183646 -0.739783 -0.037938 0.607384 -0.196158 -0.76803
0.021602 -0.558595 -0.00517 0.917013 0.050941 0.387353
0.315512 0.428793 -0.124896 0.473881 0.636208 -0.608704
-0.089595 -0.44823 0.082257 -0.075057 -0.140071 0.985289
-0.091813 -0.324368 -0.069896 -0.654526 0.026394 -0.755413
-0.090052 0.573982 -0.020595 -0.188381 0.972378 0.109224
-0.085391 -0.622199 -0.10382 -0.268562 0.084425 -0.958768
-0.069224 -0.400615 0.090794 0.134261 -0.160128 0.977807
-0.225707 0.378611 -0.096485 0.062012 -0.00356 -0.996938
0.087688 0.200908 0.117939 0.443115 0.058446 0.893207
-0.012894 -0.428514 -0.070783 0.719044 0.087352 -0.688673
-0.021453 -0.839395 -0.083692 0.915231 -0.360667 -0.022731
0.064229 -0.115441 -0.106167 -0.471863 -0.319488 -0.814546
0.305243 0.394284 -0.144737 0.069682 0.033472 -0.992731
-0.136401 -0.53115 -0.029628 -0.998933 -0.022814 -0.021332
-0.129282 0.124507 0.001986 -0.989183 0.141867 0.019313
0.133555 -0.866686 0.005142 0.079438 -0.992941 -0.08021
0.026861 -0.671987 -0.043725 0.994794 0.00499 -0.076304
-0.282859 0.374028 -0.001189 -0.808825 0.25422 0.521565
-0.15723 0.549118 -0.014314 -0.503449 0.854805 0.024158
0.172245 -0.809819 -0.01124 0.937239 -0.263228 0.176056
0.192132 -0.356635 -0.044642 0.690038 0.267726 -0.667351
-0.095877 -0.858565 -0.08773 -0.811514 -0.530325 -0.129523
0.077275 0.72548 0.06814 0.686439 0.10071 0.719715
0.065444 -0.157426 0.080279 -0.620456 0.02994 0.782447
0.199492 -0.541279 0.000974 0.938568 -0.037279 0.342962
-0.461615 0.186685 0.017833 -0.321054 0.716587 0.599285
-0.501942 0.09458 0.066107 0.691287 -0.65464 0.277621
-0.021454 -0.127023 -0.09577 0.499273 -0.214745 -0.837075
0.003184 0.237676 0.125318 -0.391454 0.094842 0.911702
-0.315405 0.2971 -0.095592 -0.076086 -0.084678 -0.992276
0.089425 0.756729 -0.086759 0.818485 -0.144818 -0.552321
0.597415 0.113759 0.052636 0.735733 0.658189 0.140442
0.2117 -0.128828 0.025902 0.965191 -0.155903 0.202832
0.100134 -0.081621 0.112131 -0.244794 -0.442764 0.850925
0.181398 -0.051676 0.083257 0.725384 0.033553 0.687294
0.001033 -0.819177 -0.031353 0.963139 -0.069913 0.257988
0.013064 -0.153321 -0.051697 0.834556 -0.051419 -0.547598
-0.044362 -0.019528 0.130393 -0.21152 -0.27217 0.91385
0.039983 0.735761 0.105803 0.418256 0.124026 0.839287
0.120948 0.172946 -0.105538 0.427271 0.078458 -0.900112
0.178786 0.369129 -0.100218 0.586281 -0.469808 -0.659268
0.130997 -0.69775 0.025067 0.278873 -0.335457 0.899101
0.164895 -0.094209 0.100684 0.615971 0.036228 0.786853
0.069063 0.627295 0.015668 0.659853 -0.246957 0.705892
-0.204781 0.465489 0.032376 -0.577269 0.265456 0.771157
0.053375 0.666022 0.087663 0.499013 -0.464271 0.67211
-0.07486 -0.239363 -0.086835 -0.500804 -0.026989 -0.860652
-0.118083 -0.790364 -0.066721 -0.957647 -0.162929 -0.215811
0.157253 -0.858329 0.168881 0.726265 -0.384495 0.497933
0.271375 0.389332 -0.020458 -0.199269 -0.404279 0.890243
-0.047868 -0.863917 0.097999 0.045474 -0.998572 0.022533
-0.3429 0.305917 -0.004149 -0.356033 0.392661 0.846851
-0.427799 0.196371 -0.053394 -0.35543 0.052301 -0.930053
-0.105314 0.497752 -0.110373 -0.404849 0.28683 -0.86573
0.121021 -0.807718 0.062952 0.115069 0.764349 0.625619
-0.030929 0.424218 -0.130086 0.000711 -0.038245 -0.999144
0.178611 0.346568 0.031736 0.852347 -0.108106 0.505067
-0.448148 0.2111 -0.037337 -0.751177 0.36228 -0.529774
-0.50506 0.140474 -0.006882 -0.947377 0.192488 -0.235897
-0.10735 0.147538 -0.057399 -0.82154 0.166014 -0.54522
-0.031279 0.729776 -0.04324 -0.820109 -0.425459 -0.367145
0.187717 0.006682 -0.070075 0.83845 0.135101 -0.526484
0.039117 -0.223298 0.014391 -0.278315 -0.28535 0.895902
0.021167 0.41244 -0.127971 -0.030479 0.031945 -0.998672
-0.126923 -0.001831 0.074436 -0.84743 -0.242706 0.466623
-0.179968 0.448419 0.043354 0.010096 -0.216792 0.973647
-0.087518 -0.602468 -0.101115 -0.459953 0.051205 -0.886343
0.135087 -0.723231 0.014886 0.427185 0.022427 0.898768
0.19373 0.381894 0.006157 0.967976 -0.119906 0.219967
0.095792 -0.30437 -0.097809 -0.279765 0.012875 -0.955937
-0.092989 0.253998 0.068836 -0.718692 0.068551 0.6912
-0.124504 -0.328561 0.050311 -0.981982 -0.022903 0.186634
-0.4818 0.112912 0.028302 0.834287 -0.543549 0.002107
0.101234 -0.448785 -0.100344 -0.456975 0.055999 -0.887443
0.277034 0.338939 -0.089082 -0.62714 -0.767013 -0.119777
0.170502 0.339783 -0.090667 0.74912 -0.322698 -0.578321
0.148344 -0.869011 0.070676 0.29687 -0.95454 -0.016795
0.14487 -0.116152 -0.111648 0.484872 -0.222442 -0.844383
0.180349 0.302518 -0.045941 0.885705 -0.288304 -0.362876
-0.016833 -0.095891 0.126653 0.13277 -0.128498 0.98265
-0.123332 -0.603033 0.001209 -0.921819 0.083871 0.37804
0.020198 -0.157232 0.082549 0.902935 -0.157675 0.39677
0.166365 -0.177264 0.092941 0.37633 -0.173817 0.908275
0.165374 -0.627299 -0.083067 0.533012 -0.154802 -0.831424
-0.099894 -0.070959 -0.088948 -0.70121 -0.233646 -0.673291
-0.031206 -0.259736 -0.090277 0.320269 0.00094 -0.94716
0.301856 0.448872 -0.114637 0.544433 0.628298 -0.555598
-0.022859 0.515385 -0.122087 -0.048434 0.242267 -0.968929
0.023175 -0.165066 -0.026438 0.230211 0.010531 -0.905097
-0.081969 -0.103904 0.116284 -0.426134 0.009471 0.902782
0.19041 -0.448618 -0.062521 0.824603 0.13011 -0.54996
0.207775 -0.096474 -0.029282 0.933956 0.058581 -0.351971
0.164286 -0.839634 0.006555 0.931236 0.35788 -0.019797
0.187156 -0.770125 -0.021292 0.954699 -0.288836 -0.033701
-0.014513 -0.344134 -0.069306 0.692938 -0.074313 -0.716996
-0.111696 0.354277 -0.087644 -0.741493 -0.207137 -0.637508
0.161648 0.174563 0.066681 0.720325 0.060472 0.690856
0.143251 -0.664615 0.029554 0.142839 -0.158438 0.976863
0.290028 0.458639 -0.11491 0.498472 0.637164 -0.587371
0.077207 -0.455232 -0.082264 -0.705862 0.034613 -0.707462
0.187273 -0.589646 0.021691 0.628398 -0.181353 0.752886
0.065543 -0.093245 -0.118554 -0.33268 -0.489901 -0.804472
0.087984 -0.053565 0.123564 0.001724 -0.392773 0.918522
-0.047922 -0.685991 -0.10983 0.320598 0.228684 -0.917923
-0.105964 -0.839647 -0.017861 -0.975599 -0.004191 -0.125752
-0.031512 0.527979 -0.117617 -0.184141 0.401556 -0.895603
0.007205 -0.138717 -0.062719 0.804074 -0.123513 -0.581474
0.062424 -0.271381 0.064355 -0.725337 -0.120539 0.677697
-0.039827 0.773813 -0.024329 -0.994908 0.082145 0.038388
0.149353 0.371525 -0.122832 0.587435 -0.244837 -0.770309
0.124561 -0.380604 0.072642 -0.269341 -0.189608 0.943714
-0.086403 0.556067 -0.080464 -0.41782 0.654561 -0.629883
-0.002149 0.296276 0.118313 -0.344001 0.125101 0.929485
0.201744 -0.19947 -0.047568 0.85816 -0.007171 -0.512116
-0.165472 0.388299 0.009646 0.411858 -0.710627 0.569855
0.011931 -0.19372 0.092485 0.822 -0.071246 0.56497
0.083133 0.07263 -0.15089 0.159571 0.248317 -0.95035
0.091278 -0.83556 0.094999 -0.873937 0.468658 0.089668
0.363309 0.363967 -0.083194 0.66064 0.710914 0.235978
-0.037733 -0.830675 0.106557 0.66442 0.666919 0.272819
0.431262 0.211892 -0.04918 -0.534363 -0.741962 0.39389
0.447838 0.201347 -0.086877 0.679757 -0.560856 -0.289536
0.131849 -0.376047 -0.095939 0.471545 0.110117 -0.873189
-0.048427 0.098499 -0.12141 -0.43131 0.289814 -0.854195
-0.102043 0.308032 0.046473 -0.871718 0.180283 0.453661
-0.095786 -0.661772 0.03637 -0.176664 -0.33185 0.916813
0.303708 0.356602 -0.034617 0.107678 -0.494348 0.853993
0.188137 -0.484457 0.03923 0.929006 -0.002752 0.369289
-0.037056 -0.007746 0.142621 -0.278431 -0.087582 0.952014
-0.049736 -0.678743 0.020955 0.080472 -0.285075 0.953188
-0.02377 -0.500522 0.052314 0.441388 -0.258617 0.858932
0.085841 -0.72459 0.036449 0.017691 -0.115084 0.992456
0.320022 0.447686 -0.069642 0.743009 0.641738 0.177656
-0.033438 0.760632 0.014769 -0.945825 -0.114804 0.296412
-0.068933 0.00908 -0.129513 -0.400206 -0.089797 -0.906644
0.002246 0.670533 -0.053679 -0.700285 -0.232423 -0.671436
-0.025899 -0.108007 0.126571 0.109499 -0.116884 0.986393
-0.106649 -0.400774 -0.057471 -0.723603 -0.052129 -0.683517
-0.128923 0.07337 -0.017796 -0.982966 0.15194 -0.063234
0.022452 0.700593 0.089705 -0.445748 -0.195338 0.861836
0.024836 -0.281809 0.049986 0.948034 -0.022329 0.308092
-0.022903 0.141533 -0.11146 -0.231412 0.514414 -0.823461
0.083052 -0.801213 -0.083103 -0.869947 0.168375 -0.462243
-0.068216 -0.459051 -0.094194 -0.143031 0.103225 -0.981181
-0.129172 -0.280656 0.042838 -0.988024 -0.139606 0.0602
0.191479 -0.753194 -0.008611 0.957026 -0.271453 0.088914
0.396617 0.284284 -0.128823 0.082919 0.004006 -0.991053
0.0758 0.403501 0.096255 0.136463 0.212233 0.967198
0.538858 0.193955 -0.054132 0.158967 -0.802524 -0.565735
-0.12887 -0.259869 0.065612 -0.955924 -0.124466 0.261574
-0.127458 0.377869 -0.046167 -0.982656 -0.172867 -0.001507
0.047091 0.156603 0.130363 0.121419 0.039586 0.991801
0.1332 0.268754 -0.11968 0.706561 -0.098861 -0.699184
-0.078516 -0.863679 0.067498 -0.05127 -0.998662 -0.00177
-0.160294 0.54132 -0.041185 -0.526584 0.778663 -0.333371
0.153234 0.257887 0.067653 0.783294 0.072527 0.617353
0.00341 -0.291436 0.084648 0.562951 -0.20319 0.796151
0.054514 -0.62476 -0.005476 -0.719475 0.334223 0.598781
0.059907 -0.768204 -0.01519 -0.994076 0.042076 -0.098062
0.060662 0.506374 0.062907 0.056072 0.51329 0.855779
0.185538 -0.372789 0.059757 0.845126 -0.04024 0.532371
0.194153 -0.34718 0.04423 0.910461 -0.066847 0.407291
0.010477 0.847666 0.047853 -0.420132 0.596967 0.677535
-0.197342 0.362578 0.005048 0.376041 -0.700718 0.596754
-0.117548 -0.442379 0.060714 -0.83402 -0.186753 0.518991
0.214107 -0.067024 0.015748 0.999084 0.025606 0.032404
-0.03538 0.825669 -0.057725 -0.80715 0.390242 -0.377601
-0.061567 0.580135 -0.017687 -0.206229 0.882178 0.39092
-0.024057 0.794982 -0.094485 -0.775329 0.02983 -0.621612
0.037915 0.760297 -0.120435 0.109365 -0.128626 -0.982881
-0.11469 -0.70548 -0.08329 -0.747319 -0.113111 -0.654063
0.361309 0.265425 -0.089074 -0.772017 -0.627337 -0.069713
0.10169 -0.84853 -0.110742 -0.560433 0.08882 -0.818527
-0.121646 0.359655 -0.01295 -0.974158 -0.220468 0.042273
-0.118944 -0.337606 -0.039461 -0.857966 0.100645 -0.502987
0.18202 -0.449645 -0.073002 0.729289 0.150999 -0.666491
0.47764 0.184168 -0.002076 -0.590328 -0.782757 0.191363
0.356033 0.37214 -0.116438 0.778692 0.591968 -0.198171
-0.11153 -0.810374 -0.070405 -0.888889 -0.430185 -0.109884
-0.114618 -0.656458 -0.088684 -0.659367 0.004448 -0.748828
0.122501 -0.086186 -0.127672 0.199799 -0.257854 -0.944139
0.198654 -0.166559 0.053486 0.959569 -0.086051 0.266567
-0.286919 0.257634 -0.034585 0.695621 -0.703835 0.133914
0.173791 0.501914 -0.130566 0.123953 0.314878 -0.940701
0.166125 0.213488 -0.062164 0.869378 -0.006716 -0.493941
0.077186 0.566225 -0.110927 -0.062698 0.590685 -0.803206
0.198787 0.115702 0.004612 0.977893 -0.196193 0.030739
-0.121148 -0.724796 -0.023902 -0.788392 0.18569 0.580936
0.02154 0.604619 -0.080499 -0.08821 0.617679 -0.781203
0.068431 0.574254 0.014859 0.514509 0.195293 0.831477
0.066576 0.012147 0.139158 0.179896 0.137611 0.972392
0.169586 -0.81851 -0.030035 0.785233 -0.617429 0.039205
-0.058586 0.540566 -0.106002 -0.271178 0.435736 -0.858197
0.001796 0.641831 0.01848 -0.737092 -0.237148 0.632517
0.314339 0.307735 -0.076782 -0.675413 -0.71849 0.14529
-0.035786 0.76634 -0.061555 -0.982879 -0.068095 -0.169511
-0.13634 -0.163468 0.058897 -0.977525 -0.016176 0.203077
0.411798 0.315601 -0.105863 0.666745 0.639218 -0.366914
0.000108 0.039072 0.137125 -0.172983 0.076119 0.98189
0.086269 -0.827947 -0.029545 -0.766569 -0.609726 -0.001973
0.304822 0.46541 -0.079636 0.74865 0.657668 -0.071254
-0.119575 0.356518 0.009965 -0.973779 -0.170194 0.145002
-0.125731 -0.231535 -0.019904 -0.899133 -0.036539 -0.434123
0.109653 -0.690769 0.032933 0.34697 -0.063912 0.934135
-0.138278 -0.478531 -0.025433 -0.968653 0.037195 -0.240448
0.109702 -0.414554 0.058748 -0.458053 -0.233012 0.857773
-0.143449 -0.090042 0.02933 -0.991572 0.023676 0.123161
0.064968 -0.40093 0.025155 -0.694508 -0.328057 0.640317
-0.126159 0.141153 0.019164 -0.982754 0.051906 0.174826
0.046224 -0.598881 -0.033534 -0.985628 -0.035188 -0.114923
0.474308 0.186637 -0.049622 -0.512769 -0.645085 -0.499563
-0.096761 0.541643 -0.088597 -0.384073 0.594793 -0.705321
-0.123195 -0.544759 -0.068203 -0.802109 0.110064 -0.586548
0.021638 0.735782 0.096639 -0.873846 0.110532 0.442815
0.027102 0.102384 -0.138153 -0.162068 0.293896 -0.941585
0.074038 -0.318908 -0.084912 -0.637858 -0.027693 -0.768428
0.207059 0.006222 0.025756 0.99775 0.016506 0.057592
0.12751 -0.285652 -0.093784 0.401261 -0.026096 -0.915258
-0.11222 -0.844829 0.028655 -0.932421 0.275206 -0.01899
0.144682 -0.825866 0.097062 0.293647 0.94107 0.150767
0.35836 0.356968 -0.062534 0.617932 0.567214 0.54434
-0.008859 0.007626 -0.143172 -0.169995 -0.193267 -0.966006
0.095316 -0.341922 -0.098064 -0.343062 0.007164 -0.934817
-0.068965 0.436106 -0.127491 -0.207331 -0.135527 -0.968353
-0.131552 -0.447551 0.03043 -0.909306 -0.125352 0.396325
0.084618 -0.383664 0.05172 -0.561909 -0.239954 0.789837
-0.025836 -0.425737 0.075198 0.367519 -0.192376 0.908578
0.143843 0.214959 0.082831 0.72354 0.066087 0.686465
0.046638 0.852464 0.04682 0.317498 0.692857 0.646394
0.317858 0.308582 -0.108802 -0.591191 -0.687825 -0.415679
0.081009 0.73903 -0.089561 0.662254 -0.388179 -0.640725
0.20622 -0.159318 -0.033228 0.983256 -0.007012 -0.170624
-0.244125 0.305965 -0.027017 0.740207 -0.654484 0.151131
0.027392 -0.598662 -0.024697 0.994474 0.036142 -0.059696
-0.120362 0.183453 0.035732 -0.888527 0.058974 0.4531
-0.035005 0.433912 -0.130674 0.0024 -0.076402 -0.996376
0.041165 -0.337496 -0.039355 -0.875981 -0.063964 -0.477742
-0.291288 0.37024 -0.069066 -0.854723 0.41723 -0.293211
-0.356111 0.283544 0.002892 -0.058074 0.298119 0.951553
0.3683 0.257683 -0.071836 -0.729487 -0.645921 0.222735
0.177106 0.071357 0.073892 0.843598 0.116298 0.48844
-0.038698 0.81047 -0.027433 -0.958049 -0.261381 0.070932
-0.012525 0.633206 -0.020301 -0.981162 0.159609 0.065075
0.098486 -0.695644 0.035724 0.131058 -0.000181 0.988267
0.162714 -0.131086 0.101366 0.526416 -0.122484 0.84019
0.17433 -0.541568 0.044801 0.522536 -0.246537 0.809933
-0.099256 -0.081907 0.107317 -0.589446 0.048126 0.805834
0.215432 0.403425 -0.068214 -0.904952 -0.414153 0.037569
0.172362 -0.741388 0.004278 0.332377 0.741261 0.5806
-0.104596 -0.660472 -0.095871 -0.553422 -0.016608 -0.832348
0.303515 0.420063 -0.137055 0.26998 0.451509 -0.848166
-0.368049 0.200968 -0.039478 0.619822 -0.771077 -0.139808
0.092587 -0.792149 -0.095583 -0.79464 0.288306 -0.530645
0.122288 0.588744 -0.072078 0.365516 0.88227 -0.279029
0.175295 -0.802341 -0.07355 0.959568 -0.174781 -0.194283
-0.087302 0.546521 0.02832 -0.037049 0.741444 0.669788
0.078762 -0.326876 -0.088376 -0.628628 -0.023696 -0.777171
-0.112283 0.255652 -0.007752 -0.998966 0.037016 -0.002027
0.143455 -0.356881 -0.085245 0.611544 0.079887 -0.786882
-0.117527 -0.780955 -0.071757 -0.94232 -0.052773 -0.325663
0.016951 -0.078042 -0.0989 -0.069636 -0.706638 -0.692572
-0.046201 -0.389143 0.088845 0.173747 -0.172666 0.969471
0.158439 0.359704 0.062121 0.67773 -0.108886 0.72694
0.007468 -0.573246 -0.05857 0.790641 -0.005505 -0.612064
0.068429 -0.585953 0.00864 -0.652358 -0.142186 0.744257
-0.230194 0.331837 -0.072726 0.542895 -0.671413 -0.500049
-0.119522 -0.578153 0.009606 -0.908017 -0.046539 0.414585
0.180638 0.241007 -0.027701 0.960391 0.00726 -0.264868
-0.125132 -0.373087 -0.035256 -0.915237 0.010302 -0.398708
-0.169825 0.46094 0.04886 -0.456337 -0.165753 0.873965
0.072057 -0.061067 -0.13624 -0.220575 -0.382122 -0.896626
0.110671 -0.573546 -0.100753 -0.445071 -0.158523 -0.880971
0.157338 0.437457 0.061963 0.740299 0.08407 0.66688
0.124521 -0.546258 0.043914 -0.311449 -0.07884 0.946813
0.611343 0.094198 0.044654 0.773815 0.633345 0.00637
-0.131448 -0.481807 0.016903 -0.844555 -0.223785 0.485506
-0.071373 -0.497482 -0.097599 -0.180449 0.082049 -0.979555
0.014897 -0.706203 -0.016331 0.801627 -0.139927 0.57948
0.330496 0.295452 -0.069153 -0.649427 -0.650121 0.392056
0.071913 0.816041 0.05954 0.727111 0.380618 0.558224
0.186032 0.14592 0.041582 0.830513 0.129716 0.53818
-0.225382 0.458645 -0.058301 -0.587593 0.643249 -0.488981
-0.062755 0.226931 -0.106117 -0.617139 -0.266598 -0.740296
-0.2921 0.29227 -0.092593 0.233037 -0.376246 -0.895982
-0.339121 0.329835 -0.051074 -0.65677 0.752094 -0.047122
0.052383 -0.291281 0.048962 -0.768758 -0.090996 0.631531
0.322448 0.321158 -0.126759 -0.417165 -0.508842 -0.740898
-0.31993 0.285864 -0.093888 -0.03579 -0.208142 -0.976946
-0.06979 0.139758 0.09657 -0.574591 0.087342 0.8131
-0.105327 -0.763138 -0.09461 -0.830732 -0.001095 -0.555342
0.35109 0.37331 -0.125036 0.694452 0.432175 -0.574338
0.096622 0.501329 0.059793 0.227681 0.478568 0.847294
0.026416 -0.652241 -0.0185 0.968828 -0.100692 0.192987
-0.14269 -0.135007 0.036825 -0.977529 -0.015917 0.202473
0.163379 -0.007414 0.097425 0.631351 -0.143009 0.759752
0.177168 0.385605 -0.111597 0.43238 -0.501361 -0.748586
0.087103 -0.771137 -0.075321 -0.788605 0.268714 -0.551189
-0.063347 -0.86065 -0.126109 -0.104222 -0.927442 -0.316274
0.155243 -0.294652 -0.0745 0.583017 -0.038414 -0.811231
-0.00207 -0.719582 -0.091197 0.61408 0.235947 -0.752302
-0.103985 -0.729046 -0.094467 -0.822876 0.00612 -0.566739
0.078968 -0.082586 -0.128128 -0.190867 -0.416526 -0.888681
-0.000299 -0.488135 0.038551 0.66647 -0.226691 0.709915
0.051503 -0.245375 -0.057963 -0.818017 -0.080255 -0.568551
-0.012649 0.473233 0.084321 -0.061815 0.454527 0.886606
0.19 0.319326 -0.018556 0.993436 -0.109149 0.012706
0.138799 0.168376 -0.095132 0.606904 0.074976 -0.789703
-0.328347 0.239899 0.003495 0.291038 -0.36932 0.869766
-0.504713 0.130862 -0.004867 -0.669479 -0.266279 -0.539389
0.098104 -0.601861 -0.089473 -0.591968 -0.092277 -0.797494
0.641193 0.033147 0.07814 0.898715 0.065376 0.306811
-0.060246 -0.567149 0.051266 0.346393 -0.185119 0.9195
-0.19213 0.43755 0.041907 0.088498 -0.299231 0.946293
0.027363 -0.234459 0.043517 0.979693 -0.019076 0.199205
0.011432 -0.744951 -0.081542 0.812369 0.058695 -0.578637
0.251575 0.369323 -0.049385 -0.658379 -0.653617 0.371681
0.148888 0.147277 0.081724 0.696927 0.042416 0.715869
-0.129246 -0.613766 -0.05597 -0.996896 -0.014893 -0.065309
0.139469 -0.783629 0.038014 0.385247 0.134138 0.892016
-0.55805 0.060068 0.001749 0.023523 0.151302 -0.755309
0.350557 0.364188 -0.130888 0.547386 0.326737 -0.759688
0.154007 -0.480022 -0.099927 0.441291 0.087803 -0.892994
-0.102842 0.218006 0.066218 -0.738402 0.099545 0.662764
-0.160407 0.468802 -0.091595 -0.374563 0.157768 -0.913431
0.11134 0.447123 -0.147002 -0.011208 -0.002434 -0.999439
-0.032635 0.504479 -0.124797 -0.058188 0.31184 -0.948209
0.111759 -0.399008 0.063918 -0.428314 -0.172147 0.884727
-0.067536 -0.51773 -0.099894 -0.145609 0.109443 -0.982137
0.003374 0.522835 -0.121301 0.001588 0.185517 -0.982623
-0.052846 -0.331193 0.10019 0.257836 -0.137745 0.955471
-0.282638 0.355221 0.006003 -0.53813 0.167627 0.82221
0.095304 -0.285488 -0.097245 -0.305751 0.030783 -0.949416
-0.036503 0.776456 -0.05661 -0.991728 0.041336 -0.12039
0.030203 -0.29112 -0.005236 0.990317 -0.104869 -0.066227
-0.122484 -0.663596 -0.017865 -0.964962 -0.092085 0.242882
-0.101627 -0.782717 0.003888 -0.641596 0.193911 0.739975
-0.00646 -0.012642 -0.140067 -0.135336 -0.220111 -0.965553
-0.347946 0.311381 -0.010964 -0.493583 0.551714 0.664006
0.157328 -0.860414 -0.035394 0.579814 -0.779841 0.159468
-0.127641 -0.322504 -0.014705 -0.99066 -0.002259 -0.132886
0.037003 0.626507 0.030556 0.032192 -0.450037 0.886621
0.146866 -0.829829 0.118907 0.406896 0.901482 0.126165
0.161822 0.515257 0.029683 0.293104 0.573755 0.748189
0.196939 -0.313684 0.044573 0.90173 -0.065934 0.424236
0.030298 0.81563 0.074794 -0.095925 0.454718 0.883286
0.15219 -0.864857 -0.080561 0.69178 -0.689586 -0.075636
0.199529 0.037739 -0.038166 0.967391 0.068806 -0.242991
0.220987 0.464351 -0.133585 0.059397 0.064973 -0.994959
0.120374 -0.199716 0.096301 0.051126 -0.186516 0.980401
-0.005138 0.54657 0.039382 0.32101 0.745111 0.580379
0.064462 -0.723843 -0.027357 -0.822113 -0.218055 -0.524038
0.087524 0.692824 0.040955 0.919085 -0.335662 0.136035
0.18665 0.400892 0.036092 0.816825 -0.168196 0.549225
0.181921 0.288895 -0.029423 0.963977 -0.155649 -0.211397
-0.052325 -0.717989 0.015771 -0.528171 0.343832 0.774792
-0.101405 0.336754 0.048256 -0.839882 -0.202657 0.50296
0.093894 -0.779964 0.039058 -0.152368 0.859918 0.487078
0.124683 0.316573 0.091723 0.5519 0.080743 0.829865
0.013159 -0.410214 -0.040274 0.822604 -0.030167 -0.567614
0.126701 0.574167 -0.018821 0.299542 0.797555 0.499
0.520835 0.211365 -0.062604 0.140791 -0.305593 -0.91834
-0.071078 -0.604295 0.046776 0.481544 -0.240266 0.842681
-0.02736 0.446686 0.092137 -0.190837 0.30972 0.930756
-0.060225 -0.632249 0.035074 0.379478 -0.231728 0.89562
0.620899 0.078388 0.064079 0.869724 0.4906 0.050229
0.007603 0.221919 -0.12737 0.080802 -0.065222 -0.993898
0.206894 0.007023 -0.004235 0.996531 0.031937 -0.05945
-0.416747 0.250637 -0.020425 -0.749513 0.657994 0.065008
-0.040196 0.74585 -0.02975 -0.991682 -0.018482 -0.088411
0.342994 0.402653 -0.126896 0.672379 0.346632 -0.644869
0.046739 -0.431329 -0.00753 -0.846098 -0.115582 0.510526
0.555107 0.100666 -0.027023 -0.051698 -0.380338 -0.7433
-0.073348 -0.350976 -0.082631 -0.398614 -0.019675 -0.915051
0.025212 0.458196 -0.126606 -0.062626 0.057298 -0.995975
-0.058694 0.499903 0.064525 -0.152517 0.411383 0.89835
-0.106213 -0.51468 -0.081969 -0.680993 0.119687 -0.72173
0.02522 0.185804 0.130295 0.011113 0.029311 0.999441
0.096893 0.568002 0.005377 0.165896 0.745498 0.638465
-0.070808 0.031117 -0.130742 -0.551517 0.212955 -0.804576
-0.126483 -0.628001 -0.012174 -0.97873 -0.096686 0.174026
-0.12969 -0.235744 0.069181 -0.944388 -0.071906 0.320508
-0.144047 -0.068234 0.013736 -0.999664 0.01908 0.011915
0.071743 -0.697723 -0.051599 -0.841636 -0.148669 -0.51789
-0.11286 -0.354416 -0.05119 -0.768806 0.114186 -0.627551
0.154543 0.335787 0.062443 0.715572 -0.063553 0.695604
-0.024922 0.451319 -0.131175 0.095801 0.000482 -0.994834
-0.183801 0.509654 -0.057313 -0.643061 0.520706 -0.559704
0.121827 0.00923 -0.14457 0.427662 0.063819 -0.901135
0.093201 0.774041 -0.082507 0.843597 0.029756 -0.535917
0.165507 -0.527842 0.053574 0.327549 -0.274718 0.89798
-0.011169 0.422186 0.100523 -0.045774 0.303261 0.950244
0.080006 -0.042547 0.128397 0.045332 -0.272539 0.954847
-0.071698 -0.860972 0.14681 -0.005486 -0.973478 0.225315
0.195169 -0.623483 -0.056727 0.828616 -0.054595 -0.556964
-0.562238 0.037852 0.008006 0.903763 -0.419808 -0.019179
0.098607 -0.151293 0.100909 -0.53177 -0.080909 0.842009
-0.130511 -0.274841 0.012338 -0.984141 -0.164875 -0.051703
-0.105963 0.567993 -0.02256 -0.303636 0.940551 0.079032
0.19046 -0.445208 0.039911 0.955277 -0.090511 0.279172
0.191804 -0.182613 0.072219 0.907679 -0.057188 0.406071
-0.012432 -0.389816 0.07671 0.569101 -0.218962 0.792533
-0.096457 0.383598 0.070382 -0.610649 -0.141649 0.778889
0.013458 0.0294 0.139927 -0.020633 0.174666 0.983313
-0.12786 0.187136 -0.003071 -0.987677 0.077363 -0.112341
-0.117125 -0.643622 0.019335 -0.89618 -0.060291 0.439133
0.158734 -0.083849 -0.107466 0.84016 -0.09607 -0.506063
-0.027734 0.223534 -0.125521 -0.200184 -0.199726 -0.958956
0.152964 -0.86565 0.041593 0.376352 -0.920325 -0.047843
0.029414 0.200431 0.129683 0.014411 0.049265 0.998602
-0.094623 0.44301 -0.121087 -0.266843 -0.109923 -0.956986
0.55117 0.158665 -0.017106 0.727052 0.111917 -0.66724
-0.073805 -0.769957 0.020657 -0.484387 0.284834 0.805126
0.143364 -0.865589 0.00868 0.19331 -0.977278 -0.068215
-0.110297 0.487532 -0.110921 -0.434117 0.215987 -0.873845
0.047837 0.493825 0.070578 0.101211 0.547666 0.830111
0.073029 -0.823006 -0.010398 -0.436 -0.889551 0.05437
-0.044669 -0.859805 -0.049604 0.208416 -0.973391 0.074544
0.087911 -0.497563 -0.093169 -0.593661 -0.022831 -0.803209
0.030324 0.738298 0.102695 -0.331721 0.31827 0.862968
-0.135797 0.001669 -0.027883 -0.987669 0.043303 -0.143525
-0.284252 0.38148 -0.07582 -0.878954 0.190611 -0.429851
-0.132863 -0.124064 0.066964 -0.857966 0.024829 0.512187
-0.035165 -0.486231 0.061308 0.338993 -0.335972 0.878241
0.122569 0.071655 -0.132947 0.549369 0.244976 -0.798572
-0.101464 -0.719864 -0.097887 -0.776094 0.022642 -0.630069
0.063707 -0.739497 -0.022761 -0.860483 0.011105 -0.505434
0.107077 0.595711 -0.066716 0.504934 0.818461 -0.245492
-0.084484 -0.672532 0.033075 0.167328 -0.352658 0.915656
0.145866 -0.323722 -0.08204 0.581172 0.023562 -0.811849
-0.092964 0.317363 0.061463 -0.876994 0.091251 0.467481
0.097663 -0.235869 -0.09648 -0.329618 -0.036544 -0.941898
0.147842 -0.06317 -0.121416 0.629927 -0.197778 -0.750806
-0.091985 0.349272 0.066039 -0.770911 -0.162471 0.613346
0.002498 0.862155 0.005396 -0.346895 0.920907 0.071467
-0.344184 0.250665 -0.080197 0.194195 -0.411097 -0.889899
-0.072774 -0.506771 0.070698 0.365537 -0.227252 0.902365
0.026286 -0.221219 -0.03241 0.1454 -0.073256 -0.901562
0.093302 -0.591761 0.027788 -0.331759 -0.052428 0.939968
-0.229393 0.469099 -0.030339 -0.786972 0.611012 -0.07965
0.109451 0.072027 0.112798 0.50994 0.137878 0.848524
0.153631 -0.097493 -0.109447 0.639026 -0.13599 -0.756932
0.092678 0.517315 -0.133228 -0.104942 0.393243 -0.911609
-0.074049 -0.036427 0.121535 -0.436708 0.020278 0.897821
0.086297 -0.303227 -0.094237 -0.439205 0.0118 -0.897868
0.070562 0.240642 -0.134654 -0.223724 -0.159482 -0.960956
-0.136337 -0.409349 -0.003457 -0.991417 0.090668 -0.078956
-0.139817 -0.138179 0.046157 -0.948586 -0.014275 0.315815
-0.034984 0.116194 -0.120812 -0.287296 0.336399 -0.895513
-0.34005 0.328019 -0.028622 -0.680097 0.722913 0.11631
0.165498 -0.637169 -0.081223 0.545087 -0.16913 -0.820597
0.102158 -0.868245 0.031144 -0.324024 -0.937734 -0.099848
-0.094 -0.355442 -0.070298 -0.789316 0.042217 -0.576611
0.073905 -0.033174 -0.148392 -0.170679 -0.399109 -0.898854
0.295698 0.412419 -0.141884 0.077168 0.296363 -0.948076
0.018201 -0.776789 -0.059293 0.991916 -0.095832 -0.00084
0.37886 0.274433 -0.039543 -0.433688 -0.25222 0.857885
0.191084 -0.075422 -0.064381 0.876489 -0.011527 -0.480004
-0.293635 0.373466 -0.053192 -0.879249 0.448449 -0.116403
0.192979 -0.198255 0.064868 0.949431 -0.066514 0.304233
0.177246 -0.382366 -0.065562 0.683901 0.221076 -0.689004
0.106299 0.50424 0.05619 0.306645 0.484043 0.817184
0.187613 -0.602294 0.019126 0.469322 -0.143803 0.86954
0.187064 0.421969 0.039574 0.678428 -0.051705 0.732336
-0.554746 0.071228 0.001518 -0.617818 0.51995 -0.274083
0.139038 0.11152 0.092822 0.670022 0.089609 0.736176
-0.058766 0.214889 -0.105332 -0.594377 -0.283079 -0.752101
0.20667 0.03635 0.005623 0.999004 0.040926 -0.005937
-0.138747 0.032438 -0.00131 -0.955527 0.264319 -0.118149
0.391946 0.324871 -0.060778 0.481473 0.636674 0.598978
0.192991 -0.436746 -0.054995 0.829254 0.132976 -0.542676
-0.076126 -0.091923 -0.102512 -0.536904 -0.188365 -0.819083
0.083497 0.627644 -0.012279 0.95501 0.069261 0.277242
0.490609 0.172382 -0.019237 -0.650948 -0.757731 0.007871
0.046812 -0.007168 0.138297 0.067364 -0.425604 0.901066
0.11524 -0.86643 0.004794 -0.147124 -0.98023 -0.092557
0.027041 -0.638204 -0.037971 0.987961 0.015145 -0.145234
0.083577 0.687247 0.049254 0.903462 -0.36304 0.219951
-0.272098 0.411389 -0.02804 -0.732786 0.676002 0.068669
0.43231 0.242345 -0.11462 0.447207 -0.397567 -0.798201
0.014353 -0.281268 -0.045133 0.819299 -0.102983 -0.561574
0.046909 0.855016 -0.067184 0.152205 0.855469 -0.49464
0.115501 0.591294 -0.061374 0.417198 0.886268 -0.065355
-0.018918 0.234655 -0.12831 -0.081768 -0.108866 -0.990263
-0.072504 -0.801959 0.051564 -0.425506 0.768693 0.462342
-0.099665 -0.826996 0.02381 -0.867244 0.475848 0.12884
-0.14013 0.007005 0.018659 -0.955992 -0.286461 -0.033263
-0.05493 0.193974 -0.10024 -0.526635 -0.234407 -0.816872
-0.126997 -0.604355 -0.06947 -0.927952 0.022958 -0.364109
0.088929 -0.560058 0.028513 -0.542858 -0.021492 0.837759
0.158749 -0.604407 -0.091268 0.521794 -0.158913 -0.837524
0.01463 -0.736038 -0.076755 0.811794 0.026523 -0.581136
-0.01581 0.286328 -0.131527 0.002227 -0.008723 -0.999677
-0.168353 0.368874 -0.042547 0.693527 -0.698453 -0.160248
-0.126409 -0.721891 -0.034157 -0.968008 0.03685 0.236546
0.363311 0.363865 -0.114339 0.700094 0.611707 -0.329353
-0.090941 -0.653645 0.039696 -0.046676 -0.267626 0.956962
0.142185 0.431641 -0.142583 0.253718 -0.166488 -0.952602
-0.016763 0.028219 0.135988 -0.209906 0.187955 0.959007
-0.111653 0.326328 0.021696 -0.939734 -0.125674 0.31434
-0.116636 0.356252 0.023283 -0.938185 -0.20414 0.278665
0.567434 0.141184 -0.006876 0.633084 0.179168 -0.735963
-0.117616 -0.4321 0.063966 -0.82028 -0.193776 0.537362
-0.1286 -0.371219 -0.00453 -0.999762 0.008286 -0.00936
0.024276 -0.570061 -0.008355 0.904191 0.070385 0.413057
-0.050853 -0.53493 -0.101496 0.194074 0.060756 -0.978919
-0.128756 0.397252 -0.036497 -0.926162 -0.354195 -0.004036
-0.073924 -0.815757 0.06348 -0.386588 0.749169 0.502037
-0.373116 0.216605 0.00958 0.273021 -0.154241 0.944469
0.206926 -0.068249 0.046869 0.930663 0.072916 0.358381
-0.128174 0.131287 -0.015427 -0.989515 0.060508 -0.129557
0.059177 -0.43227 0.0047 -0.634188 -0.222741 0.739616
0.012167 -0.685079 -0.004878 0.83994 -0.243829 0.445949
0.266824 0.469314 -0.009059 0.655024 0.064359 0.7499
0.02193 0.203443 -0.120379 0.175349 -0.444983 -0.877603
0.063409 -0.073662 -0.127849 -0.306048 -0.398382 -0.864251
0.136527 0.022298 -0.135164 0.615726 0.053271 -0.784175
-0.492593 0.157104 0.045392 -0.653615 0.729532 0.189752
0.109248 -0.816479 0.074672 -0.18919 0.896222 0.394937
-0.036006 -0.047295 0.130889 -0.108321 -0.140236 0.983809
0.101062 0.043113 0.121669 0.348752 0.208601 0.912509
0.119056 -0.824524 0.124983 -0.078563 0.994119 0.028226
0.107355 0.077071 -0.140703 0.532266 0.264576 -0.804013
0.167 0.04662 -0.100175 0.776523 0.22769 -0.587251
0.203959 -0.543791 -0.035653 0.96652 -0.027113 -0.249112
0.108269 -0.232465 0.089793 -0.037053 -0.147785 0.987943
-0.083505 -0.861387 0.140539 -0.188732 -0.955897 0.20988
0.20111 -0.331886 0.030899 0.935691 -0.055112 0.348041
0.101707 -0.284996 0.082168 -0.134037 -0.107107 0.984858
-0.112748 -0.189453 0.100252 -0.695914 0.003999 0.717704
0.109536 -0.104652 -0.123652 0.024966 -0.312455 -0.948183
-0.134589 -0.005614 0.050213 -0.941464 -0.107863 0.27609
0.089018 -0.748245 0.02506 -0.060012 -0.62242 0.778922
0.124728 -0.008212 0.119187 0.344256 -0.20405 0.914942
0.020666 0.620048 -0.070114 -0.19214 0.517392 -0.830605
-0.063234 -0.86279 -0.111645 -0.039435 -0.995378 -0.075345
0.214341 0.476742 -0.132675 0.124052 0.19262 -0.97311
-0.445675 0.192816 -0.043515 -0.587062 0.252682 -0.766057
-0.376738 0.240537 0.010675 0.053109 0.054783 0.997023
0.017046 0.064961 -0.145431 -0.155591 0.209322 -0.965287
0.195856 -0.615943 0.005628 0.923646 -0.161242 0.334521
-0.072421 0.207716 0.091117 -0.561189 0.116801 0.819004
0.182432 0.227216 0.01123 0.998733 0.013592 0.045834
0.065889 -0.62215 -0.060449 -0.70114 -0.081343 -0.707524
0.007904 -0.015419 -0.140964 -0.10556 -0.280158 -0.954098
-0.061267 0.117481 0.100659 -0.542103 0.12392 0.829716
0.085493 0.038408 0.128179 0.373622 0.148232 0.915383
-0.512696 0.124648 0.005712 -0.830868 -0.027078 -0.497424
0.035273 0.102392 0.136131 0.019955 0.024584 0.996004
0.081801 -0.094374 0.09689 -0.498033 -0.393028 0.764909
-0.071128 0.346897 -0.115453 -0.488262 -0.081048 -0.868826
0.186061 0.524472 0.013344 0.27342 0.542127 0.794138
-0.168412 0.381367 0.003012 0.516833 -0.686873 0.507631
-0.095557 -0.815881 0.024738 -0.906845 0.336852 0.245075
0.155134 -0.229139 -0.08448 0.522688 -0.129174 -0.842501
-0.041556 -0.086686 0.127755 -0.107069 -0.045689 0.992023
0.048045 0.543928 0.035247 0.065149 0.746156 0.659021
0.04229 -0.35943 -0.037519 -0.876795 -0.038993 -0.474656
-0.018323 0.356608 -0.128865 -0.009988 -0.007394 -0.999857
0.006747 0.634781 -0.058793 -0.483514 0.287884 -0.821698
0.257926 0.506365 -0.093816 0.558381 0.62988 -0.539796
0.121553 -0.468095 -0.106037 -0.04662 0.08272 -0.993011
0.192373 -0.503541 -0.063563 0.852276 0.013753 -0.522716
0.180831 0.300782 0.021015 0.92678 0.023628 0.360211
0.12399 -0.642435 0.034962 0.215339 -0.088299 0.968491
-0.202335 0.342274 -0.051155 0.612099 -0.769258 -0.167248
0.007581 0.140575 -0.11839 -0.092914 0.409873 -0.907384
0.437446 0.212174 -0.040164 -0.690366 -0.477583 0.518203
-0.100201 -0.317806 -0.061903 -0.695417 0.037857 -0.716609
0.076485 -0.288567 0.072442 -0.462644 -0.163505 0.869748
-0.163911 0.543162 -0.019722 -0.644565 0.763365 -0.028213
0.632778 0.038164 0.107831 0.1092 -0.238766 0.938053
0.159954 0.220728 -0.070865 0.791276 -0.044356 -0.609406
0.343679 0.417861 -0.099217 0.743305 0.667701 -0.024757
-0.041335 -0.030408 -0.132299 -0.169743 -0.214441 -0.961055
0.008982 0.573695 -0.100267 -0.062623 0.533513 -0.843305
0.096777 -0.857955 0.013158 -0.759663 -0.634511 -0.136704
0.172124 -0.15274 -0.07994 0.684469 -0.091754 -0.723223
0.10351 0.781582 0.001545 0.978915 0.029139 0.198938
0.013299 0.672246 0.086138 -0.654293 -0.062662 0.751901
0.187434 0.390007 0.029843 0.88442 -0.22468 0.408772
0.425406 0.264288 -0.123855 0.400572 -0.046314 -0.910618
-0.080821 -0.050756 -0.111325 -0.559532 -0.262436 -0.785366
0.336117 0.346977 -0.137365 0.061005 -0.061189 -0.99455
-0.138035 -0.189893 0.027702 -0.99601 -0.064893 0.041565
0.160154 -0.750576 -0.073989 0.863971 0.133411 -0.480977
0.02699 0.343529 0.114515 -0.045929 0.187025 0.980075
0.110745 0.541249 0.027051 0.410056 0.575966 0.705857
0.519709 0.156398 0.020481 -0.491706 -0.372153 0.760029
-0.131808 -0.169992 0.072286 -0.824047 0.015682 0.564347
-0.105567 -0.561353 0.041195 -0.878948 -0.060147 0.472188
-0.109462 0.401751 -0.10527 -0.578615 -0.258456 -0.773472
-0.127727 0.555762 0.009475 -0.224438 0.866101 0.432896
-0.491165 0.160616 -0.008794 -0.789094 0.610451 -0.062566
0.179214 -0.593691 0.026114 0.555434 -0.330273 0.762931
0.079009 0.536486 0.043688 0.111542 0.543786 0.828057
-0.163865 0.496221 -0.082424 -0.469959 0.327324 -0.818811
0.40741 0.252534 -0.033281 -0.257046 -0.012413 0.956343
0.097781 -0.819091 0.069213 -0.613587 0.690112 0.354582
-0.086907 0.21982 0.079203 -0.580524 0.13174 0.803357
-0.061476 0.018277 -0.133871 -0.348244 -0.289494 -0.88563
0.205537 -0.285424 0.015853 0.99903 0.010619 0.037404
-0.011329 0.67704 -0.036695 -0.958476 -0.145692 -0.227682
-0.130235 0.117465 0.011095 -0.987465 0.087098 0.12327
-0.069851 -0.318077 0.105108 0.099048 -0.081767 0.991612
0.081779 0.122523 -0.130655 0.151417 0.399424 -0.900527
-0.108181 -0.809228 -0.085981 -0.873513 -0.372314 -0.308526
-0.371914 0.196911 -0.014972 0.657842 -0.751819 0.033988
0.226847 0.387538 -0.095194 -0.719742 -0.687925 -0.085516
0.064336 0.174748 0.127745 0.182262 0.036584 0.977622
0.032997 0.413072 -0.128908 -0.133278 0.031317 -0.988791
-0.287503 0.297021 0.00412 0.198777 -0.290523 0.93352
0.565386 0.113125 -0.013728 0.497486 0.153378 -0.853448
0.177489 -0.708377 -0.05233 0.783544 -0.037048 -0.617302
-0.037325 0.590582 -0.028997 -0.395492 0.883628 0.197664
0.071606 0.392412 -0.142508 -0.298998 0.035738 -0.952428
0.150158 0.268865 0.070323 0.759476 0.08344 0.644894
0.038221 0.077177 0.133039 0.083904 0.086825 0.991697
-0.143856 -0.104485 0.027647 -0.995372 0.007321 0.090342
0.044077 0.03113 0.13737 0.066763 0.282073 0.957014
-0.039866 -0.568633 -0.098739 0.350924 -0.025528 -0.936008
-0.008794 0.855569 -0.024497 -0.48818 0.868942 -0.068557
0.12245 -0.07057 0.117013 0.295449 -0.125443 0.945559
0.062425 0.329024 -0.137796 -0.382017 -0.028351 -0.923717
-0.049871 -0.495831 -0.098229 0.111006 0.097827 -0.987269
0.199984 -0.129569 0.0596 0.899415 -0.039069 0.435197
-0.119129 -0.674038 -0.006697 -0.977996 -0.036756 0.20069
0.074815 0.16317 0.12462 0.492972 0.038799 0.868203
-0.070085 0.461037 0.079876 -0.266773 0.349808 0.897878
0.084275 0.841818 -0.043832 0.787472 0.605291 -0.11047
0.13194 -0.696771 -0.094129 0.20485 0.018659 -0.977748
0.502064 0.205363 -0.001578 0.033461 0.641278 0.735602
-0.020731 0.750836 0.050592 -0.799813 0.145976 0.580819
-0.128339 -0.65064 -0.051265 -0.999285 -0.017696 0.024487
0.196189 -0.663346 -0.041865 0.914569 -0.20752 -0.335662
0.003715 0.82588 0.055815 -0.582951 0.44789 0.671692
-0.518337 0.082631 0.034565 0.511523 -0.709861 -0.452759
0.186719 -0.687905 -0.045842 0.655568 -0.188991 -0.730357
-0.001525 0.708575 0.071943 -0.640562 0.003277 0.763289
0.101536 0.021609 0.128401 0.264268 0.260953 0.927509
0.009035 -0.108063 0.114302 0.577349 -0.294933 0.760489
0.095735 -0.246355 -0.095626 -0.365953 0.019363 -0.928569
