0.160677 0.323118 -0.094653 0.728808 -0.270954 -0.626943
0.055848 0.512188 -0.127912 -0.15403 0.119909 -0.979511
-0.116435 0.104353 -0.049771 -0.842556 0.13026 -0.517957
-0.121148 0.353853 -0.025749 -0.990098 -0.128385 0.014721
0.103718 0.440377 -0.146592 -0.071341 -0.023715 -0.996738
0.092449 -0.443877 -0.094268 -0.55261 0.053016 -0.831658
-0.053869 -0.833776 0.142906 0.557709 0.691107 0.428507
0.179918 -0.274782 0.073738 0.453424 -0.012685 0.890257
-0.14013 0.007005 0.018659 -0.955992 -0.286461 -0.033263
-0.128393 -0.441601 0.03957 -0.921059 -0.100883 0.375906
0.099922 0.052612 -0.150466 0.400186 0.225991 -0.885451
0.082388 -0.383174 -0.087149 -0.664918 -0.075622 -0.742376
0.013458 0.0294 0.139927 -0.020633 0.174666 0.983313
0.062173 0.693027 -0.07104 0.524037 -0.530111 -0.664741
0.436656 0.233431 -0.107602 0.499657 -0.353594 -0.784567
0.008111 -0.278493 0.08404 0.692933 -0.153862 0.702827
0.018682 0.375566 0.107915 0.077389 0.235247 0.968655
0.194147 -0.36822 0.040715 0.932171 -0.062014 0.356499
0.133555 -0.866686 0.005142 0.079438 -0.992941 -0.08021
0.014333 -0.108517 -0.070066 0.425433 -0.600439 -0.669527
0.15164 -0.126882 0.106795 0.340023 -0.102924 0.933244
0.354293 0.375172 -0.095208 0.742038 0.668392 0.046984
0.032221 0.695249 0.091118 -0.0951 -0.180078 0.975349
-0.12489 -0.339361 -0.027392 -0.928132 0.071205 -0.362065
-0.13634 -0.163468 0.058897 -0.977525 -0.016176 0.203077
0.084623 0.012888 0.134227 0.301003 0.248481 0.915731
0.565369 0.155016 0.024537 0.738539 0.67313 0.032614
0.06387 -0.131553 0.077506 -0.67043 0.061978 0.738871
-0.06392 -0.28129 -0.090249 -0.277349 -0.057593 -0.95628
0.039514 0.167328 0.130651 0.063479 0.059143 0.996205
-0.044118 0.139997 0.112156 -0.484085 0.014402 0.873757
0.106629 0.581767 -0.016991 0.342528 0.75294 0.557479
-0.123474 -0.329042 -0.029761 -0.900264 0.011704 -0.432169
-0.115899 -0.420439 0.071305 -0.756409 -0.252207 0.602878
0.197236 -0.581896 -0.055384 0.924077 -0.020897 -0.374063
0.197847 0.479403 -0.134219 0.112089 0.107568 -0.986634
-0.029706 0.007094 -0.138532 -0.158194 -0.159334 -0.973623
0.175667 -0.574743 -0.0823 0.677937 -0.051866 -0.730754
0.237349 0.490492 0.005672 0.571648 0.073852 0.813896
0.277138 0.455977 -0.014377 0.57964 0.147663 0.798706
0.030452 0.02074 -0.155274 -0.162367 -0.449065 -0.871952
-0.055438 -0.863388 0.007492 0.036738 -0.998606 -0.036595
0.13046 -0.623757 0.036263 0.200403 -0.152691 0.961741
0.020041 -0.504933 0.009213 0.851123 -0.065748 0.520003
0.063681 -0.528283 0.006541 -0.653869 -0.031466 0.754315
0.189749 0.092969 0.042718 0.970838 0.059825 0.221388
-0.059768 -0.178259 0.121252 -0.249923 -0.021645 0.962786
0.128611 -0.349047 0.078761 -0.127205 -0.156843 0.969132
0.049234 -0.583924 -0.016536 -0.904251 -0.095459 0.416027
0.098501 -0.83849 0.142 -0.864959 0.445605 0.21369
-0.557397 0.069894 0.029219 -0.895981 0.439573 -0.034368
-0.05544 0.580064 -0.075484 -0.40722 0.794461 -0.442521
-0.112901 0.242352 -0.038815 -0.986819 0.139906 -0.078008
-0.264149 0.31188 -0.08768 0.530597 -0.342998 -0.773968
-0.429803 0.236557 -0.01659 -0.722369 0.687865 0.067787
0.043434 -0.327772 0.023634 -0.987551 -0.038006 0.149651
-0.120027 -0.772712 -0.060656 -0.98923 -0.065235 -0.123844
-0.560844 0.041066 0.048911 0.865875 -0.487834 0.024129
-0.1154 0.030263 0.086313 -0.859612 0.117404 0.496057
0.073945 0.548997 -0.120574 -0.104699 0.392632 -0.910862
0.002706 0.662848 0.054562 -0.500593 -0.834199 0.180598
0.265341 0.475209 -0.116239 0.453091 0.553546 -0.69832
-0.005128 0.206583 -0.124905 -0.040176 -0.376573 -0.924263
-0.547671 0.060464 0.049158 0.66131 -0.740459 0.007073
0.118565 -0.823385 0.104463 -0.077653 0.985407 0.136573
0.128925 0.178436 0.097671 0.5218 0.023226 0.852475
0.33686 0.4258 -0.086898 0.778248 0.62375 0.066086
0.186765 0.16159 -0.02707 0.86979 0.099599 -0.481256
-0.128147 -0.65086 -0.063549 -0.993159 -0.011381 -0.094628
0.177016 0.259265 0.036905 0.894973 0.126033 0.41797
-0.088975 0.264041 0.072415 -0.687006 0.030113 0.725133
0.019282 -0.215065 0.073027 0.958379 -0.02862 0.280518
-0.329661 0.271097 0.005576 -0.021486 0.105738 0.993487
0.089189 0.192241 -0.118931 0.197133 -0.329391 -0.921072
0.176263 -0.035351 0.08778 0.69863 0.021041 0.715118
0.615818 0.065699 0.013653 -0.425629 -0.559744 -0.637057
0.003525 0.580209 0.018911 -0.468653 0.218731 0.852965
0.014594 -0.456959 -0.038674 0.83193 0.075887 -0.549582
0.054377 -0.099118 0.086252 0.453608 -0.666218 0.587009
0.008932 -0.301977 0.078743 0.736219 -0.175293 0.64581
0.079314 0.719774 -0.078739 0.679815 -0.456555 -0.572875
0.044299 -0.383226 -0.040963 -0.942942 -0.002223 -0.326417
-0.111511 0.174184 -0.043551 -0.886566 0.075443 -0.45589
0.104047 0.42796 0.087184 0.217675 0.242524 0.944385
0.076858 -0.815089 -0.073377 -0.88289 -0.145193 -0.375318
0.033365 0.240814 0.127826 0.020802 0.033613 0.999013
0.42275 0.305683 -0.067112 0.538327 0.762096 0.340551
0.192365 0.110178 -0.029469 0.921045 0.1188 -0.362237
-0.026726 0.149997 -0.105856 -0.235081 0.281099 -0.921286
0.142996 -0.868491 0.128937 0.15014 -0.976976 0.068048
0.185567 0.565798 -0.040913 0.319193 0.931489 0.153784
-0.030071 -0.303956 -0.08621 0.449624 -0.11371 -0.885863
0.088808 -0.832471 0.030583 -0.973922 -0.044404 0.027917
0.429886 0.20629 -0.086066 -0.467691 -0.883595 0.007897
0.097825 0.312297 -0.141863 0.210923 -0.097604 -0.968013
0.198159 0.381679 -0.027946 0.997305 -0.057728 0.039368
0.181033 -0.335321 -0.049611 0.734975 0.052472 -0.6759
-0.504889 0.144793 0.017362 -0.783433 0.620251 -0.025611
0.102448 -0.294788 0.081136 -0.185288 -0.122517 0.97367
-0.090748 -0.533439 -0.094721 -0.458579 0.095984 -0.880171
-0.123017 0.406424 0.049664 -0.785416 -0.448779 0.411609
0.032997 0.413072 -0.128908 -0.133278 0.031317 -0.988791
0.026079 -0.497646 -0.000613 0.952343 -0.009799 0.294562
0.180349 0.302518 -0.045941 0.885705 -0.288304 -0.362876
0.043793 -0.200041 0.048998 -0.962952 -0.04894 0.248466
-0.146881 0.498084 -0.090668 -0.458234 0.293504 -0.838246
0.104403 -0.837181 0.157235 -0.765302 0.452512 0.44757
0.197032 -0.403483 -0.043866 0.924181 -0.038703 -0.376184
0.049228 -0.128208 0.063816 -0.197137 -0.120481 0.904154
-0.035299 -0.842106 0.117594 0.912805 0.23408 0.311538
-0.132541 -0.069125 -0.042484 -0.858915 -0.03285 -0.51073
0.193199 -0.457023 0.025344 0.965324 -0.076436 0.24923
0.208334 -0.04011 0.036903 0.952979 0.030094 0.30139
-0.119703 0.317853 -0.048604 -0.992093 -0.088023 -0.075961
0.243543 0.532761 -0.070559 0.680546 0.710294 -0.176312
0.274509 0.344961 -0.102197 -0.628959 -0.685758 -0.363287
0.053648 -0.613539 -0.046665 -0.83946 -0.095475 -0.534006
0.096841 0.605385 -0.03652 0.888124 0.430645 0.137532
0.006948 -0.803589 -0.040907 0.879056 -0.326971 0.345008
-0.012163 0.141091 -0.114756 -0.2239 0.49621 -0.836337
0.578262 0.060957 0.00293 -0.927738 -0.371742 0.02727
0.19909 -0.263692 -0.03661 0.90004 -0.16087 -0.404116
0.120451 -0.402363 0.066815 -0.316071 -0.201869 0.926188
0.13804 -0.65187 -0.093034 0.376002 -0.119601 -0.918561
-0.363 0.253318 -0.083828 0.00495 -0.268159 -0.961695
0.241954 0.535198 -0.058418 0.705197 0.708529 -0.018165
0.149968 0.44119 0.067764 0.601079 0.14409 0.784016
0.377705 0.343566 -0.069895 0.620147 0.653406 0.432404
0.042751 -0.261558 0.027349 -0.991479 -0.018016 0.128443
0.206102 0.445987 -0.132541 0.058446 -0.173591 -0.980887
0.152976 0.030255 0.104996 0.490286 0.240249 0.837663
0.122331 0.449678 0.077557 0.285082 0.352692 0.890297
-0.213121 0.406335 -0.095037 -0.143317 0.165345 -0.975466
0.102364 0.75654 0.001538 0.931475 0.030818 0.35357
-0.077085 0.393038 -0.118643 -0.331103 -0.128134 -0.93442
-0.381502 0.263513 -0.082523 -0.346762 0.026418 -0.933097
-0.091816 -0.037136 0.111106 -0.570108 0.013768 0.820591
0.158526 -0.842467 0.147852 0.688896 0.690498 0.205592
-0.121491 0.06555 0.060636 -0.955475 0.177195 0.234862
0.14902 -0.773657 0.035332 0.39579 0.295261 0.862957
-0.038484 0.41594 -0.129679 -0.061998 -0.039673 -0.997118
-0.10139 -0.031585 -0.098552 -0.74048 -0.085576 -0.666142
0.01374 -0.040184 0.129622 0.337927 -0.225649 0.911684
0.051522 -0.655565 -0.003194 -0.990359 -0.000939 0.120252
-0.113408 -0.089769 -0.068134 -0.763679 -0.123223 -0.633665
0.034915 -0.31142 -3e-05 -0.955405 -0.059548 0.28844
0.143806 0.060316 0.100955 0.698943 0.213156 0.679376
0.136287 0.447382 0.0738 0.393789 0.242607 0.879507
0.025007 0.323183 -0.126153 -0.025816 0.02566 -0.997951
0.103074 -0.392606 0.060108 -0.486702 -0.160871 0.858214
-0.029301 -0.668198 0.024088 -0.206486 -0.022208 0.972996
0.11524 -0.86643 0.004794 -0.147124 -0.98023 -0.092557
-0.242341 0.337046 -0.086938 0.408243 -0.487431 -0.770429
0.112562 0.478967 -0.144588 -0.018799 0.146104 -0.988048
0.158434 -0.86194 0.151393 0.319462 -0.939547 0.112799
0.081519 -0.812649 -0.084086 -0.89869 0.063784 -0.426012
0.082485 0.420805 0.09093 0.097343 0.200081 0.973717
0.092048 0.816035 -0.068321 0.845479 0.407173 -0.335323
0.193405 0.100556 -0.028572 0.96725 0.123332 -0.211587
-0.103184 -0.846617 0.111697 -0.889894 0.320088 0.218201
0.146184 -0.336315 -0.082085 0.616599 0.023613 -0.786907
-0.130235 0.117465 0.011095 -0.987465 0.087098 0.12327
-0.011072 -0.517445 0.039198 0.605277 -0.215664 0.765945
0.064642 -0.186891 -0.087726 -0.63321 -0.220237 -0.73895
0.096622 0.501329 0.059793 0.227681 0.478568 0.847294
-0.118609 0.224378 0.01674 -0.950911 0.269479 0.147991
-0.07116 -0.428044 0.085474 0.141697 -0.253005 0.955789
0.002577 -0.337183 -0.052677 0.725306 -0.062325 -0.685349
-0.023272 -0.853322 0.020893 0.799993 -0.585078 -0.103762
0.053649 0.723377 0.085535 0.698308 0.309645 0.632482
0.024613 -0.323473 -0.018928 0.900165 0.016166 -0.430466
0.056982 -0.336919 0.044532 -0.716327 -0.18657 0.671826
0.060394 -0.149522 0.075956 -0.64122 0.050442 0.765546
-0.120943 0.366114 0.014692 -0.966199 -0.205166 0.154583
0.027446 0.822337 -0.10535 -0.026117 0.643156 -0.764026
-0.103207 -0.418296 0.085901 -0.672829 -0.227162 0.703402
-0.502474 0.121823 0.081513 0.549474 -0.149195 0.793503
-0.206658 0.33826 -0.03013 0.615236 -0.780135 0.099288
-0.122451 0.002355 0.083806 -0.799879 -0.144246 0.558149
0.437559 0.201385 -0.102188 -0.160346 -0.961642 -0.121405
0.301224 0.320416 -0.099513 -0.695203 -0.709929 -0.104082
0.063623 0.131657 0.129071 0.151307 0.023719 0.987333
0.095362 -0.374123 -0.097164 -0.4368 -0.060099 -0.893439
-0.255334 0.335685 0.009946 0.029475 -0.372557 0.925034
0.115381 -0.870374 -0.091646 0.017745 -0.999551 -0.0173
-0.008904 0.737719 0.065878 -0.58822 0.034536 0.802171
-0.131602 0.06636 0.00876 -0.894719 0.428214 0.030377
0.10606 -0.636204 0.033221 -0.470609 0.057867 0.869753
-0.107748 0.330433 0.032893 -0.904859 -0.151345 0.39689
0.224334 0.452363 -0.133747 -0.030004 -0.000776 -0.997889
0.28793 0.482726 -0.044435 0.760623 0.564434 0.320258
-0.022767 -0.84324 0.062084 0.97819 0.162716 0.08991
-0.229506 0.393232 0.026584 -0.259339 -0.2468 0.931263
-0.126809 -0.748478 -0.037788 -0.984435 -0.140467 0.085193
-0.106925 -0.0625 -0.083523 -0.768491 -0.184244 -0.612755
-0.058433 -0.863119 -0.087396 0.001288 -0.999588 0.025578
-0.114494 -0.367256 0.084883 -0.777045 -0.006068 0.626973
-0.126457 -0.654789 -0.029515 -0.979507 -0.059331 0.185996
0.053357 0.547074 -0.118682 -0.1543 0.450829 -0.876316
0.020101 -0.579254 -0.040654 0.850905 0.110385 -0.511228
0.082924 0.825677 -0.0771 0.697993 0.532812 -0.47489
0.197165 0.381202 -0.013504 0.986657 -0.113933 0.111457
0.119583 -0.207598 -0.102984 0.054837 -0.154427 -0.984263
0.181211 0.443528 0.042562 0.499643 0.121747 0.856859
0.174651 -0.054203 0.089752 0.686771 0.022572 0.72652
-0.237841 0.327192 -0.002368 0.513569 -0.611059 0.59872
0.37635 0.327605 -0.053023 0.388415 0.483607 0.781858
-0.105146 0.315658 -0.084402 -0.781672 -0.143769 -0.606605
-0.08825 0.283732 0.072311 -0.660198 0.019258 0.749868
-0.04923 0.541236 -0.10865 -0.304757 0.455445 -0.835784
0.001131 -0.571424 -0.066215 0.764211 -0.027577 -0.644305
0.020039 -0.285587 0.061983 0.934309 -0.050103 0.352162
0.059898 -0.083124 0.105296 0.134743 -0.705171 0.695184
0.004239 0.367341 0.110357 -0.08475 0.226518 0.967734
0.166125 0.213488 -0.062164 0.869378 -0.006716 -0.493941
0.00569 0.449961 0.093924 0.05857 0.353886 0.932705
0.013236 0.074248 -0.143057 -0.158565 0.226359 -0.960729
0.099735 0.74345 -0.049045 0.969436 -0.155396 -0.189001
0.045546 -0.569035 -0.034437 -0.948334 -0.041841 -0.252215
0.06001 -0.447391 0.002696 -0.529073 -0.060361 0.843576
-0.066409 0.354197 0.092551 -0.398061 -0.099412 0.901938
0.000106 0.447705 -0.128353 0.136024 0.006696 -0.990589
0.174454 0.424955 0.049051 0.546658 0.070234 0.833338
0.063616 0.359337 0.106544 0.196587 0.191142 0.961456
-0.043525 -0.863507 0.028076 0.068329 -0.996454 -0.040943
-0.136674 -0.505412 -0.01286 -0.99231 -0.09029 0.06061
0.181497 -0.726595 -0.008693 0.064492 0.223618 0.967729
-0.1054 -0.83552 0.013217 -0.853755 0.515393 0.030616
0.231854 0.397028 -0.028902 -0.482724 -0.625991 0.56024
0.036002 0.323394 -0.127447 -0.187972 0.009077 -0.980135
-0.073805 -0.769957 0.020657 -0.484387 0.284834 0.805126
0.190215 0.1757 0.004032 0.980578 0.189835 -0.002858
0.089215 0.098515 -0.140618 0.253526 0.396948 -0.879847
0.18714 0.371003 -0.093851 0.654395 -0.488015 -0.577355
0.13053 0.050877 -0.133734 0.557706 0.262412 -0.786739
0.152425 -0.362833 0.076076 0.178062 -0.08094 0.979825
0.121631 -0.544481 -0.107573 -0.154985 -0.048434 -0.983489
-0.033454 0.829427 0.004926 -0.857221 0.146706 0.460714
0.138319 -0.215962 -0.096408 0.416742 -0.144921 -0.894466
-0.06806 0.448509 0.083911 -0.26488 0.280174 0.920085
-0.058748 -0.855361 -0.134433 -0.11877 -0.604275 -0.760921
-0.129241 0.451162 -0.106483 -0.492279 0.010227 -0.868957
0.147454 -0.015519 0.108982 0.538712 0.103011 0.835647
0.176244 0.248015 0.040002 0.876762 0.039104 0.477382
0.002297 0.844122 -0.073593 -0.411643 0.750331 -0.516576
0.05046 -0.195897 -0.068398 -0.817164 -0.164239 -0.551222
0.041289 0.520722 0.055812 0.095192 0.557331 0.823176
0.399662 0.305973 -0.049215 0.31818 0.502888 0.798439
-0.122171 -0.6885 -0.026211 -0.969659 -0.093827 0.205423
0.174975 0.166724 -0.049057 0.927665 0.048397 -0.35934
0.161829 -0.330695 -0.069337 0.650824 0.004421 -0.758829
0.192465 -0.094195 -0.061441 0.848222 -0.017539 -0.529035
0.076307 -0.481194 -0.082507 -0.702687 0.014661 -0.711297
0.18864 -0.538201 0.029634 0.88104 -0.080544 0.464423
0.10334 -0.618099 0.033679 -0.363794 0.144665 0.908359
0.32036 0.44854 -0.084583 0.713071 0.697194 -0.056847
-0.005197 0.671907 -0.044914 -0.769491 -0.269179 -0.578473
0.002582 -0.625224 0.018601 0.426811 0.099143 0.889979
-0.118083 -0.790364 -0.066721 -0.957647 -0.162929 -0.215811
-0.007919 -0.380753 0.07676 0.588752 -0.22559 0.775575
0.018707 -0.295449 -0.034463 0.924951 -0.053067 -0.369356
-0.40854 0.176131 -0.026328 0.525047 -0.838356 -0.122923
0.165574 0.3526 0.053829 0.791895 -0.088304 0.604115
0.014385 0.113566 0.132699 -0.095767 0.281059 0.953927
0.164751 -0.43358 0.070734 0.368986 -0.107596 0.917978
0.114975 -0.173334 0.101454 -0.135782 -0.329499 0.931383
0.08863 -0.82594 0.04085 -0.961076 -0.197973 0.125894
-0.076175 0.445755 -0.127168 -0.245457 -0.106123 -0.962751
0.120948 0.172946 -0.105538 0.427271 0.078458 -0.900112
0.195694 0.099076 -0.013313 0.991704 0.013415 -0.045901
0.193461 0.360317 -0.007549 0.980821 -0.099942 0.166904
-0.073628 0.371983 -0.117157 -0.449675 -0.117479 -0.884892
0.186059 -0.707134 -0.004232 0.271959 -0.41264 0.850241
-0.018108 0.709024 0.053695 -0.884153 -0.16473 0.43332
0.152179 0.168652 -0.08251 0.747517 0.056357 -0.661107
-0.007453 -0.354887 -0.061063 0.677676 -0.113638 -0.726318
0.099057 0.52662 0.043516 0.284454 0.537482 0.792413
0.174416 0.489272 -0.134585 0.103865 0.257175 -0.959241
0.025467 -0.020526 0.132002 -0.23314 -0.484362 0.814817
-0.550583 0.06289 0.016098 0.857011 -0.412228 -0.302917
-0.127941 -0.613609 -0.065991 -0.963014 0.007045 -0.242443
-0.108218 0.063161 -0.077701 -0.826217 0.123671 -0.54933
-0.140009 -0.108433 0.046008 -0.945343 0.001551 0.325917
-0.021454 0.372789 -0.129172 -0.012021 -0.023014 -0.999581
0.05061 -0.646199 -0.008006 -0.990785 -0.048985 0.115996
-0.241329 0.374255 0.019774 -0.023914 -0.16646 0.984794
-0.124409 -0.554747 -0.068766 -0.817618 0.12418 -0.56082
0.14875 -0.164024 0.100028 0.25172 -0.265265 0.93039
0.000778 -0.621909 -0.067724 0.667741 0.063438 -0.741373
-0.122849 0.524646 0.045773 -0.053408 0.582481 0.809169
-0.194329 0.350891 -0.016571 0.567267 -0.76223 0.308182
0.179634 0.178848 0.043333 0.84871 0.082894 0.522204
0.042202 0.05564 -0.152389 -0.13606 0.21408 -0.967259
-0.090819 -0.715156 0.013157 -0.27958 -0.522365 0.797811
0.28484 0.334493 -0.095599 -0.629877 -0.76278 -0.141904
-0.014669 0.840657 -0.062526 -0.530548 0.726825 -0.436132
-0.325905 0.249953 -0.077525 0.109942 -0.563141 -0.814725
0.064823 0.194647 0.126981 0.244394 0.042065 0.962821
-0.099311 -0.285609 -0.062597 -0.745105 -0.004891 -0.66687
0.172424 0.395175 -0.119781 0.333859 -0.448492 -0.827332
-0.287158 0.380504 -0.016311 -0.923564 0.235228 0.244274
-0.298803 0.316067 0.006377 -0.150021 0.038224 0.986643
-0.114256 -0.255417 -0.040345 -0.890556 -0.013641 -0.454229
0.109249 0.732637 -0.022207 0.828784 -0.340553 -0.360329
-0.054378 -0.435933 0.080919 0.178625 -0.198756 0.963617
0.15804 -0.762183 -0.08427 0.766784 0.338086 -0.537681
0.130997 -0.69775 0.025067 0.278873 -0.335457 0.899101
0.181672 0.203607 -0.025247 0.978313 0.027979 -0.195114
0.03025 -0.195813 0.033359 0.972508 -0.031707 0.229916
-0.11923 -0.793778 -0.054994 -0.955757 -0.256914 -0.06216
-0.048704 -0.853434 0.14528 0.766251 -0.320825 0.498553
0.087701 -0.230437 -0.092515 -0.43321 -0.048405 -0.899799
0.087688 0.200908 0.117939 0.443115 0.058446 0.893207
0.604957 0.101176 0.051768 0.831239 0.551558 0.05563
0.350612 0.353547 -0.052394 0.537606 0.43008 0.72277
-0.443614 0.211721 0.006192 -0.595346 0.495891 0.625699
0.30808 0.315941 -0.106588 -0.6413 -0.691102 -0.307677
0.204584 0.541752 -0.094099 0.273889 0.748913 -0.603198
-0.035227 -0.658915 0.023851 0.022656 -0.056032 0.990757
0.196987 -0.175344 0.057599 0.960072 -0.050423 0.273181
-0.03899 -0.712245 0.022334 -0.488643 0.329276 0.807742
-0.064458 -0.793162 0.045631 -0.347186 0.514298 0.76929
0.011401 -0.241265 0.086606 0.813057 -0.073659 0.575876
0.509453 0.170975 0.018208 -0.010307 0.180556 0.932682
-0.136756 0.036512 -0.009911 -0.980422 0.165107 -0.09995
-0.136591 0.029838 -0.020327 -0.977355 0.113062 -0.17409
0.177574 0.565629 -0.071812 0.286087 0.912501 -0.288684
0.058382 -0.178066 0.074531 -0.648409 -0.058301 0.758359
0.075113 -0.646812 0.014233 -0.488135 0.396817 0.766072
-0.073471 -0.085164 0.119922 -0.304169 -0.036261 0.948949
-0.021117 -0.474853 -0.084556 0.691329 0.096119 -0.716107
0.070445 0.831494 0.047417 0.636177 0.561846 0.525314
0.44802 0.196582 -0.054357 -0.541402 -0.834643 0.045847
-0.117477 0.066826 -0.061043 -0.859166 0.122071 -0.496324
-0.009916 -0.779161 -0.003332 0.782482 0.274261 0.546635
0.020835 -0.65783 -0.006869 0.871304 -0.188496 0.452473
0.123373 -0.824425 0.116136 0.007295 0.996873 0.041451
-0.070526 0.571637 -0.074364 -0.467521 0.7315 -0.492241
0.010762 -0.486389 0.027206 0.775169 -0.155125 0.612143
0.073397 0.806881 0.062535 0.774228 0.261813 0.57242
-0.135188 -0.185674 0.06314 -0.965349 -0.048518 0.247572
0.006695 -0.571781 0.011966 0.657999 -0.089764 0.745783
-0.003732 -0.471318 -0.06603 0.754521 0.103117 -0.647247
-0.087365 0.30657 -0.101234 -0.659445 -0.071481 -0.748215
0.09562 0.355667 0.099029 0.261544 0.12597 0.956097
-0.017701 0.322242 -0.129827 -0.008599 0.063238 -0.997371
-0.250041 0.439982 -0.0306 -0.744505 0.666179 0.035242
-0.09187 -0.788519 -0.116689 -0.791027 0.130072 -0.597757
0.214192 -0.08664 0.018122 0.996475 0.008623 0.074193
0.17613 -0.066303 0.088858 0.691685 0.040688 0.721003
-0.069078 0.48959 -0.125404 -0.240208 0.333301 -0.909513
0.347075 0.382926 -0.09573 0.900768 0.408874 0.105868
-0.037521 0.772707 -0.007739 -0.986049 0.07837 0.143107
-0.052325 -0.717989 0.015771 -0.528171 0.343832 0.774792
-0.018348 0.780436 0.051109 -0.910007 0.046982 0.404286
0.074815 0.16317 0.12462 0.492972 0.038799 0.868203
0.021362 -0.677702 -0.017639 0.864802 -0.209097 0.45617
-0.06054 -0.455571 0.077225 0.284513 -0.276079 0.917219
0.568457 0.095378 0.055792 -0.788269 -0.151677 0.58188
0.048866 -0.208688 -0.06258 -0.849615 -0.119589 -0.513439
0.116681 -0.788163 -0.112386 -0.219311 0.47247 -0.852442
0.022935 -0.362232 -0.020382 0.931798 -0.01682 -0.362541
-0.099141 0.351555 0.058081 -0.765934 -0.248111 0.591189
0.062852 -0.527295 -0.065883 -0.763815 -0.083017 -0.63996
0.541441 0.187604 0.007588 0.960681 0.186475 0.204446
0.212312 0.542237 -0.011597 0.365445 0.726519 0.578689
0.135353 -0.001265 -0.138896 0.581902 0.120732 -0.803024
0.405104 0.323883 -0.102248 0.678731 0.702698 -0.199578
0.098959 0.234179 0.11036 0.547314 0.152543 0.793365
0.193451 -0.485558 0.020767 0.954082 0.039316 0.29515
0.090337 0.787359 0.038072 0.970058 0.126215 0.202605
0.257926 0.506365 -0.093816 0.558381 0.62988 -0.539796
-0.027877 -0.307056 0.095839 0.309163 -0.091474 0.944935
-0.113737 -0.430732 -0.055228 -0.741273 0.279911 -0.60983
-0.133693 0.040891 -0.026627 -0.95926 0.158568 -0.230057
-0.045696 -0.159549 0.122804 -0.055525 0.008415 0.998234
-0.363541 0.306102 -0.023428 -0.587695 0.766973 0.257134
-0.038107 0.589498 -0.071578 -0.339909 0.881934 -0.290908
-0.11926 -0.60003 0.010474 -0.914961 0.033455 0.400744
0.051831 0.09374 0.13219 0.141882 -0.367975 0.916723
-0.127759 -0.728613 -0.044148 -0.998095 -0.010014 0.030408
0.021965 0.173863 -0.11673 -0.004115 0.212992 -0.973957
0.036721 0.499738 -0.124789 -0.171228 0.029861 -0.98461
0.209334 0.479356 0.020635 0.357155 0.104662 0.925708
0.02357 0.516959 0.059736 0.128171 0.504089 0.854018
0.145294 0.013109 0.113114 0.437362 0.141884 0.886262
0.205819 -0.520144 -0.021957 0.995906 0.038973 -0.019853
0.170724 0.083746 0.07785 0.714835 0.213081 0.665971
0.058191 0.654741 0.038999 0.610793 -0.566363 0.549552
0.033463 -0.091681 -0.099514 -0.6402 -0.507337 -0.569209
0.175816 -0.664048 0.019947 0.488221 -0.115907 0.863935
0.077183 0.513108 0.057839 0.147073 0.487114 0.860659
0.171388 0.385629 0.050483 0.738716 -0.061328 0.670553
-0.069855 0.380375 0.092757 -0.565483 -0.030375 0.82229
-0.200104 0.382787 0.021093 0.161637 -0.496691 0.851802
-0.005724 -0.797396 -0.009104 0.867851 0.011109 0.492957
-0.566707 0.046851 0.022126 -0.883243 0.468162 -0.0195
0.135239 -0.816702 0.071583 0.286286 0.896289 0.332671
0.015092 0.429291 -0.127139 0.027781 0.044984 -0.998565
0.105314 -0.161301 0.102589 -0.351536 -0.197611 0.907348
0.577123 0.072 -0.016509 -0.730624 0.255659 -0.419443
0.23644 0.536152 -0.030893 0.683605 0.650673 0.321497
-0.136374 -0.030124 0.048208 -0.984648 0.069194 0.153357
-0.140309 -0.176387 0.027034 -0.948943 -0.278303 0.125559
0.157853 -0.501457 0.061838 0.05232 -0.198985 0.971305
-0.000364 0.861612 -0.026542 -0.440972 0.888572 -0.083352
0.105434 0.094537 0.113603 0.476969 -0.181003 0.85837
-0.038522 -0.067056 0.129196 -0.082039 -0.053933 0.995148
-0.105708 -0.346793 -0.058436 -0.753999 0.086537 -0.650984
0.094671 0.795836 0.022152 0.911955 0.125675 0.387923
0.123327 0.580447 -0.026754 0.266304 0.892248 0.340178
0.075548 0.087325 -0.14684 0.066607 0.337239 -0.937661
0.203905 -0.355626 -0.023121 0.961963 0.079228 -0.256817
0.064692 -0.423992 -0.068206 -0.744658 -0.000454 -0.667369
0.642438 0.035519 0.053169 0.9823 0.185962 0.018141
0.061597 -0.780231 0.025109 -0.781874 -0.136704 0.491585
0.07853 0.201073 0.12124 0.372104 0.045142 0.927039
0.087333 -0.599439 -0.081349 -0.659385 -0.081233 -0.747279
-0.128345 -0.316791 1.5e-05 -0.999818 -0.008581 -0.0164
-0.097639 -0.636497 -0.099368 -0.495318 0.072544 -0.86481
0.099052 -0.82675 0.093788 -0.53349 0.814163 0.191901
-0.030881 -0.836419 0.09901 0.833724 0.458364 0.290764
0.155787 -0.863387 -0.05565 0.546219 -0.837353 0.013291
0.069274 0.334231 0.110784 0.317731 0.17866 0.929741
-0.111572 0.526473 -0.093135 -0.384119 0.5666 -0.728768
0.312846 0.387927 -0.026266 0.548976 0.073137 0.821995
-0.126596 0.088775 0.028951 -0.974885 0.038763 0.208693
-0.205953 0.426193 -0.091447 -0.234923 0.29069 -0.927446
-0.042482 0.019409 0.130091 -0.301998 0.178802 0.936114
0.154591 -0.129438 -0.100533 0.62209 -0.229947 -0.748242
0.052123 -0.211212 0.063625 -0.779373 -0.086862 0.61878
-0.413167 0.181501 -0.051642 0.408901 -0.637283 -0.626472
0.327548 0.327785 -0.132328 -0.254996 -0.326675 -0.906222
-0.362419 0.309724 -0.035286 -0.625658 0.766392 0.136194
-0.002585 -0.735434 0.001346 0.635061 -0.374697 0.665979
0.163532 0.291925 0.054113 0.692728 -0.026216 0.720556
0.177466 0.009507 -0.089005 0.82861 0.050889 -0.5567
0.07622 0.67032 -0.04407 0.790182 -0.111366 -0.60098
-0.069881 0.558333 0.015631 -0.085123 0.773336 0.628124
0.462334 0.207855 -0.071259 0.46068 -0.636976 -0.598625
0.038194 -0.35341 -0.027737 -0.974716 -0.062994 -0.19982
0.01367 0.207358 -0.123986 0.146634 -0.415735 -0.896703
0.297376 0.394933 -0.017866 0.401847 -0.032808 0.910974
-0.496267 0.153238 -0.014937 -0.773013 0.610855 -0.152421
0.054379 0.137752 0.130138 0.115474 0.037658 0.992588
-0.139601 0.493776 -0.095805 -0.418414 0.236853 -0.876124
0.098223 0.747749 0.020448 0.981575 -0.046609 0.178652
-0.011715 -0.601574 0.024452 0.280521 -0.128029 0.949929
0.162697 0.565745 -0.083255 0.332353 0.805912 -0.48557
0.095445 -0.129874 0.100237 -0.558427 -0.036708 0.828712
0.142169 -0.864979 -0.004666 0.186641 -0.980038 -0.041909
-0.129965 -0.592296 -0.054958 -0.991568 -0.047013 -0.115007
0.209593 -0.08572 0.038898 0.941799 -0.0403 0.333736
-0.033911 0.81025 -0.071565 -0.949604 0.080462 -0.294239
-0.123195 -0.544759 -0.068203 -0.802109 0.110064 -0.586548
-0.011852 -0.269342 -0.077821 0.644674 -0.104519 -0.75701
0.086033 0.51673 0.054183 0.218494 0.560866 0.797913
-0.113242 0.490124 0.06024 0.005266 0.158505 0.986435
0.196583 -0.466598 0.010561 0.967023 -0.04315 0.249223
0.176981 0.004785 0.090826 0.680227 -0.236477 0.680843
-0.094702 -0.554563 0.059473 -0.717303 -0.108604 0.680979
0.468688 0.261713 -0.049181 0.669134 0.731248 0.125348
-0.346815 0.223223 -0.061176 0.460878 -0.720507 -0.505736
0.043429 0.608082 0.025772 0.199707 -0.113289 0.968894
0.164894 -0.824311 -0.069531 0.771708 -0.634847 -0.036228
0.053186 -0.09191 0.095215 0.316251 -0.760326 0.561309
-0.349395 0.321464 -0.05845 -0.576546 0.806745 -0.101038
0.014277 0.300316 -0.128021 0.113292 0.040005 -0.992719
0.579133 0.105801 -0.006941 0.57534 0.081704 -0.81299
0.248968 0.481396 -0.000943 0.493925 0.091364 0.860484
-0.091518 -0.362279 0.10079 -0.116586 -0.200582 0.969132
0.490609 0.172382 -0.019237 -0.650948 -0.757731 0.007871
-0.322357 0.342543 -0.019618 -0.64002 0.704152 0.294277
-0.113037 -0.296631 0.094422 -0.744501 -0.039835 0.66617
0.082737 0.309799 0.108327 0.443064 0.110204 0.885344
0.632885 0.060215 0.032226 0.823299 0.565734 -0.034346
-0.021192 -0.045754 -0.128543 -0.039205 -0.443552 -0.894783
-0.046669 -0.651832 -0.10347 0.368194 0.078343 -0.926271
0.01627 -0.222228 -0.050572 0.866274 -0.016774 -0.497505
0.171179 -0.460121 0.064704 0.400066 -0.109466 0.908078
0.152731 -0.249654 0.083527 0.11235 -0.07614 0.990457
-0.367397 0.248458 0.009789 0.035519 0.058031 0.997577
-0.083217 -0.739411 0.01375 -0.50209 0.588883 0.630568
-0.122894 -0.224269 0.085893 -0.861304 -0.044678 0.506119
-0.06948 -0.577178 0.052592 0.406918 -0.229036 0.883777
-0.01236 0.313376 0.113646 -0.11639 0.078011 0.989747
0.585201 0.047343 -0.00289 -0.838934 -0.543703 -0.012342
-0.075204 0.547838 0.027728 -0.068891 0.739802 0.668673
0.090639 -0.840812 -0.094614 -0.976837 0.021648 -0.20895
-0.008655 -0.169445 -0.077322 0.629108 -0.05701 -0.774006
0.157328 -0.860414 -0.035394 0.579814 -0.779841 0.159468
0.139304 -0.830717 0.152572 0.394095 0.899246 0.183519
-0.146244 0.511245 -0.085468 -0.434865 0.441382 -0.783985
0.213022 -0.019659 0.016302 0.990873 0.087607 0.078716
0.126546 -0.345409 -0.095409 0.409206 0.059642 -0.910477
0.191335 -0.028005 -0.067737 0.906257 0.005626 -0.422324
-0.135177 0.051548 -0.010339 -0.984413 0.12541 -0.104356
0.591971 0.089005 0.06928 -0.831208 -0.179573 0.512213
-0.057507 0.062966 -0.127452 -0.366863 0.23724 -0.896777
0.074546 -0.13443 -0.107327 -0.473883 -0.215644 -0.852547
0.195458 -0.718416 -0.008378 0.965608 0.007835 0.25759
-0.020354 0.492347 -0.127582 0.047763 0.137874 -0.989198
0.305154 0.341375 -0.043058 -0.276044 -0.517087 0.80838
-0.094084 0.338276 -0.099503 -0.618645 -0.136826 -0.773461
0.216305 0.40385 -0.054192 -0.873425 -0.463063 0.133604
-0.289532 0.288082 0.001226 0.37178 -0.417683 0.824669
-0.132183 -0.581783 -0.037545 -0.983426 -0.156937 0.069418
-0.027294 0.459769 0.08837 -0.141141 0.321333 0.93541
0.108869 -0.203655 -0.103005 -0.143436 -0.176801 -0.973073
0.418739 0.301604 -0.056641 0.447726 0.658497 0.598729
-0.008299 0.847288 -0.058383 -0.474182 0.790736 -0.385577
-0.114242 0.311769 0.008724 -0.975566 -0.066703 0.209043
0.063774 -0.601667 -0.059145 -0.6962 -0.025363 -0.717385
0.144591 -0.803064 0.043172 0.500134 0.565268 0.654222
-0.066936 -0.026967 -0.126319 -0.37485 -0.198251 -0.901483
0.130584 0.24189 -0.115816 0.692955 -0.202696 -0.690909
0.02166 0.331723 0.117434 -0.173501 0.314149 0.930827
0.225291 0.445315 0.014853 0.428475 -0.221405 0.870899
0.107206 -0.861564 -0.114768 -0.405507 -0.22478 -0.851683
-0.020987 0.174034 0.122611 -0.449152 0.008766 0.89295
-0.072707 -0.32557 -0.08371 -0.448939 -0.030339 -0.89075
-0.012858 0.187788 -0.116769 -0.283748 -0.237298 -0.928602
0.167882 0.140429 -0.063615 0.859605 0.062719 -0.505021
0.021601 0.398444 -0.128123 -0.035037 0.001285 -0.999041
0.205613 -0.212011 0.020864 0.989936 -0.019524 0.133207
0.19766 -0.695725 -0.026092 0.98275 -0.04207 -0.142526
0.07217 0.656041 0.024144 0.796864 -0.335415 0.494313
0.056614 -0.324692 0.04776 -0.702481 -0.206315 0.679325
0.1314 -0.825146 0.126055 0.178207 0.981086 0.041274
-0.075184 0.467486 -0.127677 -0.235551 0.056555 -0.968636
-0.397206 0.185957 -0.041537 0.389319 -0.870047 -0.300765
0.324086 0.416789 -0.047799 0.670423 0.398156 0.62199
0.174376 0.099604 0.068172 0.726645 0.24659 0.640999
0.627479 0.06482 0.080868 0.861041 0.490175 0.114901
0.043325 0.71518 -0.09713 0.176149 -0.617344 -0.76354
-0.134241 -0.394276 -0.000554 -0.917622 0.355602 -0.042785
0.029781 0.506152 0.065761 0.105035 0.499473 0.859768
0.006105 0.528141 0.055826 0.097724 0.572599 0.812135
0.089199 0.429125 0.088862 0.094604 0.182612 0.978552
0.144071 -0.582431 -0.101599 0.324243 -0.146595 -0.934349
-0.060921 0.484914 -0.12785 -0.102165 0.201441 -0.973821
0.131873 0.062833 -0.129412 0.595361 0.174274 -0.783793
0.075577 -0.099586 0.089606 -0.581888 -0.360897 0.676273
-0.182278 0.527277 -0.008526 -0.709503 0.695565 0.109997
0.639846 0.045916 0.029783 0.896756 0.437969 -0.021655
-0.074653 -0.268693 -0.086142 -0.577143 -0.035893 -0.814207
0.17433 -0.541568 0.044801 0.522536 -0.246537 0.809933
0.051726 -0.183863 -0.074528 -0.818563 -0.180159 -0.543849
0.038795 -0.148838 0.049789 0.094959 -0.478552 0.821564
-0.112788 -0.193922 -0.048618 -0.832186 -0.073889 -0.548012
0.205186 -0.548637 -0.015251 0.975495 -0.051106 0.208838
0.016521 0.842489 0.055198 -0.349426 0.553762 0.753584
0.160013 -0.863817 0.050391 0.228836 -0.970459 -0.028092
-0.026246 0.016182 -0.142031 -0.181714 -0.384751 -0.90178
0.071913 0.816041 0.05954 0.727111 0.380618 0.558224
0.011416 -0.204713 0.091636 0.828722 -0.082666 0.552906
-0.053713 0.295224 0.095663 -0.491697 0.001681 0.870063
-0.04244 -0.447286 0.075019 0.207962 -0.224176 0.951731
0.074413 0.563643 0.015893 0.378598 0.431713 0.816734
0.098672 0.197237 -0.118378 0.320599 -0.432339 -0.837433
0.080615 -0.635101 -0.071805 -0.657036 -0.083976 -0.748582
-0.001385 0.559186 0.024146 -0.163107 0.613382 0.765696
0.19889 0.008691 -0.041823 0.955152 0.029937 -0.292598
-0.112273 0.255258 -0.017544 -0.99876 0.037693 -0.007319
0.029558 0.749189 0.097217 -0.31895 0.453026 0.810062
0.215102 0.405243 -0.090222 -0.928297 -0.367291 -0.037838
0.171517 -0.103761 -0.090299 0.770276 -0.099693 -0.62977
0.124704 -0.842821 0.179914 -0.177981 0.42785 0.882407
0.198712 -0.405354 0.022482 0.955745 -0.06552 0.286286
0.044077 0.03113 0.13737 0.066763 0.282073 0.957014
0.165158 0.415192 -0.131179 0.287153 -0.374089 -0.881727
-0.131448 -0.481807 0.016903 -0.844555 -0.223785 0.485506
-0.183855 0.485651 -0.074413 -0.510115 0.415508 -0.750583
-0.129532 -0.405618 0.04047 -0.966449 0.076055 0.243984
-0.538281 0.10002 0.058581 -0.733342 0.678895 0.005021
-0.121508 0.203253 0.026931 -0.94004 0.193802 0.277511
-0.039181 -0.748916 -0.126734 0.211511 0.429502 -0.877096
-0.112787 0.173204 0.050231 -0.854047 -0.004788 0.518345
-0.005092 -0.648917 -0.074585 0.599876 0.086828 -0.794745
0.152581 0.51433 0.033197 0.220167 0.743879 0.593787
-0.075537 0.116679 -0.098329 -0.612646 0.228545 -0.75616
0.020181 0.123712 0.132287 -0.07343 0.020016 0.99534
-0.055704 -0.864287 0.071784 -0.004001 -0.999987 0.00119
0.039079 0.015335 0.142144 0.059444 0.176941 0.982313
-0.080145 0.481898 -0.124051 -0.325937 0.229242 -0.915816
-0.090776 -0.8633 0.075636 -0.023772 -0.999707 0.002345
0.057992 -0.73582 0.026137 -0.923396 -0.207634 0.303854
0.043251 0.237206 -0.126889 -0.158179 -0.037223 -0.985076
0.13446 -0.237755 -0.095072 0.437326 -0.144841 -0.885961
0.491814 0.236322 -0.030042 0.663206 0.742428 0.083751
0.169328 -0.75313 -0.058064 0.857023 0.176599 -0.471772
0.302484 0.320615 -0.069246 -0.655125 -0.700333 0.265036
0.05392 -0.369217 0.028362 -0.725593 -0.276432 0.628608
0.053784 -0.369178 -0.056785 -0.8081 -0.026975 -0.588133
0.201244 0.014815 0.055007 0.917833 0.075976 0.386387
0.167294 -0.517403 0.05567 0.437979 -0.247909 0.857777
-0.126765 0.175664 0.02328 -0.952607 -0.015992 0.300152
0.192448 0.482212 0.027528 0.36507 0.25298 0.895135
0.190961 -0.489834 0.030524 0.959686 0.017557 0.280316
-0.344854 0.322657 -0.067749 -0.580669 0.777171 -0.234571
0.142285 0.478571 -0.142736 0.157133 0.187188 -0.966732
-0.073247 -0.494172 0.073491 0.354173 -0.180481 0.917355
0.369377 0.297981 -0.130336 -0.077363 -0.196641 -0.971518
-0.006706 -0.274995 0.093027 0.435369 -0.201443 0.877205
0.038216 -0.0723 -0.116968 -0.50256 -0.472588 -0.723482
0.189984 -0.36904 0.051484 0.912574 -0.043839 0.404344
0.052664 -0.617389 -0.01217 -0.854848 0.122685 0.48907
-0.05791 -0.778824 0.034764 -0.212681 0.623838 0.7401
0.540023 0.150502 -0.026525 0.462275 -0.117365 -0.871876
0.071433 -0.047664 0.126795 0.046685 -0.404309 0.912633
0.096931 -0.82585 0.083403 -0.610508 0.740871 0.224672
-0.120716 -0.69374 -0.015458 -0.95995 -0.217271 0.143747
-0.023023 0.603977 -0.057679 -0.638497 0.702094 -0.296267
0.271375 0.389332 -0.020458 -0.199269 -0.404279 0.890243
-0.51575 0.128259 0.037611 -0.761796 0.647285 -0.01134
0.164895 -0.094209 0.100684 0.615971 0.036228 0.786853
0.197567 -0.46834 -0.051964 0.949592 0.036824 -0.292634
0.596874 0.073466 0.064505 -0.716059 -0.623734 0.261176
0.173481 -0.227268 0.081782 0.404153 -0.210484 0.887439
0.451207 0.252836 -0.027966 0.03606 0.568572 0.821373
-0.043863 -0.640681 0.026956 0.28911 -0.112894 0.949274
-0.059532 0.348293 -0.121048 -0.391141 -0.032677 -0.919367
-0.118521 -0.012264 -0.074476 -0.838872 0.005136 -0.542822
0.182746 0.063396 0.069126 0.788929 0.230535 0.568377
-0.010131 -0.659795 -0.079757 0.633523 0.106626 -0.766088
0.026539 -0.288835 0.043419 0.979047 -0.005477 0.189207
0.04737 -0.585831 -0.038422 -0.922352 -0.018482 -0.37756
0.099206 0.736419 0.007036 0.97332 -0.087868 0.211267
-0.104261 -0.82418 -0.053921 -0.962905 -0.190687 -0.017053
0.27338 0.380357 -0.023419 -0.359764 -0.241381 0.901101
0.151238 -0.075375 -0.115655 0.659556 -0.162797 -0.733495
0.063702 0.721998 -0.093806 0.44104 -0.54089 -0.716111
-0.288332 0.365676 -0.003007 -0.726027 0.416125 0.545884
-0.127755 -0.481867 -0.050661 -0.839927 0.07326 -0.537341
-0.104274 0.035493 -0.093993 -0.817335 0.175339 -0.547361
0.175203 -0.573338 0.036087 0.53483 -0.227819 0.811999
0.212011 0.554446 -0.037187 0.582024 0.747509 0.300483
0.178908 -0.795957 -0.066323 0.930742 -0.272444 -0.194834
0.623369 0.075375 0.028943 0.864786 0.497516 -0.06522
-0.135504 -0.058462 0.06032 -0.93777 0.028636 0.334496
-0.120797 0.543476 0.029787 -0.083314 0.73698 0.669906
-0.499449 0.105443 0.019865 -0.037509 -0.781551 -0.615663
-0.048938 -0.239185 0.112445 0.093976 -0.161743 0.982013
-0.02424 -0.848125 0.073444 0.981106 0.016773 0.148499
0.0987 0.447967 0.083025 0.144361 0.228611 0.962621
0.002906 -0.000441 0.144376 -0.012057 0.232324 0.95894
0.194153 -0.34718 0.04423 0.910461 -0.066847 0.407291
0.095706 -0.75897 0.016192 -0.371579 -0.211318 0.856215
0.348408 0.371849 -0.067248 0.700043 0.567143 0.42525
0.075784 -0.399309 0.038067 -0.676644 -0.325134 0.660352
-0.003304 -0.067896 0.127463 0.178958 -0.134667 0.972872
0.044603 0.327212 0.117404 0.190565 0.234199 0.952512
0.196384 -0.68223 -0.009171 0.959526 0.025089 0.274326
0.025357 -0.374965 -0.01146 0.975513 -0.032481 -0.205101
0.06674 -0.633417 -0.059172 -0.705471 -0.158749 -0.690159
-0.133283 -0.265242 0.029938 -0.976071 -0.214132 0.025864
0.06595 -0.760041 -0.032845 -0.864723 0.202381 -0.457675
0.213041 -0.032981 0.004686 0.99252 -0.000736 -0.107083
0.232385 0.436013 0.006558 0.544483 -0.346041 0.745834
0.064312 -0.715157 0.03534 -0.354813 0.105757 0.914017
-0.289606 0.380378 -0.027594 -0.867438 0.470353 0.156189
-0.293004 0.261409 -0.011478 0.78655 -0.443341 0.407107
0.007023 -0.819682 -0.074266 0.875377 -0.476614 -0.023713
0.020539 -0.211498 -0.041958 0.930152 -0.009889 -0.361412
0.478614 0.21995 -0.073539 0.264479 -0.295877 -0.916122
-0.084589 -0.085315 0.115167 -0.433935 0.000786 0.900535
0.140866 -0.558704 0.045416 -0.039618 -0.262108 0.963286
-0.122771 -0.093692 0.0832 -0.80807 0.034664 0.587433
-0.103402 -0.452349 -0.074073 -0.655712 0.170244 -0.733797
-0.020312 -0.835608 -0.061702 0.831015 -0.525283 -0.012061
-0.045628 0.375728 -0.12718 -0.229507 -0.03646 -0.971458
0.066895 -0.551812 0.008736 -0.627266 0.018071 0.778364
0.405464 0.324221 -0.082508 0.675468 0.728602 0.096601
-0.046735 0.515197 -0.12042 -0.125196 0.324357 -0.937518
0.067462 0.861281 -0.029529 0.450448 0.867181 -0.137915
-0.013416 0.569268 0.014302 -0.304845 0.600087 0.735726
0.158728 -0.677244 0.024623 0.299107 -0.265465 0.915533
-0.128125 -0.359322 -0.018237 -0.993141 0.032617 -0.102246
0.166775 -0.744772 0.013138 0.315833 0.818908 0.476787
0.04223 -0.359766 0.003963 -0.971001 -0.095932 0.214779
-0.112367 0.276159 -0.012896 -0.99894 -0.030122 0.026032
0.085493 0.038408 0.128179 0.373622 0.148232 0.915383
0.038119 -0.265242 0.009226 -0.140133 -0.061584 0.899009
0.00655 -0.563747 -0.059921 0.793983 -0.013254 -0.607474
0.043211 0.372567 0.106927 0.103089 0.247954 0.958686
-0.092192 -0.177021 -0.076408 -0.693359 -0.078524 -0.716159
-0.102878 0.297876 0.050401 -0.893696 0.197866 0.394482
0.19312 -0.44697 0.02867 0.96175 -0.099126 0.253962
0.185231 0.552955 -0.0882 0.312687 0.751396 -0.580739
0.078452 -0.336626 -0.087852 -0.655267 -0.03523 -0.754545
-2.3e-05 -0.456294 0.04553 0.743413 -0.147191 0.652117
0.210144 -0.012268 -0.003316 0.957079 0.197483 -0.199199
-0.017106 -0.730782 -0.106762 0.539889 0.346673 -0.765505
-0.133451 -0.453718 -0.03637 -0.897479 0.143109 -0.410623
0.046975 -0.466948 -0.013928 -0.866629 -0.074085 0.493363
-0.056555 -0.561862 -0.103192 0.08298 0.013693 -0.995163
0.088325 0.83129 -0.056669 0.884758 0.420319 -0.176387
0.131871 0.22154 0.093753 0.598396 0.068579 0.798062
0.038808 -0.345154 -0.033036 -0.934537 -0.086976 -0.338678
-0.080688 -0.056411 0.117434 -0.565469 -0.014379 0.823684
-0.004441 0.406861 -0.129042 0.063731 0.003419 -0.997924
0.297112 0.324293 -0.076328 -0.671638 -0.733908 0.082195
-0.130648 0.041831 -0.036717 -0.949037 0.140872 -0.281349
0.207157 0.014436 0.003306 0.999561 0.018096 -0.021799
-0.07137 -0.672773 0.028221 0.289587 -0.329043 0.898701
0.058038 0.540791 0.039612 -0.040367 0.810169 0.580716
0.002067 0.753743 0.069325 -0.25473 -0.028101 0.964959
0.192485 0.563126 -0.053245 0.551342 0.821239 -0.034377
-0.117251 -0.288398 0.089993 -0.813666 -0.048669 0.578778
0.041584 0.055441 0.134455 0.129311 0.074313 0.988322
0.02628 -0.270827 0.045618 0.977668 -0.021364 0.206834
-0.042093 -0.695076 -0.110292 0.349324 0.281179 -0.892732
0.066584 0.79566 0.073594 0.542337 0.288516 0.785517
0.250698 0.362834 -0.080833 -0.698836 -0.715229 -0.001262
-0.374308 0.195071 -0.029589 0.623393 -0.77625 -0.040727
-0.097386 0.045701 0.098649 -0.367 0.186236 0.911058
-0.105805 -0.83657 0.032598 -0.768378 0.639336 0.021084
0.518964 0.212973 -0.02893 0.481884 0.822039 0.30019
0.12424 -0.825077 0.134689 0.037517 0.996568 0.055331
-0.122999 -0.084089 0.08245 -0.788892 0.018508 0.61414
0.12932 0.560798 -0.1064 0.244391 0.659806 -0.710362
-0.415655 0.221333 0.014097 -0.148543 0.247613 0.953629
-0.071008 0.407129 0.091525 -0.455908 0.089886 0.883531
-0.057871 0.184893 -0.096313 -0.529121 -0.182419 -0.82688
-0.3429 0.305917 -0.004149 -0.356033 0.392661 0.846851
0.305243 0.394284 -0.144737 0.069682 0.033472 -0.992731
-0.104245 0.203844 -0.050118 -0.81787 0.072408 -0.567085
0.335652 0.306611 -0.050665 -0.543665 -0.563941 0.620328
-0.375803 0.273337 -0.083609 -0.326093 0.195264 -0.923335
0.08687 0.724228 -0.072076 0.740728 -0.443829 -0.497856
-0.016508 -0.013161 0.138014 -0.053141 -0.721109 0.667213
0.150384 -0.469156 0.066616 -0.173092 -0.116855 0.973829
-0.105778 -0.586729 0.041585 -0.93562 0.031209 0.350495
-0.028317 -0.35336 0.090676 0.303922 -0.120908 0.944291
0.254636 0.360757 -0.100865 -0.640014 -0.741684 -0.19378
0.008458 -0.502624 0.026501 0.733564 -0.135334 0.66524
0.012122 -0.472222 0.028714 0.797611 -0.111896 0.592073
0.110937 -0.627818 -0.093939 -0.444754 -0.086763 -0.889952
-0.076332 0.048443 0.10897 -0.521069 0.065584 0.850471
0.043921 -0.426032 -0.016347 -0.987461 -0.031803 0.148042
0.041279 0.428483 0.093755 0.116334 0.323225 0.938454
-0.05105 0.097282 0.112098 -0.487816 0.15216 0.859107
-0.506251 0.143109 0.037551 -0.783188 0.621724 0.00578
0.24329 0.384535 -0.124552 -0.616837 -0.444339 -0.647495
0.005164 0.82423 -0.098962 -0.351773 0.624 -0.693308
0.110805 -0.767856 -0.098039 -0.469921 0.385783 -0.789514
0.072342 0.321562 -0.141631 -0.302326 -0.061302 -0.94739
-0.001022 -0.047132 0.130595 0.130633 -0.30045 0.944428
-0.105644 0.311779 0.037268 -0.932406 0.075801 0.350475
0.160804 -0.827887 0.009616 0.993261 -0.08465 0.045355
-0.043274 0.177408 -0.102645 -0.468587 -0.278295 -0.834053
-0.024595 -0.836866 0.053998 0.956867 0.281628 0.05477
-0.117981 0.513544 -0.098248 -0.420988 0.431474 -0.793517
0.455063 0.203507 -0.014245 -0.748425 -0.140078 0.614241
0.044054 0.869667 -0.023893 0.1217 0.969578 -0.176618
-0.11864 -0.095826 -0.060328 -0.772412 -0.118441 -0.623186
-0.078516 -0.863679 0.067498 -0.05127 -0.998662 -0.00177
-0.207571 0.492553 -0.043156 -0.711676 0.559365 -0.421825
0.170665 0.234577 -0.053392 0.883628 0.020151 -0.467683
0.107637 -0.271644 0.08377 -0.034355 -0.13953 0.988803
-0.085504 -0.587646 0.05857 0.140096 -0.202484 0.96476
0.164733 -0.142734 0.098342 0.478137 -0.124653 0.868563
0.264493 0.491492 -0.102638 0.565573 0.563605 -0.601601
-0.041556 -0.086686 0.127755 -0.107069 -0.045689 0.992023
-0.181003 0.470186 -0.082905 -0.380702 0.312707 -0.869075
0.063102 0.848911 -0.067781 0.424874 0.759127 -0.49227
0.190563 -0.487806 -0.066643 0.842704 0.009257 -0.537961
-0.128339 -0.213854 0.07687 -0.908552 -0.040582 0.414988
-0.025029 -0.636828 -0.090643 0.573059 0.009096 -0.818116
0.213477 -0.079313 0.025312 0.989417 -0.008862 0.133335
0.317858 0.308582 -0.108802 -0.591191 -0.687825 -0.415679
-0.08912 -0.236305 -0.076778 -0.717228 -0.040881 -0.69551
-0.096019 0.572737 -0.038978 -0.377908 0.902429 -0.122304
0.197231 -0.446758 0.013024 0.975705 -0.086426 0.198034
-0.56346 0.060016 0.025379 -0.926243 0.36326 -0.026764
-0.020206 0.796996 0.04027 -0.910527 0.186292 0.367778
0.014214 -0.339765 0.05959 0.8033 -0.154687 0.573849
0.070784 -0.715887 -0.041945 -0.84654 -0.221585 -0.481506
-0.005876 -0.2275 0.103548 0.510262 -0.143375 0.84455
0.08553 0.355312 -0.145133 -0.085257 -0.022963 -0.995811
0.187295 -0.069515 -0.071601 0.824718 -0.029339 -0.564694
-0.44226 0.18463 0.023022 -0.082581 0.486468 0.861627
-0.008021 0.494722 0.073692 -0.012684 0.463749 0.885841
-0.063492 0.537712 0.039454 -0.172156 0.613798 0.769928
0.501266 0.189576 0.005867 -0.319394 0.609549 0.698658
0.020198 0.826216 0.065914 -0.330212 0.525616 0.778671
0.171697 -0.304598 -0.060214 0.702295 -0.059115 -0.709392
0.102429 0.801927 -0.038305 0.89375 0.425311 -0.065524
-0.325533 0.28172 0.004809 -0.12609 0.08749 0.987671
-0.128373 0.171263 -0.001979 -0.996783 -0.002173 -0.061017
0.19513 -0.612459 -0.057656 0.840102 -0.033514 -0.541052
-0.115213 0.034838 -0.074871 -0.867524 0.144045 -0.475042
-0.011612 -0.578124 -0.07969 0.685161 -0.063359 -0.725609
0.045041 -0.508219 -0.039971 -0.962606 -0.044539 -0.257344
-0.185973 0.407901 0.02767 0.182134 -0.333882 0.922449
0.049764 0.594334 -0.089469 0.041899 0.608478 -0.792146
0.494357 0.227556 -0.0125 0.456736 0.548012 0.651412
0.183646 -0.739783 -0.037938 0.607384 -0.196158 -0.76803
0.469406 0.205011 -0.064267 0.152395 -0.718729 -0.677652
-0.03742 0.78959 -0.021747 -0.994581 0.07294 0.070959
0.07546 -0.756152 0.01675 0.112883 -0.638159 0.744338
-0.048111 0.589831 -0.046369 -0.172487 0.980983 0.004007
-0.127114 -0.354085 0.035907 -0.994542 0.047536 0.089531
0.634662 0.053334 0.076044 0.920041 0.379845 0.091634
0.041994 0.083757 -0.144938 -0.14033 0.224561 -0.964171
-0.113211 0.072413 -0.068196 -0.8573 0.145515 -0.492213
-0.083621 0.172398 -0.07831 -0.622151 0.071221 -0.779395
-0.040335 0.570381 -0.095131 -0.314796 0.58649 -0.742532
0.008768 -0.729835 -0.083461 0.732333 0.108027 -0.671821
0.240576 0.499363 0.001249 0.651174 0.280998 0.702218
-0.492336 0.159935 0.027669 -0.753756 0.65479 0.048128
-0.031594 -0.850699 -0.047737 0.589551 -0.80331 0.051796
-0.031279 0.729776 -0.04324 -0.820109 -0.425459 -0.367145
0.020486 -0.532368 0.000375 0.924354 -0.139627 0.352829
0.104463 0.250576 -0.135851 0.28521 -0.126285 -0.943245
-0.05069 -0.72928 0.023599 -0.430257 0.457213 0.7751
0.12131 0.106453 -0.122389 0.526677 0.341037 -0.776637
0.450813 0.277365 -0.09876 0.719251 0.360274 -0.587505
-0.000489 0.429251 -0.128362 0.119359 0.013881 -0.992679
0.120488 0.370692 -0.140409 0.429036 -0.122744 -0.894705
-0.02475 -0.03054 0.132763 -0.047268 0.149122 0.986112
0.093201 0.774041 -0.082507 0.843597 0.029756 -0.535917
0.197925 -0.325187 -0.027147 0.876557 0.042419 -0.478152
0.199785 0.550525 -0.084103 0.287516 0.813752 -0.502518
0.200688 -0.211201 -0.048559 0.823592 -0.02722 -0.564557
0.110712 -0.034788 -0.14649 0.184815 -0.280214 -0.94107
0.136515 -0.293224 0.08225 0.057085 -0.056873 0.996425
0.050893 -0.118125 -0.095875 -0.483077 -0.363084 -0.794164
0.077794 0.82407 -0.085155 0.640486 0.533483 -0.551725
0.033774 0.712003 -0.095601 0.021606 -0.655393 -0.735608
0.13534 -0.738461 -0.097951 0.339692 0.165406 -0.918621
0.008974 -0.277406 -0.05265 0.756636 -0.122566 -0.641392
0.027729 0.009219 0.142885 -0.010918 0.128347 0.991617
0.551827 0.169603 -0.000632 0.80969 0.579342 -0.028316
-0.060013 0.097123 0.106998 -0.498157 0.133487 0.845512
-0.109214 -0.136525 -0.065661 -0.764687 -0.117015 -0.633254
-0.318433 0.232924 -0.024246 0.650184 -0.75823 0.04054
-0.079718 0.127072 -0.092731 -0.624503 0.16903 -0.762097
0.008096 0.785905 -0.117182 -0.338918 0.235683 -0.910118
0.326452 0.301176 -0.10793 -0.568382 -0.705082 -0.415294
0.062574 0.578998 -0.100515 -0.006683 0.657604 -0.752901
-0.043669 0.307083 -0.127085 -0.312825 0.014954 -0.945659
0.0473 0.576772 0.023983 0.356106 0.001832 0.934271
0.083133 0.07263 -0.15089 0.159571 0.248317 -0.95035
0.128683 -0.603031 0.035123 -0.196176 -0.028122 0.975648
-0.068267 -0.861729 -0.05787 0.001458 -0.999248 0.036279
0.056106 -0.724767 0.025641 -0.919669 -0.069475 0.356836
-0.299392 0.339612 -0.088807 -0.408066 0.438908 -0.798074
-0.034395 -0.791714 0.046603 0.540915 0.640116 0.544509
-0.06826 -0.779225 0.030367 -0.470643 0.51494 0.698421
-0.014799 -0.648473 -0.082513 0.651953 0.05033 -0.756547
-0.072512 -0.136668 0.119796 -0.299255 0.043353 0.952632
0.074138 -0.385324 -0.07934 -0.669926 -0.06421 -0.739584
0.053092 0.374492 -0.13573 -0.333254 -0.016268 -0.94209
0.044723 0.114567 -0.135539 -0.073534 0.392741 -0.916534
