0.543766 0.162907 -0.02396 0.649883 -0.203803 -0.729114
-0.534057 0.096361 0.027132 -0.323653 0.604207 -0.628127
0.139836 -0.860353 -0.108832 0.615011 -0.461828 -0.626672
-0.062457 0.525135 0.049234 -0.145776 0.584931 0.797473
-0.121729 -0.649486 -0.080288 -0.808751 0.006882 -0.587541
0.044909 -0.227388 -0.051687 -0.893806 -0.084557 -0.438739
0.124412 0.350872 -0.135561 0.467888 -0.154912 -0.869871
-0.007604 -0.234202 -0.077519 0.628514 -0.044845 -0.77634
-0.089552 0.333096 0.068783 -0.882214 -0.010321 0.469173
0.20111 -0.331886 0.030899 0.935691 -0.055112 0.348041
0.130064 0.580671 -0.081706 0.326317 0.845458 -0.408573
0.12932 0.560798 -0.1064 0.244391 0.659806 -0.710362
0.196581 -0.213422 0.051805 0.939993 -0.009471 0.339933
0.086498 -0.318724 0.071963 -0.375727 -0.1253 0.918124
0.125115 0.294499 -0.12839 0.584609 -0.044736 -0.810056
0.341613 0.404792 -0.061212 0.783901 0.291673 0.489134
-0.115908 -0.205859 -0.041595 -0.851762 -0.098907 -0.513364
-0.223098 0.412878 -0.091316 -0.242538 0.319298 -0.915386
-0.081835 -0.863434 0.103367 -0.029135 -0.999511 0.006899
-0.156642 0.379561 -0.033453 0.712205 -0.698315 -0.056047
0.150658 0.538379 -0.117666 0.279693 0.57194 -0.769116
0.186721 0.410272 0.038226 0.803811 -0.106116 0.580767
-0.2237 0.473529 -0.039998 -0.759492 0.569437 -0.305004
0.020486 -0.532368 0.000375 0.924354 -0.139627 0.352829
-0.260109 0.295224 -0.07131 0.60686 -0.61337 -0.497924
0.189261 -0.298323 0.064463 0.836353 -0.082353 0.528133
0.202537 -0.177119 0.036548 0.947101 -0.04892 0.316424
-0.127095 -0.330183 0.031238 -0.992433 -0.014556 0.121881
-0.050813 -0.468324 0.071786 0.26378 -0.233929 0.934507
0.19315 -0.095851 0.073168 0.746162 0.002897 0.665735
-0.124737 -0.368083 0.052833 -0.976441 -0.082256 0.199173
0.285218 0.362706 -0.02736 -0.131955 -0.628671 0.737077
-0.2921 0.29227 -0.092593 0.233037 -0.376246 -0.895982
0.013399 -0.09608 -0.082364 0.26175 -0.640383 -0.69498
0.161001 -0.193939 -0.085996 0.617893 -0.084948 -0.781564
0.289014 0.350527 -0.124713 -0.556785 -0.473445 -0.681857
-0.053344 0.531941 0.046105 -0.200849 0.612149 0.764791
-0.109723 -0.244724 -0.04936 -0.838569 -0.023139 -0.543653
-0.116306 0.008725 0.092115 -0.785922 0.090153 0.61076
0.046113 -0.589728 -0.027529 -0.977116 -0.029709 0.112578
0.185615 0.303917 -0.028772 0.926533 -0.316343 -0.195937
-0.112041 0.212399 0.052518 -0.921233 0.076686 0.375652
0.152535 -0.609453 0.034113 0.339335 -0.384539 0.853574
0.187921 0.532713 0.007236 0.268589 0.604161 0.750091
0.115885 0.100298 -0.128924 0.508951 0.286701 -0.811001
0.070645 0.677204 -0.053863 0.705875 -0.275112 -0.64944
-0.46727 0.189472 -0.000239 -0.747624 0.66116 0.041256
0.041794 0.407921 -0.130822 -0.312019 0.038994 -0.945876
0.007916 -0.412376 -0.048564 0.773494 -0.005897 -0.632936
-0.125836 -0.291116 -0.02102 -0.95099 0.022092 -0.296343
0.061221 0.800717 -0.110878 0.453958 0.2459 -0.849387
-0.315127 0.253691 0.00347 0.321289 -0.272567 0.896773
-0.0651 -0.362208 0.098329 0.139934 -0.16965 0.975479
0.109461 -0.646264 -0.091719 -0.408149 -0.076017 -0.909724
-0.229554 0.433599 0.022514 -0.716683 0.294277 0.629835
0.012668 0.30849 0.120262 -0.153877 0.127571 0.979251
-0.004451 0.244793 0.121564 -0.367497 0.080108 0.926436
-0.113807 -0.503533 0.036919 -0.848855 -0.19533 0.490331
-0.120488 -0.642361 0.009843 -0.962753 -0.075297 0.255999
-0.058184 -0.864255 0.08164 0.000203 -0.999972 0.003031
-0.083858 -0.863251 0.117282 -0.041848 -0.998868 0.020058
0.171517 -0.103761 -0.090299 0.770276 -0.099693 -0.62977
0.120367 0.517686 0.041551 0.264979 0.621621 0.735418
-0.511935 0.098095 0.085694 0.827683 -0.040304 0.5523
0.175159 -0.116485 0.093211 0.691564 -0.004602 0.722166
-0.103604 0.189531 0.065468 -0.769571 -0.045226 0.634338
0.024423 -0.245945 0.055381 0.932261 -0.009624 0.36048
0.103073 -0.07091 -0.13573 0.044858 -0.315058 -0.946985
-0.137164 0.0382 0.010001 -0.967866 0.24762 0.003352
-0.128552 0.086516 0.00945 -0.99925 0.000794 0.03281
0.199958 -0.147539 -0.049889 0.855952 -0.013672 -0.513853
-0.02577 0.364064 -0.128928 -0.027704 -0.018084 -0.999364
-0.048704 -0.853434 0.14528 0.766251 -0.320825 0.498553
-0.123344 -0.116453 0.083886 -0.837589 0.032524 0.544503
0.073845 0.672841 0.060702 0.847416 -0.501476 0.147608
-0.554746 0.071228 0.001518 -0.617818 0.51995 -0.274083
0.107513 -0.213166 -0.101038 -0.199472 -0.113371 -0.970912
0.06885 -0.357003 0.050012 -0.634677 -0.307761 0.707378
0.295543 0.459976 -0.034557 0.740453 0.328911 0.582393
-0.024593 0.730829 0.044973 -0.911815 -0.071409 0.387212
0.147551 -0.18216 -0.096971 0.498349 -0.060354 -0.864539
-0.223745 0.356362 -0.090785 0.323319 -0.452533 -0.82853
-0.118848 -0.262658 -0.032444 -0.827851 0.003763 -0.560436
0.029245 -0.301729 -0.005129 0.989993 -0.091778 -0.088609
0.039444 -0.25519 0.009968 -0.383115 -0.037466 0.836024
0.027733 0.262894 -0.126214 0.006957 -0.074147 -0.995499
0.366219 0.284874 -0.125365 -0.323721 -0.383562 -0.864013
0.065889 -0.62215 -0.060449 -0.70114 -0.081343 -0.707524
-0.089374 -0.8264 0.077377 -0.444074 0.871225 0.161708
-0.1138 -0.142273 -0.058536 -0.762357 -0.170206 -0.623535
-0.060346 0.179007 0.099095 -0.439663 0.021418 0.896597
0.078559 -0.005079 0.136167 0.214188 -0.266171 0.932814
0.097296 0.380971 -0.145821 0.011821 -0.012958 -0.99887
0.181812 -0.622562 0.017854 0.277926 -0.010106 0.955596
-0.020569 0.018537 0.136794 -0.183299 0.130928 0.97412
0.172485 -0.046293 -0.098054 0.800984 -0.126059 -0.584669
-0.004132 0.467577 0.087665 -0.02521 0.41186 0.909859
-0.064418 -0.403188 -0.081565 -0.188789 0.028245 -0.978464
0.010109 -0.810988 -0.064381 0.955831 -0.254452 0.113989
0.585201 0.047343 -0.00289 -0.838934 -0.543703 -0.012342
0.538321 0.129973 0.009362 -0.762595 -0.645686 0.02984
-0.021122 -0.489311 -0.086459 0.657415 0.09255 -0.745766
0.205478 -0.227499 0.01788 0.995705 -0.044748 0.074839
-0.017239 0.81728 0.034806 -0.826053 0.362399 0.427926
0.393078 0.293995 -0.128683 0.170279 0.100946 -0.972173
0.017017 0.514493 -0.122581 0.003215 0.114303 -0.992762
0.157853 -0.501457 0.061838 0.05232 -0.198985 0.971305
0.139038 0.11152 0.092822 0.670022 0.089609 0.736176
-0.014992 -0.505056 -0.082624 0.690496 0.067265 -0.720088
0.175412 0.415372 0.048933 0.593998 0.00252 0.803283
-0.016466 0.713281 -0.063273 -0.917249 -0.249278 -0.274179
0.025249 -0.008481 0.143298 0.139748 -0.544657 0.80486
0.068519 0.216702 0.12432 0.342404 0.09699 0.934502
-0.001634 -0.799704 -0.12123 0.862981 0.014482 -0.49651
0.185571 0.302377 0.003123 0.976883 -0.119651 0.173896
0.143284 -0.830763 0.142858 0.456122 0.881264 0.116565
0.076307 -0.481194 -0.082507 -0.702687 0.014661 -0.711297
0.106388 0.752021 -0.008401 0.95697 0.226185 0.168483
0.029018 0.663503 -0.065962 -0.123204 -0.17528 -0.971666
0.059907 -0.768204 -0.01519 -0.994076 0.042076 -0.098062
-0.001351 0.457797 -0.128275 0.12586 0.034697 -0.991382
0.097643 -0.007237 0.129397 0.282573 -0.250304 0.925065
0.103825 -0.837522 -0.112303 -0.52414 -0.042841 -0.849979
0.0208 -0.300327 0.058314 0.908418 -0.080962 0.409922
-0.096036 -0.039435 -0.102563 -0.668438 -0.166729 -0.724544
0.362081 0.271299 -0.110425 -0.610618 -0.689694 -0.380675
-0.108501 -0.482505 -0.074349 -0.688946 0.114719 -0.715615
-0.036731 0.548301 -0.109331 -0.24615 0.492963 -0.833515
0.166826 0.224531 -0.061279 0.869363 -0.014138 -0.493761
0.033337 0.656895 0.066327 -0.014366 -0.977483 0.20729
0.041972 0.619473 -0.072764 0.027526 0.470607 -0.880695
0.174533 -0.521676 0.049782 0.563809 -0.196748 0.799563
-0.020312 -0.835608 -0.061702 0.831015 -0.525283 -0.012061
0.051386 0.835634 0.05877 0.420331 0.524441 0.73633
0.551827 0.169603 -0.000632 0.80969 0.579342 -0.028316
-0.108023 -0.305601 0.099039 -0.681016 -0.0506 0.729452
-0.092701 -0.621527 0.049779 -0.083563 -0.226413 0.964819
0.631002 0.055533 0.09546 0.863446 0.424614 0.263196
0.053127 0.016643 0.140322 0.117354 0.228998 0.96616
-0.040064 -0.189343 0.120925 0.107262 -0.122268 0.986522
-0.115714 -0.312853 0.090244 -0.791446 -0.058789 0.605551
0.141642 0.492558 -0.138366 0.169669 0.281052 -0.944442
0.184848 -0.561409 0.031425 0.715712 -0.139353 0.683484
-0.121675 0.391336 0.037026 -0.942323 -0.249056 0.218604
0.058269 -0.417052 0.010159 -0.674897 -0.356197 0.644713
0.32276 0.420507 -0.127656 0.453128 0.607844 -0.650459
-0.121754 0.539541 -0.076446 -0.360412 0.680278 -0.637725
0.187431 0.121583 -0.033651 0.848692 0.261618 -0.459208
0.194153 -0.34718 0.04423 0.910461 -0.066847 0.407291
0.144071 -0.715635 0.011562 0.399689 -0.240855 0.873367
0.193884 0.045861 -0.053291 0.910351 0.131753 -0.3918
-0.09615 0.059145 0.096196 -0.426261 0.233712 0.873371
0.072979 -0.740537 -0.039846 -0.911749 0.026088 -0.408743
-0.020522 0.745156 -0.085438 -0.808826 -0.296126 -0.507473
-0.082949 -0.825312 0.085001 -0.239557 0.954312 0.148841
0.254664 0.522569 -0.048171 0.706584 0.707123 0.02483
0.199184 -0.004434 -0.044882 0.950407 0.074091 -0.301584
-0.411568 0.243215 -0.063436 -0.643173 0.113023 -0.755197
-0.142263 0.022532 0.005161 -0.987872 0.068728 -0.093911
-0.031279 0.729776 -0.04324 -0.820109 -0.425459 -0.367145
0.09562 0.355667 0.099029 0.261544 0.12597 0.956097
0.007217 -0.171681 0.101455 0.645796 -0.130727 0.748345
0.099643 0.59289 -0.079994 0.352047 0.736793 -0.566989
0.060528 -0.728559 -0.018774 -0.878 -0.173417 -0.435973
0.075672 -0.588554 -0.071602 -0.694795 -0.095631 -0.712629
-0.238325 0.345464 -0.090199 0.323208 -0.472939 -0.817367
0.24333 0.45185 -0.000582 0.353364 -0.137953 0.918791
0.106865 -0.003247 0.128218 0.317697 -0.215798 0.922936
-0.559759 0.046771 0.002936 0.964851 -0.16326 -0.178648
0.283639 0.412945 -0.141993 -0.023045 0.142629 -0.986902
0.08687 0.724228 -0.072076 0.740728 -0.443829 -0.497856
-0.082458 0.431372 0.080216 -0.586402 0.128621 0.799272
0.182674 0.224519 -0.014366 0.998032 0.010099 -0.059194
0.172931 -0.326673 -0.058483 0.729462 0.003974 -0.683873
0.062716 0.615138 -0.070587 0.304059 0.599802 -0.739733
0.054379 0.137752 0.130138 0.115474 0.037658 0.992588
0.026811 -0.359582 -0.00284 0.99576 -0.028308 -0.07352
-0.101811 -0.583687 -0.092223 -0.54403 0.051964 -0.837281
0.008075 -0.057766 0.126673 0.315324 -0.212467 0.923178
-0.569588 0.043089 0.012309 -0.846239 0.529147 -0.046753
-0.001705 0.222893 0.125352 -0.339399 0.151714 0.92714
0.079314 0.719774 -0.078739 0.679815 -0.456555 -0.572875
0.391946 0.324871 -0.060778 0.481473 0.636674 0.598978
0.064421 0.632488 -0.061136 0.494005 0.315583 -0.808122
0.119006 0.216999 -0.115936 0.583771 -0.335971 -0.738381
-0.094125 -0.826066 0.055994 -0.736444 0.666088 0.113395
-0.118232 0.302349 -0.031529 -0.965139 -0.250521 0.011001
-0.009338 -0.304978 -0.06933 0.704353 -0.129944 -0.697597
-0.082069 0.074289 -0.107019 -0.649377 0.20572 -0.729084
0.30113 0.320009 -0.088369 -0.700898 -0.713008 -0.00617
-0.0252 -0.384773 -0.073894 0.548377 -0.025593 -0.830854
0.039983 0.735761 0.105803 0.418256 0.124026 0.839287
-0.4037 0.178507 0.008202 0.562404 -0.818828 0.108604
0.182915 0.269371 0.007513 0.997586 0.005793 0.067612
0.098104 -0.601861 -0.089473 -0.591968 -0.092277 -0.797494
0.161146 -0.774087 -0.088605 0.659129 0.423645 -0.619809
0.130997 -0.69775 0.025067 0.278873 -0.335457 0.899101
0.090226 0.340676 -0.144672 -0.006929 -0.045353 -0.997793
0.08891 -0.083758 -0.129397 -0.138744 -0.392042 -0.90851
0.036352 -0.232682 0.01448 0.499311 -0.201288 0.639699
-0.516892 0.108515 0.0169 -0.42315 -0.453694 -0.761824
0.297376 0.394933 -0.017866 0.401847 -0.032808 0.910974
-0.021891 -0.847687 0.011046 0.93729 -0.283723 -0.057744
-0.362419 0.309724 -0.035286 -0.625658 0.766392 0.136194
-0.129139 -0.276409 -0.003828 -0.989102 -0.070111 -0.122026
0.199549 -0.347318 -0.030118 0.87542 0.164547 -0.45401
0.008458 -0.502624 0.026501 0.733564 -0.135334 0.66524
-0.018814 -0.66126 0.025269 -0.073781 0.058274 0.994172
-0.280772 0.355724 -0.092062 -0.510336 0.247403 -0.818989
0.314002 0.315619 -0.114785 -0.55941 -0.666439 -0.489311
-0.119788 0.122879 -0.040354 -0.890694 0.032468 -0.451162
-0.114435 -0.560289 -0.081629 -0.674866 0.09046 -0.730337
-0.102917 0.110581 0.072583 -0.69696 0.344086 0.62197
-0.097325 -0.81382 0.014286 -0.952117 0.205157 0.220447
0.173892 -0.813854 -0.055943 0.867301 -0.476296 -0.010696
0.173458 -0.456105 -0.082795 0.654324 0.16896 -0.736799
0.197594 0.456987 0.030497 0.594799 0.144663 0.788873
-0.149084 0.463905 -0.095964 -0.337474 0.060001 -0.939146
-0.225707 0.378611 -0.096485 0.062012 -0.00356 -0.996938
-0.01907 0.770816 0.048829 -0.879866 0.030134 0.465627
0.023807 -0.468857 0.007912 0.887997 -0.10795 0.445503
-0.456328 0.138723 0.014681 0.612213 -0.783258 0.100367
0.10373 -0.660549 -0.088127 -0.486184 -0.021258 -0.871934
-0.052298 -0.449686 0.076693 0.249243 -0.275528 0.928161
0.005314 -0.691627 0.002428 0.827142 -0.233186 0.508563
0.04453 0.189078 -0.113794 -0.140965 0.085849 -0.975464
0.032937 0.861153 0.039645 0.009632 0.895501 0.429162
-0.001847 0.69451 -0.065161 -0.657428 -0.516563 -0.54798
-0.063318 0.255482 0.09096 -0.485261 0.069628 0.871428
0.020896 0.040154 -0.152807 -0.16754 0.19557 -0.966077
0.019214 0.865098 -0.0252 -0.256421 0.95897 -0.075623
-0.081465 0.555744 0.017686 -0.050221 0.767295 0.639241
0.055194 0.419611 -0.135608 -0.300284 0.041219 -0.952901
-0.13634 -0.163468 0.058897 -0.977525 -0.016176 0.203077
0.085679 -0.686233 -0.074319 -0.755948 -0.005915 -0.654184
0.053829 -0.654126 0.006849 -0.88974 0.110374 0.415561
-0.01744 -0.574833 0.030086 0.356866 -0.194323 0.911821
-0.063091 -0.864092 0.052997 -0.014152 -0.999856 -0.007688
-0.415654 0.230715 0.011021 -0.268438 0.381596 0.880094
0.042751 -0.261558 0.027349 -0.991479 -0.018016 0.128443
0.186758 -0.439581 -0.064928 0.765298 0.170082 -0.620504
-0.110038 -0.797249 -0.088463 -0.916377 -0.081728 -0.386765
0.01199 0.162375 0.130537 -0.072352 0.018884 0.996908
0.109313 0.025476 0.123258 0.420528 0.310868 0.85225
0.327548 0.327785 -0.132328 -0.254996 -0.326675 -0.906222
-0.02424 -0.848125 0.073444 0.981106 0.016773 0.148499
0.183054 -0.393644 0.062295 0.812768 -0.033486 0.581514
-0.065466 -0.216115 -0.090702 -0.245064 -0.006589 -0.966141
0.020651 -0.422856 0.010169 0.991257 0.019401 0.120882
0.097663 -0.235869 -0.09648 -0.329618 -0.036544 -0.941898
0.58364 0.129814 0.039788 0.748174 0.660525 0.055574
0.126423 -0.503352 0.050809 -0.53014 -0.122739 0.83849
0.087539 0.081324 0.121384 0.484332 0.0269 0.873492
0.207562 -0.15991 -0.010326 0.998024 -0.034178 -0.013119
-0.081166 -0.857638 0.150648 -0.37993 -0.681944 0.542709
0.178288 -0.061063 -0.086168 0.818266 -0.078946 -0.569136
0.029731 0.798013 0.08142 -0.051153 0.230118 0.970248
0.05046 -0.195897 -0.068398 -0.817164 -0.164239 -0.551222
0.14087 -0.69045 0.024819 0.23563 -0.342101 0.907247
0.157227 0.075062 0.08807 0.225264 0.296358 0.925288
0.176383 0.473179 0.038698 0.586499 0.255978 0.766953
0.00643 0.566384 0.023429 -0.30821 0.242478 0.91214
0.168071 -0.481647 -0.091766 0.664791 0.063042 -0.74371
0.23247 0.382799 -0.054876 -0.687295 -0.692995 0.216661
0.220776 0.504453 0.013155 0.225034 0.320789 0.912372
-0.265835 0.288139 -0.014088 0.629138 -0.627734 0.454584
0.213132 0.527082 -0.107493 0.30475 0.698102 -0.646301
-0.208555 0.440387 -0.085012 -0.374509 0.420017 -0.826149
0.307955 0.450491 -0.106254 0.576577 0.649089 -0.495911
0.500783 0.228105 -0.036849 0.662422 0.745834 0.060208
-0.162351 0.437181 0.042114 -0.303492 -0.533505 0.784705
0.206809 -0.007279 -0.017334 0.981405 0.090184 -0.168887
0.104808 -0.284546 -0.09935 -0.084911 0.008954 -0.992125
0.173847 -0.686887 -0.060296 0.770005 -0.155051 -0.617786
-0.123426 0.055972 0.060541 -0.922679 0.224335 0.310274
0.17457 -0.165912 -0.075954 0.707419 -0.05095 -0.704669
0.094875 0.716765 0.025634 0.922203 -0.142278 0.257495
-0.079949 -0.71785 -0.116054 -0.426716 0.219961 -0.873892
-0.027587 0.525879 0.056143 -0.147609 0.539879 0.828215
0.3683 0.257683 -0.071836 -0.729487 -0.645921 0.222735
0.11532 -0.034304 0.12176 0.325047 -0.073047 0.942241
0.03203 0.536322 -0.118933 -0.091669 0.313325 -0.94074
0.107567 -0.825932 0.106362 -0.280568 0.946991 0.131807
0.01902 0.814483 0.07285 -0.33062 0.452973 0.823287
-0.532059 0.106217 0.044093 -0.821632 0.54907 -0.130416
-0.128923 0.07337 -0.017796 -0.982966 0.15194 -0.063234
-0.090682 -0.106431 0.112995 -0.364782 0.03958 0.929977
0.194517 -0.718526 -0.034171 0.796626 -0.09979 -0.593943
0.060989 -0.789528 -0.027975 -0.981138 -0.026643 -0.170638
0.158316 -0.370593 -0.076328 0.597353 0.196345 -0.776982
-0.138263 -0.157447 -0.010582 -0.937409 -0.12044 -0.325783
0.029574 -0.127082 0.083617 0.777836 -0.341707 0.525592
-0.173359 0.489708 -0.079316 -0.484817 0.352143 -0.799662
0.199055 -0.015569 -0.047381 0.954548 0.042524 -0.29363
-0.040763 0.001167 0.136126 -0.268685 0.398462 0.874251
0.334771 0.296258 -0.111197 -0.560991 -0.665835 -0.491208
0.091144 0.506631 -0.1359 -0.101233 0.164799 -0.980363
-0.094902 0.315094 -0.095083 -0.680282 -0.110524 -0.724333
0.119083 -0.50699 0.045435 -0.559959 -0.086673 0.823834
0.080666 0.679564 -0.040085 0.905757 -0.174105 -0.368188
-0.174153 0.391234 0.017656 0.298535 -0.581563 0.749859
0.115553 -0.804652 -0.118776 -0.21803 0.167168 -0.956494
-0.129714 -0.256979 -0.008745 -0.966169 -0.036721 -0.251005
0.025467 -0.299467 0.047996 0.94853 -0.035511 0.306831
-0.048259 -0.862837 -0.083082 0.044824 -0.997185 0.054484
0.090734 -0.151107 -0.110152 -0.227809 -0.220076 -0.947667
-0.052846 0.022289 -0.138829 -0.286272 -0.232647 -0.921092
0.019279 0.22534 0.128259 -0.01999 0.039342 0.998971
0.011432 -0.744951 -0.081542 0.812369 0.058695 -0.578637
-0.131243 -0.059835 -0.045197 -0.888661 -0.036974 -0.456417
0.088627 0.616763 -0.048328 0.729393 0.598187 -0.319888
0.018236 0.063473 0.13644 0.161927 0.060991 0.984291
0.089923 0.275805 0.109885 0.394849 0.107925 0.912336
0.578162 0.078856 0.058451 -0.03277 -0.753921 0.634401
-0.137095 -0.502172 -0.023888 -0.995306 -0.077656 -0.042638
0.178997 -0.677743 0.015336 0.503853 -0.261305 0.822094
0.37635 0.327605 -0.053023 0.388415 0.483607 0.781858
0.370999 0.281486 -0.041287 -0.399093 -0.296856 0.84901
0.138553 0.047734 0.109557 0.48967 0.260681 0.824251
0.037199 -0.158669 0.045402 0.018879 -0.499178 0.758647
0.050104 -0.199604 0.062587 -0.809571 -0.080517 0.581104
-0.244551 0.31992 -0.003711 0.549198 -0.553562 0.624044
-0.11286 -0.354416 -0.05119 -0.768806 0.114186 -0.627551
0.010531 -0.527283 0.01788 0.703992 -0.170323 0.689182
0.107323 0.410647 -0.145702 0.042118 -0.028347 -0.998259
0.135454 -0.11644 -0.116448 0.462039 -0.242623 -0.852865
0.146809 -0.867041 0.138999 0.239293 -0.958248 0.131641
0.335079 0.389303 -0.061569 0.892061 -0.155219 0.386432
-0.038056 0.779065 -0.016307 -0.983631 0.123311 0.127787
-0.339121 0.329835 -0.051074 -0.65677 0.752094 -0.047122
-0.063492 0.537712 0.039454 -0.172156 0.613798 0.769928
0.197706 -0.697389 -0.016535 0.991193 -0.031311 0.11133
0.1649 -0.58437 0.03924 0.47325 -0.211109 0.852294
0.633188 0.023 0.058562 -0.409104 -0.905143 0.004873
-0.202631 0.447864 -0.083728 -0.364511 0.42214 -0.828529
-0.019785 -0.835084 -0.028897 0.77086 -0.572513 0.013474
0.063593 -0.03808 0.13042 0.033917 -0.176254 0.983305
0.398957 0.327554 -0.072424 0.578885 0.731345 0.354349
-0.036508 0.733564 -0.033976 -0.865172 -0.361906 -0.328082
-0.012679 -0.767032 -0.119036 0.644851 0.436347 -0.625752
0.099563 0.753324 0.011298 0.978771 -0.014972 0.199252
0.521904 0.204466 -0.00655 0.062203 0.944966 0.320548
0.132689 -0.198901 -0.102471 0.274611 -0.1365 -0.951026
0.18306 0.212341 0.008042 0.999487 0.027265 0.015505
-0.03658 -0.005288 -0.137016 -0.161896 -0.080986 -0.983024
0.004293 -0.45722 -0.054436 0.771568 0.082407 -0.630585
0.05291 0.274958 -0.131912 -0.375469 -0.075008 -0.922721
0.146097 -0.355088 0.078075 0.153809 -0.105128 0.981342
0.199045 -0.601041 -0.046481 0.988073 -0.023249 -0.150782
-0.119788 -0.348269 -0.040488 -0.842129 0.121889 -0.524439
0.207157 0.014436 0.003306 0.999561 0.018096 -0.021799
-0.059665 -0.147604 -0.099824 -0.125843 -0.178264 -0.971229
0.017126 -0.760964 -0.072489 0.96475 0.015288 -0.252792
0.074765 0.780755 -0.104105 0.628091 0.030274 -0.775304
0.052337 -0.463781 -0.004177 -0.798328 -0.026902 0.593082
-0.005092 -0.648917 -0.074585 0.599876 0.086828 -0.794745
-0.011329 0.67704 -0.036695 -0.958476 -0.145692 -0.227682
-0.114415 -0.239812 -0.04054 -0.889688 -0.021627 -0.455781
0.066028 0.434819 -0.137975 -0.291357 0.009013 -0.95588
-0.086116 -0.633768 0.046358 0.237433 -0.358364 0.901285
-0.142382 0.417653 0.038565 -0.411379 -0.799844 0.413292
0.110957 -0.526511 0.039582 -0.520071 -0.017752 0.852238
-0.054994 0.14043 0.105443 -0.53052 0.066398 0.844916
0.159863 -0.164735 -0.08863 0.571901 -0.075732 -0.814734
-0.071647 -0.181545 0.116814 -0.130849 -0.034243 0.989772
-0.074619 -0.437901 -0.087284 -0.311916 0.310993 -0.889215
-0.006378 0.068111 -0.141307 -0.162293 0.229573 -0.959531
-0.106733 -0.270236 0.102248 -0.631316 -0.040943 0.768211
-0.443614 0.211721 0.006192 -0.595346 0.495891 0.625699
0.054018 0.030178 0.137115 0.034095 0.254618 0.966105
-0.106917 0.288405 0.037613 -0.986415 0.002985 0.163018
-0.068059 -0.807915 0.06124 -0.396257 0.469802 0.76729
0.117265 0.398226 -0.144269 0.188178 -0.064928 -0.979869
0.078308 0.065419 0.128249 0.429959 0.069339 0.899606
-0.035435 -0.593198 -0.09626 0.407673 -0.011975 -0.912333
0.066104 0.648149 0.026444 0.662091 -0.343497 0.665458
-0.092318 -0.484896 0.075955 -0.568423 -0.198923 0.795718
-0.023121 -0.83795 -0.109946 0.897695 -0.372441 -0.107378
0.143476 0.508 0.040935 0.358377 0.543582 0.755696
0.17321 -0.698874 -0.059111 0.814929 -0.071662 -0.574758
0.206373 -0.048476 -0.025451 0.97224 0.005555 -0.231114
-0.270449 0.413677 -0.037477 -0.745779 0.665636 0.009317
0.147208 -0.866409 -0.034902 0.286447 -0.939923 0.141442
0.019201 -0.426685 -0.025966 0.970895 0.018489 -0.224488
0.198521 -0.572564 -0.051198 0.956401 -0.024273 -0.278591
0.117981 0.055943 0.110423 0.33746 0.229441 0.911801
-0.020433 -0.586948 -0.087565 0.655023 -0.039871 -0.750743
-0.128468 -0.30704 -4e-05 -0.999585 -0.010013 -0.026606
-0.130487 0.11001 0.004701 -0.993734 -0.088571 0.023414
0.055237 0.745107 -0.110622 0.406493 -0.299854 -0.861179
0.441378 0.294632 -0.090342 0.694516 0.703688 -0.12119
0.011612 0.441889 0.095585 0.095991 0.207629 0.971489
0.087914 -0.833736 -0.020962 -0.955166 -0.20886 -0.002219
0.148883 0.549469 -0.109712 0.251197 0.653315 -0.713781
0.159471 0.38007 -0.119397 0.478695 -0.305494 -0.822055
0.165704 -0.56502 -0.091596 0.617497 -0.054409 -0.783639
0.071868 0.420493 0.091902 0.157428 0.252702 0.954353
-0.045283 0.405285 0.099345 -0.274799 0.198509 0.939279
-0.124923 0.015369 -0.059661 -0.893396 0.034078 -0.447903
0.140759 0.419192 -0.140101 0.386021 -0.232387 -0.89243
0.336722 0.403223 -0.052633 0.740318 0.128949 0.591608
0.082388 -0.383174 -0.087149 -0.664918 -0.075622 -0.742376
0.183847 -0.292259 0.070806 0.55248 -0.04729 0.827883
0.191574 0.337445 -0.00938 0.986925 -0.139422 0.080621
0.310935 0.314723 -0.06636 -0.577403 -0.673188 0.461275
-0.115386 -0.346059 0.08619 -0.797878 -0.097704 0.59409
0.478243 0.242795 -0.018466 0.160777 0.734045 0.588608
0.182826 0.321003 0.016626 0.909254 -0.099772 0.403301
0.47764 0.184168 -0.002076 -0.590328 -0.782757 0.191363
0.594262 0.056952 0.010579 0.983797 -0.138942 -0.026092
-0.357864 0.210317 -0.002151 0.55983 -0.790879 0.247093
0.208823 0.5166 0.011113 0.276699 0.409928 0.867477
0.509453 0.170975 0.018208 -0.010307 0.180556 0.932682
-0.101967 -0.853056 0.119865 -0.918517 -0.066679 0.36564
0.580273 0.132576 0.009119 0.778341 0.612145 -0.136843
-0.0691 -0.020982 0.1229 -0.375346 -0.100478 0.904043
-0.360521 0.208625 -0.047556 0.449905 -0.861264 -0.225679
0.19802 -0.479944 0.004185 0.977418 0.029583 0.203341
0.197785 0.3939 -0.097876 0.893431 -0.362028 -0.259275
-0.395413 0.273259 -0.015508 -0.649602 0.691901 0.314934
-0.018868 -0.46403 -0.080884 0.664609 0.103327 -0.732802
-0.134055 -0.433474 -0.026449 -0.919873 0.168421 -0.347935
-0.108794 -0.736873 -0.087077 -0.842953 0.128346 -0.522022
0.272796 0.447577 -0.132837 0.230299 0.524359 -0.819326
-0.040475 -0.226393 0.113963 0.107955 -0.173722 0.978727
0.076719 -0.508696 -0.082561 -0.699429 -0.029788 -0.714003
0.087911 -0.497563 -0.093169 -0.593661 -0.022831 -0.803209
-0.393502 0.190098 0.013366 0.567138 -0.419181 0.634898
-0.059534 -0.280958 0.107189 0.128749 -0.114454 0.984799
0.536205 0.159181 -0.030384 0.581929 -0.206856 -0.783295
0.022587 -0.097334 -0.079216 -0.331714 -0.685686 -0.626227
0.174441 0.550008 -0.004243 0.221665 0.727351 0.649244
-0.506251 0.143109 0.037551 -0.783188 0.621724 0.00578
-0.044118 0.139997 0.112156 -0.484085 0.014402 0.873757
0.136859 -0.861764 0.173757 0.062356 -0.966272 0.247895
-0.058766 0.214889 -0.105332 -0.594377 -0.283079 -0.752101
-0.236596 0.444049 0.005019 -0.791561 0.438439 0.423404
0.196149 0.089995 0.004164 0.963092 0.223178 0.13575
0.198339 -0.501652 -0.051502 0.952381 0.016085 -0.29616
0.027151 -0.587909 -0.022396 0.996399 0.041423 -0.044884
0.093094 -0.401715 -0.093816 -0.471373 -0.009953 -0.881489
0.085409 -0.007078 -0.156984 0.089208 -0.136915 -0.98553
0.032786 0.113298 -0.134772 -0.121775 0.403043 -0.9055
-0.097252 -0.17985 0.11118 -0.354396 -0.03159 0.927716
0.177489 -0.708377 -0.05233 0.783544 -0.037048 -0.617302
0.125469 -0.489417 0.052062 -0.554295 -0.10717 0.825343
0.146527 -0.865648 -0.093139 0.561048 -0.763754 -0.301465
0.513232 0.155658 -0.021437 -0.632031 -0.772906 -0.050478
0.060394 -0.149522 0.075956 -0.64122 0.050442 0.765546
-0.328347 0.239899 0.003495 0.291038 -0.36932 0.869766
-0.035005 0.433912 -0.130674 0.0024 -0.076402 -0.996376
0.071921 0.693581 0.072903 0.672191 -0.041769 0.73457
-0.122707 -0.643899 -0.003352 -0.977352 -0.139379 0.154788
0.04169 -0.370968 -0.03506 -0.924055 -0.061636 -0.36893
0.001168 0.009267 -0.145057 -0.146718 -0.245423 -0.953941
0.013479 0.360454 -0.127295 0.039585 -0.036876 -0.998417
0.112035 0.454866 0.078686 0.268658 0.383373 0.881138
0.190336 -0.159701 0.077127 0.888008 -0.023301 0.457532
0.001495 -0.375028 0.06784 0.765386 -0.162986 0.62212
0.151238 -0.075375 -0.115655 0.659556 -0.162797 -0.733495
-0.021341 -0.848367 0.036762 0.983133 -0.069215 0.026631
0.113662 -0.868238 0.021111 -0.076862 -0.990133 -0.11178
-0.031133 0.356134 0.105791 -0.009797 -0.075602 0.996988
-0.285389 0.306245 0.006067 0.082771 -0.202825 0.97344
0.177106 0.071357 0.073892 0.843598 0.116298 0.48844
0.0206 -0.61025 -0.045848 0.762964 0.128209 -0.63232
-0.109205 -0.611322 0.03445 -0.902774 -0.001669 0.429765
-0.000204 0.639201 -0.051524 -0.719661 0.231813 -0.651302
0.167608 -0.083156 -0.098613 0.771027 -0.107019 -0.627647
-0.024291 -0.857111 0.050071 0.847864 -0.49106 0.024418
0.17291 0.189786 0.05155 0.799141 0.079952 0.595311
-0.141909 -0.165705 0.030205 -0.974435 -0.13506 0.170888
-0.017955 -0.75934 -0.006138 0.530609 0.027646 0.818472
0.103336 0.763774 -0.050937 0.972392 -0.115994 -0.195124
-0.048803 -0.826154 0.108485 0.216336 0.959632 0.157561
-0.106795 0.52727 0.044555 -0.016804 0.577041 0.816269
0.641193 0.033147 0.07814 0.898715 0.065376 0.306811
-0.076454 0.287864 -0.108904 -0.638375 -0.05169 -0.767886
-0.027542 -0.581774 -0.092797 0.495089 -0.04339 -0.865357
0.191358 0.333447 -0.018638 0.987895 -0.146296 0.029272
-0.014806 0.508939 0.066569 -0.014079 0.419722 0.907331
-0.23603 0.314588 -0.047954 0.748451 -0.656605 -0.084785
-0.005024 0.655774 -0.041372 -0.841898 0.028484 -0.536638
0.006948 -0.803589 -0.040907 0.879056 -0.326971 0.345008
0.564662 0.125064 -0.012057 0.553997 0.187518 -0.809468
0.006748 -0.213324 -0.063639 0.702476 0.009021 -0.711603
0.06925 0.440973 0.088502 0.095189 0.189882 0.976475
0.145124 0.297292 -0.108186 0.782479 -0.096811 -0.614976
-0.114793 -0.54263 0.027844 -0.866532 -0.092462 0.489177
0.181815 -0.136795 -0.072075 0.715662 -0.071453 -0.694733
0.025496 -0.679645 -0.028799 0.956436 -0.113718 0.244184
-0.084612 -0.156069 -0.087052 -0.616298 -0.176363 -0.766527
0.135036 -0.835757 -0.114629 0.446674 -0.032305 -0.891155
0.106272 -0.734403 -0.094501 -0.462811 -0.029812 -0.884893
-0.193011 0.360724 -0.074179 0.561342 -0.662548 -0.493498
0.049664 0.220329 0.128041 0.086809 0.055365 0.993616
-0.045072 -0.049899 -0.124346 -0.15987 -0.417133 -0.89251
0.032927 0.468093 -0.126942 -0.135216 0.065683 -0.988498
-0.258256 0.315831 0.002408 0.376046 -0.380168 0.839799
0.197269 0.03715 -0.047516 0.952356 0.062928 -0.296462
0.07682 -0.594233 0.015424 -0.725803 -0.132021 0.675009
0.145591 0.370184 0.074853 0.640645 -0.030984 0.766873
0.545133 0.185053 -0.015359 0.972936 0.170234 0.036483
-0.009567 -0.599913 -0.07684 0.683205 -0.008619 -0.729995
-0.003341 0.029856 -0.150126 -0.200581 0.037913 -0.969627
-0.344184 0.250665 -0.080197 0.194195 -0.411097 -0.889899
0.161648 0.174563 0.066681 0.720325 0.060472 0.690856
0.158224 -0.674921 -0.078858 0.630451 -0.076153 -0.771944
0.156483 0.35208 -0.110964 0.605756 -0.278165 -0.745284
0.023803 -0.036111 -0.133003 -0.098384 -0.479077 -0.871087
0.164832 0.053159 0.093112 0.476662 0.279123 0.828838
-0.478049 0.165788 -0.031376 -0.612758 0.524403 -0.59105
0.157733 -0.219379 -0.08421 0.567078 -0.105826 -0.816601
-0.072255 -0.550143 -0.102226 -0.13573 0.058414 -0.988171
0.074138 -0.385324 -0.07934 -0.669926 -0.06421 -0.739584
0.117353 0.577147 -0.016912 0.370453 0.735905 0.563127
-0.140009 -0.108433 0.046008 -0.945343 0.001551 0.325917
0.249282 0.452229 -0.133631 0.045678 0.290205 -0.954128
0.392386 0.317874 -0.122251 0.507038 0.405294 -0.760182
-0.079209 -0.446054 0.082327 0.081174 -0.149466 0.984501
-0.09384 0.179334 0.074952 -0.695998 -0.022633 0.717685
-0.054378 -0.435933 0.080919 0.178625 -0.198756 0.963617
-0.126443 0.398045 0.028272 -0.921388 -0.329888 0.194425
0.199251 -0.590938 -0.00249 0.985599 -0.02805 0.166644
0.024232 -0.586147 -0.035138 0.901202 0.113259 -0.405517
0.016753 -0.320646 0.063125 0.837576 -0.149904 0.520339
0.070739 -0.529174 -0.074762 -0.718672 -0.070637 -0.691734
-0.258016 0.409157 -0.078087 -0.465058 0.615891 -0.635904
0.149904 -0.841731 0.169895 0.640076 0.660677 0.360109
-0.011515 0.648225 -0.006869 -0.987165 -0.037786 0.130098
-0.093144 0.433511 -0.120155 -0.24939 -0.152624 -0.95621
-0.119577 0.329125 -0.01623 -0.993598 -0.036516 0.104323
0.052283 -0.311484 -0.0585 -0.814982 0.005868 -0.579392
-0.001092 -0.561744 -0.069508 0.77288 -0.039062 -0.633308
-0.069078 0.48959 -0.125404 -0.240208 0.333301 -0.909513
-0.121508 0.203253 0.026931 -0.94004 0.193802 0.277511
0.129721 0.399048 -0.140575 0.363949 -0.174862 -0.914421
-0.002644 0.008992 0.141674 -0.157718 0.201752 0.965366
0.042502 -0.278304 0.022006 -0.991091 -0.018251 0.124691
0.041712 -0.136915 0.058042 -0.088778 -0.531095 0.806929
0.149822 0.094988 -0.102884 0.701144 0.209941 -0.681003
0.090311 -0.835815 0.083536 -0.928694 0.362574 0.069447
-0.121277 0.215742 -0.002815 -0.970176 0.221103 -0.037209
0.184073 -0.617837 -0.070425 0.672093 -0.082053 -0.735717
0.074622 -0.760617 -0.049716 -0.860219 0.216227 -0.461105
0.020655 0.743657 0.089823 -0.90833 0.210667 0.360221
-0.091796 -0.458247 0.080653 -0.135736 -0.137698 0.978544
-0.005766 -0.247716 0.098828 0.484426 -0.205521 0.849461
-0.307238 0.302224 -0.096682 -0.053869 -0.068308 -0.995728
0.141424 0.242753 -0.102837 0.786135 -0.154494 -0.597991
0.161112 -0.25066 -0.077486 0.528077 -0.136044 -0.83815
0.199896 -0.426683 0.008112 0.981428 -0.105393 0.159193
-0.143341 -0.134594 -0.001911 -0.983686 -0.044513 -0.164754
0.265341 0.475209 -0.116239 0.453091 0.553546 -0.69832
-0.127755 -0.30218 0.035062 -0.995928 -0.058842 0.065556
0.321601 0.440731 -0.061743 0.823757 0.424709 0.374157
0.1134 0.34348 0.094898 0.428671 0.10265 0.893925
-0.143753 -0.151347 0.010504 -0.996763 -0.05242 -0.050415
-0.021611 0.354664 0.106063 -0.185916 0.00412 0.979124
0.144318 0.536723 0.017482 0.287355 0.640541 0.710962
-0.124495 0.415986 -0.09861 -0.696595 -0.384981 -0.60301
0.198389 0.368137 -0.05655 0.996254 -0.073656 -0.029232
0.088325 0.83129 -0.056669 0.884758 0.420319 -0.176387
0.085681 -0.43233 -0.089033 -0.633589 0.004635 -0.773291
0.635473 0.047775 0.085348 0.917013 0.366717 0.15461
0.555107 0.100666 -0.027023 -0.051698 -0.380338 -0.7433
0.022978 -0.204384 0.061769 0.946303 -0.035837 0.321066
0.206734 -0.187094 0.017214 0.993931 -0.013084 0.104696
0.073745 0.646728 0.01625 0.833338 -0.19225 0.516018
-0.090341 0.151521 0.077396 -0.693521 0.010127 0.719753
-0.136635 0.437813 -0.101199 -0.4833 -0.240894 -0.840914
-0.046201 -0.389143 0.088845 0.173747 -0.172666 0.969471
0.427119 0.301101 -0.104856 0.599956 0.672556 -0.425937
-0.167034 0.519464 0.035171 -0.513233 0.596656 0.614202
0.167074 -0.383434 0.072942 0.31606 -0.005068 0.945356
-0.042093 -0.695076 -0.110292 0.349324 0.281179 -0.892732
-0.046463 -0.087354 -0.111729 -0.017319 -0.230561 -0.972572
0.007915 -0.722654 -0.009501 0.791664 0.001039 0.610764
0.287346 0.345287 -0.047243 -0.32443 -0.720871 0.610691
0.05017 0.565997 -0.107876 -0.106495 0.485006 -0.866575
0.197782 -0.439432 -0.045242 0.963446 0.058091 -0.25047
0.119056 -0.824524 0.124983 -0.078563 0.994119 0.028226
0.035518 0.783168 0.086229 0.012251 0.394987 0.91643
0.017602 -0.636831 -0.054771 0.68257 0.148752 -0.715282
0.065165 -0.632484 0.003567 -0.211689 0.471715 0.851673
-0.104324 -0.666625 0.031527 -0.571753 -0.284499 0.755004
0.090486 -0.829546 0.062101 -0.97084 0.201011 0.116451
-0.081389 -0.680654 -0.107306 -0.32432 0.077869 -0.940573
0.025369 0.02699 0.140218 0.050136 0.258412 0.964135
0.120942 0.333719 -0.134531 0.510272 -0.125163 -0.848641
-0.174876 0.510112 0.036046 -0.547721 0.518728 0.654257
0.14041 -0.029644 -0.135964 0.601411 -0.111559 -0.790269
-0.114738 -0.802911 -0.042816 -0.884203 -0.457238 0.061316
0.103368 0.052936 0.118949 0.393639 0.163388 0.903729
0.082597 0.320161 0.107341 0.349075 0.108473 0.927898
-0.054089 -0.030901 0.12856 -0.205078 0.080627 0.975012
-0.040985 0.182619 0.109864 -0.555607 0.088195 0.826369
-0.159534 0.448132 0.050611 -0.429117 -0.402372 0.80586
0.009869 -0.007255 0.14585 0.067175 -0.370903 0.914238
-0.035635 0.453649 0.088884 -0.145602 0.266516 0.952326
0.20521 0.042243 -0.01332 0.980057 0.092145 -0.165765
0.18169 -0.396209 -0.064417 0.704646 0.106758 -0.700221
0.117492 -0.126343 -0.118689 0.098015 -0.202587 -0.973022
-0.128345 -0.316791 1.5e-05 -0.999818 -0.008581 -0.0164
0.153471 0.205369 -0.078217 0.766788 -0.005218 -0.641441
-0.051627 0.150824 0.10673 -0.548336 0.100162 0.8299
0.242958 0.375901 -0.05115 -0.584458 -0.71626 0.380907
0.04992 0.62842 0.028357 0.307379 -0.338923 0.880231
0.15158 -0.818514 0.053126 0.692857 0.642189 0.297787
-0.12381 -0.564336 -0.071493 -0.753382 0.094211 -0.650075
-0.114857 0.304211 -0.000202 -0.974797 -0.15642 0.157713
-0.527546 0.111568 0.036187 -0.863483 0.458446 -0.200182
0.087103 -0.771137 -0.075321 -0.788605 0.268714 -0.551189
0.027239 -0.201525 0.047477 0.974028 0.001996 0.225755
0.197567 -0.46834 -0.051964 0.949592 0.036824 -0.292634
0.205739 -0.344922 -0.008386 0.995938 0.019822 -0.079895
0.008699 0.316101 -0.127835 0.108848 0.045224 -0.993028
-0.135837 -0.515117 -0.008036 -0.983169 -0.076168 0.164201
0.093789 0.01569 0.13098 0.194277 0.250298 0.948447
0.074713 0.521048 -0.129167 -0.123611 0.155985 -0.979768
0.14174 -0.078542 0.112175 0.338395 0.034084 0.930034
0.046975 -0.466948 -0.013928 -0.866629 -0.074085 0.493363
0.079379 -0.738479 -0.053467 -0.904107 -0.010854 -0.425936
0.182506 -0.46233 -0.075232 0.741574 0.138495 -0.655743
0.022838 -0.718142 -0.055552 0.972654 -0.023894 -0.224976
0.022951 -0.136187 -0.038151 0.178751 -0.458823 -0.754883
-0.062235 0.273208 0.090686 -0.52263 0.035405 0.851771
0.143602 -0.311617 -0.083173 0.578058 0.032215 -0.814937
-0.095786 -0.661772 0.03637 -0.176664 -0.33185 0.916813
-0.113569 0.061404 -0.069745 -0.866822 0.075213 -0.492058
0.165842 0.378342 0.056233 0.74307 -0.023983 0.667841
-0.102859 -0.492599 -0.081314 -0.619532 0.12862 -0.773063
0.129039 -0.090732 0.113991 0.099624 -0.063744 0.992613
-0.404821 0.206767 -0.061721 -0.207797 -0.297868 -0.929164
0.127822 -0.824217 -0.11605 0.239816 -0.071512 -0.955394
-0.471826 0.145477 -0.03152 0.251221 -0.859522 -0.441959
-0.248424 0.297932 -0.039487 0.772207 -0.633931 0.030954
-0.053927 0.262851 0.096495 -0.59543 0.034486 0.802147
-0.054488 -0.223563 -0.092584 -0.046632 0.011388 -0.998489
0.045018 0.105492 0.134867 0.106123 0.092836 0.980614
0.019356 -0.455909 -0.029418 0.925863 0.048547 -0.374646
-0.052052 -0.86111 -0.125271 0.046704 -0.963 -0.256177
0.155613 -0.579215 0.04164 0.089317 -0.12451 0.987695
0.203551 0.557038 -0.03027 0.362466 0.873889 0.297028
0.083182 0.739497 0.060974 0.6862 0.108749 0.716474
-0.111826 -0.803104 -0.079404 -0.951043 -0.203235 -0.221153
0.073629 0.4626 -0.139624 -0.368747 0.121459 -0.919751
0.18404 -0.061451 0.080999 0.728117 0.045337 0.683489
-0.102246 -0.593839 0.050699 -0.757668 -0.051106 0.63006
0.182572 -0.354178 0.066311 0.828498 -0.064243 0.554675
0.02884 -0.264172 0.029839 0.984259 -0.048361 0.169864
-0.037096 0.797771 -0.040032 -0.997061 -0.029948 -0.062052
0.081919 -0.727647 -0.061454 -0.923346 -0.107977 -0.367197
-0.114089 0.016541 -0.080787 -0.87467 0.039602 -0.482283
0.008732 -0.644024 0.014644 0.688278 -0.126726 0.712289
-0.043669 0.307083 -0.127085 -0.312825 0.014954 -0.945659
0.1876 0.171153 -0.021862 0.899221 0.210067 -0.381098
-0.012212 0.088178 0.128479 -0.371187 -0.03958 0.925679
0.069122 0.154619 -0.121558 -0.007761 0.168618 -0.983206
-0.015644 -0.809007 0.029019 0.871188 0.348319 0.345685
-0.110346 0.121549 -0.058667 -0.850355 0.070229 -0.518524
-0.466955 0.140658 0.049602 0.712984 -0.519182 0.464468
0.049849 0.455796 -0.131796 -0.417141 0.078857 -0.902794
-0.017764 -0.043162 0.132859 -0.026933 -0.213499 0.975637
0.042331 0.610066 -0.078175 0.045651 0.709194 -0.668976
0.151335 -0.831651 -0.103633 0.633633 -0.229483 -0.736588
-0.065023 -0.059123 -0.11646 -0.307026 -0.317676 -0.894769
0.096368 0.322578 -0.143004 0.15825 -0.092179 -0.980273
0.521165 0.148922 -0.022663 -0.709848 -0.699269 -0.076934
0.198654 -0.166559 0.053486 0.959569 -0.086051 0.266567
-0.042906 -0.133684 0.124375 -0.021627 -0.099474 0.994665
-0.028692 -0.014084 -0.137039 -0.116108 -0.129066 -0.984743
-0.095577 -0.064208 -0.095216 -0.669562 -0.225574 -0.707585
0.001255 -0.792323 -0.020439 0.876257 -0.170063 0.446241
-0.140995 -0.118053 0.042849 -0.947262 -0.007273 0.317566
0.059878 0.056448 0.131655 0.035868 0.145645 0.98659
0.189392 0.107562 -0.039016 0.885523 0.259893 -0.378495
0.194263 -0.332002 -0.034419 0.800863 0.085522 -0.590462
-0.242279 0.425187 -0.074739 -0.474202 0.561357 -0.675714
0.029004 0.867082 0.004076 -0.382421 0.890275 0.239843
-0.036227 -0.750885 0.004736 0.554644 -0.210042 0.785045
-0.1405 0.531186 0.038044 -0.183713 0.688947 0.701064
-0.050004 0.506039 -0.122523 -0.118966 0.294962 -0.947674
0.02522 0.185804 0.130295 0.011113 0.029311 0.999441
-0.10254 -0.327142 -0.060202 -0.721038 0.053447 -0.689979
0.10142 0.08018 0.115105 0.436484 0.152425 0.882151
-0.051643 0.473187 0.07847 -0.246513 0.457686 0.849939
-0.022983 -0.249473 -0.087205 0.465899 0.015711 -0.883077
0.188916 0.042491 0.069412 0.771355 0.219657 0.596693
-0.102229 -0.25691 0.106433 -0.44299 -0.020457 0.893615
0.094643 -0.865756 0.058666 -0.614922 -0.780104 -0.065575
-0.089654 0.520145 0.049016 -0.034146 0.49771 0.865218
-0.070129 -0.480857 0.074886 0.304367 -0.168655 0.937445
0.205736 -0.220999 -0.030443 0.994222 -0.048771 -0.092538
-0.011457 -0.145158 0.118734 0.482875 -0.160654 0.858247
-0.027102 -0.841616 0.088997 0.964325 0.163006 0.174552
0.161822 0.515257 0.029683 0.293104 0.573755 0.748189
0.035979 -0.294999 -0.029547 -0.954718 -0.055574 -0.286784
0.193436 0.14089 0.028909 0.869651 0.053518 0.489028
0.008456 -0.14306 0.105034 0.691338 -0.147366 0.704178
0.165507 -0.527842 0.053574 0.327549 -0.274718 0.89798
-0.020717 -0.823417 0.041615 0.848312 -0.412445 0.300001
0.101806 0.175205 -0.113072 0.268635 0.038366 -0.959407
-0.189513 0.51299 0.015886 -0.6564 0.627789 0.418075
-0.057619 -0.806416 0.062772 -0.022117 0.524111 0.83745
-0.155165 0.473122 0.057108 -0.277177 0.025401 0.958923
0.070536 -0.333799 -0.081427 -0.699714 -0.051061 -0.712378
-0.050322 -0.416649 0.084171 0.234333 -0.227098 0.944438
0.151641 -0.26936 0.08236 0.131831 -0.071611 0.988165
0.059417 0.861839 0.024649 0.335867 0.900256 0.240314
0.151623 -0.86316 0.158451 0.228875 -0.957778 0.157033
0.14623 -0.379811 0.075888 -0.012854 -0.064306 0.994888
0.134189 -0.276395 -0.091156 0.475197 -0.06273 -0.876154
0.003374 0.522835 -0.121301 0.001588 0.185517 -0.982623
-0.082052 -0.831787 -0.122964 -0.825573 -0.024934 -0.561849
-0.035803 0.796187 -0.006416 -0.995978 -0.002222 0.087987
0.192365 0.110178 -0.029469 0.921045 0.1188 -0.362237
-0.135491 -0.017616 0.049456 -0.972403 0.072751 0.211495
-0.058192 -0.725489 0.017651 -0.34397 0.463935 0.814205
0.162034 -0.854778 0.15776 0.866242 0.179744 0.342381
-0.096043 -0.480377 -0.084055 -0.581181 0.125694 -0.802744
-0.366077 0.204783 0.001353 0.502393 -0.682134 0.508231
0.14032 -0.693493 -0.090259 0.445977 -0.001692 -0.895009
-0.097555 0.30571 -0.090896 -0.724475 -0.115998 -0.678404
0.135809 -0.628873 -0.096582 0.182527 -0.114371 -0.973458
-0.003942 -0.203285 0.10604 0.587365 -0.152502 0.793918
-0.028287 -0.240262 -0.088879 0.340283 0.020918 -0.937277
-0.0786 -0.861797 -0.028556 -0.065825 -0.995656 -0.045674
-0.093719 -0.228891 -0.072241 -0.73007 -0.038213 -0.682264
-0.126356 -0.277719 0.066213 -0.961705 -0.093394 0.251631
0.624143 0.048852 0.026374 -0.803425 -0.530671 -0.245944
0.066895 -0.551812 0.008736 -0.627266 0.018071 0.778364
0.373468 0.325023 -0.130176 0.390263 0.190709 -0.894261
0.014598 -0.578962 -0.049193 0.779179 0.048829 -0.624543
0.60529 0.092343 0.080692 -0.09345 0.532357 0.711221
-0.017243 -0.206934 0.112507 0.346942 -0.142663 0.925372
0.090849 -0.552042 -0.091225 -0.659869 -0.118571 -0.741785
0.447838 0.201347 -0.086877 0.679757 -0.560856 -0.289536
0.101606 0.251446 0.107205 0.368339 0.074168 0.926665
0.095183 -0.837288 0.122512 -0.788479 0.591838 0.1602
0.194661 -0.51126 0.018505 0.93695 -0.019514 0.348777
0.131501 0.254314 -0.118354 0.688033 -0.208096 -0.694451
-0.013765 -0.743604 0.001884 0.272156 -0.73003 0.620083
-0.039217 -0.064371 -0.119963 -0.056712 -0.321851 -0.944699
-0.058474 -0.11245 0.122724 -0.214846 -0.028987 0.975822
0.094386 -0.719297 0.035544 0.250096 -0.070267 0.962375
-0.097564 -0.39981 -0.06547 -0.633115 -0.076332 -0.763558
-0.042366 -0.114539 0.126272 -0.092922 -0.090334 0.988998
0.129432 0.587148 -0.061741 0.487225 0.852015 -0.079911
0.014353 -0.281268 -0.045133 0.819299 -0.102983 -0.561574
0.0964 0.804901 -0.06742 0.935505 0.197813 -0.282088
-0.011169 0.422186 0.100523 -0.045774 0.303261 0.950244
-0.128095 -0.208258 -0.018472 -0.907679 -0.100161 -0.406732
0.187616 0.513155 0.019578 0.259914 0.390908 0.881427
-0.089507 -0.828816 0.091637 -0.553859 0.823882 0.114079
-0.114308 -0.218635 -0.042351 -0.881141 -0.051658 -0.469899
0.055549 0.71241 0.08534 0.536283 -0.056952 0.838174
0.12969 -0.781367 0.039915 0.164404 0.459488 0.863164
-0.019907 -0.615009 -0.086423 0.666959 0.00679 -0.744006
-0.08878 0.100963 -0.092412 -0.711004 0.216062 -0.667621
0.12306 -0.074644 -0.13093 0.242856 -0.304715 -0.919852
-0.074047 -0.863493 0.014719 -0.020283 -0.999661 -0.014126
-0.05088 -0.106381 0.124948 -0.266566 -0.059765 0.961677
0.072306 -0.416143 0.025507 -0.701276 -0.353543 0.618969
0.120166 -0.095333 0.114376 -0.027716 -0.0441 0.994918
0.162697 0.565745 -0.083255 0.332353 0.805912 -0.48557
-0.058254 -0.689737 0.018183 0.145547 -0.325824 0.930881
0.032002 0.658853 0.077038 -0.008532 -0.981867 0.186135
0.052039 0.77284 0.080134 0.490223 -0.435128 0.738682
0.199784 0.072835 0.014519 0.971316 0.223299 0.077502
-0.050385 -0.791534 -0.14683 -0.22636 0.327294 -0.904064
0.399033 0.227329 -0.079092 -0.608529 -0.782813 0.120044
0.164449 0.212844 0.058262 0.73954 0.065503 0.669724
-0.127923 -0.268534 -0.013474 -0.966271 -0.040108 -0.248156
-0.111619 0.439684 0.062841 -0.163926 0.019417 0.986114
0.009294 -0.636673 -0.061943 0.659237 0.11361 -0.742771
-0.128243 0.12763 0.014826 -0.986171 0.097363 0.130626
0.128967 -0.685666 -0.094197 0.137013 0.021314 -0.985004
0.199709 -0.578775 -0.004307 0.981315 -0.05257 0.18384
0.041857 -0.377491 -0.007229 -0.977685 -0.111694 0.175691
-0.065293 -0.764603 0.023111 -0.299134 0.515615 0.788904
0.177492 -0.499533 0.05313 0.659134 -0.188294 0.723528
0.292131 0.48399 -0.06013 0.772224 0.621296 0.111053
0.074803 -0.55953 -0.0757 -0.726727 -0.104029 -0.678646
0.167292 -0.69554 0.012927 0.38649 -0.502484 0.772851
0.175938 -0.80242 -0.025719 0.954015 -0.266757 0.101204
-0.333829 0.331595 -0.06543 -0.581526 0.764563 -0.256675
-0.103985 -0.729046 -0.094467 -0.822876 0.00612 -0.566739
0.158631 -0.042357 -0.11698 0.701747 -0.168118 -0.690608
-0.079156 -0.800022 0.039809 -0.599995 0.647233 0.466719
0.185512 -0.769438 -0.002064 0.920112 -0.308431 0.228843
0.081362 0.71419 -0.070717 0.716699 -0.497855 -0.487838
-0.136051 -0.0088 -0.030866 -0.987313 0.035018 -0.154214
-0.026435 0.110822 -0.125403 -0.243661 0.350909 -0.903502
0.059583 -0.769496 0.009583 -0.991814 0.04483 0.108627
-0.043872 -0.183954 -0.094523 0.167482 -0.053264 -0.982528
-0.076239 0.303604 0.081802 -0.58392 0.005615 0.811393
-0.103203 -0.804702 -0.003451 -0.848022 -0.394954 0.347348
-0.034686 0.797594 0.004613 -0.984354 0.023879 0.167405
0.123446 0.479149 -0.14442 0.048256 0.147719 -0.986402
0.000421 -0.273377 -0.06432 0.75666 -0.12724 -0.641231
-0.045702 0.202803 0.106162 -0.483429 0.01937 0.874736
0.004693 0.695535 0.077035 -0.71942 0.020559 0.690305
-0.012324 0.617959 -0.048724 -0.760197 0.537374 -0.356513
0.641795 0.035787 0.006304 0.913786 -0.101509 -0.255894
-0.026777 -0.53763 -0.093689 0.445095 0.019133 -0.894739
-0.136286 0.510091 -0.091474 -0.423054 0.398045 -0.812595
-0.092465 -0.534076 0.065229 -0.563623 -0.131538 0.773865
0.03187 -0.1155 -0.078763 -0.789577 -0.34486 -0.506137
0.096369 0.728224 0.019338 0.970929 -0.018839 0.228839
0.242349 0.371055 -0.078806 -0.702716 -0.711416 0.007826
0.086033 0.51673 0.054183 0.218494 0.560866 0.797913
0.01522 0.272625 0.125065 -0.112672 0.11244 0.98648
0.1984 -0.378778 0.026438 0.953043 -0.025391 0.300506
0.008883 -0.705882 -0.008497 0.76838 -0.1838 0.612479
-0.005561 0.716719 0.06816 -0.62669 -0.010142 0.77717
-0.004014 -0.202436 -0.073272 0.644246 0.027091 -0.763327
0.042358 0.301292 0.121115 0.090011 0.105045 0.990215
-0.485443 0.141066 -0.028824 -0.123487 -0.741208 -0.596772
0.175563 -0.346664 -0.056641 0.709264 0.094444 -0.697709
0.072112 -0.413357 -0.076104 -0.702145 -0.013106 -0.711854
-0.010465 -0.769387 -0.009373 0.643836 0.301973 0.686013
-0.072078 -0.450453 -0.091647 -0.253483 0.224889 -0.938698
0.205541 -0.362583 -0.013292 0.995831 0.019399 -0.070853
-0.003967 -0.617744 0.020429 0.291531 0.036522 0.949733
-0.24024 0.309025 -0.038029 0.757635 -0.651647 0.017289
0.238761 0.452755 -0.13394 0.00919 0.14794 -0.987683
0.161969 -0.858054 -0.049755 0.870033 -0.456762 0.046643
0.006296 0.852734 0.039962 -0.474863 0.680441 0.550831
-0.063512 -0.036132 0.126332 -0.340958 0.032755 0.936628
-0.002141 -0.594269 -0.069322 0.722023 0.00323 -0.691809
0.146962 0.418622 0.073297 0.531481 0.084434 0.842367
0.139874 0.575292 -0.083271 0.351837 0.801453 -0.480865
0.01211 -0.132 -0.0575 0.783223 -0.203672 -0.586198
-0.019966 0.50347 -0.125462 0.008812 0.234854 -0.970091
0.110712 -0.034788 -0.14649 0.184815 -0.280214 -0.94107
-0.244125 0.305965 -0.027017 0.740207 -0.654484 0.151131
-0.268897 0.415002 -0.048027 -0.731524 0.676406 -0.078337
0.067556 -0.689272 -0.047573 -0.789758 -0.143092 -0.595986
-0.223497 0.476273 -0.027036 -0.850436 0.518803 -0.060108
-0.002394 -0.572796 0.021617 0.715552 -0.091385 0.692499
-0.015318 0.295922 -0.131334 0.020356 0.034311 -0.999053
-0.011222 0.628222 -0.040956 -0.883182 0.318169 -0.333372
0.076946 -0.824034 -0.030534 -0.337883 -0.938737 -0.017248
0.082666 0.681942 0.033383 0.821106 -0.55631 0.116414
-0.10335 -0.130717 -0.073673 -0.735739 -0.102659 -0.668578
-0.108784 -0.525319 -0.081311 -0.678443 0.108897 -0.72639
0.045102 -0.152339 -0.075899 -0.775188 -0.243339 -0.579985
0.182717 -0.700121 0.00155 0.39629 -0.529069 0.745661
0.085841 -0.72459 0.036449 0.017691 -0.115084 0.992456
-0.043073 -0.263741 -0.093179 0.117321 -0.016072 -0.989812
0.082998 0.84522 -0.009065 0.866499 0.497141 0.038362
