0.158234 -0.305493 -0.072085 0.607487 -0.006564 -0.794068
0.075784 -0.399309 0.038067 -0.676644 -0.325134 0.660352
0.026559 -0.370439 -0.002581 0.996916 -0.021592 -0.0554
-0.034509 -0.852206 -0.131614 0.525631 -0.515642 -0.649101
-0.112154 0.259897 0.001465 -0.999457 0.027922 0.0136
0.188633 -0.641698 -0.062145 0.741131 -0.158453 -0.651924
-0.085872 -0.766003 -0.117007 -0.708502 0.18703 -0.676904
-0.030787 -0.41676 0.078989 0.335294 -0.180218 0.924484
0.065494 0.209162 -0.124637 -0.212759 -0.417142 -0.881771
0.09479 0.74556 0.034235 0.931567 -0.12824 0.331394
-0.050523 -0.862408 -0.005563 0.104704 -0.991955 -0.056369
0.095461 0.797339 -0.073901 0.894717 0.149621 -0.409379
-0.005005 -0.014928 0.136508 -0.026468 -0.614097 0.776174
0.210268 -0.032546 -0.008682 0.963709 0.002859 -0.266589
-0.288125 0.262603 -0.01994 0.737554 -0.554103 0.383343
-0.119197 -0.398779 -0.042411 -0.790425 -0.096738 -0.603679
0.027193 -0.656801 -0.02922 0.9966 -0.03226 0.041397
-0.216664 0.463976 -0.061758 -0.6494 0.517431 -0.512204
-0.094 -0.355442 -0.070298 -0.789316 0.042217 -0.576611
0.037027 0.381271 0.105734 0.0592 0.179113 0.981717
-0.097639 -0.636497 -0.099368 -0.495318 0.072544 -0.86481
0.16354 -0.232655 -0.078972 0.539848 -0.127457 -0.831602
0.261526 0.357924 -0.106993 -0.582023 -0.732337 -0.347837
-0.388862 0.250382 -0.078369 -0.374242 -0.155343 -0.912622
0.453273 0.228974 -0.091337 0.612519 -0.242484 -0.747381
-0.006936 -0.691376 0.020804 0.645 -0.140416 0.739741
0.207462 -0.017613 -0.017789 0.974074 0.055402 -0.21828
-0.127508 0.405642 -0.084742 -0.912896 -0.290865 -0.278724
0.119684 -0.187131 0.098034 0.01774 -0.145716 0.988124
0.019789 -0.599989 -0.044829 0.78811 0.11052 -0.602929
-0.038493 0.243962 -0.127035 -0.330055 -0.112301 -0.935138
0.177 0.542068 0.002875 0.248899 0.653512 0.714395
0.035905 0.814606 -0.111504 0.06193 0.541937 -0.832514
-0.033847 0.838627 -0.019883 -0.735166 0.676631 -0.025612
0.285769 0.380066 -0.142248 -0.142841 -0.296273 -0.937906
-0.059127 -0.86415 0.093231 -0.000176 -0.999888 0.012969
-0.131749 -0.251857 0.058398 -0.952149 -0.149602 0.260216
-0.092989 0.253998 0.068836 -0.718692 0.068551 0.6912
-0.170935 0.50652 -0.072035 -0.580318 0.428885 -0.691191
-0.13634 -0.163468 0.058897 -0.977525 -0.016176 0.203077
0.182792 0.183353 0.035139 0.935622 0.128773 0.314759
0.063853 0.356064 -0.139063 -0.392695 -0.02071 -0.918902
0.123469 -0.566572 0.041561 -0.229365 -0.162877 0.958995
-0.000319 0.78194 -0.114247 -0.407453 0.082902 -0.908585
0.044266 -0.254516 0.039724 -0.961162 -0.034837 0.259501
0.138989 0.100939 0.094551 0.657292 0.162178 0.733969
0.574722 0.12309 -0.005221 0.560107 0.266429 -0.782647
0.057341 0.293813 -0.134656 -0.347207 -0.047838 -0.936226
-0.112555 -0.849428 0.054479 -0.947085 -0.084707 0.015221
0.078139 0.677903 0.051662 0.780414 -0.604618 0.151554
-0.140524 0.546538 -0.054065 -0.504788 0.726094 -0.466403
0.536972 0.1579 0.030467 -0.526668 0.160462 0.822485
0.015833 0.611702 -0.074296 -0.145597 0.604995 -0.780322
-0.464611 0.185316 -0.029323 -0.679322 0.514651 -0.504162
-0.024739 0.387192 0.105816 -0.051186 0.0653 0.996533
0.529715 0.171576 -0.038686 0.425409 -0.326673 -0.84317
-0.127165 -0.379363 0.035508 -0.988539 0.047254 0.133931
0.117838 -0.749815 0.028796 -0.142815 -0.375631 0.906511
0.59854 0.08444 0.077186 -0.816926 -0.073681 0.550905
-0.047456 -0.663851 -0.104993 0.365811 0.123904 -0.921352
-3.2e-05 0.253928 0.122338 -0.372984 0.064475 0.925589
-0.005902 0.119916 -0.126257 -0.142438 0.361706 -0.920466
-0.152028 0.453279 -0.095756 -0.284696 0.029444 -0.956853
0.204091 -0.501744 -0.023103 0.978478 0.178118 -0.0912
-0.125156 0.195674 0.021228 -0.935328 0.204157 0.284744
-0.108218 0.063161 -0.077701 -0.826217 0.123671 -0.54933
0.106407 -0.870229 -0.096332 -0.112759 -0.980606 -0.064103
-0.486819 0.113152 0.012948 0.427115 -0.738584 -0.478361
0.396617 0.284284 -0.128823 0.082919 0.004006 -0.991053
0.036174 -0.301646 0.003619 -0.820889 -0.051563 0.513095
-0.570829 0.028771 -0.003031 -0.409352 -0.688613 -0.146925
0.178483 -0.498992 -0.082466 0.719847 0.002969 -0.694038
0.085548 0.507817 0.059036 0.137747 0.456714 0.878863
-0.028306 0.714667 -0.023673 -0.901554 -0.398508 -0.139185
0.060721 0.072938 -0.151087 -0.083773 0.240639 -0.965844
0.003315 0.632364 0.016478 -0.725485 -0.188583 0.660641
-0.025298 -0.159115 -0.089714 0.456014 -0.14107 -0.877257
0.20132 0.400916 -0.049823 0.928526 -0.341303 0.020552
0.193329 0.068252 -0.047598 0.915286 0.124026 -0.38283
0.197706 -0.697389 -0.016535 0.991193 -0.031311 0.11133
-0.118083 -0.790364 -0.066721 -0.957647 -0.162929 -0.215811
-0.049273 0.361727 0.10302 -0.369397 -0.037154 0.925747
-0.108992 0.369113 0.051756 -0.810311 -0.273516 0.517407
-0.115969 0.170787 -0.035152 -0.862778 0.080076 -0.49673
0.091168 0.80711 -0.078417 0.87499 0.238993 -0.417001
0.181174 0.250225 0.026909 0.974951 0.014994 0.211808
0.086088 0.679218 0.005824 0.836649 -0.501936 0.200179
0.305706 0.429802 -0.130048 0.387884 0.553676 -0.735793
0.141943 0.340321 -0.119885 0.662977 -0.173535 -0.727925
-0.073643 -0.517924 0.06783 0.4007 -0.258378 0.877724
-0.126713 -0.667837 -0.036114 -0.985538 -0.047788 0.15373
-0.00084 -0.025992 -0.137203 -0.040364 -0.300786 -0.952277
-0.013765 -0.743604 0.001884 0.272156 -0.73003 0.620083
-0.137353 -0.468725 0.002706 -0.980924 -0.031872 0.190541
0.107567 -0.825932 0.106362 -0.280568 0.946991 0.131807
-0.05162 0.384035 -0.125967 -0.200026 -0.048981 -0.97673
0.175627 0.119995 -0.056656 0.848178 0.245077 -0.467917
-0.027553 0.813877 0.015947 -0.805861 0.216198 0.548662
0.052843 -0.452247 -0.00299 -0.735877 -0.032684 0.671235
0.154108 0.119801 -0.088406 0.74777 0.218726 -0.625834
0.001237 -0.75101 -0.095371 0.75293 0.129773 -0.644648
0.020632 -0.387713 0.028709 0.945294 -0.13528 0.29538
0.00064 -0.809706 -0.114691 0.873495 -0.170934 -0.437075
-0.147507 0.389985 -0.032305 0.743739 -0.665265 -0.05792
0.110914 0.551535 -0.118557 0.167129 0.568285 -0.802282
0.065975 0.616799 0.015919 0.621401 -0.09259 0.777748
-0.113325 -0.073631 -0.071633 -0.77238 -0.163032 -0.613084
0.128683 -0.603031 0.035123 -0.196176 -0.028122 0.975648
0.132252 0.410809 -0.14203 0.330628 -0.166499 -0.926173
0.174571 -0.791707 -0.080528 0.895897 0.063168 -0.434535
0.075609 0.251028 -0.136586 -0.146148 -0.10604 -0.982545
0.002396 0.772345 -0.115635 -0.484071 -0.046209 -0.872104
0.062491 0.82541 -0.095923 0.316594 0.692051 -0.642719
-0.003469 -0.161391 0.110783 0.594999 -0.119552 0.793224
-0.012884 0.596466 -0.079108 -0.269242 0.723683 -0.633668
-0.091628 -0.612784 -0.099847 -0.450541 0.097069 -0.887407
-0.375882 0.295175 -0.065604 -0.661676 0.645294 -0.377338
-0.098288 0.261666 0.062906 -0.758915 0.031767 0.648846
0.198654 0.385663 -0.039395 0.997155 -0.065056 0.022226
-0.043083 -0.860496 -0.013146 0.281458 -0.949352 -0.114401
-0.009925 -0.829949 -0.008419 0.441941 -0.884368 0.139497
0.270241 0.358055 -0.038452 -0.396132 -0.70757 0.577911
-0.053094 -0.406512 0.087142 0.207786 -0.179274 0.961299
-0.070197 0.294671 0.086155 -0.448263 -0.022938 0.88102
0.197789 -0.424353 0.019871 0.969675 -0.077264 0.231173
0.105102 0.771041 -0.039245 0.998403 -0.037861 -0.036478
0.070777 -0.802225 -0.056895 -0.893904 0.068039 -0.441191
0.199927 -0.425041 -0.031131 0.987571 -0.025205 -0.153221
-0.007859 -0.624683 -0.075545 0.667048 0.016909 -0.744819
0.12424 -0.825077 0.134689 0.037517 0.996568 0.055331
-0.101759 -0.838087 -0.067265 -0.877417 -0.442601 -0.168302
0.048996 0.705457 -0.086944 0.242312 -0.639539 -0.728355
0.023908 0.689517 0.089246 -0.277616 0.003746 0.956612
-0.133269 0.504978 0.05513 -0.151678 0.397934 0.904055
0.203336 -0.251756 0.034693 0.976016 0.042939 0.210479
-0.047167 -0.859713 -0.040334 0.203954 -0.978026 0.029588
0.149904 -0.841731 0.169895 0.640076 0.660677 0.360109
0.205427 -0.263602 -0.001855 0.999673 -0.000341 -0.023327
0.021602 -0.558595 -0.00517 0.917013 0.050941 0.387353
0.093295 -0.865898 0.117341 -0.481639 -0.870784 0.089293
0.177568 0.194701 -0.038035 0.92815 0.026852 -0.370994
-0.125043 -0.169282 0.084098 -0.820964 0.003508 0.570828
-0.476904 0.168883 0.036979 -0.310432 0.85601 0.370582
-0.027184 0.490243 0.07484 -0.098416 0.446805 0.888421
0.074138 -0.385324 -0.07934 -0.669926 -0.06421 -0.739584
0.062639 0.78917 -0.111906 0.48019 0.0533 -0.875442
-0.123344 -0.116453 0.083886 -0.837589 0.032524 0.544503
0.187092 -0.103027 -0.069042 0.812597 -0.053892 -0.580096
-0.101627 -0.782717 0.003888 -0.641596 0.193911 0.739975
-0.494031 0.151152 -0.024612 -0.8115 0.319683 -0.449838
0.184564 0.193287 -0.004842 0.965627 0.244494 -0.034594
0.042514 -0.065686 -0.12268 -0.401879 -0.432021 -0.807305
-0.050358 0.045127 0.120837 -0.459567 0.191019 0.866489
-0.106773 0.538742 -0.08578 -0.414121 0.605084 -0.67976
-0.556381 0.06979 0.012132 -0.901511 0.407346 -0.102231
0.042169 0.348383 -0.13001 -0.339128 -0.067957 -0.932919
0.059935 0.465774 0.082263 0.094132 0.317466 0.942671
0.37735 0.250401 -0.062976 -0.74553 -0.607738 0.273288
0.30185 0.459242 -0.101497 0.598962 0.649025 -0.468715
0.128494 0.316169 -0.127288 0.581346 -0.080983 -0.808849
0.23124 0.431383 -0.134003 -0.250903 -0.099781 -0.961886
0.129862 -0.662475 -0.094203 0.10477 -0.048977 -0.989235
-0.06888 -0.547344 0.058759 0.354262 -0.188446 0.915902
0.121595 0.480387 0.06495 0.216966 0.481938 0.846796
0.582798 0.082496 -0.009265 0.589694 0.361285 -0.716335
-0.079651 0.355185 0.082874 -0.742199 -0.057441 0.666186
-0.297178 0.269707 -0.083957 0.386842 -0.543842 -0.742794
0.166156 0.392142 0.056056 0.690853 -0.002176 0.722689
0.100134 -0.081621 0.112131 -0.244794 -0.442764 0.850925
0.060479 0.864418 -0.006705 0.375081 0.920311 0.058755
0.000288 -0.74194 -0.005278 0.546352 -0.490832 0.676771
0.106571 0.130526 0.112835 0.503937 0.018375 0.862754
-0.106598 0.565697 -0.047584 -0.361473 0.890546 -0.275168
0.087765 0.609055 -0.013636 0.872483 0.212344 0.423624
0.097595 0.117105 0.117586 0.466138 0.05401 0.882111
0.056106 -0.724767 0.025641 -0.919669 -0.069475 0.356836
0.195556 -0.697719 -0.006804 0.887133 -0.077597 0.432771
0.074968 0.627418 0.007807 0.814577 -0.120724 0.565847
-0.031902 -0.496289 0.057012 0.316484 -0.270203 0.9089
0.163664 0.43441 -0.137415 0.188411 -0.19639 -0.962069
-0.216811 0.470949 0.017683 -0.766564 0.365146 0.520163
-0.109723 -0.244724 -0.04936 -0.838569 -0.023139 -0.543653
-0.128205 -0.329662 0.017538 -0.99915 -0.010291 0.033254
0.003502 0.859875 0.022546 -0.517116 0.809378 0.256888
-0.109241 -0.037988 0.096262 -0.723658 0.052852 0.688007
0.112461 -0.371209 0.070062 -0.436702 -0.253012 0.862535
0.297112 0.324293 -0.076328 -0.671638 -0.733908 0.082195
0.055382 0.827564 0.063273 0.392713 0.540802 0.741916
0.083625 -0.40645 0.042654 -0.665513 -0.319839 0.673475
0.205519 -0.384259 -1.1e-05 0.996188 0.009109 0.086494
0.053553 -0.256159 -0.060318 -0.808036 -0.016025 -0.587902
0.138249 -0.161138 0.103775 0.184069 -0.285426 0.938756
0.037853 0.722848 -0.104028 0.0925 -0.699577 -0.660079
0.119942 -0.454353 -0.104961 -0.045403 0.071541 -0.993954
0.14041 -0.029644 -0.135964 0.601411 -0.111559 -0.790269
-0.076298 -0.020994 -0.122443 -0.563243 -0.15517 -0.811208
-0.00077 0.649036 -0.048693 -0.749817 0.070395 -0.656134
0.607035 0.065642 0.047259 -0.485119 -0.863394 -0.030249
0.064415 -0.121363 0.077062 -0.735587 0.064432 0.672425
0.029018 0.663503 -0.065962 -0.123204 -0.17528 -0.971666
-0.52825 0.079291 0.030897 0.458817 -0.637062 -0.61742
0.077169 0.608833 -0.070366 0.325364 0.675894 -0.660619
0.094202 -0.694834 -0.082392 -0.684082 0.020431 -0.729019
-0.094716 -0.824856 0.046235 -0.779782 0.606044 0.152398
0.027272 -0.346359 -0.002535 0.995894 -0.050246 -0.061063
0.204371 0.406911 -0.059181 0.715991 -0.624836 0.048463
-0.034935 0.386125 0.105198 -0.120379 0.084256 0.98802
0.199785 0.550525 -0.084103 0.287516 0.813752 -0.502518
-0.09593 0.204505 -0.061887 -0.787244 0.046291 -0.611727
0.077302 0.68181 0.062111 0.846608 -0.397755 0.349352
0.391946 0.324871 -0.060778 0.481473 0.636674 0.598978
0.019313 -0.363204 0.041505 0.918856 -0.149925 0.362132
0.05102 -0.654196 -0.014051 -0.997339 -0.062788 -0.003642
0.003565 0.076998 0.135884 -0.278559 0.069189 0.94491
0.008249 0.63766 0.024426 -0.634986 -0.284907 0.716469
0.01193 0.084241 -0.139891 -0.199961 0.287567 -0.936278
-0.038004 0.045431 -0.140163 -0.294862 0.28896 -0.909797
0.181953 -0.516878 -0.078653 0.742753 -0.009102 -0.669075
0.0973 -0.210367 -0.098318 -0.332542 -0.16711 -0.927391
0.002264 -0.259097 0.091882 0.54874 -0.197624 0.809418
-0.068095 -0.230225 -0.090249 -0.303848 -0.006574 -0.948902
0.147389 -0.289858 0.081465 0.136289 -0.068886 0.988069
0.20959 -0.146761 -0.000292 0.935178 -0.345804 0.026205
-0.393502 0.190098 0.013366 0.567138 -0.419181 0.634898
-0.014345 0.24087 0.117739 -0.456876 0.095461 0.883507
0.177076 0.28327 -0.041427 0.933453 -0.140752 -0.32939
-0.318433 0.232924 -0.024246 0.650184 -0.75823 0.04054
0.006014 0.067537 -0.14339 -0.142872 0.206548 -0.967727
0.06281 0.429864 0.090845 0.13051 0.232936 0.963564
-0.05824 -0.203115 0.119453 -0.133348 -0.139784 0.976466
0.004718 0.102577 -0.134214 -0.143262 0.29706 -0.942615
-0.131895 -0.237957 -0.003902 -0.936132 -0.037094 -0.349405
0.107684 -0.365007 -0.10119 -0.07286 0.013363 -0.991406
0.20667 0.03635 0.005623 0.999004 0.040926 -0.005937
0.346471 0.306099 -0.127978 -0.296667 -0.428191 -0.844414
0.138319 -0.215962 -0.096408 0.416742 -0.144921 -0.894466
0.090718 -0.169137 -0.105093 -0.266881 -0.228759 -0.935126
0.171462 -0.43409 -0.079167 0.649837 0.17413 -0.739226
0.130132 -0.864897 -0.111382 0.360245 -0.677969 -0.627026
-0.255793 0.386459 0.0178 -0.378741 0.138031 0.911422
0.014147 0.262693 0.12623 -0.140387 0.099684 0.981659
-0.080015 0.231757 -0.090963 -0.697142 -0.326456 -0.637467
0.113539 -0.319153 0.079878 -0.14129 -0.088509 0.985095
-0.136351 -0.182096 -0.0049 -0.965891 -0.13517 -0.214798
-0.143821 -0.060835 0.00663 -0.999305 0.030966 -0.013013
0.15822 0.2432 -0.076237 0.840636 -0.052883 -0.537776
-0.166481 0.509296 0.043477 -0.468319 0.454351 0.755232
-0.118456 -0.517935 -0.069342 -0.752235 0.13649 -0.643877
0.093421 0.577591 -0.003956 0.476965 0.557177 0.67706
0.480166 0.201952 0.002757 0.160713 0.623492 0.691607
0.124831 -0.588478 -0.10245 -0.110382 -0.133024 -0.98348
-0.01193 0.511654 -0.123504 -0.004694 0.225452 -0.973904
0.142191 -0.38346 -0.090343 0.558079 0.163116 -0.813554
-0.128345 -0.316791 1.5e-05 -0.999818 -0.008581 -0.0164
-0.023339 0.57436 0.005514 -0.351888 0.646796 0.672869
0.11244 -0.194008 0.097105 -0.044531 -0.128765 0.990064
0.128645 -0.86654 -0.020632 0.023644 -0.994379 0.088211
0.411842 0.239022 -0.036409 -0.313997 -0.564248 0.745809
-0.037183 0.202645 0.110804 -0.49198 0.021688 0.869794
-0.00708 -0.155197 -0.077339 0.732402 -0.095443 -0.673719
0.203905 -0.355626 -0.023121 0.961963 0.079228 -0.256817
0.22449 0.475745 -0.131117 0.191854 0.241976 -0.950222
0.350111 0.361402 -0.058309 0.594179 0.543322 0.587732
-0.033024 -0.574244 0.037024 0.421892 -0.274721 0.861798
0.46356 0.226731 -0.012685 -0.260746 0.28314 0.916599
-0.146881 0.498084 -0.090668 -0.458234 0.293504 -0.838246
-0.102929 -0.848383 -0.021 -0.814775 -0.507588 -0.209561
-0.206883 0.48665 -0.050891 -0.695619 0.516104 -0.498736
0.131001 0.404783 0.082718 0.411005 0.087249 0.907194
0.145866 -0.323722 -0.08204 0.581172 0.023562 -0.811849
-0.094591 0.350876 -0.1013 -0.57844 -0.146675 -0.802159
0.205416 -0.170978 -0.037946 0.965456 -0.009295 -0.255567
0.629199 0.039524 0.03652 -0.856056 -0.50836 -0.078948
0.205306 0.471361 -0.133875 0.083347 0.060967 -0.993082
0.064413 0.049622 -0.156934 -0.065787 0.309374 -0.947099
0.176562 -0.17497 0.088795 0.477645 -0.095657 0.869939
-0.108524 0.22175 -0.047097 -0.833 -0.259411 -0.487456
0.189003 0.050276 -0.063189 0.880118 0.152043 -0.448912
-0.046497 0.364713 -0.126592 -0.266229 -0.034919 -0.962729
0.201436 -0.316046 -0.020247 0.897479 -0.012037 -0.439961
0.109587 0.003325 -0.150781 0.379039 0.070328 -0.92155
0.00569 0.449961 0.093924 0.05857 0.353886 0.932705
0.195592 -0.223038 0.05463 0.928579 0.03167 0.368783
0.093611 0.819421 0.005075 0.806416 0.554003 0.202615
-0.027582 -0.180188 -0.089202 0.414255 -0.019617 -0.908463
0.184993 -0.754665 0.007508 0.693519 0.045265 0.685192
-0.132533 0.005317 0.06617 -0.877247 -0.059742 0.444904
-0.366077 0.204783 0.001353 0.502393 -0.682134 0.508231
0.002577 -0.337183 -0.052677 0.725306 -0.062325 -0.685349
0.105302 -0.419795 -0.100575 -0.351394 0.043341 -0.932091
-0.039995 -0.371988 -0.082963 0.335795 -0.177811 -0.923992
0.437559 0.201385 -0.102188 -0.160346 -0.961642 -0.121405
-0.089488 -0.33406 0.104527 -0.087072 -0.077944 0.99109
-0.138018 -0.152885 0.051595 -0.972624 -0.028193 0.226293
-0.005076 -0.341648 -0.060265 0.713165 -0.067265 -0.697625
0.036002 0.323394 -0.127447 -0.187972 0.009077 -0.980135
0.340063 0.41859 -0.075382 0.777015 0.569497 0.250784
-0.001897 0.371207 -0.128649 0.065249 -0.019564 -0.997525
0.092877 -0.052923 -0.142126 -0.01448 -0.363915 -0.930668
0.489797 0.216228 -0.069046 0.168914 -0.338874 -0.919739
0.025754 -0.698252 -0.039073 0.983997 -0.109972 0.133905
-0.011093 -0.070334 -0.114816 0.200688 -0.490015 -0.847634
-0.114587 0.238633 -0.027165 -0.961523 0.246785 -0.094153
-0.063491 -0.681987 0.022232 0.239718 -0.359928 0.90134
0.138799 0.168376 -0.095132 0.606904 0.074976 -0.789703
0.009474 0.502566 -0.123223 0.064909 0.017149 -0.997258
0.04992 0.62842 0.028357 0.307379 -0.338923 0.880231
-0.491838 0.154399 0.055498 -0.389004 0.844952 0.350509
-0.020894 0.716492 -0.05361 -0.905468 -0.355227 -0.229147
0.074886 0.191789 0.123409 0.44203 0.042437 0.893024
-0.376671 0.297539 -0.055571 -0.702364 0.70059 -0.118213
0.196036 0.521497 0.012503 0.26395 0.510141 0.816867
0.533556 0.136519 0.017373 -0.77722 -0.584325 0.173292
0.596196 0.070867 -0.000477 0.913261 -0.115104 -0.364047
-0.128207 -0.012611 -0.055884 -0.922398 0.019433 -0.382831
-0.125132 -0.373087 -0.035256 -0.915237 0.010302 -0.398708
-0.12833 -0.10844 -0.044644 -0.846447 -0.091864 -0.523698
0.12399 -0.642435 0.034962 0.215339 -0.088299 0.968491
0.194342 0.102718 0.011119 0.937768 -0.296158 0.161213
-0.074896 0.197408 0.090746 -0.576984 0.065434 0.812947
-0.106901 0.268807 0.036579 -0.982689 0.040446 0.179374
-0.06948 -0.577178 0.052592 0.406918 -0.229036 0.883777
-0.009268 -0.529134 0.035181 0.546866 -0.156112 0.813931
-0.223497 0.476273 -0.027036 -0.850436 0.518803 -0.060108
-0.070644 -0.55722 0.05748 0.351135 -0.175756 0.91951
0.168295 0.172645 0.059591 0.731268 0.086785 0.676085
0.636407 0.052597 0.037076 0.888188 0.457099 -0.0182
-0.199811 0.344484 -0.023579 0.638372 -0.747234 0.180427
-0.072587 0.106883 -0.104176 -0.555836 0.283972 -0.780685
-0.183906 0.521865 -0.04024 -0.691943 0.659595 -0.288128
-0.028018 -0.466425 -0.087712 0.427547 0.115512 -0.896504
0.048157 0.528349 0.05115 0.079715 0.546491 0.833029
-0.035635 0.453649 0.088884 -0.145602 0.266516 0.952326
-0.00669 -0.812877 -0.127306 0.80662 -0.282142 -0.515662
0.035343 -0.319041 -0.021568 -0.992146 -0.016567 -0.119747
-0.066227 0.448615 -0.129287 -0.170981 -0.066221 -0.98235
0.183239 0.115766 0.050927 0.851017 0.192334 0.486897
0.157733 -0.219379 -0.08421 0.567078 -0.105826 -0.816601
0.46087 0.234229 -0.087931 0.579845 -0.364072 -0.728715
-0.12786 0.187136 -0.003071 -0.987677 0.077363 -0.112341
0.204029 0.503752 -0.126966 0.169242 0.393449 -0.899882
0.126357 -0.869945 0.075982 -0.007282 -0.999928 0.006864
-0.119044 -0.222778 -0.033561 -0.863679 -0.047842 -0.501073
-0.049792 0.032334 -0.1393 -0.313315 0.170733 -0.933913
0.153949 0.337372 -0.107828 0.671521 -0.255316 -0.695399
0.243878 0.509996 -0.102367 0.519772 0.602307 -0.605719
-0.243227 0.311592 -0.064656 0.708125 -0.578891 -0.39822
-0.068974 -0.258139 -0.089831 -0.386127 -0.016136 -0.920467
0.163096 0.272591 0.054076 0.742548 0.021385 0.669353
0.01211 -0.132 -0.0575 0.783223 -0.203672 -0.586198
-0.096899 0.438098 0.068069 -0.532518 0.073284 0.831786
0.161391 -0.265809 -0.074743 0.521297 -0.177099 -0.834306
0.634004 0.030531 0.100894 0.424664 -0.591189 0.325735
0.082666 0.681942 0.033383 0.821106 -0.55631 0.116414
0.151734 0.179425 -0.081997 0.716091 0.160986 -0.671668
-0.240585 0.36201 0.01749 0.11879 -0.226574 0.965877
-0.08896 0.141713 0.079394 -0.673409 0.077627 0.734852
-0.13307 -0.53643 -0.009525 -0.885862 -0.214316 0.409457
0.273006 0.487979 -0.097427 0.600954 0.597146 -0.53098
-0.311403 0.322484 -0.092444 -0.341493 0.396033 -0.851169
0.021699 -0.300541 -0.02365 0.936041 -0.025379 -0.350664
-0.005224 -0.28622 0.090083 0.402572 -0.157027 0.901215
0.079891 -0.309257 -0.089751 -0.603046 -0.01241 -0.79736
0.519531 0.170551 -0.042648 0.275642 -0.371169 -0.879914
0.128615 -0.556636 -0.107355 -0.01284 -0.09294 -0.989431
0.459119 0.276367 -0.063801 0.709127 0.685619 0.150021
0.142449 -0.431619 0.06934 -0.307647 -0.101109 0.945829
0.021598 -0.366912 0.032859 0.929982 -0.160029 0.330395
-0.103757 0.494577 0.059162 0.008579 0.227402 0.973157
-0.057185 -0.861096 -0.040008 0.085399 -0.995725 -0.006737
0.046723 -0.606444 -0.027298 -0.98731 -0.087687 0.112606
0.61299 0.092285 0.035052 0.769469 0.637869 -0.017396
0.045965 -0.162484 -0.073254 -0.825626 -0.196376 -0.527618
0.261024 0.354544 -0.096019 -0.644804 -0.735024 -0.190305
-0.134751 -0.550076 -0.024717 -0.967173 -0.155699 0.176631
0.006814 -0.127064 -0.06636 0.778751 -0.198655 -0.593576
-0.100283 -0.736318 -0.100193 -0.793376 0.096792 -0.599862
0.054514 -0.62476 -0.005476 -0.719475 0.334223 0.598781
0.076539 -0.258962 -0.086058 -0.543362 0.038182 -0.838525
0.122501 -0.086186 -0.127672 0.199799 -0.257854 -0.944139
0.048382 0.394275 0.101926 0.12465 0.316092 0.939563
0.089189 0.192241 -0.118931 0.197133 -0.329391 -0.921072
0.10332 -0.86737 -0.038531 -0.242636 -0.949111 0.186826
0.00777 -0.436017 -0.048134 0.787312 0.018137 -0.616069
0.123752 -0.365835 -0.098288 0.363574 0.090238 -0.924084
0.112298 0.364435 -0.14286 0.309201 -0.098383 -0.943633
0.134511 0.271723 0.087896 0.684345 0.04312 0.725791
-0.04886 0.251844 -0.121683 -0.515601 -0.098447 -0.851109
0.133436 0.311578 0.086523 0.67338 0.058596 0.733261
-0.277736 0.401763 -0.067289 -0.498997 0.785156 -0.346684
0.198615 -0.43069 -0.039579 0.979774 0.039339 -0.191265
0.188564 -0.524614 -0.070808 0.800858 0.002113 -0.597438
0.089895 0.696738 -0.004319 0.983011 -0.147567 0.012462
0.050889 0.351132 0.111846 0.174261 0.189902 0.96516
-0.042006 -0.845302 -0.138519 0.330364 -0.372329 -0.857346
-0.04479 -0.534633 0.051493 0.375836 -0.188546 0.906793
0.02146 0.056159 -0.148661 -0.214777 0.297698 -0.930014
-0.046895 -0.748809 0.014746 0.558155 -0.472446 0.658607
-0.087042 -0.8633 0.093151 -0.021798 -0.999733 0.00086
-0.001789 -0.70672 -0.086435 0.531376 0.275107 -0.800726
0.001592 0.160138 0.129475 -0.119108 0.009172 0.992753
0.099735 0.74345 -0.049045 0.969436 -0.155396 -0.189001
-0.260456 0.286906 -0.059995 0.738148 -0.579775 -0.342214
0.181202 0.360377 0.031163 0.879398 -0.155164 0.450032
0.063616 0.359337 0.106544 0.196587 0.191142 0.961456
0.097531 -0.806394 -0.107425 -0.771927 0.112641 -0.623749
0.167294 -0.517403 0.05567 0.437979 -0.247909 0.857777
0.321616 0.373253 -0.037204 0.657871 -0.132281 0.728071
0.012159 0.457755 -0.126757 0.065919 0.042487 -0.996491
0.097863 -0.848545 0.151625 -0.883066 0.28386 0.368931
0.132507 0.229912 -0.109614 0.682336 -0.298854 -0.667034
-0.229506 0.393232 0.026584 -0.259339 -0.2468 0.931263
-0.003304 -0.067896 0.127463 0.178958 -0.134667 0.972872
-0.071665 -0.614041 -0.105022 -0.047412 0.065465 -0.995923
-0.250935 0.328257 0.004844 0.260728 -0.472077 0.8405
-0.139121 0.019797 0.037118 -0.973722 0.107699 0.19155
-0.06644 -0.113552 -0.10335 -0.298063 -0.151734 -0.940507
-0.123692 0.146655 -0.024144 -0.904528 0.19177 -0.379246
-0.080189 0.568112 -0.070755 -0.478861 0.713347 -0.508818
0.042858 -0.250639 0.02962 -0.993651 -0.008268 0.112069
-0.09333 -0.581063 -0.097046 -0.462496 0.044429 -0.884939
0.034946 0.86248 -0.053671 0.000535 0.959688 -0.277254
0.003561 -0.701622 0.00156 0.851 -0.180648 0.492956
-0.087177 -0.844175 0.149542 -0.750695 0.386581 0.511284
0.108202 0.561338 -0.11263 0.188513 0.588276 -0.785399
0.000207 -0.13963 0.112197 0.576359 -0.157382 0.801865
-0.023627 0.761162 -0.088823 -0.782227 -0.218371 -0.581077
0.014353 -0.281268 -0.045133 0.819299 -0.102983 -0.561574
-0.131889 -0.226185 0.065601 -0.936314 -0.089622 0.33926
-0.118319 0.318333 -0.058409 -0.952667 -0.168896 -0.239084
-0.12156 0.361221 -0.001417 -0.974142 -0.206926 0.07151
0.163007 -0.836943 -0.029092 0.985325 0.168312 0.012644
-0.028674 0.747087 0.028645 -0.985718 -0.047108 0.160504
-0.09384 0.179334 0.074952 -0.695998 -0.022633 0.717685
0.124998 -0.27381 -0.09528 0.407543 -0.05557 -0.911464
0.020759 -0.606788 0.001274 0.748013 0.023228 0.660138
0.191621 0.122694 -0.024981 0.857168 0.202766 -0.472762
-0.142382 0.417653 0.038565 -0.411379 -0.799844 0.413292
-0.269059 0.284537 -0.071897 0.667503 -0.565839 -0.481203
-0.021611 0.354664 0.106063 -0.185916 0.00412 0.979124
-0.120893 -0.247521 0.087224 -0.883367 -0.034404 0.467045
0.112428 -0.825947 0.132184 -0.234795 0.965408 0.045377
0.085409 -0.007078 -0.156984 0.089208 -0.136915 -0.98553
0.266551 0.489646 -0.018005 0.648029 0.456366 0.606604
-0.011334 -0.496932 0.0453 0.591973 -0.238359 0.769371
-0.068267 -0.861729 -0.05787 0.001458 -0.999248 0.036279
0.058458 0.16305 0.128893 0.12078 0.028148 0.992177
-0.067552 -0.095681 -0.106267 -0.354662 -0.17279 -0.916883
0.311943 0.411193 -0.032238 0.71638 0.238339 0.652453
-0.007937 -0.711936 -0.092577 0.560534 0.314327 -0.765947
0.599678 0.112319 0.03566 0.75002 0.661087 0.002264
-0.113769 0.086876 -0.061726 -0.870107 0.165548 -0.464074
0.125469 -0.489417 0.052062 -0.554295 -0.10717 0.825343
0.187064 0.421969 0.039574 0.678428 -0.051705 0.732336
-0.13642 -0.213619 0.040595 -0.997213 -0.051088 0.051166
-0.27023 0.325392 0.008223 0.093909 -0.169958 0.977223
-0.121114 0.194351 0.032313 -0.92675 0.098595 0.359315
-0.061011 0.575396 -0.008698 -0.186439 0.863299 0.464543
-0.006378 0.068111 -0.141307 -0.162293 0.229573 -0.959531
0.148493 -0.749211 -0.091176 0.696508 0.154593 -0.700224
0.194539 -0.458241 -0.057514 0.846065 0.080041 -0.526419
-0.014822 0.607425 -0.062325 -0.528173 0.690712 -0.490925
0.01918 -0.413586 -0.026371 0.973701 -0.026901 -0.2083
0.212776 -0.13716 -0.008434 0.975222 -0.193726 -0.064851
-0.128923 0.07337 -0.017796 -0.982966 0.15194 -0.063234
0.079002 0.272677 -0.138869 -0.116481 -0.068759 -0.990174
-0.136011 0.557766 -0.028627 -0.367304 0.917158 -0.115508
0.139017 0.269011 -0.112011 0.795385 -0.112239 -0.594877
0.13123 0.383134 0.084284 0.478795 0.057481 0.875869
-0.002355 -0.414813 0.060996 0.76436 -0.203144 0.611746
-0.081542 0.532005 -0.10281 -0.335062 0.403663 -0.847081
0.162306 -0.205871 -0.083212 0.593266 -0.130389 -0.79424
0.210113 -0.097863 0.037393 0.93894 -0.021898 0.343172
0.125115 0.294499 -0.12839 0.584609 -0.044736 -0.810056
-0.094301 0.496268 -0.115017 -0.353172 0.303454 -0.884312
-0.030934 -0.862801 0.042222 0.338422 -0.934736 -0.044118
-0.076984 -0.328727 0.104666 0.088918 -0.084037 0.992312
-0.119577 0.329125 -0.01623 -0.993598 -0.036516 0.104323
0.164779 0.349399 -0.102681 0.672061 -0.31149 -0.671069
0.066584 0.79566 0.073594 0.542337 0.288516 0.785517
-0.071896 -0.208452 -0.088915 -0.39117 -0.021733 -0.916608
0.06925 0.440973 0.088502 0.095189 0.189882 0.976475
0.044354 -0.472324 -0.02306 -0.980778 -0.022246 0.17678
0.097733 -0.098572 -0.125151 -0.127089 -0.371718 -0.918073
0.164449 0.212844 0.058262 0.73954 0.065503 0.669724
0.01432 -0.533162 -0.045655 0.84724 0.046832 -0.528643
0.066264 0.648539 -0.055353 0.545777 0.163732 -0.821058
0.043193 0.567726 0.024852 0.235889 0.021182 0.965883
-0.256815 0.347073 -0.096135 0.146999 -0.172193 -0.972188
-0.039891 0.034179 -0.142614 -0.285037 0.164916 -0.941375
-0.110481 0.240381 -0.055052 -0.928958 -0.164699 -0.30412
0.046525 -0.395198 0.006726 -0.862684 -0.246979 0.432087
-0.02193 -0.202868 -0.0862 0.532719 -0.014321 -0.844212
0.063276 -0.335212 0.051984 -0.728536 -0.194468 0.656775
-0.011242 0.122005 0.127171 -0.343827 0.043905 0.931015
0.097504 -0.721439 -0.087502 -0.697357 0.017043 -0.707874
-0.111972 0.384548 0.055815 -0.740843 -0.295086 0.601902
0.052928 0.265419 0.123836 0.213147 0.129689 0.968296
0.492445 0.20304 -0.06305 0.042701 -0.388498 -0.920364
0.06982 -0.807 0.007781 -0.882232 -0.303342 0.359458
0.166826 0.224531 -0.061279 0.869363 -0.014138 -0.493761
0.106925 0.119448 0.112637 0.510598 0.032485 0.858356
0.202976 -0.573431 -0.027383 0.961362 -0.23338 -0.11062
-0.133527 -0.414186 0.029258 -0.960037 0.078328 0.265543
0.064207 0.314127 0.11446 0.285555 0.14814 0.946446
-0.026938 -0.83527 0.076583 0.945701 0.298546 0.124659
0.020251 -0.356049 -0.027385 0.915114 -0.017213 -0.401402
0.01942 -0.698022 -0.022005 0.889077 -0.153805 0.430107
0.190408 -0.564382 0.023558 0.874212 -0.072867 0.477048
-0.255489 0.414471 0.005812 -0.663762 0.51421 0.542059
0.13127 0.280915 0.090222 0.635811 0.040751 0.770227
0.117353 0.577147 -0.016912 0.370453 0.735905 0.563127
-0.054994 0.14043 0.105443 -0.53052 0.066398 0.844916
0.60529 0.092343 0.080692 -0.09345 0.532357 0.711221
0.181814 0.239085 0.022795 0.989926 -0.013276 0.139153
0.16341 -0.117275 0.1026 0.504483 -0.028971 0.862201
0.153699 -0.209415 -0.08851 0.55828 -0.164423 -0.812756
-0.032682 0.176466 -0.106883 -0.366471 -0.283681 -0.886064
0.290696 0.439715 -0.130848 0.381199 0.489881 -0.780977
-0.005374 -0.709017 0.012348 0.771478 -0.259598 0.577329
-0.135188 -0.185674 0.06314 -0.965349 -0.048518 0.247572
-0.235231 0.456638 -0.010297 -0.80731 0.546289 0.216327
0.004293 -0.45722 -0.054436 0.771568 0.082407 -0.630585
-0.079575 -0.124771 0.117672 -0.318634 -0.025299 0.947288
-0.497968 0.097085 0.034081 0.284106 -0.867246 -0.333369
0.160154 -0.750576 -0.073989 0.863971 0.133411 -0.480977
-0.097325 -0.81382 0.014286 -0.952117 0.205157 0.220447
0.077689 0.237589 0.119345 0.420951 0.080393 0.90275
0.03686 -0.119467 0.081196 0.641543 -0.576308 0.496313
-0.103799 -0.825213 -0.018305 -0.987932 0.01395 0.039647
0.194294 -0.286334 0.055364 0.906289 -0.064454 0.416849
0.164615 -0.469265 -0.093222 0.563639 0.146502 -0.811776
-0.12146 -0.395491 0.066925 -0.957306 -0.030051 0.275227
0.587409 0.124624 0.010492 0.771041 0.584533 -0.176825
0.055237 0.745107 -0.110622 0.406493 -0.299854 -0.861179
-0.403415 0.17813 -0.013547 0.495706 -0.867727 -0.030565
-0.351626 0.244326 -0.079549 0.202468 -0.39003 -0.89732
0.04956 -0.627121 -0.016326 -0.959229 0.090302 0.24686
-0.044362 -0.019528 0.130393 -0.21152 -0.27217 0.91385
0.112919 -0.487567 0.043472 -0.61252 -0.09585 0.784276
-0.067264 0.066059 -0.121457 -0.521178 0.214142 -0.824649
0.021145 0.836307 -0.091368 -0.159037 0.715193 -0.679902
0.037994 0.761074 0.091093 0.32784 0.364044 0.822622
0.029668 -0.229539 0.032897 0.97611 -0.045992 0.211405
0.016366 -0.151884 0.092323 0.820925 -0.158815 0.542012
0.119829 0.503637 0.0513 0.281599 0.502983 0.816313
0.640311 0.023019 0.07699 0.091638 -0.986991 0.0821
0.031617 0.14927 -0.117759 -0.134047 0.177177 -0.971743
-0.109692 -0.004119 0.098201 -0.766375 -0.184606 0.611702
-0.022496 -0.547513 0.039545 0.479725 -0.228616 0.846086
-0.152059 0.549062 0.003317 -0.412509 0.873906 0.239429
-0.438075 0.22727 -0.015618 -0.715923 0.69448 0.07088
0.072973 -0.332676 0.062445 -0.515827 -0.25148 0.818105
-0.050039 -0.86416 0.087553 0.023385 -0.999541 0.011823
-0.201973 0.403005 -0.096861 -0.085328 0.065853 -0.992388
-0.065047 -0.334775 0.10243 0.178262 -0.135507 0.974335
0.191479 -0.753194 -0.008611 0.957026 -0.271453 0.088914
-0.080696 0.014429 0.117234 -0.458149 0.296804 0.837529
0.171983 -0.674413 -0.066377 0.683244 -0.20884 -0.699012
0.068429 -0.585953 0.00864 -0.652358 -0.142186 0.744257
-0.135892 -0.530157 -0.016343 -0.985488 -0.065603 0.149716
0.14091 0.569206 -0.018024 0.185505 0.784369 0.591747
0.123651 -0.380432 -0.09993 0.340551 0.090121 -0.935613
0.104047 0.42796 0.087184 0.217675 0.242524 0.944385
-0.069542 0.471722 0.075323 -0.232766 0.351023 0.906369
0.098951 -0.768314 0.021214 -0.249396 0.804134 0.537685
0.37635 0.327605 -0.053023 0.388415 0.483607 0.781858
0.149947 -0.1007 0.108844 0.487794 -0.012872 0.87276
0.013035 -0.675314 -0.00046 0.828748 -0.271821 0.482201
-0.093508 -0.26276 0.108432 -0.233054 -0.042987 0.97136
0.134844 0.49185 0.053704 0.280939 0.553039 0.784219
0.282212 0.339401 -0.103865 -0.63447 -0.711637 -0.292409
-0.114345 -0.267119 0.095283 -0.717621 -0.061028 0.69337
-0.137139 -0.021619 -0.022712 -0.993148 0.052124 -0.102191
-0.014338 0.1102 0.127689 -0.350658 0.212861 0.910124
0.0443 -0.544757 -0.026764 -0.993768 -0.007885 0.019296
0.199159 -0.589569 -0.046856 0.985032 -0.017283 -0.171398
-0.537432 0.067444 0.067838 0.396749 -0.905238 0.12006
0.066947 0.659545 0.034087 0.667252 -0.558787 0.460371
-0.124282 -0.069888 -0.057292 -0.802976 -0.093844 -0.588318
-0.427799 0.196371 -0.053394 -0.35543 0.052301 -0.930053
0.134841 0.549647 0.008236 0.217623 0.724066 0.654181
0.140453 -0.068744 0.11232 0.328391 0.022211 0.944147
-0.315405 0.341933 -0.009739 -0.5511 0.574146 0.595041
0.28021 0.354306 -0.12058 -0.504013 -0.629524 -0.590452
-0.292337 0.336195 0.005457 -0.286997 0.181797 0.938606
0.19312 -0.44697 0.02867 0.96175 -0.099126 0.253962
0.094632 -0.50584 -0.097446 -0.557181 -0.020469 -0.83006
-0.006296 -0.346847 0.08085 0.623977 -0.05558 0.774906
-0.273804 0.355419 0.0114 -0.469286 -0.051819 0.875406
0.104704 0.729325 -0.012662 0.690799 -0.581231 0.309631
0.139304 -0.830717 0.152572 0.394095 0.899246 0.183519
-0.477266 0.176383 0.004849 -0.683476 0.728568 0.032126
0.374969 0.260275 -0.112442 -0.59157 -0.600491 -0.536223
0.02013 -0.252102 0.066273 0.948628 -0.023108 0.315218
0.122569 0.071655 -0.132947 0.549369 0.244976 -0.798572
-0.007919 -0.380753 0.07676 0.588752 -0.22559 0.775575
0.142687 -0.466287 -0.102998 0.232319 0.102969 -0.964731
0.100912 0.460548 0.079678 0.191777 0.375518 0.905785
0.206688 -0.21362 0.001122 0.999089 -0.033141 0.026172
-0.042476 -0.304536 -0.090445 0.141093 -0.088228 -0.98107
0.059094 0.34059 0.111961 0.211915 0.180894 0.959091
0.12969 -0.781367 0.039915 0.164404 0.459488 0.863164
0.177505 -0.05187 -0.089192 0.814267 -0.108065 -0.569972
-0.120904 -0.108059 -0.05512 -0.791765 -0.076925 -0.605843
0.093508 0.478125 -0.143216 -0.162075 0.194768 -0.964113
-0.111054 -0.014941 -0.086839 -0.831714 -0.04488 -0.553168
-0.105019 0.024891 -0.095422 -0.819415 0.100245 -0.560577
0.510444 0.158809 -0.030303 -0.581339 -0.78389 -0.199263
-0.002044 0.375049 0.107556 -0.111162 0.184452 0.975241
0.152171 -0.835552 0.14074 0.602884 0.78482 0.1351
-0.135849 -0.503009 -0.036419 -0.971409 0.021356 -0.21105
0.061932 0.419596 0.094384 0.196676 0.302699 0.930173
-0.058346 0.320835 -0.120825 -0.414261 -0.012634 -0.909827
0.197785 0.3939 -0.097876 0.893431 -0.362028 -0.259275
0.193796 0.161783 0.007356 0.856848 0.501204 0.045297
-0.069104 -0.429833 -0.086703 -0.239981 0.305406 -0.919763
0.109877 0.169844 0.108769 0.543182 0.058469 0.836379
0.079419 0.74815 0.062875 0.648852 0.133578 0.748751
0.111717 0.333828 0.096509 0.369311 0.093007 0.922942
0.157374 -0.39719 -0.083223 0.524244 0.159019 -0.836198
0.19046 -0.445208 0.039911 0.955277 -0.090511 0.279172
0.172087 0.556142 -0.011277 0.209356 0.781345 0.586935
-0.018918 0.234655 -0.12831 -0.081768 -0.108866 -0.990263
0.601834 0.105646 0.062455 0.752405 0.603703 0.25554
-0.025162 0.502999 0.06893 -0.101001 0.450962 0.885882
0.183273 0.275173 -0.003888 0.999347 -0.019685 -0.003345
0.008883 -0.379764 0.057443 0.832313 -0.113344 0.541248
0.596751 0.066822 0.036813 0.286549 -0.899303 0.124408
-0.08346 -0.319182 -0.076689 -0.602811 -0.006738 -0.797389
-0.099164 -0.500922 -0.085341 -0.539507 0.133696 -0.830296
0.16245 -0.391999 0.074298 0.208302 -0.022776 0.972691
0.053218 -0.71753 0.009077 -0.997608 -0.046503 0.042978
-0.136286 0.510091 -0.091474 -0.423054 0.398045 -0.812595
0.16109 0.224747 0.061228 0.752299 0.057012 0.655759
0.140891 -0.869437 0.106941 0.06455 -0.996606 0.019455
0.080213 -0.32822 0.067429 -0.550187 -0.176156 0.774484
0.095408 0.603509 -0.062356 0.653119 0.718732 -0.220412
-0.022607 -0.702542 0.027511 0.001418 0.096033 0.983369
0.103673 0.543029 -0.124426 0.073428 0.520007 -0.850147
0.038988 0.679549 -0.072017 0.084052 -0.439263 -0.894326
0.113139 -0.679929 0.032256 0.198616 -0.01517 0.97793
0.19373 0.381894 0.006157 0.967976 -0.119906 0.219967
-0.105108 -0.612475 0.043418 -0.889162 -0.04918 0.450737
0.089396 0.69038 -0.017612 0.988294 -0.140545 -0.054627
-0.163865 0.496221 -0.082424 -0.469959 0.327324 -0.818811
-0.128638 -0.56249 -0.010418 -0.966789 -0.100787 0.234766
-0.036261 0.359819 -0.128349 -0.110552 -0.01899 -0.992568
0.042494 0.335652 -0.129289 -0.328758 -0.031817 -0.939264
-0.0144 -0.358014 -0.067347 0.681765 -0.105701 -0.72385
0.023331 -0.434596 -0.003889 0.9663 0.233313 -0.038276
0.044282 -0.406834 -0.040118 -0.974813 -0.016715 -0.209013
0.304822 0.46541 -0.079636 0.74865 0.657668 -0.071254
-0.018964 0.364088 0.106645 -0.09325 0.005903 0.994261
0.19173 -0.649162 -0.056236 0.746701 -0.207626 -0.630378
-0.087322 -0.840036 -0.114066 -0.902608 -0.018211 -0.428341
0.066895 -0.675307 -0.049657 -0.774584 -0.133728 -0.617474
-0.036863 -0.459732 -0.091047 0.35057 0.121993 -0.927228
0.0508 0.633907 -0.06603 0.180691 0.254006 -0.944379
-0.087365 0.30657 -0.101234 -0.659445 -0.071481 -0.748215
0.052388 0.685129 -0.071817 0.316272 -0.478342 -0.812686
-0.112302 -0.756842 0.000437 -0.73684 -0.077421 0.634168
0.052975 -0.489132 -0.004094 -0.849323 -0.025576 0.521555
0.127706 -0.152837 -0.108924 0.278775 -0.203619 -0.937042
-0.249258 0.368036 0.018823 0.022521 -0.113322 0.992939
-0.069528 -0.628017 0.040462 0.394152 -0.228778 0.889729
0.457399 0.274293 -0.054384 0.592236 0.71772 0.363624
0.464899 0.251175 -0.089597 0.782667 -0.062195 -0.584043
0.059255 -0.768617 -0.002522 -0.999359 0.020194 -0.016476
0.161112 -0.25066 -0.077486 0.528077 -0.136044 -0.83815
0.036267 0.178646 0.130148 0.054118 0.03649 0.997713
0.350911 0.279795 -0.063752 -0.669694 -0.679259 0.298021
-0.109378 -0.003996 -0.089735 -0.824812 -0.001154 -0.565103
0.003422 0.183995 0.129585 -0.088769 0.019033 0.995585
0.209305 0.521171 -0.114832 0.245391 0.64384 -0.723602
0.026539 -0.288835 0.043419 0.979047 -0.005477 0.189207
0.01457 -0.184897 -0.051098 0.831764 0.066583 -0.550993
0.052383 -0.291281 0.048962 -0.768758 -0.090996 0.631531
-0.114281 0.370977 0.043294 -0.857267 -0.310712 0.405461
-0.347643 0.289022 0.001767 -0.04876 0.287468 0.954501
0.025855 -0.183542 -0.031212 -0.650162 0.034635 -0.751626
-0.020731 0.750836 0.050592 -0.799813 0.145976 0.580819
0.022742 0.866271 -0.005592 -0.355236 0.926607 0.106169
0.124728 -0.008212 0.119187 0.344256 -0.20405 0.914942
-0.094406 0.418662 -0.117 -0.348442 -0.22789 -0.909187
0.156604 -0.863355 0.028418 0.272184 -0.959445 -0.071859
0.120942 0.333719 -0.134531 0.510272 -0.125163 -0.848641
-0.128488 -0.293781 0.030111 -0.997254 -0.060286 0.038275
0.007918 -0.079032 0.121945 0.336106 -0.161728 0.927468
-0.117548 -0.442379 0.060714 -0.83402 -0.186753 0.518991
0.207562 -0.15991 -0.010326 0.998024 -0.034178 -0.013119
-0.435628 0.158141 -0.028946 0.352091 -0.889511 -0.266961
0.206763 0.02092 -0.006563 0.998298 0.015111 -0.054514
-0.073945 -0.800159 -0.137148 -0.64495 -0.133085 -0.744266
0.010857 0.054898 0.138241 0.047249 0.027029 0.994332
0.214415 -0.089255 0.002811 0.998534 0.017553 -0.040218
-0.065676 0.238926 -0.108116 -0.593541 -0.249793 -0.764651
0.196149 0.089995 0.004164 0.963092 0.223178 0.13575
0.181033 -0.335321 -0.049611 0.734975 0.052472 -0.6759
-0.005724 -0.797396 -0.009104 0.867851 0.011109 0.492957
-0.044882 0.493456 0.070299 -0.22979 0.503368 0.831913
0.30808 0.315941 -0.106588 -0.6413 -0.691102 -0.307677
0.240249 0.411033 -0.134134 -0.392541 -0.231532 -0.884313
0.064968 -0.40093 0.025155 -0.694508 -0.328057 0.640317
-0.054378 -0.435933 0.080919 0.178625 -0.198756 0.963617
-0.401153 0.271705 -0.055489 -0.818614 0.538361 -0.185431
0.168956 -0.280285 -0.066264 0.605121 -0.1638 -0.778704
0.143851 -0.549874 0.048056 -0.10387 -0.208523 0.968441
0.216965 0.550068 -0.072195 0.347732 0.898602 -0.260792
0.153892 -0.738771 -0.082164 0.776985 0.087874 -0.621655
-0.120571 -0.544536 0.016772 -0.88109 -0.10453 0.460996
0.306684 0.380212 -0.14325 0.02559 -0.179719 -0.980943
0.409425 0.319206 -0.07487 0.649137 0.724805 0.207001
-0.059768 -0.178259 0.121252 -0.249923 -0.021645 0.962786
-0.122894 -0.224269 0.085893 -0.861304 -0.044678 0.506119
-0.061908 0.496739 -0.123961 -0.150991 0.341443 -0.927001
0.05238 0.864348 -0.036119 0.168096 0.969405 -0.166427
0.013477 0.371576 -0.127723 0.03087 -0.034654 -0.998767
-0.132606 -0.573939 -0.048114 -0.959448 -0.080261 -0.249875
0.462845 0.197187 -0.059757 0.343126 -0.731956 -0.550539
-0.124657 -0.048942 -0.060243 -0.85472 -0.101498 -0.508838
0.061792 0.134414 -0.127685 -0.026989 0.347013 -0.937212
-0.522364 0.072768 0.052108 0.606817 -0.780658 -0.139452
-0.102013 0.014334 0.104456 -0.516158 0.23097 0.8238
0.198525 0.122511 0.017453 0.949571 -0.182903 0.250091
-0.019832 0.341037 0.107817 -0.430694 0.127924 0.888258
-0.523017 0.11995 0.064384 -0.757597 0.652114 0.019873
0.538858 0.193955 -0.054132 0.158967 -0.802524 -0.565735
0.552548 0.1034 0.024015 -0.922212 -0.36336 0.122016
-0.090479 -0.522342 -0.093483 -0.511948 0.109602 -0.851963
-0.051627 0.150824 0.10673 -0.548336 0.100162 0.8299
-0.142876 -0.048295 0.023306 -0.994468 0.044308 0.094928
-0.475225 0.173317 0.028486 -0.439535 0.843713 0.244501
-0.006893 -0.750761 -0.105386 0.72948 0.219625 -0.644275
-0.081613 -0.61096 -0.103375 -0.224029 0.079457 -0.96756
0.091747 0.32733 0.104165 0.259324 0.091927 0.961241
-0.091518 -0.362279 0.10079 -0.116586 -0.200582 0.969132
0.080206 -0.506531 0.019952 -0.63287 0.041185 0.773135
-0.106018 -0.1859 -0.0602 -0.800925 -0.05954 -0.595139
0.13242 0.52742 0.02971 0.255498 0.634123 0.729655
-0.047995 -0.613833 0.033681 0.394063 -0.129885 0.909817
-0.461015 0.197278 -0.00193 -0.78315 0.609649 0.106843
0.164751 -0.775205 0.027086 0.446219 -0.023672 0.86896
0.097728 0.224082 0.111736 0.367661 0.090025 0.923498
-0.008556 0.643296 0.001683 -0.86216 -0.102056 0.479611
0.197925 -0.325187 -0.027147 0.876557 0.042419 -0.478152
0.054377 -0.099118 0.086252 0.453608 -0.666218 0.587009
0.187516 -0.553263 -0.070755 0.733078 -0.030456 -0.679183
0.178387 0.121067 0.057297 0.773189 0.15686 0.613704
0.064478 0.39121 0.100135 0.165928 0.257169 0.951281
-0.214686 0.481045 0.011506 -0.787698 0.473255 0.387239
0.013708 0.750853 -0.115702 -0.290918 -0.359491 -0.884321
0.19 0.319326 -0.018556 0.993436 -0.109149 0.012706
0.553469 0.16757 0.022471 0.696643 0.711083 0.073981
0.122576 0.158062 -0.106404 0.446716 0.150384 -0.881886
-0.030113 -0.607759 -0.093475 0.506157 -0.001671 -0.861724
0.254474 0.521364 -0.072822 0.670305 0.711786 -0.197721
0.042814 -0.400801 -0.021115 -0.994339 -0.096524 0.009708
0.080683 0.83809 -0.06378 0.679451 0.596784 -0.423728
0.17613 -0.066303 0.088858 0.691685 0.040688 0.721003
0.299302 0.438327 -0.126787 0.42609 0.560233 -0.709438
-0.019392 -0.749623 -0.004161 0.300419 -0.520239 0.784038
0.109248 -0.816479 0.074672 -0.18919 0.896222 0.394937
-0.024593 0.730829 0.044973 -0.911815 -0.071409 0.387212
-0.117461 -0.762632 -0.074211 -0.901536 -0.031759 -0.424597
-0.126596 0.088775 0.028951 -0.974885 0.038763 0.208693
-0.139903 0.010642 0.001086 -0.971954 -0.202091 -0.114839
0.10903 0.351029 -0.14256 0.336766 -0.106017 -0.934902
-0.009065 -0.825808 0.001226 0.705616 -0.53664 0.33874
-0.040496 -0.862732 -0.090123 0.105726 -0.99239 0.045885
-0.07325 0.576063 -0.063301 -0.447766 0.822303 -0.349167
-0.237841 0.327192 -0.002368 0.513569 -0.611059 0.59872
0.140028 -0.869321 0.116654 0.054708 -0.998026 0.026632
0.096893 0.568002 0.005377 0.165896 0.745498 0.638465
-0.034859 0.561655 0.020737 -0.049743 0.801921 0.591258
0.166023 0.06419 0.088978 0.496407 0.227798 0.81947
0.151623 -0.428703 0.071768 -0.110238 -0.097527 0.985064
0.110136 0.382506 0.092217 0.351619 0.098896 0.930592
0.083497 0.627644 -0.012279 0.95501 0.069261 0.277242
0.122633 -0.494865 -0.107681 -0.078739 0.036244 -0.993655
0.016083 -0.319394 -0.037992 0.886819 -0.021999 -0.457958
-0.296515 0.30702 -0.09734 0.001138 -0.083576 -0.992873
-0.029706 0.007094 -0.138532 -0.158194 -0.159334 -0.973623
0.037003 0.626507 0.030556 0.032192 -0.450037 0.886621
0.135961 0.235612 0.088662 0.678574 0.060722 0.731399
0.295797 0.34811 -0.040601 -0.202304 -0.666028 0.713398
0.168512 -0.041192 -0.105239 0.807433 -0.129454 -0.575429
0.089215 0.098515 -0.140618 0.253526 0.396948 -0.879847
0.494357 0.227556 -0.0125 0.456736 0.548012 0.651412
0.18807 -0.168761 0.080367 0.759925 -0.045102 0.641614
0.190135 -0.47625 -0.066741 0.842351 0.048048 -0.535827
0.141198 0.049284 -0.125534 0.636644 0.291456 -0.713516
0.180191 0.389284 0.041413 0.773303 -0.152634 0.613198
-0.031464 0.725186 -0.033388 -0.759553 -0.614166 -0.192522
0.20599 -0.541979 -0.023757 0.998545 -0.024894 -0.030111
-0.140459 0.450002 -0.100271 -0.481021 -0.034246 -0.87493
0.097643 -0.007237 0.129397 0.282573 -0.250304 0.925065
-0.222507 0.4796 -0.014991 -0.885084 0.460949 0.051933
-0.063234 -0.86279 -0.111645 -0.039435 -0.995378 -0.075345
0.197543 -0.717434 -0.018963 0.993116 -0.006053 0.048063
-0.06351 -0.007642 -0.129949 -0.25392 -0.078596 -0.962301
-0.134076 -0.231125 0.055828 -0.977175 -0.080686 0.193577
0.058773 0.217687 -0.126242 -0.209013 -0.302174 -0.929202
0.080067 0.333079 -0.143558 -0.139386 -0.046262 -0.988027
0.1177 -0.399523 -0.102358 0.017272 0.038648 -0.997525
0.184073 -0.617837 -0.070425 0.672093 -0.082053 -0.735717
0.145422 -0.572319 -0.10246 0.297198 -0.098351 -0.949071
0.171935 -0.546879 -0.087166 0.680985 -0.033052 -0.73154
0.013936 -0.609446 -0.053225 0.728811 0.097803 -0.67748
0.450436 0.28285 -0.059293 0.58073 0.727806 0.336995
-0.072126 -0.487789 -0.096536 -0.194863 0.090243 -0.975041
0.046126 -0.208614 0.055142 -0.872734 -0.083095 0.473836
0.006296 0.852734 0.039962 -0.474863 0.680441 0.550831
-0.054633 0.205547 -0.104421 -0.528815 -0.311004 -0.789195
0.126986 -0.869992 -0.073626 0.023489 -0.999615 0.014349
0.058117 -0.691358 -0.032058 -0.868628 -0.148843 -0.472353
-0.053344 0.531941 0.046105 -0.200849 0.612149 0.764791
0.080026 0.23541 -0.134966 -0.097198 -0.191129 -0.975693
0.057069 -0.429917 -0.059454 -0.767196 0.007846 -0.641097
0.152577 0.321919 -0.103727 0.746635 -0.204872 -0.631335
0.201534 0.402473 -0.03243 0.959728 -0.273818 0.022744
0.425421 0.235279 -0.113189 0.295052 -0.453369 -0.838229
0.139871 0.38986 0.078877 0.512287 0.041673 0.857754
0.006462 -0.181987 0.100559 0.681643 -0.084089 0.722224
-0.135066 -0.251516 0.031546 -0.996566 -0.075471 0.019417
-0.060924 -0.59163 -0.103592 0.085729 0.012739 -0.995455
0.101584 0.774926 0.008283 0.940977 -0.030953 0.328181
0.340804 0.414357 -0.119821 0.613376 0.579475 -0.526382
-0.0555 -0.714442 -0.120821 0.126053 0.261432 -0.954285
0.051879 0.802176 -0.114311 0.276503 0.285333 -0.915255
-0.043531 -0.863041 -0.103853 0.049457 -0.998067 -0.021845
0.103718 0.440377 -0.146592 -0.071341 -0.023715 -0.996738
0.154543 0.335787 0.062443 0.715572 -0.063553 0.695604
0.205804 -0.028964 0.044751 0.930427 0.019945 0.36223
0.584522 0.065701 -0.02117 0.400165 0.473816 -0.684584
-0.080284 0.309172 -0.107209 -0.652064 -0.049316 -0.756101
0.09819 -0.63571 0.027217 -0.617608 0.149064 0.756729
0.109451 0.072027 0.112798 0.50994 0.137878 0.848524
-0.451189 0.142337 -0.002934 0.523205 -0.837692 -0.055466
-0.136041 0.48023 0.061576 -0.120854 0.111141 0.981966
0.282984 0.38451 -0.019062 -0.231371 -0.212723 0.938066
-0.070734 0.547623 -0.097266 -0.355605 0.548275 -0.756098
0.022117 -0.520897 0.001362 0.868362 -0.171903 0.463673
0.602044 0.108897 0.0456 0.838322 0.543764 0.037587
-0.021361 0.846348 0.005756 -0.779771 0.547406 0.257182
-0.085893 -0.062712 -0.104336 -0.584993 -0.224828 -0.779227
-0.123735 -0.345434 0.057238 -0.984228 0.06132 0.165427
-0.044699 -0.379431 0.090223 0.177215 -0.157684 0.971038
-0.025364 0.31635 0.110868 -0.432613 0.142804 0.878122
0.086594 -0.844623 0.061574 -0.918286 0.394192 0.013849
-0.131447 0.054032 0.040508 -0.911099 0.309346 0.271422
0.009634 -0.481457 -0.049874 0.829433 0.043427 -0.555837
-0.120206 0.329635 -0.051395 -0.997571 -0.044465 -0.047076
