0.107665 -0.242071 0.088472 -0.029051 -0.130905 0.989946
0.458848 0.19382 -0.05156 -0.144167 -0.966755 -0.142453
0.160912 0.234883 0.060623 0.747673 0.055419 0.661269
-0.092562 -0.272327 0.108175 -0.212429 -0.056746 0.975449
0.421375 0.274035 -0.12524 0.370131 0.122608 -0.920276
-0.045628 0.375728 -0.12718 -0.229507 -0.03646 -0.971458
0.167031 -0.355076 0.073384 0.223795 -0.04585 0.973402
-0.375882 0.295175 -0.065604 -0.661676 0.645294 -0.377338
0.296813 0.478635 -0.067497 0.740297 0.662946 0.013667
-0.124554 0.083264 -0.039337 -0.940154 0.109741 -0.321779
0.275566 0.412334 -0.012807 0.045929 -0.139973 0.986525
-0.224073 0.451874 0.020053 -0.76191 0.319628 0.56016
-0.097252 -0.17985 0.11118 -0.354396 -0.03159 0.927716
-0.125471 -0.64732 -0.023138 -0.964357 -0.141511 0.221017
-0.065943 -0.82818 0.13278 -0.071389 0.983855 0.146606
0.066601 0.082896 0.13024 0.050815 0.017261 0.991979
0.143602 -0.311617 -0.083173 0.578058 0.032215 -0.814937
-0.008021 0.494722 0.073692 -0.012684 0.463749 0.885841
0.20764 -0.195784 -0.005554 0.999058 -0.04079 0.004021
0.04924 0.16821 0.129609 0.097124 0.046994 0.994133
0.043363 -0.239479 0.03612 -0.986488 -0.033225 0.155
0.278654 0.340016 -0.066032 -0.466686 -0.850285 0.221641
-0.074068 -0.012577 0.123259 -0.420822 -0.429745 0.7828
0.098963 0.301433 -0.140487 0.14614 -0.104604 -0.983241
-0.021165 -0.404142 -0.072526 0.56088 0.151518 -0.812295
0.195378 -0.011818 -0.056688 0.879557 0.071191 -0.469982
-0.021265 -0.703689 -0.099846 0.587735 0.214411 -0.779779
0.192824 0.079013 0.042622 0.908126 0.309146 0.272761
-0.082458 0.431372 0.080216 -0.586402 0.128621 0.799272
0.15526 0.019119 0.106522 0.508003 0.185595 0.840856
0.206809 -0.007279 -0.017334 0.981405 0.090184 -0.168887
-0.061408 -0.357433 -0.086292 -0.231542 -0.067448 -0.967583
0.270405 0.370098 -0.132391 -0.332287 -0.59481 -0.728699
-0.115233 0.413749 -0.105741 -0.561725 -0.309431 -0.765835
0.198796 -0.227747 -0.049761 0.821995 -0.117012 -0.550566
-0.069855 0.380375 0.092757 -0.565483 -0.030375 0.82229
0.134973 0.202146 -0.097835 0.672668 -0.134597 -0.725433
0.102429 0.801927 -0.038305 0.89375 0.425311 -0.065524
0.110712 -0.034788 -0.14649 0.184815 -0.280214 -0.94107
0.019201 -0.426685 -0.025966 0.970895 0.018489 -0.224488
0.128633 0.305604 -0.126417 0.600055 -0.050926 -0.798083
-0.143528 -0.057509 0.01982 -0.996944 0.042837 0.058422
-0.112977 0.159036 0.049913 -0.838558 0.033748 0.541215
-0.031907 -0.116349 0.125943 0.048991 -0.100369 0.99349
0.197395 -0.541881 -0.055959 0.908803 -0.00943 -0.409212
0.19858 -0.647532 -0.022121 0.996171 -0.022393 0.076204
-0.152898 0.383354 -0.025271 0.745672 -0.664597 0.028976
0.489475 0.239578 -0.054965 0.70914 0.703485 -0.025483
-0.034951 0.80695 0.002187 -0.97601 0.004784 0.202835
0.130997 -0.69775 0.025067 0.278873 -0.335457 0.899101
-0.103203 -0.804702 -0.003451 -0.848022 -0.394954 0.347348
0.008526 -0.338416 0.067304 0.751549 -0.178311 0.633048
0.052339 -0.17131 -0.079625 -0.77278 -0.17752 -0.606757
0.012961 -0.62647 -0.057201 0.684031 0.120311 -0.719378
-0.0453 0.563884 0.015328 -0.19988 0.807428 0.552403
-0.120027 -0.772712 -0.060656 -0.98923 -0.065235 -0.123844
0.057308 -0.605983 -0.052356 -0.756923 -0.036329 -0.652018
-0.007112 0.063145 0.133621 -0.37041 0.215087 0.903068
-0.111794 0.217977 -0.03883 -0.900134 -0.150544 -0.406874
0.18807 -0.168761 0.080367 0.759925 -0.045102 0.641614
0.13627 -0.581621 0.040665 -0.132807 -0.168654 0.973739
0.100162 -0.03117 0.127605 0.233872 -0.072807 0.968521
0.165069 -0.843961 -0.008852 0.994979 0.022884 -0.074292
-0.088185 0.183546 -0.073557 -0.69709 0.057705 -0.714402
0.100795 -0.869409 0.111168 -0.197104 -0.975034 0.04769
0.14357 -0.727272 0.010706 0.484423 0.051752 0.864601
-0.262612 0.281812 -0.04911 0.723493 -0.686441 -0.050175
-0.429269 0.159559 -0.002642 0.519398 -0.853806 0.018608
0.173167 -0.852395 0.041133 0.927047 0.275813 -0.120397
0.191011 0.381828 0.017313 0.940745 -0.14922 0.299253
-0.057225 -0.515286 0.061524 0.410332 -0.278026 0.867788
0.034736 0.578259 -0.099809 -0.073598 0.536901 -0.840093
-0.071037 -0.003565 0.12836 -0.412661 0.061941 0.871799
-0.095225 0.164958 0.073085 -0.706901 -0.033636 0.706497
0.076359 0.006277 0.137849 0.250692 0.051496 0.961261
0.14161 0.581883 -0.052926 0.244742 0.965147 0.027406
0.116865 -0.22008 -0.101789 0.015764 -0.081201 -0.995108
0.156824 -0.319936 -0.073397 0.621773 0.01004 -0.783097
0.009275 0.086227 0.136806 -0.050853 0.046778 0.991662
0.045707 0.504145 -0.126819 -0.20725 0.06804 -0.97575
0.212662 -0.077103 -0.009687 0.973706 0.081996 -0.202778
0.198521 -0.572564 -0.051198 0.956401 -0.024273 -0.278591
0.085304 -0.351101 -0.092997 -0.599166 -0.043335 -0.798869
-0.14013 0.007005 0.018659 -0.955992 -0.286461 -0.033263
0.08206 -0.176935 0.089979 -0.455941 -0.075623 0.88565
0.165574 0.3526 0.053829 0.791895 -0.088304 0.604115
-0.133592 0.00365 -0.038774 -0.94273 0.062614 -0.321009
0.003525 0.580209 0.018911 -0.468653 0.218731 0.852965
0.157853 -0.501457 0.061838 0.05232 -0.198985 0.971305
-0.352459 0.311876 -0.077161 -0.576786 0.611018 -0.534458
0.335652 0.306611 -0.050665 -0.543665 -0.563941 0.620328
-0.064405 0.432819 0.089007 -0.200748 0.192375 0.956445
0.192103 0.10605 0.03192 0.977292 -0.075144 0.191258
0.354748 0.372997 -0.084339 0.719923 0.659435 0.21141
-0.518337 0.082631 0.034565 0.511523 -0.709861 -0.452759
0.069905 0.595605 0.012389 0.625856 0.007995 0.779631
-0.038017 0.166083 -0.101439 -0.361449 -0.21607 -0.899546
-0.102154 -0.839889 0.09241 -0.71158 0.68869 0.131501
0.200067 -0.078153 0.062039 0.864446 0.029513 0.50179
0.19359 -0.131349 0.071687 0.865296 -0.016703 0.499269
0.031725 0.772611 0.088637 -0.108714 0.089412 0.983323
0.097187 -0.866779 0.049004 -0.575494 -0.811571 -0.075431
-0.024734 0.540798 0.047634 -0.174379 0.613574 0.764984
0.027984 -0.246325 -0.030077 0.141931 -0.090839 -0.902832
-0.159168 0.460058 0.055112 -0.306454 -0.169393 0.936228
-0.439415 0.158821 0.030219 0.495188 -0.763791 0.387427
-0.375175 0.198912 -0.049765 0.529487 -0.785222 -0.310985
-0.082637 0.505612 0.057194 -0.157219 0.398859 0.902063
-0.040854 0.385606 -0.128435 -0.141192 -0.03236 -0.988306
0.585201 0.047343 -0.00289 -0.838934 -0.543703 -0.012342
-0.469487 0.156827 0.05237 0.359842 0.606355 0.705065
0.098675 0.777399 -0.068514 0.949294 0.010853 -0.312117
0.06651 0.097009 -0.143759 -0.0021 0.329735 -0.941435
0.441378 0.294632 -0.090342 0.694516 0.703688 -0.12119
0.095845 -0.322752 -0.098108 -0.304522 0.010749 -0.947878
0.026085 -0.214727 0.051272 0.957474 -0.027553 0.281493
0.156159 -0.836868 0.131873 0.643658 0.739701 0.195511
0.015092 0.429291 -0.127139 0.027781 0.044984 -0.998565
-0.020433 -0.586948 -0.087565 0.655023 -0.039871 -0.750743
-0.036863 -0.459732 -0.091047 0.35057 0.121993 -0.927228
-0.06665 -0.393559 -0.081581 -0.207028 -0.079529 -0.973175
0.018309 0.132957 -0.122909 -0.133427 0.45187 -0.881835
-0.109053 -0.304407 -0.050438 -0.802767 0.034286 -0.595265
0.215621 0.401151 -0.081546 -0.905358 -0.420571 -0.004248
0.022587 -0.097334 -0.079216 -0.331714 -0.685686 -0.626227
-0.012021 -0.393385 -0.063705 0.636652 0.103695 -0.763801
0.120046 -0.795878 -0.117032 -0.08803 0.512664 -0.848568
0.124883 -0.521484 -0.108119 -0.040507 -0.00446 -0.998957
0.060704 0.854787 -0.059541 0.37436 0.820052 -0.427434
-0.068213 0.189915 0.095443 -0.478932 0.033481 0.876697
0.152346 -0.309753 0.079068 0.229668 -0.059171 0.970285
-0.037795 0.584233 -0.082008 -0.360687 0.723518 -0.584268
0.106697 -0.869518 0.045683 -0.11089 -0.983481 -0.047521
0.172029 -0.198015 0.088915 0.381977 -0.11627 0.916143
0.192945 0.348961 -0.00962 0.984332 -0.084698 0.152142
0.062636 0.820744 0.062759 0.491013 0.514938 0.70218
-0.066024 -0.663902 0.029472 0.293937 -0.255678 0.920713
0.204699 -0.36799 -0.022703 0.983647 0.036231 -0.173226
0.30685 0.314796 -0.07723 -0.691508 -0.712386 0.101642
0.19828 0.085253 -0.009355 0.980749 0.194312 0.006581
-0.127224 -0.058927 -0.054585 -0.88165 -0.067209 -0.466558
0.187616 0.513155 0.019578 0.259914 0.390908 0.881427
0.140059 0.405255 -0.137271 0.380212 -0.180047 -0.907134
0.012199 0.645259 0.029982 -0.607411 -0.345256 0.713416
0.200786 -0.428834 -0.001988 0.987581 -0.134594 0.07538
0.628745 0.064638 0.070803 0.851477 0.513729 0.077838
0.198374 0.079214 -0.026392 0.978338 0.147669 -0.13321
0.081598 0.842698 -0.054622 0.733978 0.635111 -0.240163
0.098515 0.367475 0.097353 0.21875 0.084195 0.97171
-0.094899 -0.116153 0.112046 -0.363387 0.058836 0.928643
0.094738 -0.664238 -0.08199 -0.603244 -0.0065 -0.797454
0.289049 0.335835 -0.111415 -0.6247 -0.632514 -0.45621
0.084354 0.224852 -0.132665 -0.022548 -0.380788 -0.922905
0.00028 -0.110973 -0.083139 0.733515 -0.350509 -0.581391
-0.325533 0.28172 0.004809 -0.12609 0.08749 0.987671
0.007197 0.092069 -0.136916 -0.154881 0.218278 -0.963317
0.377809 0.349362 -0.081804 0.667199 0.688791 0.268322
0.193298 -0.256683 0.061146 0.824067 -0.019366 0.563359
0.093919 -0.352251 -0.097622 -0.405784 -0.015574 -0.913368
0.197925 -0.325187 -0.027147 0.876557 0.042419 -0.478152
-0.255489 0.414471 0.005812 -0.663762 0.51421 0.542059
-0.036199 -0.237529 0.111411 0.122732 -0.191924 0.973621
-0.408521 0.175058 -0.003206 0.571021 -0.817167 0.008442
-0.001523 0.468671 -0.127881 0.129967 0.046877 -0.990324
0.008114 -0.704731 -0.07919 0.667937 0.182751 -0.719397
0.078968 -0.082586 -0.128128 -0.190867 -0.416526 -0.888681
-0.102606 -0.103522 0.106874 -0.591841 0.084622 0.800311
0.029574 -0.127082 0.083617 0.777836 -0.341707 0.525592
-0.12815 0.504678 -0.097488 -0.383207 0.320884 -0.865329
0.174495 -0.480071 0.059757 0.563277 -0.16155 0.805674
0.082982 -0.216357 0.087341 -0.407971 -0.137622 0.898579
-0.124082 -0.586834 -0.072984 -0.779756 0.038861 -0.62414
0.17509 0.150423 0.054986 0.749596 0.088845 0.655784
-0.256815 0.347073 -0.096135 0.146999 -0.172193 -0.972188
0.20111 -0.331886 0.030899 0.935691 -0.055112 0.348041
-0.112302 -0.756842 0.000437 -0.73684 -0.077421 0.634168
-0.248686 0.302025 -0.0589 0.749418 -0.606776 -0.261999
-0.03463 -0.155611 0.122998 0.017438 -0.053324 0.99692
-0.058277 0.241738 -0.114338 -0.543251 -0.190176 -0.817022
-0.078284 -0.024434 0.118688 -0.50455 0.036675 0.862234
-0.011941 0.078086 0.12944 -0.309012 0.117469 0.942645
-0.021891 -0.847687 0.011046 0.93729 -0.283723 -0.057744
0.001125 0.602774 -0.078379 -0.254703 0.660675 -0.704303
-0.118521 -0.012264 -0.074476 -0.838872 0.005136 -0.542822
0.213374 -0.132117 0.010899 0.987027 -0.13049 0.082302
0.17053 -0.237565 -0.074209 0.525877 -0.117816 -0.842074
0.189948 0.560586 -0.069465 0.395789 0.845547 -0.32667
0.559349 0.161747 0.016622 0.733562 0.67937 0.010078
-0.062123 -0.131464 0.122472 -0.243442 0.013467 0.969566
-0.108849 0.34035 0.03524 -0.886784 -0.225184 0.402874
0.123327 -0.081087 0.115258 0.083057 -0.102813 0.986708
-0.282058 0.3949 -0.07279 -0.633227 0.499208 -0.550782
0.085051 -0.825522 0.007001 -0.496873 -0.863364 0.061796
0.014385 0.113566 0.132699 -0.095767 0.281059 0.953927
0.020607 -0.247651 -0.03925 0.929075 -0.060183 -0.364263
0.046113 -0.589728 -0.027529 -0.977116 -0.029709 0.112578
-0.143821 -0.060835 0.00663 -0.999305 0.030966 -0.013013
0.531288 0.137411 -0.007154 -0.752228 -0.65858 -0.018173
-0.07436 -0.306343 0.106151 0.064656 -0.073447 0.995049
-0.063318 0.255482 0.09096 -0.485261 0.069628 0.871428
-0.110938 0.108929 0.06332 -0.773071 0.299548 0.558558
0.386111 0.255688 -0.118468 -0.517158 -0.520907 -0.672584
0.005011 0.736494 0.071404 -0.407412 0.133454 0.899549
0.017956 -0.196741 -0.047215 0.881653 0.048905 -0.468626
0.054728 -0.712602 0.021777 -0.95163 0.10305 0.287054
0.194234 0.435737 0.035344 0.625686 -0.050219 0.775433
-0.109475 -0.855772 0.045601 -0.751708 -0.656365 -0.012427
-0.054347 -0.188867 -0.095346 -0.074448 -0.092191 -0.991962
-0.230591 0.442314 -0.070056 -0.577419 0.556337 -0.597411
0.017355 0.588478 -0.092071 -0.11734 0.685979 -0.711664
-0.124027 -0.298885 0.07009 -0.9701 -0.120437 0.209483
0.126503 -0.593665 0.035976 -0.203447 -0.193558 0.959637
-0.1361 -0.222712 0.015626 -0.997732 -0.035009 -0.057373
0.089978 0.69909 -0.024502 0.963586 -0.233363 -0.068627
-0.103659 -0.838257 -0.047264 -0.944513 -0.271723 -0.068862
0.19003 -0.318448 -0.039252 0.771821 -0.00825 -0.635551
-0.131561 -0.004031 -0.045861 -0.935002 0.05729 -0.348609
0.192358 0.156421 0.025606 0.872214 0.30207 0.37946
0.013834 -0.651477 0.007362 0.767235 -0.143544 0.623796
0.105261 0.782726 -0.036624 0.999528 0.013537 -0.021896
-0.103444 0.324478 0.041149 -0.883003 -0.047413 0.459878
-0.128274 -0.617936 -0.020297 -0.994183 -0.037469 0.097944
0.122633 -0.494865 -0.107681 -0.078739 0.036244 -0.993655
0.028656 -0.005804 -0.146423 -0.170153 -0.21343 -0.958532
-0.00283 -0.495259 -0.068227 0.781705 0.067056 -0.619867
0.076222 -0.547661 0.017041 -0.70823 0.01221 0.705863
-0.124409 -0.554747 -0.068766 -0.817618 0.12418 -0.56082
0.054301 -0.025757 -0.146575 -0.277596 -0.383561 -0.880622
-0.066409 0.354197 0.092551 -0.398061 -0.099412 0.901938
-0.072498 0.360675 -0.116284 -0.42691 -0.106374 -0.897421
0.194057 0.396438 -0.108965 0.605445 -0.559009 -0.561379
-0.054831 0.217748 0.099571 -0.520758 0.097752 0.848035
0.209664 -0.06751 -0.015921 0.952001 0.109358 -0.284623
0.1791 0.378825 0.039986 0.789471 -0.151311 0.594206
0.056234 -0.344461 -0.062208 -0.7991 -0.070458 -0.597042
-0.140748 0.4597 0.060301 -0.20148 -0.111504 0.972534
-0.040136 -0.252596 -0.092733 0.173265 0.03979 -0.982909
-0.046497 0.364713 -0.126592 -0.266229 -0.034919 -0.962729
-0.119529 0.063588 0.071136 -0.939422 0.216777 0.258414
0.025597 -0.454265 0.0015 0.983479 0.020534 0.149224
0.020152 -0.107536 0.105506 0.541181 -0.379107 0.744638
0.091814 0.706228 -0.031159 0.881565 -0.421761 -0.155064
0.148493 -0.749211 -0.091176 0.696508 0.154593 -0.700224
0.108901 -0.183595 -0.106 -0.085407 -0.146674 -0.984897
0.112327 0.590307 -0.037537 0.390197 0.865915 0.304519
-0.461662 0.17143 -0.041411 -0.560683 0.431702 -0.706402
-0.00593 0.532614 0.054608 0.03154 0.546018 0.834295
-0.072511 -0.509589 -0.098222 -0.189326 0.083753 -0.977786
0.140316 -0.539884 0.049987 -0.237217 -0.191195 0.952095
0.186103 -0.087827 0.081244 0.714637 0.030081 0.698744
-0.045104 -0.234521 -0.092168 0.104738 0.040836 -0.993056
-0.065584 0.057024 -0.124917 -0.407235 0.259514 -0.86044
0.231937 0.492259 -0.123512 0.364763 0.42695 -0.827353
-0.052287 0.461787 0.082386 -0.176486 0.312288 0.933174
-0.119564 -0.762521 -0.018256 -0.923307 -0.263326 0.268796
0.161589 -0.622119 0.024655 0.380438 -0.097556 0.90552
0.072057 -0.061067 -0.13624 -0.220575 -0.382122 -0.896626
-0.037096 0.797771 -0.040032 -0.997061 -0.029948 -0.062052
-0.368049 0.200968 -0.039478 0.619822 -0.771077 -0.139808
0.086397 -0.107037 -0.119531 -0.278731 -0.325001 -0.90301
-0.02583 0.289861 -0.131182 -0.11871 -0.002546 -0.991851
0.099146 0.01419 -0.153978 0.305107 -0.069614 -0.949362
-0.114308 -0.218635 -0.042351 -0.881141 -0.051658 -0.469899
-0.125464 0.104998 -0.027823 -0.945711 0.059879 -0.31302
0.027517 0.093089 0.134854 0.080656 -0.185543 0.975805
0.212011 0.554446 -0.037187 0.582024 0.747509 0.300483
0.396617 0.284284 -0.128823 0.082919 0.004006 -0.991053
0.006173 0.513616 -0.122812 0.021351 0.131535 -0.990634
-0.098574 -0.09164 0.108384 -0.548889 0.061451 0.83251
-0.071023 -0.678321 -0.110034 -0.164399 0.121291 -0.976543
-0.023207 0.590746 -0.00943 -0.610586 0.566463 0.550797
-0.125005 0.098585 0.035511 -0.934869 -0.001253 0.354174
0.14254 -0.260061 0.08368 0.061533 -0.066313 0.99575
-0.05995 -0.261948 0.110519 0.089101 -0.145327 0.985151
-0.132412 -0.559985 -0.049796 -0.927697 0.014955 -0.370968
0.450213 0.256467 -0.105113 0.68952 -0.105606 -0.710642
0.14814 -0.495048 0.062491 -0.287469 -0.197981 0.935319
-0.030936 -0.826743 -0.143144 0.316624 -0.388502 -0.863307
0.009858 0.833502 0.057021 -0.503993 0.395454 0.765436
0.10722 -0.779027 0.039738 -0.009384 0.787704 0.608282
0.135254 0.515337 0.038754 0.375498 0.613993 0.693534
0.177168 0.385605 -0.111597 0.43238 -0.501361 -0.748586
-0.099175 0.45369 0.065553 -0.372487 0.068528 0.918342
-0.09761 -0.305789 0.104995 -0.268773 -0.068812 0.952273
-0.010185 0.637497 -0.036494 -0.898134 0.190017 -0.364231
-0.262095 0.373478 0.017331 -0.303795 0.096116 0.944195
-0.07116 -0.428044 0.085474 0.141697 -0.253005 0.955789
0.172368 -0.625351 0.020238 0.302228 0.065794 0.950413
-0.128692 -0.359222 0.015619 -0.999544 0.011862 0.027372
0.135495 -0.265266 -0.091245 0.468469 -0.086527 -0.877626
0.14041 -0.029644 -0.135964 0.601411 -0.111559 -0.790269
0.013299 0.672246 0.086138 -0.654293 -0.062662 0.751901
-0.106917 0.288405 0.037613 -0.986415 0.002985 0.163018
0.016753 -0.320646 0.063125 0.837576 -0.149904 0.520339
-0.011385 -0.831892 -0.054696 0.179404 -0.971893 0.004878
0.083274 -0.826262 -0.014119 -0.443738 -0.886212 0.026975
-0.138807 0.003924 0.008536 -0.980381 -0.174953 -0.037665
-0.005374 -0.709017 0.012348 0.771478 -0.259598 0.577329
0.189749 0.092969 0.042718 0.970838 0.059825 0.221388
0.171859 -0.496843 -0.089096 0.693363 0.005792 -0.720468
-0.135892 -0.530157 -0.016343 -0.985488 -0.065603 0.149716
0.023655 -0.255601 0.056517 0.910826 -0.021457 0.411004
-0.134964 -0.472986 0.012343 -0.929726 -0.101107 0.332172
-0.021063 -0.073344 -0.115369 0.168925 -0.44014 -0.881151
0.021485 0.241365 -0.125541 0.077075 0.01737 -0.996268
0.202939 -0.125926 -0.044609 0.871205 0.021491 -0.490361
-0.072562 -0.368775 0.098125 0.134223 -0.184785 0.973497
-0.204242 0.500239 -0.038143 -0.722145 0.627356 -0.287261
-0.398867 0.267531 -0.067214 -0.86473 0.348537 -0.357531
0.146951 -0.524592 0.055667 -0.200313 -0.276869 0.936766
0.202146 0.40263 -0.095885 0.900263 -0.398274 -0.155587
-0.042476 -0.304536 -0.090445 0.141093 -0.088228 -0.98107
-0.004451 -0.831714 -0.064021 0.19191 -0.962637 0.004176
0.070029 0.850404 -0.059065 0.48205 0.764465 -0.426691
0.078662 0.107609 -0.138087 0.11797 0.443926 -0.887206
0.087667 -0.852673 -0.081469 -0.973432 0.044418 -0.169982
0.054406 -0.073889 -0.124458 -0.365865 -0.40798 -0.836394
0.363309 0.363967 -0.083194 0.66064 0.710914 0.235978
-0.126409 -0.721891 -0.034157 -0.968008 0.03685 0.236546
0.198615 -0.43069 -0.039579 0.979774 0.039339 -0.191265
0.20653 -0.001725 0.033079 0.986288 0.050729 0.141228
0.173868 -0.423856 -0.07471 0.654413 0.14652 -0.741357
0.240489 0.436404 -0.00061 0.651634 -0.210013 0.720062
0.118331 -0.348707 -0.09937 0.27837 0.063951 -0.956539
0.104533 0.291327 0.10395 0.303712 0.080586 0.946794
-0.131639 0.408597 0.02378 -0.575148 -0.764208 0.082873
0.18477 0.019799 -0.076067 0.88619 -0.004683 -0.462961
-0.134892 -0.070902 0.063363 -0.912172 0.022652 0.401089
-0.138493 -0.460408 -0.002078 -0.991166 -0.034846 0.116739
0.451625 0.266308 -0.039195 0.102391 0.59473 0.794978
-0.128669 -0.458073 0.032737 -0.89509 -0.177924 0.407172
-0.035298 -0.564749 0.040754 0.416583 -0.219824 0.881968
-0.229554 0.433599 0.022514 -0.716683 0.294277 0.629835
0.151879 -0.193412 0.095007 0.160597 -0.135897 0.975254
-0.013309 -0.440399 0.064255 0.647242 -0.173638 0.740768
0.038208 -0.256167 -0.035961 -0.802995 0.014819 -0.592307
0.092709 -0.567681 -0.090263 -0.61757 -0.120736 -0.777163
0.018554 0.533047 0.049916 0.09633 0.71053 0.692125
0.075219 -0.116773 -0.111561 -0.283598 -0.23916 -0.921729
-0.171869 0.407182 -0.093873 0.228955 -0.167206 -0.958136
0.012325 -0.425698 0.035042 0.851148 -0.147254 0.503483
0.174441 0.550008 -0.004243 0.221665 0.727351 0.649244
-0.058586 0.540566 -0.106002 -0.271178 0.435736 -0.858197
-0.135785 -0.081214 0.061225 -0.945069 0.008927 0.322493
-0.042874 -0.330274 0.097779 0.231896 -0.095286 0.968006
0.387094 0.238039 -0.092071 -0.640431 -0.742372 -0.187857
0.026332 -0.475403 -0.006479 0.995418 0.007108 0.051216
0.043793 -0.200041 0.048998 -0.962952 -0.04894 0.248466
0.060975 0.280292 -0.135298 -0.324442 -0.042007 -0.944754
0.017297 -0.134323 -0.049491 0.811851 -0.249086 -0.522864
0.118314 -0.298915 0.081999 -0.045278 -0.073396 0.99612
0.04956 -0.627121 -0.016326 -0.959229 0.090302 0.24686
-0.126144 -0.324246 0.039144 -0.992542 -0.031696 0.116957
-0.136441 0.484481 -0.099512 -0.435573 0.181365 -0.881549
0.186464 0.492303 0.026865 0.321173 0.252301 0.91097
-0.282638 0.355221 0.006003 -0.53813 0.167627 0.82221
-0.130444 0.114436 -0.004936 -0.991372 -0.015983 -0.094808
0.095767 -0.854338 -0.009518 -0.702239 -0.708137 0.021974
0.471466 0.258396 -0.077674 0.792886 0.549163 -0.25386
-0.094978 0.184203 -0.066284 -0.728594 0.112823 -0.675231
-0.274206 0.305812 0.004264 0.245883 -0.347735 0.902272
-0.007496 0.854205 -0.041737 -0.492041 0.844725 -0.202759
0.415424 0.312269 -0.069035 0.642156 0.693625 0.31383
-0.213011 0.347029 -0.001227 0.460254 -0.645131 0.603501
0.132627 -0.338035 -0.092213 0.499131 0.046862 -0.865001
-0.016553 -0.161183 0.11872 0.426071 -0.143317 0.890748
0.146914 -0.524536 -0.104138 0.367073 -0.009885 -0.929336
0.078659 -0.413431 0.034301 -0.69582 -0.326546 0.639641
0.182274 0.006462 -0.080883 0.869545 0.068564 -0.483263
0.188171 0.542384 -0.100655 0.262855 0.724006 -0.637517
-0.451189 0.142337 -0.002934 0.523205 -0.837692 -0.055466
-0.136585 -0.150201 -0.017792 -0.931196 -0.098884 -0.349368
-0.120571 -0.544536 0.016772 -0.88109 -0.10453 0.460996
0.575677 0.068956 0.019574 -0.860026 -0.506353 0.05851
0.026602 -0.341834 0.027281 0.987668 -0.065104 0.135315
0.154772 -0.374288 0.075292 0.131818 0.004211 0.990322
0.180831 0.300782 0.021015 0.92678 0.023628 0.360211
-0.043961 0.315867 0.099386 -0.398262 0.020363 0.913601
0.008974 -0.277406 -0.05265 0.756636 -0.122566 -0.641392
0.068305 0.517429 0.056591 0.068558 0.534933 0.840208
0.092547 0.820523 -0.056499 0.823939 0.517925 -0.219032
0.06001 -0.447391 0.002696 -0.529073 -0.060361 0.843576
-0.116774 -0.169983 0.096428 -0.722285 -0.013425 0.691155
0.068999 -0.820848 -0.035824 -0.760673 -0.586086 -0.059834
0.178584 0.157514 0.049245 0.776277 0.133695 0.615231
-0.050974 0.49318 -0.126885 -0.102369 0.294948 -0.944176
0.190404 -0.694347 0.000858 0.703418 -0.34935 0.616064
-0.135626 -0.505382 -0.003239 -0.960518 -0.105793 0.238958
-0.134822 -0.53683 -0.042689 -0.95019 0.001378 -0.277172
-0.047747 0.209418 -0.111042 -0.557123 -0.318886 -0.766407
-0.034218 -0.806023 -0.149384 0.232162 -0.128177 -0.948483
0.202537 -0.177119 0.036548 0.947101 -0.04892 0.316424
0.078283 -0.770741 0.017424 -0.000495 0.812229 0.581828
0.40422 0.316937 -0.062646 0.526624 0.675289 0.51607
0.061556 0.01151 -0.157129 -0.17471 -0.239328 -0.951854
-0.134128 -0.567231 -0.039507 -0.994838 -0.075763 -0.028558
0.086664 -0.843815 0.026485 -0.99873 -0.026666 -0.024126
-0.094433 -0.457064 -0.08168 -0.559128 0.148124 -0.815623
0.06774 0.855884 -0.048931 0.50277 0.8063 -0.301878
-0.06539 -0.862912 -0.005859 0.004032 -0.999248 -0.038431
-0.004733 0.151739 0.128811 -0.20883 0.011073 0.975494
0.23376 0.448311 0.008564 0.614773 -0.076359 0.776689
-0.03604 -0.398001 0.084323 0.287446 -0.22562 0.930797
0.156991 0.345194 0.061124 0.687176 -0.101808 0.718541
0.047772 0.538681 -0.120481 -0.143834 0.240525 -0.959711
0.190215 0.1757 0.004032 0.980578 0.189835 -0.002858
-0.136286 0.510091 -0.091474 -0.423054 0.398045 -0.812595
-0.016963 -0.278151 -0.080945 0.649978 -0.095973 -0.753611
0.14488 -0.005467 0.110899 0.495538 -0.198073 0.843032
-0.050187 -0.86321 -0.09253 0.020041 -0.999354 0.020966
0.172205 0.1497 -0.055167 0.863961 0.016835 -0.502898
0.097663 -0.235869 -0.09648 -0.329618 -0.036544 -0.941898
0.433961 0.231062 -0.032065 -0.632137 -0.485465 0.589626
0.293769 0.477915 -0.051957 0.802058 0.539892 0.251762
0.114227 0.507504 -0.136815 -0.003992 0.207538 -0.977866
0.065032 0.458596 -0.137132 -0.294559 0.075294 -0.952169
-0.04431 0.421795 0.096219 -0.209865 0.237051 0.947653
0.041116 0.658688 0.072245 0.132877 -0.97552 0.174793
0.021993 -0.216033 0.062372 0.948435 -0.056236 0.311709
0.097775 -0.49753 0.031726 -0.570204 -0.013903 0.821158
0.006074 -0.024461 0.1333 0.100188 -0.131063 0.981562
-0.435236 0.161894 -0.03954 0.310663 -0.889241 -0.327081
0.019715 -0.398975 0.025086 0.960981 -0.136965 0.238502
0.006875 -0.604297 -0.060356 0.735037 0.054385 -0.67556
0.118102 0.470766 0.070678 0.285321 0.467675 0.835516
0.002215 -0.47357 0.040029 0.709769 -0.145596 0.688931
0.004293 -0.45722 -0.054436 0.771568 0.082407 -0.630585
-0.082358 0.573275 -0.011407 -0.130581 0.939853 0.291684
0.520783 0.208766 -0.019701 0.18128 0.9387 0.283552
0.427318 0.226277 -0.038263 -0.290817 -0.397246 0.857801
0.163096 0.272591 0.054076 0.742548 0.021385 0.669353
-0.120206 0.329635 -0.051395 -0.997571 -0.044465 -0.047076
0.197782 -0.439432 -0.045242 0.963446 0.058091 -0.25047
-0.073278 0.232343 -0.098853 -0.672976 -0.289862 -0.679356
-0.448229 0.1594 -0.040715 0.152004 -0.878034 -0.434758
-0.213464 0.461578 0.027007 -0.634069 0.334839 0.694945
0.576748 0.093126 -0.010375 0.624933 0.178094 -0.758496
0.101877 -0.221808 -0.098833 -0.28156 -0.077082 -0.95621
0.20132 0.400916 -0.049823 0.928526 -0.341303 0.020552
-0.053001 0.27692 0.096762 -0.582988 0.04652 0.810209
0.022904 0.54174 0.038517 0.09037 0.71702 0.690122
0.632407 0.027239 0.033808 -0.913039 -0.348647 -0.113104
-0.292475 0.37611 -0.036595 -0.898734 0.407189 0.056084
-0.080118 -0.299095 -0.08014 -0.589934 -0.061824 -0.804916
-0.038964 0.759916 -0.022784 -0.993273 -0.067559 0.061941
0.203633 -0.391696 -0.027425 0.961215 -0.052486 -0.264833
-0.120051 0.563684 -0.007149 -0.393944 0.871954 0.2612
0.205945 0.024878 -0.016043 0.991 0.03763 -0.123226
0.062167 -0.686242 0.024924 -0.636113 0.287271 0.7047
0.019535 -0.547912 -0.036159 0.944089 0.045487 -0.322592
0.187011 0.316614 -0.04102 0.879336 -0.342749 -0.32959
-0.019196 0.683747 0.002898 -0.958511 -0.252449 0.008585
0.078637 -0.03171 0.13004 0.059248 -0.082595 0.994356
-0.191114 0.398883 -0.096827 0.117645 -0.075087 -0.987572
0.100761 -0.869771 0.093268 -0.208906 -0.971994 0.002193
0.067688 0.830475 -0.088297 0.446419 0.646202 -0.616466
0.00266 0.04856 0.137588 -0.134214 0.007932 0.988115
0.068121 0.41403 -0.139823 -0.377053 0.072157 -0.92196
-0.214212 0.425231 0.03648 -0.356254 -0.042378 0.924911
0.06042 -0.273872 -0.069924 -0.810149 0.009547 -0.586134
0.168956 -0.280285 -0.066264 0.605121 -0.1638 -0.778704
0.454213 0.21923 -0.087162 0.702749 -0.264005 -0.659736
0.01681 -0.012584 0.138557 0.028104 -0.737503 0.661645
0.506792 0.206171 -0.061884 0.163263 -0.411588 -0.896333
-0.119813 0.312754 -0.031483 -0.996402 -0.083221 0.013422
-0.134431 0.424259 0.056429 -0.485735 -0.362423 0.784209
0.265341 0.475209 -0.116239 0.453091 0.553546 -0.69832
0.055707 -0.152901 -0.088633 -0.663539 -0.193235 -0.722398
0.085841 -0.72459 0.036449 0.017691 -0.115084 0.992456
0.097135 -0.73174 0.032679 0.317108 -0.238011 0.899296
-0.085123 -0.416304 -0.07434 -0.504166 0.185993 -0.837901
0.06195 0.52986 -0.125254 -0.17194 0.130829 -0.974325
0.425054 0.222857 -0.108398 0.214085 -0.357769 -0.894133
-0.269898 0.405645 -0.006051 -0.722749 0.522175 0.451749
0.164842 -0.842414 0.116827 0.773466 0.627381 0.073846
0.031617 0.14927 -0.117759 -0.134047 0.177177 -0.971743
-0.120893 -0.247521 0.087224 -0.883367 -0.034404 0.467045
-0.018233 0.396058 0.105416 -0.028605 0.083672 0.995888
0.046021 -0.291052 0.039706 -0.898014 -0.058783 0.426065
0.199159 -0.589569 -0.046856 0.985032 -0.017283 -0.171398
0.182195 0.234464 -0.019536 0.991659 0.007123 -0.118105
-0.105822 0.056567 0.091735 -0.515536 0.277644 0.809869
0.095139 -0.42964 0.041739 -0.616014 -0.379112 0.690345
0.166925 0.57154 -0.039428 0.469654 0.814945 0.305842
0.28484 0.334493 -0.095599 -0.629877 -0.76278 -0.141904
-0.119914 0.521524 -0.09259 -0.373355 0.535739 -0.756594
-0.421475 0.237938 0.002418 -0.580859 0.56328 0.577988
0.144071 -0.715635 0.011562 0.399689 -0.240855 0.873367
-0.03323 0.324402 -0.128637 -0.123614 0.034993 -0.990703
0.554542 0.155303 0.043036 -0.25243 0.10147 0.957381
-0.011169 0.422186 0.100523 -0.045774 0.303261 0.950244
-0.099665 -0.826996 0.02381 -0.867244 0.475848 0.12884
0.198494 -0.103878 -0.051277 0.882657 0.037676 -0.467623
0.097531 -0.806394 -0.107425 -0.771927 0.112641 -0.623749
0.023902 -0.708777 -0.053672 0.954297 -0.088269 -0.267879
0.14129 0.178183 -0.0921 0.669302 0.076667 -0.737903
-0.233192 0.317159 -0.039095 0.733919 -0.679136 -0.000893
0.027621 -0.626924 -0.021385 0.996698 -0.016588 0.052317
0.254434 0.362021 -0.056902 -0.701803 -0.655543 0.266951
0.067637 0.002604 0.140004 0.211073 -0.077043 0.967522
-0.128191 -0.55083 -0.060673 -0.91675 0.070196 -0.391021
-0.052052 -0.86111 -0.125271 0.046704 -0.963 -0.256177
0.046707 0.793346 -0.117645 0.289728 0.172013 -0.939829
0.086045 -0.816556 0.042996 -0.870464 -0.131919 0.420372
0.292722 0.397407 -0.144793 -0.049295 0.062421 -0.994536
0.148404 0.00511 -0.126814 0.677191 0.120987 -0.725704
-0.004368 0.087301 -0.136374 -0.133133 0.207579 -0.969061
-0.025491 0.753692 -0.082494 -0.821871 -0.284445 -0.488522
0.019549 -0.272188 -0.036852 0.923378 -0.081699 -0.370227
0.140886 -0.471401 0.063168 -0.439769 -0.125089 0.887924
-0.357864 0.210317 -0.002151 0.55983 -0.790879 0.247093
0.075886 -0.528399 0.01675 -0.678072 -0.003351 0.734888
0.082248 0.003374 -0.157293 0.089245 -0.068315 -0.990647
0.151197 -0.13996 0.105322 0.312475 -0.152008 0.934734
0.244971 0.521503 -0.019056 0.640692 0.612612 0.459246
-0.093656 -0.065999 0.110195 -0.544132 0.045844 0.837687
-0.114896 -0.239233 0.096079 -0.686909 -0.022999 0.72632
-0.117285 0.333437 0.002191 -0.970099 -0.164204 0.17786
-0.094274 -0.863159 0.101013 -0.099645 -0.991147 0.02323
-0.29938 0.277952 -0.088704 0.272182 -0.385226 -0.878734
0.206688 -0.21362 0.001122 0.999089 -0.033141 0.026172
-0.546921 0.071069 0.088936 0.087694 -0.269423 0.929608
-0.167753 0.376434 -0.062577 0.661474 -0.6842 -0.306641
0.022117 -0.520897 0.001362 0.868362 -0.171903 0.463673
-0.12256 -0.625098 -0.07848 -0.775229 0.048462 -0.628674
0.197608 0.113091 0.013974 0.955465 -0.236471 0.159872
0.220682 0.41993 -0.00983 -0.158689 -0.821869 0.524927
0.18001 0.159633 -0.039313 0.843797 0.054725 -0.532389
-0.335854 0.291643 -0.092479 -0.208216 0.018037 -0.974906
-0.040386 0.822525 -0.047394 -0.919256 0.107788 -0.268477
0.182328 0.244001 -0.017905 0.992707 -0.007882 -0.110978
0.022209 -0.728711 -0.057409 0.975388 -0.009101 -0.210124
-0.130043 -0.105424 0.071991 -0.858124 -0.002486 0.512796
-0.103632 -0.366231 0.096598 -0.540005 -0.125532 0.81573
-0.384976 0.288005 -0.062145 -0.69587 0.682325 -0.221958
0.047782 -0.282073 0.043558 -0.858145 -0.04989 0.509315
-0.072234 -0.418805 0.088023 0.112874 -0.215161 0.969282
-0.102933 -0.838362 -0.056979 -0.918769 -0.350638 -0.092002
-0.052039 -0.832879 -0.144466 -0.042991 -0.259385 -0.960307
-0.281421 0.290217 -0.087914 0.415131 -0.474206 -0.774459
-0.125614 -0.638266 -0.013576 -0.963368 -0.178539 0.196884
-0.139601 0.493776 -0.095805 -0.418414 0.236853 -0.876124
-0.489428 0.163331 0.004755 -0.776628 0.629589 -0.019252
0.16587 -0.663362 -0.074522 0.604505 -0.188434 -0.773198
0.055012 0.337345 -0.135349 -0.39352 -0.028287 -0.918856
-0.45453 0.179246 0.026218 0.012616 0.712631 0.700576
0.068387 0.155773 0.127756 0.263787 0.031388 0.960765
-0.532059 0.106217 0.044093 -0.821632 0.54907 -0.130416
0.007468 -0.573246 -0.05857 0.790641 -0.005505 -0.612064
-0.12842 -0.29338 -0.003518 -0.996922 -0.016818 -0.069349
0.046445 -0.516213 -0.016679 -0.673198 0.024669 0.687472
-0.063299 0.240299 0.09252 -0.542739 0.081522 0.835254
0.049758 -0.409223 -0.051384 -0.785023 -0.014949 -0.61825
-0.114313 -0.494486 0.040127 -0.843528 -0.240171 0.480088
0.171979 -0.043825 0.091949 0.690366 0.017241 0.723249
-0.130375 -0.190188 0.074637 -0.893998 -0.033296 0.44651
-0.005724 -0.797396 -0.009104 0.867851 0.011109 0.492957
-0.105545 -0.157152 0.107286 -0.658682 -0.05241 0.750528
0.26519 0.367994 -0.032878 -0.551106 -0.490982 0.673033
-0.025003 0.183974 0.119939 -0.526976 0.075243 0.843792
-0.106155 -0.024305 0.09833 -0.739137 0.04432 0.671946
-0.089377 -0.437938 0.083772 -0.09471 -0.184797 0.976217
0.235559 0.378136 -0.068342 -0.696656 -0.713836 0.053588
0.047836 -0.526143 -0.043281 -0.879725 -0.062398 -0.471242
0.104617 -0.406283 -0.099693 -0.345187 0.019551 -0.935868
-0.121676 -0.76004 -0.061745 -0.950801 -0.198026 -0.229083
0.143912 0.266352 0.078225 0.754158 0.07057 0.652855
0.141201 -0.107443 -0.115537 0.48483 -0.211133 -0.848181
-0.022079 0.725277 -0.061491 -0.861131 -0.415902 -0.289874
-0.045937 -0.108905 -0.106778 0.054779 -0.226238 -0.972003
-0.003754 0.276237 0.119515 -0.324511 0.073731 0.942828
-0.134873 -0.209066 0.000512 -0.976014 -0.084272 -0.199691
0.029537 0.225032 0.12836 -0.005146 0.035808 0.999335
-0.439803 0.219833 0.001444 -0.647026 0.634498 0.403689
-0.124495 0.415986 -0.09861 -0.696595 -0.384981 -0.60301
0.032183 0.011887 -0.151727 -0.171225 -0.31551 -0.931058
0.156749 0.007125 0.107675 0.520913 -0.032808 0.8483
-0.001889 -0.403626 0.063943 0.730571 -0.208335 0.649707
-0.08962 -0.642845 0.043188 0.084022 -0.315112 0.937183
0.002264 -0.259097 0.091882 0.54874 -0.197624 0.809418
-0.087268 -0.378004 0.09802 0.007762 -0.206243 0.977748
-0.050577 -0.706358 0.014127 -0.285125 0.034803 0.953983
0.039486 -0.244707 0.010229 -0.353262 -0.083387 0.820741
0.056992 0.690474 0.084151 0.49817 -0.001463 0.861454
0.189003 0.050276 -0.063189 0.880118 0.152043 -0.448912
-0.51885 0.119226 0.016598 -0.870799 0.150687 -0.37273
-0.07486 -0.239363 -0.086835 -0.500804 -0.026989 -0.860652
0.537989 0.169624 -0.032151 0.592675 -0.322705 -0.735737
0.103721 0.483363 0.068063 0.225755 0.471476 0.851158
-0.235952 0.31601 -0.022345 0.72288 -0.665827 0.17743
0.254359 0.46256 -0.128973 0.218239 0.396005 -0.89031
-0.137164 0.0382 0.010001 -0.967866 0.24762 0.003352
0.141898 -0.515903 0.056377 -0.332167 -0.222341 0.913191
-0.0102 -0.736072 0.007642 0.482175 -0.496213 0.699571
-0.125459 0.204998 0.004615 -0.917504 0.384003 0.005226
-0.033438 0.760632 0.014769 -0.945825 -0.114804 0.296412
0.297376 0.394933 -0.017866 0.401847 -0.032808 0.910974
-0.2246 0.451337 -0.06729 -0.576974 0.565586 -0.588673
0.026539 -0.288835 0.043419 0.979047 -0.005477 0.189207
0.285617 0.46865 -0.026653 0.725513 0.262829 0.632326
-0.098893 -0.850722 -0.029736 -0.731901 -0.660651 -0.162816
0.175256 0.338525 0.037586 0.879777 -0.05004 0.471763
-0.025529 -0.669969 -0.093473 0.533422 0.174754 -0.826602
0.103782 -0.634875 -0.090218 -0.477617 -0.059705 -0.875414
-0.125731 -0.231535 -0.019904 -0.899133 -0.036539 -0.434123
-0.060723 0.127572 0.102054 -0.566937 -0.117458 0.81446
0.227649 0.386015 -0.074967 -0.715768 -0.698185 0.011425
0.150553 0.427823 0.069592 0.677283 0.10723 0.727531
-0.036352 0.755687 -0.051601 -0.964284 -0.162329 -0.20111
0.165329 -0.717924 -0.069523 0.811918 -0.051584 -0.581302
-0.223745 0.356362 -0.090785 0.323319 -0.452533 -0.82853
0.014595 -0.400835 0.039709 0.871076 -0.206303 0.445595
0.501108 0.164726 -0.025417 -0.592547 -0.803578 -0.051217
-0.068352 0.26199 -0.11198 -0.524245 -0.15577 -0.836958
0.084899 -0.600008 0.023332 -0.744318 -0.094429 0.660661
-0.129851 -0.246719 -0.008548 -0.948646 -0.017986 -0.314285
0.158693 -0.697745 -0.077195 0.69859 -0.026132 -0.714485
0.171362 -0.409308 -0.075061 0.632304 0.072562 -0.771228
-0.038207 0.591487 -0.060476 -0.435217 0.873933 -0.17235
-0.059341 -0.244379 0.112523 0.040532 -0.111884 0.99223
-0.119492 0.565332 -0.027184 -0.320147 0.929268 -0.073634
0.199669 0.395108 -0.04107 0.978519 -0.190676 0.023781
-0.042808 0.354736 0.104643 -0.218802 -0.106188 0.964958
0.132871 0.582305 -0.072328 0.323512 0.912106 -0.246089
0.142022 0.20518 0.085809 0.717351 0.05985 0.694052
0.065925 0.511256 -0.129285 -0.145377 0.106167 -0.98329
0.108504 0.095884 -0.134687 0.470662 0.278462 -0.834076
-0.106843 0.18163 -0.050819 -0.847322 0.124383 -0.515719
0.065657 -0.426706 0.012796 -0.650133 -0.324111 0.686856
0.074141 0.70923 0.072276 0.672804 -0.045954 0.737443
0.163361 0.076175 -0.094057 0.73549 0.239484 -0.633699
0.072635 -0.705056 0.034585 -0.160564 0.165781 0.970725
-0.118937 0.154478 -0.033414 -0.886418 0.128006 -0.441
0.166932 0.10544 0.074637 0.696827 0.21122 0.682892
-0.076126 -0.091923 -0.102512 -0.536904 -0.188365 -0.819083
-0.124269 -0.728708 -0.065703 -0.867284 -0.037041 -0.486891
0.05581 0.157194 -0.12068 -0.073717 0.067651 -0.994675
0.204768 -0.534009 -0.033087 0.983921 0.011353 -0.176348
-0.540185 0.095723 0.078231 -0.725607 0.654341 0.202656
-0.347946 0.311381 -0.010964 -0.493583 0.551714 0.664006
0.098888 0.766493 -0.068075 0.964278 -0.035439 -0.260918
-0.483181 0.128273 0.063301 0.657779 -0.598014 0.44838
0.05061 -0.646199 -0.008006 -0.990785 -0.048985 0.115996
0.21227 -0.04024 0.024026 0.976519 0.025056 0.211784
0.093428 -0.584073 -0.088169 -0.605225 -0.12686 -0.785862
0.051695 -0.084023 -0.117945 -0.418078 -0.444019 -0.791648
0.557643 0.095749 0.029259 -0.814292 -0.559288 0.148131
-0.053713 0.295224 0.095663 -0.491697 0.001681 0.870063
0.602698 0.070154 0.075549 -0.736934 -0.585415 0.283218
0.022772 0.577485 0.026686 -0.122364 0.040289 0.991053
0.096849 -0.830612 0.102468 -0.669739 0.719345 0.168234
-0.024593 0.730829 0.044973 -0.911815 -0.071409 0.387212
0.112976 0.444794 0.081395 0.19801 0.206355 0.957549
0.105905 -0.712453 0.030991 0.534606 -0.188638 0.822989
-0.122792 -0.750824 -0.019216 -0.955173 -0.075335 0.272612
-0.011174 0.658727 -0.028251 -0.975772 -0.028039 -0.189541
0.086869 0.714224 -0.061253 0.738157 -0.521793 -0.418503
0.083012 0.825134 0.030963 0.821717 0.30405 0.481535
0.08242 0.618742 -0.007017 0.93447 0.066192 0.343273
-0.186915 0.410496 -0.096345 0.076795 0.046208 -0.994443
0.186246 0.068789 0.061671 0.829315 0.167586 0.532032
0.070667 -0.284776 -0.083059 -0.680134 0.013038 -0.731989
-0.121639 0.160914 0.031798 -0.938361 -0.050011 0.338017
-0.046167 -0.582224 -0.100693 0.338221 -0.018398 -0.940849
0.137027 0.569972 -0.092695 0.369978 0.693704 -0.615917
-0.388117 0.187832 -0.019246 0.624434 -0.778609 -0.013629
0.187797 -0.721214 -0.040496 0.700885 -0.189593 -0.683911
0.080018 0.666803 0.018403 0.872454 -0.326443 0.356495
-0.306315 0.285042 -0.093107 0.141426 -0.300782 -0.941995
0.138319 -0.215962 -0.096408 0.416742 -0.144921 -0.894466
-0.128001 -0.347125 -0.011346 -0.996189 0.037713 -0.069085
0.206066 -0.530273 -0.022835 0.998453 0.009878 -0.021426
0.180874 -0.550372 -0.078368 0.72705 -0.03478 -0.68555
0.592025 0.057657 -0.005428 0.942039 -0.183454 -0.233904
0.127451 -0.337137 0.0796 -0.037908 -0.081493 0.995294
-0.145007 0.414109 -0.084549 0.336648 -0.724773 -0.590812
0.418739 0.301604 -0.056641 0.447726 0.658497 0.598729
0.053546 -0.57526 -0.04913 -0.821647 -0.048422 -0.567439
-0.109241 -0.037988 0.096262 -0.723658 0.052852 0.688007
0.06028 -0.658037 -0.044998 -0.83459 -0.159638 -0.526662
-0.02884 -0.397776 -0.076135 0.431518 0.079701 -0.894265
0.196085 -0.572613 0.011389 0.926483 -0.004364 0.369997
-0.096305 -0.285492 0.106765 -0.258062 -0.055118 0.957617
0.04814 -0.623014 -0.027999 -0.987141 -0.075098 -0.058993
-0.553679 0.052123 0.031699 0.826232 -0.56007 -0.040425
0.171494 0.036538 -0.096892 0.790373 0.125181 -0.597883
-0.010608 0.381968 0.106379 -0.00424 0.063808 0.997887
-0.132313 -0.403666 0.028714 -0.962525 0.138218 0.229997
0.165103 0.321519 0.052318 0.729763 0.033585 0.680768
0.1148 -0.13134 0.112803 -0.199513 -0.106851 0.947715
-0.034523 -0.288262 0.100573 0.340555 -0.20899 0.915866
0.053307 -0.680965 -0.025201 -0.951135 -0.076868 -0.279925
-0.086707 -0.860987 -0.061134 -0.14469 -0.985315 0.060804
0.065975 0.616799 0.015919 0.621401 -0.09259 0.777748
0.325535 0.306788 -0.115761 -0.538295 -0.635305 -0.548443
-0.042507 0.135737 -0.109189 -0.323693 0.452389 -0.829904
-0.023402 -0.29665 -0.083939 0.552659 -0.128331 -0.823445
-0.385244 0.282923 -0.015104 -0.658331 0.671128 0.340361
0.064235 -0.345166 0.049997 -0.694278 -0.241991 0.675452
-0.100247 -0.032952 0.105091 -0.644102 0.037322 0.76395
-0.087968 0.061281 -0.103978 -0.713477 0.14314 -0.68535
0.20001 -0.482247 -0.035931 0.993973 0.059635 -0.088171
0.08144 0.730642 -0.083862 0.686398 -0.418906 -0.593565
-0.061942 0.341996 0.093095 -0.642515 -0.081722 0.759769
-0.495332 0.113818 0.008325 0.063901 -0.770486 -0.624879
0.14875 -0.164024 0.100028 0.25172 -0.265265 0.93039
-0.119522 -0.578153 0.009606 -0.908017 -0.046539 0.414585
0.089019 -0.138288 0.095905 -0.536632 -0.029895 0.843106
0.447795 0.221804 -0.09494 0.717883 -0.144799 -0.676576
0.141943 0.340321 -0.119885 0.662977 -0.173535 -0.727925
-0.04058 -0.095457 -0.110005 0.077884 -0.235504 -0.967694
0.181953 -0.516878 -0.078653 0.742753 -0.009102 -0.669075
0.054177 0.651504 -0.062794 0.448139 0.016218 -0.887553
-0.115627 0.321257 0.004277 -0.976267 -0.05645 0.208057
0.138645 -0.192974 0.095989 0.046447 -0.151054 0.986855
0.591385 0.083574 -0.002317 0.595698 0.259958 -0.758509
-0.007361 0.363752 0.10944 -0.269534 0.290938 0.917673
0.035593 0.865631 -0.038024 -0.033771 0.956978 -0.27054
0.23644 0.536152 -0.030893 0.683605 0.650673 0.321497
0.356033 0.37214 -0.116438 0.778692 0.591968 -0.198171
0.205794 -0.355094 -0.005415 0.998652 -0.006752 -0.003499
-0.070516 0.420013 0.090249 -0.367801 0.145212 0.916854
0.133436 0.311578 0.086523 0.67338 0.058596 0.733261
-0.333829 0.331595 -0.06543 -0.581526 0.764563 -0.256675
0.000288 -0.74194 -0.005278 0.546352 -0.490832 0.676771
0.639031 0.023566 0.025692 -0.384012 -0.892877 -0.199351
0.253772 0.422489 -0.011039 0.095743 -0.273158 0.950239
0.104704 0.729325 -0.012662 0.690799 -0.581231 0.309631
-0.227653 0.471404 -0.019734 -0.784717 0.616745 0.042594
-0.069542 0.471722 0.075323 -0.232766 0.351023 0.906369
0.072955 0.855932 -0.03671 0.599034 0.776913 -0.188928
-0.347699 0.217629 -0.003569 0.575372 -0.737002 0.343738
-0.475985 0.139307 -0.022372 0.235202 -0.891249 -0.386635
0.127173 0.269296 0.093832 0.5929 0.047255 0.803809
0.310384 0.434154 -0.038394 0.788629 0.251125 0.556752
0.096841 0.605385 -0.03652 0.888124 0.430645 0.137532
-0.071379 -0.77394 -0.131133 -0.500383 0.351038 -0.789879
-0.213658 0.361385 -0.089529 0.345168 -0.493161 -0.795162
-0.025543 -0.78105 0.028899 0.625055 0.5651 0.533327
0.04453 0.189078 -0.113794 -0.140965 0.085849 -0.975464
-0.027003 0.737391 -0.066216 -0.873929 -0.356149 -0.324711
-0.064612 -0.861912 -0.027233 0.028147 -0.998173 -0.050581
-0.10038 -0.574056 -0.092629 -0.523389 0.041246 -0.851077
0.01294 -0.691547 -0.071614 0.626792 0.157739 -0.761955
0.078975 -0.68272 -0.065323 -0.813823 -0.034229 -0.579861
0.17291 0.189786 0.05155 0.799141 0.079952 0.595311
0.040624 0.347475 0.113733 0.086041 0.167633 0.981741
0.19041 -0.448618 -0.062521 0.824603 0.13011 -0.54996
0.10142 0.08018 0.115105 0.436484 0.152425 0.882151
0.200978 -0.504476 -0.001391 0.951436 0.056086 0.295391
0.011827 0.846071 -0.076698 -0.282664 0.797305 -0.530299
-0.001984 0.198404 0.128432 -0.16954 0.069822 0.978631
-0.07854 0.225676 0.083967 -0.595825 0.118869 0.794187
-0.129128 0.10019 0.007689 -0.995269 -0.091249 0.02078
-0.036236 0.771411 0.002854 -0.986317 0.049228 0.147993
0.204951 -0.523248 -0.01254 0.973892 0.004512 0.208806
-0.113141 0.285743 -0.048638 -0.988723 -0.131146 -0.05836
-0.076239 0.303604 0.081802 -0.58392 0.005615 0.811393
-0.20313 0.349675 -0.006868 0.527799 -0.717949 0.452804
-0.138865 -0.450486 -0.002555 -0.993885 -0.007471 0.067317
0.429222 0.254591 -0.120797 0.414289 -0.231967 -0.877054
0.004304 0.118911 -0.127683 -0.11578 0.368319 -0.921948
0.19766 -0.695725 -0.026092 0.98275 -0.04207 -0.142526
-0.360449 0.217433 -0.063048 0.374302 -0.710968 -0.592441
-0.011797 -0.668779 0.02537 0.216417 -0.029251 0.962206
0.173069 0.43255 -0.135453 0.178545 -0.220612 -0.957826
0.018201 -0.776789 -0.059293 0.991916 -0.095832 -0.00084
0.020041 -0.504933 0.009213 0.851123 -0.065748 0.520003
-0.078555 -0.361347 -0.079929 -0.444812 -0.019547 -0.895322
-0.295359 0.26938 -0.003013 0.724107 -0.249526 0.629699
0.084504 0.682077 0.017267 0.885594 -0.420557 0.168959
0.05057 -0.329669 -0.055938 -0.823277 -0.034263 -0.565812
0.180173 -0.683957 -0.052951 0.713923 -0.236883 -0.657727
-0.038179 -0.858009 -0.056485 0.52589 -0.839464 0.112487
-0.006081 -0.831413 -0.045092 0.152184 -0.972794 0.038237
0.157207 0.361232 -0.113764 0.579169 -0.297819 -0.758537
0.198832 -0.619475 -0.015472 0.997966 -0.038455 0.0486
-0.081152 -0.432277 -0.08254 -0.414941 0.329644 -0.846643
-0.139903 0.010642 0.001086 -0.971954 -0.202091 -0.114839
0.042331 0.610066 -0.078175 0.045651 0.709194 -0.668976
0.087479 -0.484585 -0.093215 -0.59168 -0.004398 -0.804779
0.015094 -0.775188 -0.080912 0.906545 0.049572 -0.410958
-0.126469 -0.41681 0.051556 -0.924235 -0.058792 0.375468
0.130978 0.543173 0.016102 0.238688 0.676731 0.695567
0.147068 0.048175 0.101819 0.683894 0.302021 0.662967
0.329036 0.437902 -0.081517 0.794773 0.590356 0.110691
-0.409489 0.233211 -0.064364 -0.527241 -0.084752 -0.843779
0.087513 -0.314071 -0.094833 -0.44527 0.003104 -0.893117
0.161146 -0.774087 -0.088605 0.659129 0.423645 -0.619809
0.096644 -0.767095 -0.085544 -0.773935 0.230703 -0.57085
0.102587 0.327657 0.100473 0.371165 0.12708 0.919635
0.084106 0.601687 -0.075548 0.291683 0.704739 -0.644353
0.102699 0.421233 -0.146077 -0.033516 -0.016431 -0.99901
0.195856 0.131894 0.025141 0.873894 0.005307 0.483936
-0.116063 -0.675231 0.008599 -0.940305 -0.1457 0.296357
-0.083761 -0.863185 0.012891 -0.04584 -0.998667 -0.019429
-0.104719 -0.292322 -0.055818 -0.799092 0.011234 -0.600773
0.034946 0.86248 -0.053671 0.000535 0.959688 -0.277254
0.247569 0.401347 -0.134545 -0.381205 -0.239933 -0.892238
0.164535 0.239522 -0.065116 0.846787 -0.000135 -0.53081
0.14612 -0.741441 0.018591 0.307268 0.769038 0.559658
-0.13661 -0.21169 0.018692 -0.995499 -0.082653 -0.038228
0.182432 0.227216 0.01123 0.998733 0.013592 0.045834
0.103371 -0.385516 -0.100341 -0.296381 -0.048284 -0.948678
-0.035272 -0.817861 -0.147416 0.163843 -0.241645 -0.950221
-0.120488 -0.642361 0.009843 -0.962753 -0.075297 0.255999
0.071606 0.392412 -0.142508 -0.298998 0.035738 -0.952428
0.054018 0.030178 0.137115 0.034095 0.254618 0.966105
0.027576 -0.628848 -0.031393 0.997007 0.00421 -0.070395
-0.123332 -0.603033 0.001209 -0.921819 0.083871 0.37804
0.091268 0.795039 -0.083108 0.861493 0.117771 -0.492385
-0.128483 -0.114353 0.075525 -0.875045 0.006475 0.483636
0.162545 -0.83436 -0.042017 0.978052 0.035506 -0.023564
0.008006 0.588679 0.01989 -0.462826 0.122998 0.876763
-0.03377 0.771078 -0.072941 -0.947476 -0.065737 -0.294433
0.548963 0.113674 0.019949 -0.918438 -0.366243 0.12073
0.022742 0.866271 -0.005592 -0.355236 0.926607 0.106169
-0.113125 -0.533414 0.032137 -0.872795 -0.058444 0.48448
-0.101756 0.28116 0.058064 -0.859292 0.062976 0.504457
0.183026 -0.768857 0.00735 0.898125 -0.184585 0.384492
0.008349 0.403768 -0.128231 0.032793 0.011353 -0.999364
0.635473 0.047775 0.085348 0.917013 0.366717 0.15461
0.075058 0.855001 0.008948 0.654664 0.730571 0.193642
-0.084589 -0.085315 0.115167 -0.433935 0.000786 0.900535
0.064692 -0.423992 -0.068206 -0.744658 -0.000454 -0.667369
-0.024504 -0.12477 0.124881 0.14515 -0.064559 0.985524
0.096369 0.728224 0.019338 0.970929 -0.018839 0.228839
0.120745 -0.103502 -0.122927 0.138495 -0.266393 -0.952423
0.073745 0.646728 0.01625 0.833338 -0.19225 0.516018
-0.014686 0.854328 -0.007336 -0.481107 0.876075 0.02905
-0.126666 -0.703331 -0.063496 -0.964779 -0.074123 -0.243364
-0.040496 -0.862732 -0.090123 0.105726 -0.99239 0.045885
0.101034 -0.859054 -0.019393 -0.631716 -0.762231 0.126416
-0.112367 0.276159 -0.012896 -0.99894 -0.030122 0.026032
0.054535 0.5739 -0.103683 -0.045086 0.556116 -0.828369
0.120513 -0.146883 -0.111945 0.163475 -0.246978 -0.9533
-0.017634 0.464267 0.087939 -0.102112 0.38118 0.914788
0.107612 -0.79082 -0.109667 -0.416626 0.420255 -0.798947
-0.113966 -0.561954 0.024343 -0.886584 -0.117521 0.447229
0.083868 -0.182639 -0.09969 -0.380457 -0.247842 -0.890825
0.204987 -0.24194 -0.016122 0.997516 -0.046677 -0.052007
0.056345 -0.635564 -0.045916 -0.830463 -0.14478 -0.537425
-0.263363 0.339203 -0.09586 0.159742 -0.159903 -0.972905
0.167 0.04662 -0.100175 0.776523 0.22769 -0.587251
0.015257 -0.069824 -0.106982 0.012963 -0.690587 -0.721606
-0.095807 -0.542367 -0.093004 -0.426437 0.077305 -0.889433
0.03686 -0.119467 0.081196 0.641543 -0.576308 0.496313
0.048205 -0.57586 -0.040815 -0.872989 -0.044485 -0.481477
-0.045602 -0.478486 -0.095677 0.173257 0.10765 -0.977838
-0.382353 0.277326 -0.003118 -0.515067 0.566616 0.635121
0.343679 0.417861 -0.099217 0.743305 0.667701 -0.024757
0.145146 -0.851012 -0.106199 0.714917 -0.025195 -0.696436
