0.17422 -0.336684 -0.057227 0.733507 0.031213 -0.678791
0.143324 -0.276946 -0.084877 0.575721 -0.096831 -0.8118
0.129588 0.377053 -0.137431 0.41795 -0.123877 -0.89924
0.156694 -0.500653 -0.099821 0.473612 -0.002825 -0.880303
0.0855 0.637309 -0.02605 0.965766 0.194932 -0.070683
-0.095299 -0.167605 -0.074522 -0.702261 -0.113303 -0.70235
0.09634 0.142778 0.117075 0.480779 0.080241 0.873019
-0.060998 -0.224518 0.11507 -0.06139 -0.160877 0.983624
-0.229393 0.469099 -0.030339 -0.786972 0.611012 -0.07965
-0.068216 -0.459051 -0.094194 -0.143031 0.103225 -0.981181
0.062222 -0.796757 -0.002091 -0.850279 -0.485471 0.182471
-0.099191 -0.259801 -0.063374 -0.760494 -0.039402 -0.647959
-0.095544 -0.659891 -0.101335 -0.502162 -0.021293 -0.864298
-0.02505 -0.838534 -0.12385 0.855441 -0.390406 -0.257753
0.464216 0.268645 -0.060894 0.787236 0.607304 0.094527
-0.050864 0.022573 0.126026 -0.430011 0.267861 0.858622
0.171145 -0.004585 0.09144 0.696092 -0.229787 0.665351
0.204891 0.410469 -0.026502 0.828261 -0.517008 0.13539
0.27338 0.380357 -0.023419 -0.359764 -0.241381 0.901101
0.012863 -0.715786 -0.015595 0.771152 -0.05487 0.632394
0.030207 -0.115453 0.091962 0.560499 -0.54443 0.620077
-0.025287 -0.856206 -0.113501 0.793303 -0.483777 -0.198657
0.602881 0.10508 0.023467 0.898925 0.409387 -0.102156
-0.034483 0.583514 -0.010472 -0.360591 0.742205 0.558784
0.202898 0.403381 -0.073161 0.924442 -0.379451 0.019221
0.297227 0.368352 -0.138769 -0.170314 -0.408275 -0.896334
0.198654 -0.166559 0.053486 0.959569 -0.086051 0.266567
-0.109303 -0.380705 -0.057126 -0.710106 -0.026587 -0.703342
0.313052 0.422154 -0.131725 0.392226 0.536973 -0.745943
0.145073 -0.625173 -0.094311 0.339417 -0.154034 -0.926963
0.15917 -0.566656 0.042942 0.108153 -0.155259 0.978467
0.072057 -0.061067 -0.13624 -0.220575 -0.382122 -0.896626
-0.106843 0.18163 -0.050819 -0.847322 0.124383 -0.515719
0.092012 0.707312 0.029013 0.963475 -0.239416 0.092577
-0.126896 0.529208 -0.083508 -0.357518 0.599036 -0.715216
-0.473513 0.128931 0.047877 0.785675 -0.54264 0.285842
-9.7e-05 -0.557173 0.021653 0.711267 -0.134808 0.689641
-0.095308 0.024816 -0.108454 -0.756763 0.137821 -0.637845
0.033658 0.314084 -0.127477 -0.138159 0.031322 -0.988289
0.197409 0.547265 -0.009673 0.304686 0.74238 0.594848
0.019728 -0.242751 0.068658 0.958701 -0.022437 0.282739
-0.058474 -0.11245 0.122724 -0.214846 -0.028987 0.975822
0.256794 0.486218 -0.006871 0.598023 0.291471 0.743868
0.199257 -0.530225 -0.050527 0.945793 0.009206 -0.322851
0.104331 0.771608 -0.002998 0.984245 -0.04351 0.155444
-0.071443 0.231708 0.088478 -0.547548 0.068098 0.832961
0.003415 -0.310264 -0.054119 0.758894 -0.071504 -0.647007
0.049021 0.476009 -0.129355 -0.258598 0.084404 -0.959485
0.038456 0.549751 0.030704 0.062568 0.548297 0.830666
-0.112367 0.276159 -0.012896 -0.99894 -0.030122 0.026032
0.441378 0.294632 -0.090342 0.694516 0.703688 -0.12119
0.017206 -0.373186 0.043519 0.88045 -0.115043 0.443856
0.458848 0.19382 -0.05156 -0.144167 -0.966755 -0.142453
0.402217 0.230775 -0.05444 -0.602925 -0.718224 0.345021
-0.07303 -0.792574 0.040345 -0.586143 0.53448 0.602017
0.067594 -0.388093 0.034884 -0.690358 -0.328067 0.644402
-0.042093 -0.695076 -0.110292 0.349324 0.281179 -0.892732
0.160154 -0.750576 -0.073989 0.863971 0.133411 -0.480977
0.065376 -0.369622 -0.071467 -0.756235 -0.054875 -0.650145
-0.085296 -0.197818 0.112879 -0.177219 -0.060206 0.982054
-0.097186 -0.700984 0.019226 -0.306733 -0.433028 0.836474
-0.003158 0.812144 -0.104171 -0.393986 0.483966 -0.779946
-0.20313 0.349675 -0.006868 0.527799 -0.717949 0.452804
0.019313 -0.363204 0.041505 0.918856 -0.149925 0.362132
0.100287 0.025882 -0.154713 0.357487 -0.010945 -0.931863
0.173892 -0.813854 -0.055943 0.867301 -0.476296 -0.010696
0.097362 0.79988 0.012718 0.95996 0.118598 0.246079
-0.040653 -0.760051 0.013249 0.523815 0.563164 0.621507
0.165498 -0.637169 -0.081223 0.545087 -0.16913 -0.820597
0.204828 -0.248441 0.02052 0.997833 0.018374 0.060621
0.11995 0.192491 -0.106388 0.487874 -0.146277 -0.858218
0.383562 0.279621 -0.128114 -0.123433 -0.218757 -0.964271
0.140658 -0.866656 -0.026121 0.152315 -0.976582 0.150182
0.141198 0.049284 -0.125534 0.636644 0.291456 -0.713516
0.023655 -0.255601 0.056517 0.910826 -0.021457 0.411004
0.387677 0.342053 -0.090754 0.698286 0.709663 0.059406
0.193098 0.41921 0.028507 0.836803 -0.300934 0.437212
0.186246 0.068789 0.061671 0.829315 0.167586 0.532032
0.179656 -0.302228 0.07317 0.396262 -0.03383 0.917262
0.137817 0.07039 -0.122685 0.668359 0.206293 -0.714355
0.065142 -0.415798 0.017761 -0.68343 -0.336971 0.647042
-0.087874 -0.015895 0.112305 -0.555989 -0.244063 0.792047
-0.209868 0.408373 0.034409 0.020056 -0.263018 0.961679
0.041797 0.271035 0.125276 0.14797 0.171675 0.973007
-0.104633 -0.359238 -0.061214 -0.736335 0.07611 -0.672084
0.05392 -0.369217 0.028362 -0.725593 -0.276432 0.628608
0.052655 -0.35209 0.034482 -0.748573 -0.259162 0.60931
-0.092067 -0.859822 0.135281 -0.441614 -0.848325 0.246191
-0.021341 -0.848367 0.036762 0.983133 -0.069215 0.026631
0.120598 0.541763 0.021553 0.34208 0.633168 0.693707
0.073629 0.4626 -0.139624 -0.368747 0.121459 -0.919751
0.172087 0.556142 -0.011277 0.209356 0.781345 0.586935
0.135652 0.419108 0.079056 0.465135 0.112562 0.874515
0.61299 0.092285 0.035052 0.769469 0.637869 -0.017396
-0.076334 -0.828844 -0.130847 -0.78723 -0.011028 -0.615573
0.055848 0.512188 -0.127912 -0.15403 0.119909 -0.979511
0.124521 -0.546258 0.043914 -0.311449 -0.07884 0.946813
0.179927 -0.029914 -0.089083 0.823535 -0.036047 -0.565037
-0.426548 0.171791 0.031054 0.418008 0.179749 0.878226
0.189559 -0.190904 -0.063042 0.680134 -0.007418 -0.732197
-0.030297 0.780579 -0.082069 -0.863599 -0.019442 -0.503129
0.044277 -0.491607 -0.038786 -0.984792 -0.012869 -0.1694
-0.403415 0.17813 -0.013547 0.495706 -0.867727 -0.030565
-0.056436 0.407988 -0.126791 -0.226407 -0.090095 -0.969518
0.052283 -0.311484 -0.0585 -0.814982 0.005868 -0.579392
-0.064418 -0.403188 -0.081565 -0.188789 0.028245 -0.978464
0.192276 -0.503493 0.02583 0.939031 -0.020095 0.340141
0.094369 -0.611353 0.027804 -0.429321 -0.000959 0.896566
0.204699 -0.36799 -0.022703 0.983647 0.036231 -0.173226
0.102395 0.771479 -0.057785 0.942188 -0.062992 -0.320523
-0.012884 0.596466 -0.079108 -0.269242 0.723683 -0.633668
0.023355 -0.554046 -0.025443 0.90089 0.163549 -0.400135
0.174454 0.424955 0.049051 0.546658 0.070234 0.833338
-0.038844 0.8326 -0.026994 -0.790249 0.608821 -0.053915
-0.108877 -0.278323 -0.049758 -0.818596 0.00623 -0.574228
0.143602 -0.311617 -0.083173 0.578058 0.032215 -0.814937
-0.038446 0.017885 -0.140571 -0.226882 -0.48744 -0.842778
0.09479 0.74556 0.034235 0.931567 -0.12824 0.331394
-0.219831 0.481442 -0.035578 -0.762827 0.56552 -0.310749
-0.038045 -0.205951 -0.09171 0.211101 -0.069936 -0.973706
0.119684 -0.187131 0.098034 0.01774 -0.145716 0.988124
0.483978 0.179624 0.005501 -0.689339 -0.666678 0.260032
-0.020853 -0.837717 -0.046133 0.87923 -0.47338 0.006013
0.15486 -0.748417 0.026097 0.310118 0.541508 0.668946
-0.023639 0.604422 -0.030102 -0.709748 0.654473 0.243868
-0.119808 -0.781983 -0.031436 -0.99229 -0.040749 0.108652
-0.103355 0.228697 0.063594 -0.798648 0.146319 0.57816
-0.451189 0.142337 -0.002934 0.523205 -0.837692 -0.055466
0.062013 -0.209866 0.07406 -0.681164 -0.09123 0.726385
0.256744 0.384044 -0.133465 -0.458993 -0.342737 -0.816382
-0.108481 0.516157 0.051376 0.010604 0.473071 0.880828
0.151368 0.578958 -0.053284 0.585379 0.795535 0.031991
0.05498 0.191864 -0.115784 -0.239947 -0.030902 -0.960734
0.121554 0.464441 -0.145951 0.052155 0.075672 -0.995494
0.44277 0.209084 -0.030881 -0.877398 -0.320823 0.346679
-0.07854 0.225676 0.083967 -0.595825 0.118869 0.794187
-0.28546 0.401408 -0.047218 -0.553206 0.832348 -0.008509
0.310096 0.458272 -0.061946 0.755613 0.626493 0.175557
0.068225 -0.285348 0.067597 -0.687926 -0.154026 0.707397
0.045896 0.555733 0.026532 0.122467 0.396109 0.904943
-0.100648 -0.21593 -0.065169 -0.7626 -0.039639 -0.645332
0.119682 0.019611 -0.145243 0.451197 0.009135 -0.891809
-0.113008 -0.023898 0.089599 -0.764185 0.051915 0.642549
0.213477 -0.079313 0.025312 0.989417 -0.008862 0.133335
-0.035018 -0.777359 0.033075 0.410154 0.669996 0.603064
-0.030485 -0.768535 0.01298 0.531211 0.764215 0.358177
0.358496 0.295631 -0.127336 -0.310473 -0.369662 -0.871749
-0.009384 -0.458235 -0.070057 0.73056 0.115423 -0.672826
0.035175 0.303379 -0.127886 -0.138923 0.019837 -0.988518
0.30808 0.315941 -0.106588 -0.6413 -0.691102 -0.307677
-0.461362 0.138642 -0.010758 0.361243 -0.850341 -0.380699
-0.09169 -0.290847 -0.070565 -0.714029 -0.023442 -0.699574
-0.025423 0.328551 0.108373 -0.47214 0.288336 0.824376
0.029483 -0.135615 0.078529 0.821399 -0.33404 0.461287
0.190006 0.558102 -0.022829 0.285984 0.880835 0.372629
0.24666 0.487218 -0.119273 0.418803 0.486303 -0.766397
0.166923 0.202421 -0.060801 0.872951 0.022356 -0.487062
-0.10451 0.172548 0.06329 -0.803123 -0.028621 0.593739
0.198615 -0.43069 -0.039579 0.979774 0.039339 -0.191265
0.143843 0.214959 0.082831 0.72354 0.066087 0.686465
0.205697 -0.105626 -0.036562 0.915772 0.070463 -0.39408
0.094386 -0.719297 0.035544 0.250096 -0.070267 0.962375
-0.080821 -0.050756 -0.111325 -0.559532 -0.262436 -0.785366
-0.34382 0.239035 0.007724 0.260884 -0.180339 0.947852
0.136268 0.383496 -0.134931 0.491548 -0.16997 -0.848565
-0.171869 0.407182 -0.093873 0.228955 -0.167206 -0.958136
-0.018837 -0.60238 -0.085449 0.690235 -0.015479 -0.723381
0.192641 0.070872 0.049911 0.863043 0.26363 0.426289
0.308092 0.313285 -0.094802 -0.701321 -0.709917 -0.05187
-0.007604 -0.234202 -0.077519 0.628514 -0.044845 -0.77634
0.051879 0.802176 -0.114311 0.276503 0.285333 -0.915255
0.019596 -0.378637 0.035238 0.942754 -0.105017 0.316262
0.057539 -0.180614 -0.082847 -0.710007 -0.190897 -0.676452
0.161758 -0.831256 -0.001176 0.975369 0.016511 0.020836
0.308288 0.321539 -0.060071 -0.546982 -0.659123 0.513069
0.019755 0.504545 -0.123063 -0.009637 0.01777 -0.999157
0.196343 -0.196297 -0.055978 0.771711 -0.028374 -0.632629
-0.002724 0.860174 -0.016395 -0.562471 0.818318 -0.012786
-0.126443 0.398045 0.028272 -0.921388 -0.329888 0.194425
-0.444184 0.167584 -0.052436 -0.049762 -0.381064 -0.838775
0.158693 -0.697745 -0.077195 0.69859 -0.026132 -0.714485
0.138319 -0.215962 -0.096408 0.416742 -0.144921 -0.894466
0.113971 -0.485696 -0.106181 -0.211874 0.034497 -0.974156
0.160529 -0.834594 0.077272 0.81219 0.580604 0.033684
0.05046 -0.195897 -0.068398 -0.817164 -0.164239 -0.551222
0.454425 0.239659 -0.019743 -0.121768 0.46022 0.876034
-0.050385 -0.791534 -0.14683 -0.22636 0.327294 -0.904064
0.084275 0.841818 -0.043832 0.787472 0.605291 -0.11047
0.104156 -0.597945 0.030245 -0.197951 -0.040949 0.974891
-0.139533 -0.030025 0.02736 -0.969473 0.190302 0.14563
0.104689 0.589103 -0.027046 0.481712 0.751728 0.428796
-0.002188 -0.775911 -0.013078 0.769911 0.159639 0.610937
-0.03922 0.172164 0.112573 -0.53837 0.108162 0.835682
0.07762 -0.790139 0.028102 -0.706721 -0.210279 0.665855
0.17725 -0.094218 0.090061 0.682703 0.030161 0.729935
0.183069 0.255368 -0.001587 0.999881 -0.009962 0.002747
-0.125614 -0.638266 -0.013576 -0.963368 -0.178539 0.196884
0.046134 -0.351032 0.025414 -0.891148 -0.175335 0.406481
-0.258255 0.403422 0.011245 -0.617133 0.366974 0.687899
0.420735 0.274742 -0.038844 0.056223 0.456851 0.886543
-0.005224 -0.28622 0.090083 0.402572 -0.157027 0.901215
0.088351 0.745956 -0.084682 0.784096 -0.262383 -0.556819
-0.032327 -0.713579 -0.109827 0.520048 0.205082 -0.828754
0.011496 0.112936 -0.131384 -0.172312 0.40359 -0.898402
-0.250361 0.38873 -0.094348 -0.118553 0.155149 -0.979208
0.014788 -0.468871 -0.040314 0.871661 0.069059 -0.484735
0.172832 0.139186 -0.055208 0.881135 0.080633 -0.464573
0.169689 -0.533953 -0.089747 0.672269 -0.03788 -0.739226
0.047869 0.340072 0.113795 0.149905 0.169299 0.973555
0.000215 -0.1196 -0.078702 0.775518 -0.258132 -0.574775
-0.445675 0.192816 -0.043515 -0.587062 0.252682 -0.766057
-0.185942 0.524208 -0.01855 -0.699812 0.710579 -0.005411
-0.097835 -0.753075 -0.105379 -0.756828 -0.087804 -0.641558
-0.208555 0.440387 -0.085012 -0.374509 0.420017 -0.826149
0.041203 -0.194841 -0.048153 -0.940281 -0.149998 -0.304627
0.192358 0.156421 0.025606 0.872214 0.30207 0.37946
0.177591 0.323232 0.029169 0.934789 -0.05871 0.34712
0.193329 0.068252 -0.047598 0.915286 0.124026 -0.38283
-0.461615 0.186685 0.017833 -0.321054 0.716587 0.599285
-0.049267 -0.544727 -0.10172 0.19052 0.03726 -0.980101
0.105259 -0.130852 0.107205 -0.601371 -0.051816 0.796392
0.148444 0.105868 0.083305 0.586969 0.086617 0.802676
0.046246 -0.354262 -0.04596 -0.899151 -0.042731 -0.420694
0.061269 -0.580656 -0.058247 -0.743447 -0.079342 -0.66368
-0.01097 0.251426 0.118565 -0.412914 0.060526 0.90708
0.3733 0.261619 -0.052447 -0.722431 -0.541384 0.424964
-0.10273 0.102347 -0.07531 -0.789491 0.162619 -0.588893
-0.081576 -0.578662 -0.101703 -0.217514 0.053775 -0.974445
0.349053 0.376219 -0.077132 0.676021 0.679886 0.282712
-0.10638 0.043365 0.095646 -0.515046 0.191782 0.824342
-0.29804 0.368145 -0.042055 -0.739927 0.668758 -0.010611
-0.037325 0.590582 -0.028997 -0.395492 0.883628 0.197664
-0.026447 -0.481665 -0.089095 0.512944 0.116361 -0.846695
-0.125542 0.472994 -0.106097 -0.432684 0.135582 -0.890764
-0.024979 -0.826006 0.050199 0.920476 -0.194735 0.262127
0.168885 -0.678222 0.020312 0.393562 -0.265684 0.878239
-0.075172 0.25725 -0.106 -0.613933 -0.180834 -0.768074
0.087913 0.62728 -0.025569 0.962681 0.20773 0.103434
-0.01431 0.81532 -0.095631 -0.464603 0.501677 -0.722704
-0.068095 -0.230225 -0.090249 -0.303848 -0.006574 -0.948902
-0.036731 0.548301 -0.109331 -0.24615 0.492963 -0.833515
0.000853 0.6871 0.07162 -0.747654 -0.056095 0.6606
0.636407 0.052597 0.037076 0.888188 0.457099 -0.0182
-0.039085 -0.859459 -0.125159 0.145549 -0.927287 -0.331524
-0.018923 0.6825 0.013427 -0.938199 -0.323944 0.025813
-0.078555 -0.361347 -0.079929 -0.444812 -0.019547 -0.895322
0.100145 0.759655 -0.060864 0.956109 -0.127065 -0.26041
-0.135171 -0.243363 0.04088 -0.99666 -0.045704 0.058641
-0.122382 0.106553 0.04118 -0.934194 0.094971 0.342803
0.108146 -0.142349 0.108037 -0.521463 -0.145734 0.839894
0.130449 0.37303 0.085361 0.479244 0.052829 0.875832
0.198913 0.40509 -0.003333 0.958356 -0.205548 0.195025
-0.049178 -0.863475 0.019704 0.046989 -0.998038 -0.037137
-0.124822 -0.216219 -0.0239 -0.856223 -0.094473 -0.507617
-0.09084 -0.297019 0.106764 -0.108611 -0.086581 0.98901
0.451207 0.252836 -0.027966 0.03606 0.568572 0.821373
-0.019196 0.683747 0.002898 -0.958511 -0.252449 0.008585
0.37886 0.274433 -0.039543 -0.433688 -0.25222 0.857885
0.017814 -0.539447 0.006763 0.895699 -0.084451 0.433197
0.274249 0.444331 -0.010792 0.323113 0.103152 0.936899
0.026342 -0.50879 -0.004585 0.965073 -0.059319 0.206949
0.188916 0.042491 0.069412 0.771355 0.219657 0.596693
-0.118521 -0.012264 -0.074476 -0.838872 0.005136 -0.542822
0.068978 0.461322 0.082783 0.072172 0.269844 0.959972
-0.1242 0.383512 0.016535 -0.936455 -0.277008 0.213096
0.096831 -0.49293 -0.099356 -0.549511 -0.012977 -0.835271
0.166487 -0.863168 0.101955 0.219874 -0.965476 0.020195
0.069588 -0.520439 0.011247 -0.620258 -0.014992 0.784115
0.138838 0.409774 0.078169 0.533544 0.080017 0.841597
0.304521 0.381613 -0.020949 0.387528 -0.09295 0.913021
-0.135491 -0.017616 0.049456 -0.972403 0.072751 0.211495
0.131501 0.254314 -0.118354 0.688033 -0.208096 -0.694451
-0.371914 0.196911 -0.014972 0.657842 -0.751819 0.033988
-0.121659 0.142933 0.032202 -0.949171 0.060562 0.306593
-0.044118 0.139997 0.112156 -0.484085 0.014402 0.873757
-0.252054 0.417731 -0.074301 -0.530459 0.609347 -0.58619
-0.012746 -0.117006 -0.092481 0.581038 -0.298144 -0.756262
0.057003 0.410036 -0.136415 -0.290351 0.038941 -0.956081
0.132527 -0.494361 -0.107976 0.113034 0.042616 -0.992168
0.051516 0.063879 0.131446 0.135775 0.112956 0.982575
-0.448148 0.2111 -0.037337 -0.751177 0.36228 -0.529774
0.095706 -0.75897 0.016192 -0.371579 -0.211318 0.856215
0.178908 -0.795957 -0.066323 0.930742 -0.272444 -0.194834
-0.128373 0.171263 -0.001979 -0.996783 -0.002173 -0.061017
0.014003 -0.503542 -0.043785 0.845042 0.027095 -0.533429
-0.012566 0.293826 0.115102 -0.235902 0.079055 0.965736
0.08553 -0.826235 -0.06062 -0.554372 -0.829709 -0.057649
0.511478 0.217694 -0.064646 0.452981 0.304981 -0.749528
0.0575 -0.664837 0.012963 -0.63496 0.191506 0.730295
-0.106561 0.29908 0.037619 -0.972158 0.060626 0.223182
-0.099876 -0.605285 -0.094993 -0.477107 0.069707 -0.875191
0.113277 -0.253097 -0.099529 0.028468 -0.006557 -0.993649
0.233374 0.469084 0.007851 0.768857 0.003712 0.639338
0.098888 0.766493 -0.068075 0.964278 -0.035439 -0.260918
0.131801 0.121274 -0.110858 0.517145 0.27188 -0.808761
-0.041335 -0.030408 -0.132299 -0.169743 -0.214441 -0.961055
0.09745 0.131301 0.117414 0.463843 0.035276 0.884511
0.107426 0.143164 0.111822 0.50259 0.058317 0.861264
0.172394 -0.091758 -0.090931 0.782289 -0.088404 -0.616498
-0.112788 -0.193922 -0.048618 -0.832186 -0.073889 -0.548012
-0.09333 0.195916 0.076013 -0.672915 -0.003888 0.739479
-0.077085 0.393038 -0.118643 -0.331103 -0.128134 -0.93442
0.019102 -0.759073 -0.049424 0.990312 -0.111461 0.059362
-0.132076 -0.43628 0.032439 -0.917847 -0.088468 0.386655
0.027107 -0.13343 -0.051998 -0.938326 -0.25484 -0.232969
-0.015306 0.408094 -0.129589 0.032871 -0.00142 -0.99944
0.438426 0.252095 -0.114379 0.571989 -0.233926 -0.781353
0.198763 0.38142 -0.061008 0.999137 -0.040265 0.001293
0.176098 0.532903 0.011161 0.304529 0.602015 0.737063
-0.554873 0.071356 0.081939 -0.840831 0.35038 0.342611
0.120166 -0.095333 0.114376 -0.027716 -0.0441 0.994918
0.002145 0.029446 0.138855 -0.136224 0.151811 0.978373
-0.371134 0.277411 0.002874 -0.262057 0.384699 0.883951
0.033831 0.615266 0.027435 0.01878 -0.147675 0.987006
0.000515 0.417031 0.10146 0.125134 0.274379 0.953298
0.080615 -0.635101 -0.071805 -0.657036 -0.083976 -0.748582
-0.131973 0.065927 -0.001944 -0.887657 0.444513 -0.019037
0.121502 0.083891 -0.130176 0.554649 0.255915 -0.791266
-0.027226 -0.745972 0.004789 0.344197 -0.577091 0.685747
0.130064 0.580671 -0.081706 0.326317 0.845458 -0.408573
-0.31993 0.285864 -0.093888 -0.03579 -0.208142 -0.976946
0.277528 0.497071 -0.078732 0.688007 0.663955 -0.287139
-0.081391 0.364497 -0.111901 -0.474505 -0.140968 -0.868134
-0.081497 -0.829569 0.119276 -0.317714 0.928786 0.170961
0.009035 -0.108063 0.114302 0.577349 -0.294933 0.760489
0.150197 0.130817 -0.089929 0.740252 0.171106 -0.646924
0.095108 0.160294 0.116197 0.492934 0.069378 0.864288
-0.09593 0.204505 -0.061887 -0.787244 0.046291 -0.611727
0.372363 0.270267 -0.045736 -0.590696 -0.450441 0.660703
0.085816 -0.847754 -0.062864 -0.982711 0.175555 0.031151
0.11191 0.370984 0.092677 0.396441 0.089743 0.912557
0.043515 -0.404488 -0.011668 -0.989934 -0.07092 0.109865
0.26519 0.367994 -0.032878 -0.551106 -0.490982 0.673033
0.096255 -0.275775 0.082098 -0.170325 -0.131514 0.975303
0.360588 0.347423 -0.056872 0.584863 0.493449 0.640078
0.111301 0.21957 -0.12216 0.531542 -0.34568 -0.772779
0.188205 -0.269516 0.066784 0.745483 -0.013989 0.662463
0.024613 -0.323473 -0.018928 0.900165 0.016166 -0.430466
-0.031464 0.725186 -0.033388 -0.759553 -0.614166 -0.192522
0.063681 -0.528283 0.006541 -0.653869 -0.031466 0.754315
-0.042316 -0.641358 -0.100792 0.436457 0.054065 -0.897371
0.114057 -0.472138 0.046283 -0.654064 -0.06829 0.753267
0.17474 0.360451 -0.097865 0.649631 -0.434106 -0.622259
-0.144349 -0.126949 0.017596 -0.999676 -0.002378 0.017087
0.021039 0.576617 -0.099499 -0.077345 0.512312 -0.854944
-0.118593 0.56055 0.002121 -0.264314 0.877906 0.38434
0.102665 0.781156 -0.057867 0.936732 0.017461 -0.337813
-0.023349 0.480951 -0.12905 0.055422 0.101997 -0.993148
0.163937 -0.545104 0.048971 0.24762 -0.310323 0.917377
0.017579 -0.391263 0.037135 0.92786 -0.15098 0.338744
0.150573 -0.427727 -0.092233 0.468523 0.192391 -0.860808
0.028815 -0.129288 -0.062905 -0.905917 -0.275275 -0.319265
-0.131808 -0.169992 0.072286 -0.824047 0.015682 0.564347
-0.037852 0.787254 -0.034911 -0.995272 0.076332 -0.041884
0.195798 -0.427561 -0.048453 0.88768 0.099034 -0.442451
0.198119 0.361722 -0.04887 0.989983 -0.130112 -0.029321
0.205427 -0.263602 -0.001855 0.999673 -0.000341 -0.023327
-0.050322 -0.416649 0.084171 0.234333 -0.227098 0.944438
0.021601 0.398444 -0.128123 -0.035037 0.001285 -0.999041
0.098501 -0.83849 0.142 -0.864959 0.445605 0.21369
0.032002 0.658853 0.077038 -0.008532 -0.981867 0.186135
0.106697 -0.869518 0.045683 -0.11089 -0.983481 -0.047521
-0.070644 -0.55722 0.05748 0.351135 -0.175756 0.91951
0.127592 0.009017 0.121557 0.348464 0.128524 0.927355
0.261648 0.51564 -0.054184 0.718767 0.695141 0.009401
0.13956 -0.603071 0.037418 -0.153681 -0.119698 0.977809
-0.136679 -0.212934 0.029766 -0.996742 -0.075549 0.00295
0.068431 0.574254 0.014859 0.514509 0.195293 0.831477
0.163942 -0.139977 -0.08979 0.666533 -0.166442 -0.726442
0.009059 0.660783 0.061547 -0.368392 -0.919016 0.12716
0.195103 0.128707 -0.017246 0.802227 0.13853 -0.575976
-0.085049 -0.216959 0.112199 -0.19596 -0.033096 0.980036
0.164615 -0.469265 -0.093222 0.563639 0.146502 -0.811776
0.314934 0.395247 -0.143504 0.181238 0.088788 -0.971613
0.023873 0.376758 -0.127806 -0.060639 -0.033512 -0.997387
0.209257 0.46232 0.021863 0.509826 0.027054 0.856774
-0.407387 0.265002 -0.042214 -0.788872 0.609069 -0.058378
-0.341058 0.320103 -0.078429 -0.469431 0.638116 -0.609071
-0.566591 0.046936 0.042988 -0.904888 0.423623 0.033636
0.295778 0.427649 -0.135317 0.271055 0.432752 -0.856766
0.250698 0.362834 -0.080833 -0.698836 -0.715229 -0.001262
0.623176 0.07603 0.051844 0.855236 0.517364 0.020974
0.090224 0.37338 0.098251 0.186956 0.104856 0.975217
0.34513 0.39306 -0.127181 0.82681 0.016582 -0.550194
0.454213 0.21923 -0.087162 0.702749 -0.264005 -0.659736
-0.085972 0.539911 0.035171 -0.026257 0.678238 0.733913
0.078411 0.838861 0.031355 0.761476 0.377054 0.522522
-0.144279 -0.128891 0.007396 -0.999102 -0.008644 -0.037537
-0.053369 0.172128 0.103228 -0.507447 0.065257 0.858796
-0.142928 -0.037177 0.008087 -0.988292 0.136281 0.013741
-0.196386 0.513134 -0.025263 -0.757963 0.64106 -0.116397
-0.053925 -0.863128 0.126929 0.116386 -0.984905 0.09552
0.611503 0.093237 0.065321 0.761017 0.646631 0.05025
0.182247 0.453974 0.040261 0.492165 0.17948 0.851598
-0.109241 -0.037988 0.096262 -0.723658 0.052852 0.688007
0.150053 0.083106 0.088488 0.513362 0.235779 0.808046
0.121539 -0.022445 0.120385 0.353424 -0.016766 0.935193
-0.201096 0.506662 -0.007466 -0.762688 0.641995 0.076476
0.02672 -0.592714 -0.013245 0.981886 0.025299 0.16362
0.026098 -0.560258 -0.015298 0.984625 0.078342 0.140567
0.135353 -0.001265 -0.138896 0.581902 0.120732 -0.803024
-0.05506 -0.694305 -0.114148 0.130425 0.267005 -0.953686
0.177393 -0.02506 0.086485 0.691848 0.057534 0.719448
0.085263 0.24187 0.11432 0.423255 0.06979 0.901926
0.019608 -0.168392 0.078905 0.943568 -0.107895 0.308333
0.069122 0.154619 -0.121558 -0.007761 0.168618 -0.983206
0.071868 0.420493 0.091902 0.157428 0.252702 0.954353
0.478342 0.234616 -0.011375 -0.100901 0.574166 0.780195
0.085339 0.498443 0.064424 0.173374 0.483677 0.857336
-0.120509 0.336245 -0.041014 -0.99984 -0.015754 0.003086
0.117914 0.051751 -0.140965 0.514504 0.250815 -0.819704
0.061409 0.863144 0.014542 0.345132 0.927768 0.133293
0.358464 0.337014 -0.134087 0.30539 0.067993 -0.949048
-0.170935 0.50652 -0.072035 -0.580318 0.428885 -0.691191
0.056134 -0.281393 0.055047 -0.751396 -0.139817 0.644855
0.15085 0.299685 -0.100789 0.817979 -0.133997 -0.558961
-0.051707 0.581807 -0.016561 -0.204441 0.912765 0.351034
0.197608 0.113091 0.013974 0.955465 -0.236471 0.159872
0.046723 -0.606444 -0.027298 -0.98731 -0.087687 0.112606
-0.136175 -0.429834 0.016928 -0.986504 -0.012746 0.161321
-0.29938 0.277952 -0.088704 0.272182 -0.385226 -0.878734
0.127961 -0.119695 0.112126 0.148286 -0.063295 0.985909
0.199625 -0.443756 -0.031941 0.997356 0.010965 -0.066294
0.095265 -0.773733 0.028348 -0.261598 0.756113 0.574347
-0.066409 0.354197 0.092551 -0.398061 -0.099412 0.901938
0.161589 -0.622119 0.024655 0.380438 -0.097556 0.90552
0.305154 0.341375 -0.043058 -0.276044 -0.517087 0.80838
0.008323 -0.583301 -0.057522 0.782704 0.01566 -0.622062
0.211404 0.557402 -0.05475 0.46213 0.879379 -0.055536
0.129432 0.587148 -0.061741 0.487225 0.852015 -0.079911
-0.066227 0.448615 -0.129287 -0.170981 -0.066221 -0.98235
0.1984 -0.378778 0.026438 0.953043 -0.025391 0.300506
-0.124629 0.367966 -0.046409 -0.936707 -0.349896 -0.00253
-0.127759 -0.728613 -0.044148 -0.998095 -0.010014 0.030408
0.20158 -0.253791 -0.034058 0.929378 -0.120219 -0.347374
0.340063 0.41859 -0.075382 0.777015 0.569497 0.250784
0.012167 -0.685079 -0.004878 0.83994 -0.243829 0.445949
0.213605 0.50268 -0.125399 0.240963 0.390089 -0.887876
0.157039 -0.017342 0.103299 0.560718 0.09629 0.821166
-0.078516 -0.863679 0.067498 -0.05127 -0.998662 -0.00177
0.10794 0.230893 -0.129159 0.448547 -0.296672 -0.839617
-0.086957 0.399943 -0.115716 -0.386605 -0.183308 -0.90346
0.094554 0.481915 0.071119 0.198592 0.475482 0.854662
-0.056929 -0.838292 0.151701 0.559575 0.532347 0.610622
0.174728 -0.329642 0.072947 0.259515 -0.053908 0.954291
-0.128351 -0.380652 0.022534 -0.986992 0.124529 0.070221
-0.562534 0.052542 -0.004689 -0.413731 0.454019 -0.595604
-0.256815 0.347073 -0.096135 0.146999 -0.172193 -0.972188
0.122947 0.214601 0.099369 0.540687 0.036356 0.839911
0.045463 -0.280779 -0.048928 -0.834477 0.008468 -0.550543
-0.129139 -0.276409 -0.003828 -0.989102 -0.070111 -0.122026
0.076637 0.171548 -0.119019 0.136885 0.119042 -0.982369
0.203259 -0.24284 -0.033671 0.963889 -0.130984 -0.226714
-0.247685 0.343135 0.012553 0.116824 -0.372055 0.916424
-0.488095 0.103885 0.038953 0.85183 -0.520537 -0.02869
-0.107993 -0.539906 0.040799 -0.829318 -0.089276 0.551165
-0.030766 0.034679 0.130373 -0.222803 0.195754 0.953491
-0.120002 0.151332 0.037539 -0.942959 0.014967 0.330645
0.009678 0.136842 0.131089 -0.122541 0.03328 0.991762
0.213244 -0.050861 0.020002 0.991246 0.033149 0.112901
-0.108954 -0.63554 0.033472 -0.837982 -0.056941 0.542433
-0.096305 -0.285492 0.106765 -0.258062 -0.055118 0.957617
-0.050853 -0.53493 -0.101496 0.194074 0.060756 -0.978919
0.166156 0.392142 0.056056 0.690853 -0.002176 0.722689
-0.015318 0.295922 -0.131334 0.020356 0.034311 -0.999053
-0.122771 -0.093692 0.0832 -0.80807 0.034664 0.587433
0.025622 -0.469551 -0.016064 0.962789 0.037466 -0.262258
-0.495776 0.127743 -0.008297 -0.163567 -0.794389 -0.535022
-0.135282 -0.549777 -0.038049 -0.990005 -0.0662 -0.101619
0.171157 0.210616 -0.052006 0.879747 0.002715 -0.475342
-0.000482 0.274349 -0.130098 0.134136 -0.037243 -0.990095
-0.122668 -0.761625 -0.034591 -0.951295 -0.281799 0.097284
-0.002337 -0.384522 -0.054881 0.605975 0.080985 -0.791022
-0.131754 -0.211511 -0.009248 -0.907254 -0.117108 -0.40361
0.072692 0.289324 0.115807 0.420317 0.15436 0.892975
0.186431 0.452932 -0.135752 0.146803 -0.052993 -0.9877
0.120243 0.16894 0.102919 0.532804 0.024232 0.845105
0.085014 0.016148 -0.158246 0.145864 -0.129081 -0.980084
0.185822 -0.736016 -0.004812 0.091381 0.494522 0.850316
-0.094364 0.272848 0.066958 -0.70924 0.014176 0.70444
-0.087322 -0.840036 -0.114066 -0.902608 -0.018211 -0.428341
0.022247 -0.47844 0.007434 0.906344 -0.107159 0.407985
0.10549 -0.821491 0.085605 -0.360939 0.868184 0.325777
-0.199811 0.344484 -0.023579 0.638372 -0.747234 0.180427
0.108659 -0.100324 0.111923 -0.424205 -0.06179 0.901607
0.047782 -0.282073 0.043558 -0.858145 -0.04989 0.509315
-0.02583 0.289861 -0.131182 -0.11871 -0.002546 -0.991851
-0.058586 0.540566 -0.106002 -0.271178 0.435736 -0.858197
0.183017 -0.505738 0.044642 0.83269 -0.141163 0.534405
-0.003469 -0.161391 0.110783 0.594999 -0.119552 0.793224
-0.375882 0.295175 -0.065604 -0.661676 0.645294 -0.377338
-0.191922 0.481554 0.038274 -0.661489 0.212947 0.718635
0.183273 0.275173 -0.003888 0.999347 -0.019685 -0.003345
0.196085 -0.572613 0.011389 0.926483 -0.004364 0.369997
0.120948 0.172946 -0.105538 0.427271 0.078458 -0.900112
-0.127095 -0.330183 0.031238 -0.992433 -0.014556 0.121881
-0.114587 0.238633 -0.027165 -0.961523 0.246785 -0.094153
-0.038698 0.81047 -0.027433 -0.958049 -0.261381 0.070932
-0.112769 -0.689758 -0.087497 -0.658583 -0.10934 -0.74381
0.241303 0.373604 -0.060606 -0.674407 -0.713656 0.17995
0.202103 0.558668 -0.057044 0.192905 0.976074 -0.059584
-0.043525 -0.863507 0.028076 0.068329 -0.996454 -0.040943
0.186955 -0.292459 -0.045504 0.76694 -0.146547 -0.623892
-0.074328 -0.234912 0.112851 -0.103076 -0.086357 0.99045
0.078264 -0.101715 -0.118715 -0.323965 -0.388218 -0.862648
-0.055993 0.40355 0.096892 -0.247474 0.129257 0.959542
-0.095557 -0.815881 0.024738 -0.906845 0.336852 0.245075
0.0526 0.42244 0.094991 0.086872 0.275379 0.956527
-0.475985 0.139307 -0.022372 0.235202 -0.891249 -0.386635
0.330798 0.425252 -0.115352 0.586158 0.631802 -0.497422
-0.081513 0.270991 0.078218 -0.60271 0.051806 0.79617
0.196495 -0.414745 -0.04415 0.934214 -0.004866 -0.351708
0.174826 0.055275 0.082426 0.731568 0.255844 0.630226
-0.056446 -0.672157 0.024114 0.209106 -0.323142 0.922513
-0.110234 -0.670782 0.024007 -0.770591 -0.243084 0.582489
0.051503 -0.245375 -0.057963 -0.818017 -0.080255 -0.568551
-0.025274 -0.33621 -0.079694 0.587202 -0.094869 -0.801934
-0.134763 -0.163679 -0.018504 -0.908799 -0.132052 -0.385711
-0.024733 0.714114 -0.03638 -0.763712 -0.573973 -0.290802
0.071606 0.392412 -0.142508 -0.298998 0.035738 -0.952428
-0.096036 -0.039435 -0.102563 -0.668438 -0.166729 -0.724544
0.064436 -0.46795 0.005216 -0.479782 0.057316 0.875369
0.632778 0.038164 0.107831 0.1092 -0.238766 0.938053
0.261024 0.354544 -0.096019 -0.644804 -0.735024 -0.190305
0.400977 0.226017 -0.100367 -0.549359 -0.813586 -0.167101
-0.001121 -0.515604 0.031754 0.59742 -0.207978 0.774435
0.006144 -0.507912 -0.057216 0.779584 0.050507 -0.623555
-0.11441 -0.306292 -0.041825 -0.864637 0.055405 -0.498499
-0.461015 0.197278 -0.00193 -0.78315 0.609649 0.106843
0.146414 0.30097 0.07183 0.777545 0.041963 0.626947
0.17206 -0.656542 -0.071767 0.58643 -0.222459 -0.77873
0.081355 -0.660435 0.025602 -0.5744 0.287278 0.763303
-0.001705 0.222893 0.125352 -0.339399 0.151714 0.92714
0.565386 0.113125 -0.013728 0.497486 0.153378 -0.853448
0.315512 0.428793 -0.124896 0.473881 0.636208 -0.608704
0.076171 0.452221 -0.141621 -0.350849 0.038362 -0.934745
-0.031534 -0.704441 0.02363 -0.719039 0.089849 0.667766
0.195378 -0.011818 -0.056688 0.879557 0.071191 -0.469982
0.164939 -0.321272 -0.066578 0.680974 0.002575 -0.731999
0.194661 -0.51126 0.018505 0.93695 -0.019514 0.348777
-0.120206 0.329635 -0.051395 -0.997571 -0.044465 -0.047076
0.135464 -0.008349 0.114307 0.413341 -0.200896 0.885195
0.191328 0.060232 0.058163 0.795496 0.3232 0.510663
0.615776 0.055912 0.09012 -0.864769 -0.480088 0.114247
-0.046075 -0.398792 0.086925 0.218673 -0.192813 0.956481
0.139905 0.552997 -0.109441 0.269958 0.639912 -0.719025
0.110446 0.576134 -0.099027 0.206925 0.703306 -0.678239
-0.065287 -0.763418 -0.130002 -0.345396 0.298346 -0.885084
0.164431 0.296041 -0.077596 0.855233 -0.22848 -0.464879
-0.554938 0.053318 0.012419 0.803127 -0.505258 -0.290498
0.126762 0.415308 0.082864 0.326698 0.131393 0.935261
0.088699 -0.419428 -0.091383 -0.584025 0.00109 -0.808987
-0.12833 -0.10844 -0.044644 -0.846447 -0.091864 -0.523698
-0.090641 -0.682189 -0.103428 -0.583121 0.036335 -0.772726
-0.136011 0.557766 -0.028627 -0.367304 0.917158 -0.115508
0.066825 -0.379486 -0.072417 -0.740503 -0.052718 -0.66903
-0.136441 0.484481 -0.099512 -0.435573 0.181365 -0.881549
0.262986 0.379059 -0.028154 -0.393149 -0.458437 0.790044
0.035905 0.814606 -0.111504 0.06193 0.541937 -0.832514
0.098572 -0.626027 0.029771 -0.662092 -0.254514 0.700706
0.313857 0.364004 -0.034028 0.363767 -0.244914 0.882142
-0.070842 0.180345 0.094454 -0.547396 0.017319 0.833755
-0.123093 -0.272133 -0.026194 -0.851225 0.009699 -0.522685
0.080396 -0.221607 -0.089472 -0.469199 -0.09276 -0.877702
0.151333 -0.044672 -0.123574 0.685834 -0.201926 -0.698293
-0.381731 0.279198 -0.078201 -0.47518 0.466106 -0.744708
0.064321 0.847143 0.03949 0.540993 0.555921 0.630285
0.459564 0.274676 -0.083294 0.814006 0.519067 -0.234143
0.184073 -0.617837 -0.070425 0.672093 -0.082053 -0.735717
-0.027057 0.744747 0.038802 -0.969462 -0.005247 0.239333
0.111377 -0.295362 -0.099111 0.119768 -0.006221 -0.988744
-0.021341 0.694962 0.018574 -0.9555 -0.290559 0.033619
-0.1138 -0.142273 -0.058536 -0.762357 -0.170206 -0.623535
-0.060367 0.563447 0.010878 -0.120429 0.791229 0.59843
0.086325 0.789389 0.050433 0.812504 0.350177 0.458241
0.057839 -0.533687 -0.059022 -0.826633 -0.071836 -0.533645
-0.118712 -0.273675 0.088748 -0.861803 -0.046174 0.497569
0.209583 -0.14002 0.024788 0.962852 -0.217564 0.156974
0.032754 -0.064528 0.119484 -0.120824 -0.287262 0.948606
-0.029326 0.441883 -0.131117 0.05794 -0.059828 -0.996177
-0.12489 -0.339361 -0.027392 -0.928132 0.071205 -0.362065
0.482789 0.217087 -0.008672 0.484663 -0.041738 0.833768
0.33713 0.424503 -0.104119 0.726575 0.664011 -0.15582
0.25138 0.471464 -0.125764 0.310093 0.410575 -0.856422
0.129124 -0.208549 -0.101142 0.265415 -0.204753 -0.941197
0.344736 0.282668 -0.100291 -0.60862 -0.720811 -0.33029
-0.005154 -0.817071 -0.006799 0.968154 -0.019303 0.239059
-0.069323 -0.698095 -0.11434 -0.201761 0.259402 -0.942303
0.036002 0.323394 -0.127447 -0.187972 0.009077 -0.980135
0.206292 -0.223065 -0.014777 0.998072 -0.05711 -0.0216
-0.029784 0.717016 0.018558 -0.973749 -0.084131 0.175846
-0.270449 0.413677 -0.037477 -0.745779 0.665636 0.009317
0.207781 -0.170414 -0.004386 0.999918 0.003633 0.002006
0.177016 0.259265 0.036905 0.894973 0.126033 0.41797
0.044723 0.114567 -0.135539 -0.073534 0.392741 -0.916534
-0.499972 0.150706 0.04338 -0.707847 0.702792 0.060233
0.150949 -0.509884 -0.102652 0.41674 -0.015132 -0.907093
-0.019832 0.341037 0.107817 -0.430694 0.127924 0.888258
0.089285 0.694863 0.011057 0.984329 -0.157861 0.050172
0.062173 0.693027 -0.07104 0.524037 -0.530111 -0.664741
-0.06956 0.581496 -0.026676 -0.183521 0.953616 0.194616
-0.12476 -0.140589 0.08354 -0.83228 0.08102 0.548192
-0.010633 -0.44838 0.05961 0.696779 -0.204145 0.686095
-0.04698 0.522333 0.054127 -0.169503 0.591218 0.788471
0.204992 -0.059674 -0.031537 0.948481 0.021831 -0.315321
-0.556381 0.06979 0.012132 -0.901511 0.407346 -0.102231
0.051543 -0.637185 -0.003788 -0.934898 0.135331 0.322751
0.191778 -0.228692 -0.05793 0.698756 -0.088018 -0.709433
0.017297 -0.134323 -0.049491 0.811851 -0.249086 -0.522864
-0.207153 0.391191 0.026989 0.147925 -0.433098 0.886873
-0.062614 0.28782 -0.118253 -0.452918 -0.048144 -0.889987
0.157264 0.165962 0.072028 0.715994 0.053325 0.696031
-0.061033 -0.73772 -0.125323 0.006162 0.131765 -0.98994
-0.511668 0.090361 0.031258 0.551755 -0.549651 -0.624201
0.043282 -0.306856 0.025051 -0.986322 -0.019761 0.153172
0.041669 -0.256378 0.019301 -0.983808 -0.009286 0.172354
0.04814 -0.623014 -0.027999 -0.987141 -0.075098 -0.058993
0.026436 -0.313229 -0.015472 0.924334 -0.01375 -0.379701
0.014108 -0.523097 -0.045127 0.847816 0.051073 -0.527414
0.064904 -0.141395 0.079024 -0.64204 0.049847 0.764727
-0.053386 0.284179 -0.122074 -0.44468 -0.048465 -0.894102
0.153895 0.249069 -0.084074 0.861855 -0.074752 -0.499848
0.00358 -0.583586 0.014301 0.68803 -0.033817 0.723548
0.309514 0.333212 -0.046866 -0.383223 -0.532929 0.753017
-0.028271 0.600692 -0.048659 -0.692152 0.714914 -0.054774
0.00807 -0.617767 -0.06041 0.706558 0.091178 -0.701672
0.175177 -0.859614 0.077893 0.912912 -0.360451 -0.006477
-0.122325 -0.279948 0.079658 -0.944644 -0.034906 0.321521
-0.012576 0.687704 -0.038967 -0.887475 -0.32933 -0.317643
0.209472 0.547425 -0.084326 0.333878 0.78641 -0.51533
0.205794 -0.355094 -0.005415 0.998652 -0.006752 -0.003499
0.187959 -0.625408 -0.065826 0.71691 -0.093781 -0.689921
-0.035136 -0.861192 -0.0818 0.305117 -0.933631 0.14402
0.14925 0.408281 -0.134498 0.344918 -0.268537 -0.898218
0.002811 -0.644728 -0.068503 0.605668 0.112183 -0.787162
-0.002833 0.636652 0.010301 -0.815082 -0.118275 0.561693
0.009979 -0.405416 0.047009 0.859457 -0.1989 0.470835
0.134746 0.547481 -0.115904 0.264762 0.549159 -0.790755
-0.23001 0.335163 -0.000288 0.463033 -0.598129 0.653234
-0.173733 0.410767 0.027866 0.002076 -0.379772 0.923575
0.241136 0.406475 -0.016557 -0.018322 -0.52955 0.846169
0.162915 -0.154297 0.097791 0.38053 -0.110723 0.916686
-0.469487 0.156827 0.05237 0.359842 0.606355 0.705065
0.099146 -0.275161 -0.09815 -0.245781 0.031214 -0.96635
-0.128681 -0.573277 -0.015208 -0.969988 -0.083693 0.227768
-0.142431 -0.090566 -0.012523 -0.970219 0.000927 -0.232398
-0.128336 -0.290172 0.04122 -0.995067 -0.089692 0.040481
0.056867 -0.127186 -0.096879 -0.576788 -0.250615 -0.776991
0.056234 -0.344461 -0.062208 -0.7991 -0.070458 -0.597042
0.090188 0.559997 -0.11564 0.011627 0.592998 -0.803747
-0.269898 0.405645 -0.006051 -0.722749 0.522175 0.451749
0.072357 0.296105 -0.139318 -0.219096 -0.07736 -0.972175
-0.095516 -0.34516 -0.068366 -0.64088 0.076512 -0.762531
0.088088 -0.837734 0.008056 -0.99473 0.01109 -0.002273
-0.106746 -0.080658 0.100951 -0.701627 0.052627 0.710323
-0.119767 0.086666 0.052112 -0.941725 0.122569 0.309067
-0.106156 -0.813748 -0.020903 -0.899017 -0.352622 0.211938
-0.021981 0.706028 0.038705 -0.962821 -0.194174 0.179064
0.195095 -0.739669 -0.007727 0.898949 -0.134811 0.3951
0.03014 0.663198 0.090484 -0.103763 -0.735562 0.629908
-0.134964 -0.472986 0.012343 -0.929726 -0.101107 0.332172
-0.120749 -0.533795 -0.069553 -0.789591 0.109417 -0.603743
0.057818 -0.228584 0.067186 -0.702448 -0.133977 0.698447
0.124704 -0.842821 0.179914 -0.177981 0.42785 0.882407
-0.00196 -0.607409 -0.069401 0.696218 0.023893 -0.717303
0.164328 -0.825786 -0.036434 0.769667 -0.638017 0.021533
0.023756 0.562822 0.02669 -0.015908 0.10788 0.993543
0.143097 -0.078805 -0.120532 0.547935 -0.212298 -0.807477
0.437559 0.201385 -0.102188 -0.160346 -0.961642 -0.121405
0.126273 -0.77181 -0.105229 -0.042749 0.382815 -0.916925
-0.029279 0.242648 0.112038 -0.283216 0.026337 0.95856
-0.130487 0.11001 0.004701 -0.993734 -0.088571 0.023414
0.110477 0.513867 0.04899 0.295286 0.537839 0.787949
0.227688 0.470613 0.015502 0.773149 0.019479 0.633145
-0.112051 -0.614284 -0.086957 -0.61959 0.09368 -0.779187
0.024529 0.697165 -0.083343 -0.144792 -0.6167 -0.771982
-0.117495 -0.297736 -0.035573 -0.828172 0.048323 -0.558357
-0.226042 0.346522 -0.085324 0.405493 -0.605241 -0.684021
0.146644 -0.644095 -0.090638 0.425144 -0.144569 -0.893127
0.046224 -0.598881 -0.033534 -0.985628 -0.035188 -0.114923
0.010125 -0.529017 -0.053239 0.863493 0.05676 -0.501103
0.294163 0.469875 -0.040587 0.791505 0.435081 0.422577
-0.117665 0.46622 -0.111294 -0.432842 0.120914 -0.892971
-0.145242 0.519975 -0.080442 -0.45929 0.526805 -0.713157
-0.09435 -0.084265 -0.090003 -0.678341 -0.174213 -0.713309
0.019549 -0.272188 -0.036852 0.923378 -0.081699 -0.370227
-0.093492 -0.489136 -0.087216 -0.563617 0.13148 -0.814191
0.239061 0.379465 -0.114022 -0.698372 -0.575665 -0.408451
0.197047 0.153778 0.016412 0.899309 0.35084 0.239095
0.184264 0.482697 -0.135167 0.087879 0.165515 -0.981563
0.117679 0.181078 0.104175 0.483195 0.027984 0.874607
-0.144149 0.539466 0.028283 -0.291755 0.757666 0.580082
-0.10165 -0.045424 0.104314 -0.630474 0.011908 0.77593
0.115258 0.549189 0.017374 0.372563 0.661051 0.649951
0.040692 0.545759 -0.116262 -0.179124 0.42551 -0.885625
-0.13932 -0.074059 -0.021984 -0.949522 0.006457 -0.312413
-0.139095 -0.487102 -0.020757 -0.976045 -0.094073 -0.147511
0.017678 0.349007 0.113313 -0.0538 0.10134 0.992583
-0.103076 0.241691 -0.070637 -0.784695 -0.331394 -0.522266
0.095244 0.787897 -0.077095 0.891851 0.090675 -0.438964
0.423138 0.211839 -0.102999 -0.630933 -0.635819 -0.413028
-0.008795 -0.192243 -0.076865 0.612207 0.009784 -0.790541
0.198159 0.381679 -0.027946 0.997305 -0.057728 0.039368
-0.129259 0.074182 0.003355 -0.978035 0.175066 0.008372
-0.112835 -0.615622 0.026527 -0.896582 0.046691 0.439301
0.025461 -0.445099 -0.004615 0.987118 0.119622 -0.036006
0.465312 0.236595 -0.016706 -0.198618 0.489662 0.841101
0.046768 0.658442 0.062916 0.189098 -0.971361 0.143205
0.175234 -0.377251 0.069691 0.442097 -0.044337 0.887667
-0.059897 -0.425461 -0.086865 -0.110233 0.240364 -0.963107
0.12234 -0.525042 0.045441 -0.474861 -0.107836 0.872138
-0.018062 0.52538 0.057659 -0.103307 0.52316 0.844015
0.531348 0.199004 -0.057456 -0.133694 -0.566222 -0.811753
-0.187012 0.357035 -0.013634 0.523351 -0.778975 0.338778
0.070563 -0.50484 0.011802 -0.603518 0.030286 0.796613
0.017355 0.588478 -0.092071 -0.11734 0.685979 -0.711664
-0.119813 0.312754 -0.031483 -0.996402 -0.083221 0.013422
-0.281162 0.278483 -0.079516 0.532747 -0.528369 -0.659832
-0.120799 0.204104 -0.016939 -0.924994 0.12416 -0.35626
-0.130375 -0.190188 0.074637 -0.893998 -0.033296 0.44651
-0.017633 0.686698 0.039941 -0.890556 -0.348741 0.266654
-0.349815 0.216427 -0.052552 0.503597 -0.7934 -0.329446
-0.054336 -0.152413 0.122028 -0.088471 -0.021919 0.994848
-0.134549 0.475067 -0.101917 -0.42743 0.106127 -0.897424
0.187156 -0.770125 -0.021292 0.954699 -0.288836 -0.033701
0.159549 -0.835571 -0.085176 0.966756 -0.15462 -0.193224
-0.018028 0.071468 -0.137849 -0.184916 0.229166 -0.955006
0.162995 0.458816 0.052711 0.670762 0.117279 0.73133
0.389909 0.305567 -0.127946 0.306913 0.192018 -0.929427
-0.118378 -0.736205 -0.072133 -0.754081 -0.036543 -0.655239
0.184336 0.294907 -0.022068 0.970089 -0.206414 -0.11878
-0.128613 -0.633816 -0.061277 -0.99443 -0.024864 -0.09618
0.07926 0.810213 0.051988 0.798045 0.356706 0.473498
0.047091 0.156603 0.130363 0.121419 0.039586 0.991801
-0.008128 0.664463 -0.037675 -0.857202 -0.172505 -0.472681
0.239826 0.519328 -0.009713 0.658672 0.521883 0.537277
-0.079396 0.56271 -0.078869 -0.461805 0.65501 -0.597489
-0.134351 -0.093201 -0.036617 -0.897094 -0.055999 -0.429623
0.033489 0.84716 -0.080991 -0.008898 0.876464 -0.458164
-0.131966 -0.545747 -0.050268 -0.89845 0.01612 -0.43618
-0.144041 -0.144957 0.019327 -0.998974 -0.032497 0.021114
0.117577 0.147599 0.105024 0.519202 0.0308 0.854082
0.074713 0.521048 -0.129167 -0.123611 0.155985 -0.979768
-0.068117 -0.270553 0.10987 0.061306 -0.144277 0.987467
0.3683 0.257683 -0.071836 -0.729487 -0.645921 0.222735
-0.014822 0.607425 -0.062325 -0.528173 0.690712 -0.490925
0.057481 -0.702168 0.023468 -0.86767 0.199659 0.454944
-0.117825 -0.138415 0.095073 -0.771682 0.079454 0.626378
-0.262612 0.281812 -0.04911 0.723493 -0.686441 -0.050175
0.104928 0.765732 -0.020407 0.997708 -0.064139 0.018456
-0.083858 -0.863251 0.117282 -0.041848 -0.998868 0.020058
-0.047976 -0.855181 -0.134235 0.150747 -0.675462 -0.707059
0.163809 -0.02278 -0.113967 0.7604 -0.008123 -0.649078
-0.121675 0.391336 0.037026 -0.942323 -0.249056 0.218604
-0.470665 0.184667 -0.009581 -0.813212 0.57877 -0.047
-0.052899 -0.041447 0.128827 -0.191218 -0.039962 0.980489
0.032873 0.143825 0.132076 0.040466 0.035211 0.998163
0.193155 -0.116711 0.07249 0.824849 -0.01528 0.563258
0.171935 -0.546879 -0.087166 0.680985 -0.033052 -0.73154
0.033557 -0.227112 0.021813 0.866866 -0.151864 0.472105
-0.015287 0.067777 0.1297 -0.252618 0.124435 0.958787
-0.014513 -0.344134 -0.069306 0.692938 -0.074313 -0.716996
0.204827 -0.2661 -0.016074 0.994489 -0.003005 -0.100261
-0.062718 0.212104 0.096511 -0.468047 0.093793 0.878313
0.085313 0.245543 -0.137025 -0.037416 -0.128106 -0.990717
0.010857 0.054898 0.138241 0.047249 0.027029 0.994332
-0.223497 0.476273 -0.027036 -0.850436 0.518803 -0.060108
0.089895 0.696738 -0.004319 0.983011 -0.147567 0.012462
-0.075067 -0.862736 0.135236 -0.024662 -0.992777 0.108895
-0.020434 0.829861 -0.075065 -0.461061 0.748071 -0.473521
-0.134449 -0.560913 -0.03156 -0.986013 -0.107759 0.115355
0.020198 -0.157232 0.082549 0.902935 -0.157675 0.39677
-0.411777 0.255065 -0.012512 -0.72648 0.664208 0.169198
-0.189922 0.450922 -0.087072 -0.277771 0.351934 -0.893765
-0.192258 0.359796 -0.002841 0.457074 -0.721679 0.517917
-0.20336 0.366799 0.011383 0.159964 -0.558054 0.813566
0.140886 -0.471401 0.063168 -0.439769 -0.125089 0.887924
0.204207 -0.505635 -0.012075 0.975323 0.103064 0.158638
0.132903 0.056115 0.110579 0.172573 0.297355 0.935471
0.138789 0.292988 -0.115296 0.767043 -0.067358 -0.637983
0.186537 0.087521 0.054409 0.897378 0.154813 0.410269
-0.059532 0.348293 -0.121048 -0.391141 -0.032677 -0.919367
0.100412 -0.518132 -0.101283 -0.542605 -0.018504 -0.839573
-0.11483 0.565151 -0.036473 -0.368946 0.904344 -0.178251
0.035553 -0.184687 -0.04346 -0.831418 -0.244851 -0.49688
0.016451 0.569139 0.025612 -0.191304 0.091406 0.974534
-0.518337 0.082631 0.034565 0.511523 -0.709861 -0.452759
-0.169892 0.370735 -0.052413 0.675674 -0.691787 -0.25337
0.024232 -0.586147 -0.035138 0.901202 0.113259 -0.405517
-0.006961 0.447593 0.094991 -0.031949 0.303525 0.950106
-0.126166 -0.574481 -0.005665 -0.945682 -0.091032 0.307488
0.010764 0.485699 -0.124405 0.134394 0.14424 -0.977935
0.08782 -0.363187 0.06021 -0.488496 -0.312297 0.814341
0.096066 0.318567 0.103772 0.259931 0.083759 0.959441
-0.350269 0.298465 -0.002983 -0.253936 0.459581 0.848796
0.216965 0.550068 -0.072195 0.347732 0.898602 -0.260792
-0.004441 0.406861 -0.129042 0.063731 0.003419 -0.997924
0.264717 0.348954 -0.079303 -0.697528 -0.715991 -0.01646
0.170087 0.180225 -0.056519 0.867351 0.071573 -0.492401
0.053773 -0.625667 -0.044382 -0.869422 -0.114129 -0.476144
0.014595 -0.400835 0.039709 0.871076 -0.206303 0.445595
0.080542 0.71499 0.065522 0.758373 -0.003598 0.647824
0.180332 -0.762408 -0.043393 0.768948 0.342546 -0.524924
0.048334 0.536955 0.043617 4.6e-05 0.744075 0.66695
-0.001928 0.571113 -0.101203 -0.048606 0.537693 -0.841726
-0.071009 -0.824686 0.093252 -0.154301 0.983191 0.09649
-0.079861 0.51272 -0.113646 -0.286526 0.399056 -0.870316
0.172394 0.39737 0.050518 0.676487 -0.054036 0.73403
-0.101967 -0.853056 0.119865 -0.918517 -0.066679 0.36564
0.18106 0.276257 -0.027675 0.969226 -0.056953 -0.231783
0.142184 0.438433 0.072822 0.436839 0.135284 0.888043
-0.029485 -0.548735 -0.094997 0.407386 -0.006614 -0.912984
0.623369 0.075375 0.028943 0.864786 0.497516 -0.06522
0.297869 0.472524 -0.084687 0.716083 0.646319 -0.258803
0.139871 0.38986 0.078877 0.512287 0.041673 0.857754
0.610394 0.085226 0.084968 0.00689 0.486454 0.82993
0.094632 -0.50584 -0.097446 -0.557181 -0.020469 -0.83006
0.018239 0.585883 0.024282 -0.318529 0.10577 0.937138
-0.015869 -0.832201 -0.038718 0.36645 -0.917459 0.005968
-0.01193 0.511654 -0.123504 -0.004694 0.225452 -0.973904
0.301251 0.465465 -0.093753 0.677076 0.654447 -0.336287
-0.090921 -0.577417 0.059343 -0.30966 -0.133919 0.892452
0.101006 0.402463 -0.145917 0.006957 0.001789 -0.999736
0.164677 -0.284721 0.078131 0.300065 -0.098693 0.94856
0.07148 0.751016 0.068499 0.416352 0.125829 0.89404
-0.021867 0.145894 0.121992 -0.389085 0.019101 0.92055
0.377705 0.343566 -0.069895 0.620147 0.653406 0.432404
0.019887 0.105218 0.135106 -0.015516 0.150608 0.987097
0.156749 0.007125 0.107675 0.520913 -0.032808 0.8483
0.368229 0.350862 -0.067789 0.617669 0.629427 0.467487
-0.128082 -0.228033 0.07548 -0.916418 -0.066631 0.392477
-0.123021 -0.007523 -0.066577 -0.864635 0.02665 -0.501511
0.373634 0.249463 -0.078363 -0.72866 -0.678831 0.084382
0.168512 -0.041192 -0.105239 0.807433 -0.129454 -0.575429
0.066529 -0.809737 -0.014467 -0.9626 -0.248474 0.056507
0.122292 -0.868467 0.132346 -0.042068 -0.992088 0.115506
0.100347 0.282043 -0.139034 0.176955 -0.037069 -0.98282
0.018267 -0.568591 -0.041929 0.862133 0.075722 -0.491769
0.175943 -0.562823 0.038339 0.494342 -0.196711 0.843695
-0.084813 -0.728067 0.009121 -0.436681 -0.182402 0.846775
0.142861 -0.456452 -0.101676 0.334015 0.138053 -0.932288
0.210001 0.555527 -0.065122 0.519425 0.774625 -0.339473
0.18169 -0.396209 -0.064417 0.704646 0.106758 -0.700221
0.198179 0.07008 0.03493 0.952187 0.232672 0.187377
0.169945 -0.854025 0.127715 0.895115 0.176381 0.185734
-0.113298 -0.542239 -0.079531 -0.685894 0.122395 -0.716957
0.213855 -0.119888 0.017284 0.99288 -0.062204 0.089878
0.213022 -0.019659 0.016302 0.990873 0.087607 0.078716
0.020416 -0.712162 -0.063151 0.924934 0.008383 -0.377135
0.17572 0.367015 0.041821 0.81213 -0.140142 0.565734
-0.038179 -0.858009 -0.056485 0.52589 -0.839464 0.112487
0.073172 0.722188 -0.086836 0.574853 -0.494224 -0.646859
