0.026102 -0.042500 -0.129805 -0.896853 -3.215829 -5.240603 
0.026182 -0.162171 0.064080 5.750254 -1.383101 2.003023 
-0.050734 -0.430543 0.081186 1.175560 -1.281521 6.035421 
-0.013203 -0.133813 -0.087645 3.846414 -1.489381 -4.736436 
0.174715 -0.303486 0.073834 1.657944 -0.318646 5.938803 
0.237174 0.535069 -0.029733 4.284397 3.983318 1.989490 
-0.017070 -0.665193 0.025528 -0.147204 0.181961 6.255411 
-0.102939 -0.519244 -0.085563 -4.217928 0.696973 -4.600776 
-0.030724 0.343722 0.104846 -0.749018 -0.381736 6.203718 
-0.085061 0.571456 -0.007777 -1.412719 5.278416 2.864325 
0.059469 0.829621 -0.093636 1.777649 4.576038 -3.763037 
0.162432 -0.309279 -0.068730 4.064691 -0.041247 -4.785077 
-0.098013 0.470037 0.064521 -1.636150 0.659250 5.997498 
-0.455995 0.176949 0.028961 0.102026 4.658538 4.166118 
-0.090014 -0.062197 -0.100892 -4.039414 -1.380329 -4.608551 
0.198550 -0.574658 0.002839 6.073219 -0.155591 1.552399 
-0.087249 0.356915 -0.106828 -3.514961 -0.941399 -5.081078 
-0.086116 -0.863300 0.056263 -0.158036 -6.279037 -0.006322 
0.001442 -0.748316 -0.094640 4.653120 0.787341 -4.136557 
-0.146978 0.405970 0.018610 3.168825 -4.508694 2.875532 
0.000462 -0.254495 0.094091 3.242289 -1.227816 5.222332 
0.064487 -0.781951 -0.037187 -5.808915 0.569571 -2.312886 
0.534667 0.137352 -0.021789 -2.248007 -3.912097 -2.428181 
0.107117 -0.870471 -0.078967 -0.353429 -6.206454 0.051496 
-0.075443 0.264334 0.083175 -3.673499 0.462041 5.075537 
-0.127819 -0.551540 -0.062153 -5.702964 0.470293 -2.478762 
-0.075002 -0.172370 -0.090581 -3.155484 -1.124634 -5.257864 
0.170954 -0.178393 0.090943 2.482642 -0.719342 5.717839 
-0.096280 -0.829221 0.062901 -4.484661 4.357677 0.583947 
-0.041785 -0.853468 -0.134283 1.639013 -4.130377 -4.194511 
-0.043623 -0.143909 -0.099825 1.349608 -1.547732 -5.212623 
0.159755 -0.563383 -0.095674 3.227221 -0.343609 -5.374395 
-0.156244 0.381348 -0.014141 4.157237 -4.470606 1.276382 
-0.111319 -0.576548 0.027799 -5.651759 -0.175194 2.718268 
-0.392674 0.218238 -0.069131 -1.680038 -1.709122 -5.758560 
-0.080203 0.163085 -0.082016 -3.629849 1.062695 -4.979511 
0.027164 -0.159530 0.063102 5.725568 -1.579267 1.956792 
-0.070055 -0.801036 0.053094 -2.161754 4.931886 2.857245 
0.020164 0.642267 -0.062408 -2.400018 0.967744 -5.648299 
0.081974 0.697068 0.060733 5.456252 -0.946519 2.853267 
0.040767 -0.120729 -0.088356 -3.724514 -2.357898 -4.309314 
-0.005698 0.857723 -0.022637 -3.411590 5.199924 -0.290525 
0.089731 0.826773 0.010303 6.023447 1.416594 0.743109 
-0.049985 0.434664 -0.129972 -0.582588 -0.660268 -6.217837 
-0.015694 0.589886 -0.085164 -1.429021 4.299310 -4.326606 
0.150719 -0.866713 -0.054406 3.461404 -5.233756 0.290551 
0.197192 -0.539776 0.008045 5.958625 -0.304819 1.966859 
-0.458583 0.197458 -0.026654 -5.048139 2.704061 -2.114308 
-0.138160 0.001819 0.008024 -6.126034 -0.814771 -0.168181 
-0.037057 0.791716 -0.019222 -6.249974 0.301920 0.498288 
0.108335 -0.847142 -0.114429 -3.144087 0.297000 -5.362796 
0.187985 0.373200 0.020721 5.734298 -1.103106 2.301578 
-0.135196 -0.246115 0.016815 -6.259318 -0.383205 -0.315264 
-0.564780 0.034116 0.019552 5.261850 -3.329104 0.005905 
0.160707 -0.242190 -0.079183 3.223867 -0.855752 -5.323191 
-0.138610 0.003001 0.014849 -6.071939 -1.102719 -0.092637 
0.208742 0.450678 0.022441 3.718602 0.023333 4.990674 
0.125510 -0.614850 0.036159 -0.322008 0.924649 6.156304 
-0.108169 -0.339960 -0.054636 -4.754490 0.524174 -4.070007 
0.001996 0.450680 -0.128024 0.780318 0.102056 -6.227989 
0.034991 0.797687 -0.118484 0.113595 1.952232 -5.819718 
-0.005737 0.856512 -0.033205 -3.125575 5.318635 -0.888302 
0.082918 0.449605 -0.143718 -1.458573 0.083989 -6.077771 
0.019225 -0.442265 0.019269 5.787592 0.060169 2.347252 
0.166574 -0.847790 0.129498 5.473925 2.840586 0.897234 
0.042438 0.660187 0.080011 0.797629 -6.033068 1.322369 
-0.081565 0.576845 -0.045188 -3.154776 5.121250 -1.067334 
0.036135 0.539809 -0.118273 -0.806604 2.286448 -5.758405 
0.029866 -0.233090 -0.032712 -2.575756 -0.899661 -5.636006 
0.429866 0.300813 -0.068654 3.326459 4.949408 1.899388 
0.130852 0.251974 0.092147 3.931488 0.279413 4.883080 
-0.043226 -0.603243 0.033147 2.691389 -1.170755 5.549684 
-0.252468 0.296529 -0.026251 4.411993 -4.207599 1.472503 
0.054031 0.538871 0.041616 -0.161479 4.633513 4.231327 
-0.207169 0.397799 0.030049 1.048706 -2.932184 5.354106 
0.104614 0.582818 -0.017860 2.380807 4.552661 3.460132 
0.172411 -0.352512 0.071969 1.425635 -0.378376 6.047357 
-0.090264 -0.205265 -0.076653 -4.369329 -0.166631 -4.509690 
-0.118057 -0.040233 0.086493 -4.765997 0.565002 4.033517 
0.006758 0.641099 0.024363 -4.335979 -1.504820 4.192866 
0.487138 0.204729 -0.063743 0.280313 -3.068497 -5.436552 
0.087361 -0.842223 0.056830 -5.922089 1.984279 0.141485 
0.012155 -0.675308 0.001019 5.113727 -1.730390 3.176705 
-0.083931 0.147037 -0.084072 -3.781613 1.443347 -4.792436 
-0.163048 0.542584 -0.032072 -3.756131 4.814706 -1.179807 
-0.194488 0.351080 -0.060268 4.062109 -4.441241 -1.683015 
-0.010786 0.183199 0.127268 -2.045687 0.185295 5.826713 
-0.102811 0.307115 0.045366 -5.555750 1.128584 2.663308 
-0.246886 0.404034 0.018943 -3.285624 1.305670 5.152591 
0.194819 -0.370599 0.038485 5.903845 -0.397021 2.109117 
-0.004479 -0.677562 -0.079404 3.229861 1.322424 -5.202690 
-0.113791 -0.520498 0.032330 -5.390646 -0.426936 3.150302 
-0.054956 -0.374545 0.093747 1.689512 -1.855728 5.737206 
-0.023515 -0.688813 -0.097459 3.484564 1.468623 -5.006050 
0.555918 0.105331 0.040404 -5.197543 -2.428721 2.346189 
-0.117051 0.128128 -0.044573 -5.351604 0.463219 -3.238197 
-0.018669 0.006255 0.138804 -1.266137 1.597357 5.854774 
0.191315 -0.753820 -0.009393 5.994449 -1.723137 0.457142 
-0.038718 -0.448293 0.074109 1.292396 -1.391700 5.980473 
0.198173 -0.274021 0.049340 5.749905 -0.405991 2.431080 
-0.274108 0.369661 0.010862 -4.185907 0.508437 4.523023 
-0.114026 0.312281 0.009899 -6.110337 -0.393778 1.380073 
0.000872 0.584635 -0.092536 -0.587030 3.726928 -5.007686 
0.071037 -0.430277 0.016047 -4.372404 -2.073955 3.998265 
-0.001100 -0.756845 -0.015549 2.749582 -2.349036 5.087844 
0.057051 0.388178 -0.137024 -1.996118 0.098127 -5.946765 
0.124059 -0.029539 0.119208 2.218079 -0.304604 5.857550 
0.134693 -0.863101 0.167695 0.190238 -6.139763 1.243791 
0.124043 0.300883 -0.129477 3.659813 -0.280515 -5.098736 
-0.109881 -0.841346 0.049339 -4.720032 3.969233 0.180755 
-0.128288 -0.320307 -0.000923 -6.281180 -0.037888 -0.106643 
0.107367 -0.243535 0.088277 -0.217014 -0.828204 6.207482 
-0.375488 0.194869 -0.006597 3.527431 -4.797159 0.979896 
-0.126258 -0.428779 -0.038308 -5.161511 1.509083 -3.216311 
0.103085 0.351535 0.097706 1.711779 0.617982 6.001330 
0.018452 0.852753 0.046686 -1.649733 4.412671 4.072658 
0.019268 0.429557 -0.127015 -0.069599 0.296028 -6.257675 
0.026523 -0.653581 -0.042939 6.122736 0.208790 -1.043113 
0.187887 -0.194501 0.078425 4.988304 -0.459536 3.651874 
-0.087443 -0.404849 -0.072206 -3.412679 -0.140533 -5.257879 
-0.103419 0.223260 0.064560 -4.881784 0.776578 3.786752 
0.140147 0.269640 0.081888 4.606854 0.365669 4.253251 
-0.129549 0.004598 -0.049184 -5.868635 0.488983 -2.155226 
-0.091418 -0.517364 -0.092223 -3.222878 0.695103 -5.344943 
-0.009315 0.718853 -0.081099 -4.006075 -3.467542 -3.312721 
0.141371 -0.272671 -0.086751 3.537147 -0.611571 -5.154459 
-0.057687 -0.172509 0.121918 -1.126791 -0.083555 6.129495 
0.019627 -0.460873 -0.029158 5.800018 0.288505 -2.341262 
0.186663 0.562554 -0.069476 3.139219 4.604260 -2.690481 
0.207727 -0.181804 -0.001771 6.280989 -0.018619 0.071693 
-0.034880 -0.857854 -0.006211 3.385151 -5.167912 -0.999061 
0.214988 0.543175 -0.086751 2.127156 4.778799 -3.463204 
0.205809 -0.538149 -0.017724 6.155628 -0.143139 0.763328 
-0.036157 0.813921 -0.061373 -6.027692 -0.049239 -1.402196 
-0.074074 -0.002658 0.126210 -2.909378 0.841408 4.850533 
0.077532 0.780642 -0.101889 4.161209 0.236351 -4.638856 
0.001794 0.283670 -0.129978 0.873600 -0.045443 -6.220689 
0.028676 -0.298160 -0.011608 5.777086 -0.590966 -1.775378 
-0.115804 -0.362747 0.083303 -5.116292 -0.169987 3.610827 
-0.015110 -0.263856 -0.081167 3.826670 -0.454759 -4.957988 
0.074427 -0.449601 0.012116 -4.012504 -0.842563 4.632850 
0.144099 -0.403828 -0.092484 3.209022 0.510832 -5.374513 
0.124437 0.111656 0.103091 2.971542 0.696747 5.461125 
0.089622 0.019988 0.130463 1.595478 1.453625 5.775395 
-0.213595 0.447793 0.032503 -3.843608 1.548188 4.703127 
-0.044023 -0.862476 -0.081759 0.655785 -6.181931 0.491170 
0.101557 0.057837 0.119109 2.444304 0.864434 5.653712 
0.041249 0.490796 0.073200 0.671047 3.106814 5.386825 
0.125245 -0.419985 0.064730 -1.927441 -0.938668 5.894703 
-0.035398 0.404239 -0.129390 -0.401417 -0.154714 -6.261027 
-0.043684 -0.856927 0.134449 4.176730 -2.927124 2.656721 
0.116430 0.588192 -0.036027 2.277425 5.389156 2.024670 
0.161108 -0.207320 -0.083825 3.689470 -0.845100 -5.011331 
0.123184 0.304170 0.094172 3.594827 0.508602 5.091819 
-0.075074 -0.686961 0.023726 2.135851 -2.298680 5.436432 
0.039381 -0.369211 -0.012570 -6.041763 -1.070016 1.318086 
0.011912 0.648482 -0.058723 -2.690496 0.246559 -5.583117 
-0.126675 -0.394095 -0.031568 -5.746635 0.107175 -2.486929 
0.199794 -0.144359 0.057520 5.685167 -0.592926 2.580556 
0.466275 0.188792 -0.030760 -3.252823 -5.293419 -0.024391 
0.092099 -0.476270 0.027205 -4.037196 0.260356 4.803654 
0.134678 0.465515 -0.144815 0.624374 0.394212 -6.237557 
0.107551 -0.474345 0.040429 -4.119164 -0.307816 4.732861 
-0.268951 0.283202 -0.017827 4.003413 -4.116408 2.489201 
0.113757 -0.869826 0.086437 0.096232 -6.279954 0.062213 
0.203871 -0.349613 0.015095 6.109100 -0.694807 1.233608 
-0.091176 0.559922 0.011028 -0.579710 5.023185 3.714563 
-0.050458 -0.112251 0.124798 -1.638455 -0.235598 6.053190 
-0.031253 -0.863304 0.064212 1.964635 -5.749195 0.036133 
0.013082 -0.302168 -0.043422 4.943373 -0.493033 -3.838645 
-0.527876 0.112503 0.068501 -5.233253 3.447227 0.350181 
0.127827 0.343677 0.088169 2.785305 0.211066 5.616866 
0.231711 0.421904 -0.005101 0.381149 -4.296694 4.373310 
-0.066107 0.266135 0.088930 -3.181706 0.336886 5.392995 
0.000023 0.402605 -0.128745 0.422743 0.040316 -6.268569 
0.010433 -0.103393 0.115265 3.688989 -1.739320 4.748889 
-0.044524 -0.600903 0.034273 2.691407 -1.290167 5.525725 
-0.098583 -0.232208 -0.066532 -4.829099 -0.318456 -3.989349 
-0.354503 0.312557 -0.022028 -3.503957 4.017896 1.366414 
0.024408 0.003877 -0.147871 -1.391019 -1.668530 -5.863916 
0.018817 -0.498809 -0.034110 5.621471 0.141698 -2.716864 
0.054591 -0.119374 0.061974 -0.026558 1.168434 3.263196 
0.082450 0.653987 -0.001496 6.147391 -0.422505 1.165270 
0.051260 -0.318260 0.042956 -4.466465 -0.660450 4.124233 
-0.082442 0.281852 -0.103409 -4.169430 -0.371268 -4.676936 
0.165058 -0.655216 0.026485 2.205899 -0.302913 5.764896 
0.148516 -0.553112 0.047502 -0.100072 -1.157832 6.083462 
0.199080 -0.533471 0.003174 5.922241 -0.251056 2.066731 
-0.143808 -0.061828 0.002633 -6.268976 0.174349 -0.249043 
0.260270 0.405527 -0.139275 -1.349085 -0.769260 -5.146435 
0.053437 -0.581271 -0.006951 -5.344639 -0.655346 3.182712 
0.207512 -0.198073 -0.008192 6.273865 -0.272665 -0.033091 
0.093911 0.755296 -0.079605 5.243314 -1.058902 -2.959910 
-0.520559 0.080798 0.034811 2.913209 -4.470932 -2.964323 
0.342324 0.353432 -0.047006 3.038787 2.176191 5.029843 
0.077382 0.681101 0.060959 5.284907 -2.599278 2.099872 
-0.088493 -0.683192 0.028853 0.053730 -2.341570 5.647045 
-0.133303 -0.530231 -0.006828 -5.602077 -1.132480 2.498551 
0.010871 -0.390803 -0.043322 4.831043 0.371694 -3.980043 
0.049537 0.692771 0.087899 2.212093 -0.286621 5.712801 
0.163638 0.573096 -0.068024 2.208436 5.350195 -1.447272 
-0.211587 0.451473 -0.076710 -2.914811 3.360815 -4.425130 
-0.005080 -0.602833 -0.072424 4.409118 0.039000 -4.474028 
-0.501276 0.091647 0.046743 3.507449 -5.102476 -0.471110 
-0.072976 0.437161 -0.126693 -1.497179 -0.930453 -6.012217 
-0.042358 0.586805 -0.074785 -2.661776 4.663533 -2.699592 
0.054518 -0.157298 0.071601 -4.260409 0.242392 4.590249 
0.191491 -0.298965 0.059726 5.641138 -0.536891 2.663958 
-0.045970 -0.052725 0.129005 -0.894795 -0.444534 6.197718 
0.194040 0.551426 -0.013906 1.861256 4.823881 3.546171 
0.091212 -0.861906 0.132527 -4.123309 -3.633963 1.194403 
0.126984 0.304565 -0.127550 3.718393 -0.292505 -5.053571 
0.047956 -0.465583 -0.049381 -5.325024 0.090110 -3.316699 
-0.104399 0.042658 -0.090952 -5.124089 1.230662 -3.367714 
0.128725 -0.747710 0.029958 -0.394406 0.966137 5.010650 
0.187437 0.164470 -0.025531 5.463145 0.840699 -2.876478 
-0.100602 -0.592798 0.052551 -3.968686 -0.406872 4.482751 
0.190097 -0.584161 0.019736 4.684729 -0.772458 4.051529 
-0.241795 0.311109 -0.060451 4.559003 -3.896321 -1.742418 
0.185302 -0.312521 0.067211 4.749077 -0.345068 4.070395 
-0.019351 0.696243 -0.030298 -5.976811 -1.519364 -0.977362 
-0.098039 0.067398 0.092861 -2.755168 1.858779 5.288919 
0.161977 0.419228 0.058722 4.307436 0.493101 4.496090 
0.153415 0.109187 0.080670 2.867029 0.651712 5.425620 
-0.102632 0.134580 -0.069092 -5.211019 0.844097 -3.377864 
0.545639 0.119569 0.012230 -5.459602 -3.000974 0.478399 
-0.143445 -0.152102 0.006510 -6.213738 -0.418890 -0.671205 
-0.021438 0.605924 -0.028476 -4.939663 2.958920 1.406524 
0.190749 -0.527182 0.026991 5.679471 -0.364285 2.622342 
0.184601 -0.672794 0.012810 3.972182 -0.938419 4.633583 
0.102264 0.079529 -0.143046 2.582510 1.501138 -5.435622 
-0.375348 0.196304 -0.002832 3.840429 -4.421603 1.790307 
-0.030244 0.712562 0.006908 -5.766395 -2.179614 0.112854 
0.079180 -0.222028 0.084078 -2.966397 -0.881188 5.450400 
-0.070870 -0.171867 -0.093552 -3.196638 -1.278181 -5.217100 
-0.070832 -0.615288 0.043823 2.793569 -1.230828 5.477386 
-0.079023 0.293474 -0.107067 -3.859386 -0.367231 -4.822831 
-0.040097 0.532605 0.048952 -1.193143 3.550466 5.036817 
-0.023634 -0.673722 0.025760 -0.829985 0.164481 6.132316 
0.175359 0.398780 -0.120705 1.792673 -2.816980 -5.302235 
0.116194 0.352040 0.092428 2.628869 0.555908 5.648030 
0.036465 0.383648 -0.129700 -1.485189 -0.075426 -6.047000 
-0.449326 0.188693 -0.042188 -3.618982 2.004615 -4.686069 
0.489343 0.182952 -0.052329 -0.472069 -3.050055 -5.437085 
-0.067370 0.542108 -0.102369 -1.933378 3.206365 -5.022979 
-0.201709 0.348215 -0.064970 3.386702 -4.713210 -2.310752 
0.005556 -0.231855 -0.064169 4.579225 -0.392878 -4.277504 
0.021261 -0.063097 -0.113340 -0.957006 -3.972688 -4.534374 
0.155856 -0.861560 -0.081195 3.712765 -4.775554 -1.045151 
0.205022 -0.295406 0.023353 6.171356 -0.138229 1.013299 
0.148953 0.502495 0.041777 2.024729 3.265886 4.935100 
0.068858 -0.809993 0.001685 -5.876318 -1.490666 1.528988 
0.167261 0.375471 0.054651 4.759063 -0.260852 4.083164 
-0.091079 -0.014064 -0.111955 -4.172660 -0.679066 -4.621362 
0.104125 0.105979 0.115278 3.164612 0.352292 5.338743 
0.414569 0.216732 -0.068533 -3.855294 -4.879283 0.712570 
0.149524 -0.845105 -0.100886 5.028840 -0.720848 -3.566278 
0.201548 -0.189791 0.038438 5.948424 -0.086817 2.006417 
0.593684 0.081887 -0.001207 3.771977 1.619776 -4.705690 
0.055267 -0.416269 -0.057604 -4.782227 -0.107930 -4.072689 
0.077605 0.675400 0.040257 4.933492 -3.854572 0.451221 
0.087963 -0.642125 -0.078122 -4.014935 -0.306383 -4.821026 
-0.001960 0.354627 -0.128279 0.553719 -0.092548 -6.255114 
0.008021 0.696661 0.080106 -3.946816 0.547671 4.795912 
0.166037 0.425033 0.054326 3.523340 0.716531 5.117499 
0.045325 -0.532922 -0.019234 -5.855396 0.069695 1.787697 
-0.145282 0.392654 -0.024271 4.775408 -4.005539 0.248915 
-0.106189 0.258863 0.043795 -6.115534 0.509671 1.311568 
0.105128 -0.766356 0.021221 -1.665515 3.833791 4.245120 
0.017080 0.510346 -0.122953 0.055919 0.394836 -6.255835 
0.026044 -0.462298 -0.001151 6.197599 0.017809 0.674299 
-0.102353 0.396444 -0.108799 -3.222498 -1.525157 -5.149429 
0.194683 0.099560 -0.022579 6.091023 0.519032 -1.205239 
-0.112283 0.234207 0.039649 -5.926609 1.459579 1.411888 
0.121746 0.472025 -0.145302 0.277257 0.620990 -6.238399 
-0.078782 0.101268 0.096704 -3.443545 1.040688 4.951843 
0.200051 -0.329312 -0.023352 5.552185 0.455828 -2.886591 
-0.054696 -0.015449 0.128646 -1.620033 -2.572517 5.185224 
0.199671 0.484516 -0.133265 1.053694 1.278878 -6.020313 
0.159619 -0.696730 0.015592 2.049047 -3.349668 4.894033 
0.044948 -0.398264 -0.042977 -5.901874 -0.006046 -1.904294 
-0.056249 0.365271 0.099663 -3.166186 -0.137722 5.396033 
-0.091997 0.193964 -0.067909 -4.788362 0.524181 -4.029391 
-0.141009 -0.165240 0.000773 -5.945914 -1.006404 -1.659729 
0.068729 0.154992 -0.121474 -0.059285 0.995384 -6.170265 
0.142153 -0.865151 -0.002039 1.161712 -6.147625 -0.336213 
0.074393 0.837807 0.037151 4.460805 2.471726 3.588893 
0.026248 -0.614010 -0.037067 5.906168 0.433848 -1.734012 
-0.162561 0.541747 -0.036145 -3.564491 4.784733 -1.585233 
-0.110017 -0.807345 -0.082488 -5.613069 -1.926763 -1.473307 
0.139939 -0.000852 0.115589 2.711891 -1.447186 5.368849 
-0.076266 -0.437362 -0.086629 -2.228641 2.110549 -5.343434 
0.152346 -0.854865 0.174662 3.457302 -0.895934 3.894392 
0.055259 0.156963 -0.120678 -0.484926 0.415253 -6.244115 
0.070218 -0.391039 0.036202 -4.300651 -2.056306 4.091026 
-0.015289 -0.625943 0.022089 0.019579 0.220158 6.260517 
0.188067 -0.643050 -0.062438 4.526458 -1.071763 -4.198296 
-0.007053 -0.336923 0.082071 3.773232 -0.346910 4.975513 
-0.099160 0.311242 0.051208 -5.531392 0.937192 2.803434 
-0.266389 0.284435 -0.067413 4.403545 -3.586113 -2.667071 
-0.379795 0.240055 -0.078538 -0.937650 -1.792865 -5.902963 
0.023926 0.176873 0.130652 0.017417 0.196762 6.275993 
-0.292087 0.264558 -0.076925 3.211074 -3.652783 -3.921295 
0.089779 -0.853102 -0.092470 -5.938435 -0.097395 -1.507784 
-0.127160 -0.148005 -0.037877 -5.259690 -0.887935 -3.253277 
0.137317 -0.793525 -0.113907 1.754310 2.032087 -5.542342 
-0.107015 0.310049 0.033346 -5.982618 0.309121 1.870301 
0.110480 0.037273 -0.149115 3.117737 1.069000 -5.309793 
-0.067615 -0.820341 -0.139124 -3.613184 0.218808 -5.085161 
0.004249 -0.728978 -0.004376 4.836051 -0.483217 3.876565 
0.038103 0.870499 -0.012963 -0.274097 6.228181 -0.025782 
-0.031140 -0.863261 0.065894 2.022819 -5.704520 0.057203 
-0.127806 -0.191325 0.079887 -5.474371 -0.082697 3.030783 
0.186115 -0.248853 0.069508 4.219392 -0.233231 4.625940 
0.198220 -0.060392 0.063182 5.422968 0.394764 3.110367 
-0.111754 0.162453 -0.045684 -5.556003 0.777299 -2.797216 
0.059566 -0.666837 0.014544 -3.531400 1.241120 4.707123 
-0.012750 0.704529 -0.059382 -4.440422 -2.838490 -2.377162 
-0.104412 -0.859119 0.017797 -4.284550 -4.562854 -0.492359 
0.181409 -0.101217 -0.077843 5.021830 -0.562770 -3.714769 
-0.136498 -0.212022 0.015101 -6.247563 -0.493647 -0.372936 
0.100618 -0.869104 0.115825 -1.320882 -5.994399 0.418941 
0.080993 -0.740192 0.030336 -0.213618 -3.481266 5.223249 
-0.112377 0.272517 -0.016006 -6.279787 -0.148224 0.092916 
0.282405 0.384916 -0.142943 -1.065606 -1.114576 -6.016117 
-0.011738 -0.336961 0.085087 3.404647 -0.492367 5.244278 
-0.234956 0.319769 -0.061411 4.167253 -4.036515 -2.318461 
0.013789 -0.390088 -0.039357 4.913046 0.221395 -3.903774 
0.562139 0.088614 -0.008900 -4.622132 -4.083205 -0.436263 
0.020296 -0.177743 0.074471 5.998816 -0.525871 1.716091 
0.044789 0.764215 -0.119464 1.739090 -0.524959 -5.912539 
0.135479 -0.776509 -0.106325 1.402394 2.399630 -5.344327 
-0.132347 -0.556624 -0.049627 -5.760062 0.084971 -2.449617 
-0.281217 0.280941 -0.081686 3.075379 -3.311828 -4.273427 
-0.051413 0.177395 -0.098364 -3.187343 -1.401064 -5.154660 
0.174477 0.260271 -0.044168 5.784981 -0.067059 -2.419689 
0.019130 -0.208156 0.074452 5.967423 -0.161733 1.851598 
-0.000806 0.087692 0.133846 -2.536009 -0.161424 5.723222 
0.184060 -0.632999 0.017356 2.719549 -0.079291 5.503156 
-0.225520 0.458478 -0.058362 -3.685863 4.034835 -3.063898 
-0.023684 0.707950 -0.026879 -5.168827 -3.162839 -1.409105 
-0.035535 0.750423 -0.050206 -5.874678 -1.503507 -1.561268 
-0.114570 -0.235985 0.096547 -3.910052 -0.176958 4.076253 
-0.113319 -0.190804 0.099681 -4.398189 -0.000395 4.480349 
0.207676 -0.163167 -0.001387 6.274425 0.044848 0.059074 
-0.061829 0.236615 0.093851 -3.711649 0.563180 4.989730 
0.049554 -0.100036 0.090624 3.622531 -3.743050 3.465096 
0.204996 -0.375004 0.003156 6.187035 0.057657 0.908650 
-0.057933 0.129041 -0.105081 -2.541250 1.886007 -5.415421 
-0.019226 -0.291545 0.095132 2.187202 -1.088355 5.765756 
0.153355 -0.373573 -0.080595 3.577078 1.059334 -5.052322 
-0.119760 0.352382 0.003729 -6.175910 -0.831117 0.710157 
-0.116336 -0.317495 -0.040122 -5.666990 0.275113 -2.186740 
0.631163 0.038652 0.020205 -5.897905 -1.863000 -0.949808 
0.045892 -0.178271 -0.066694 -5.327608 -1.307758 -3.046145 
-0.037712 0.413760 -0.129622 -0.386771 -0.223787 -6.259955 
-0.094919 0.337783 -0.098773 -3.910767 -0.876606 -4.836876 
-0.112398 -0.513000 0.036536 -5.340929 -0.733046 3.183615 
0.018618 -0.270035 0.069615 5.792844 -0.359987 2.317623 
-0.035443 0.802730 -0.000811 -6.221708 -0.031016 0.832118 
0.141324 -0.060443 -0.127088 3.525342 -1.436150 -4.986521 
-0.142638 -0.035639 0.004009 -6.137677 1.027905 -0.151474 
-0.111580 -0.763260 -0.006839 -3.494071 -4.300881 2.843931 
0.065253 -0.231693 0.073858 -4.292335 -0.769783 4.519575 
-0.129646 -0.567828 -0.058831 -5.949307 0.124465 -1.943786 
0.161906 0.000819 -0.113358 4.602394 0.815501 -4.195280 
-0.207515 0.392491 0.027630 0.958857 -2.670306 5.544636 
-0.505917 0.105921 0.080847 3.699318 -1.621682 4.648821 
0.008424 0.470997 0.085919 0.184791 3.098655 5.457555 
0.577595 0.069498 -0.019614 -3.382642 1.337519 -2.249105 
-0.102310 -0.236496 0.106778 -2.799298 -0.210257 5.470271 
0.079913 -0.742777 0.028627 0.048721 -3.321578 5.271998 
0.016393 0.860105 -0.055304 -1.547230 5.486641 -2.418108 
-0.451862 0.207464 0.000025 -4.468956 3.889099 1.929214 
-0.034430 0.435181 -0.130774 0.057477 -0.493914 -6.256084 
-0.260618 0.388266 -0.091315 -2.203106 2.612412 -5.248053 
-0.047262 0.534856 0.045538 -1.241677 3.825221 4.824689 
0.019542 -0.054382 -0.120841 -0.259739 -3.816109 -4.858983 
0.152516 -0.092354 -0.111134 4.051274 -0.698449 -4.459181 
0.037336 0.422601 0.095757 0.558867 1.311763 6.112979 
-0.177462 0.363154 -0.050725 4.053866 -4.547955 -1.470321 
0.258379 0.379933 -0.132453 -2.873505 -2.827377 -4.795987 
0.052714 0.641451 0.034573 2.666368 -2.820795 4.779984 
-0.034934 -0.735759 -0.118227 1.752034 2.176337 -5.587781 
-0.033081 -0.283889 0.101150 2.234837 -1.644747 5.612657 
-0.065531 0.525379 -0.111804 -1.466549 2.747819 -5.428480 
-0.502514 0.148041 0.027852 -4.889724 3.939440 0.023060 
0.165434 -0.697891 -0.070299 5.005850 -0.259772 -3.779746 
0.079355 0.852353 0.003696 4.734121 3.721916 0.806563 
0.095677 0.076015 -0.145927 2.040091 1.602162 -5.704190 
0.119536 -0.788461 -0.112896 -0.914786 2.922144 -5.402874 
0.081838 0.841309 -0.056574 4.424244 3.970263 -1.818540 
0.112415 -0.723973 0.025527 3.105022 0.283938 5.357204 
0.026034 -0.465668 -0.000897 6.178807 -0.060098 0.776773 
-0.248249 0.298668 -0.035956 4.752535 -3.988980 0.511462 
-0.065133 -0.356125 0.099375 0.962236 -0.978728 6.128056 
0.080324 0.634807 0.001911 5.659900 -0.532775 2.370639 
-0.009174 -0.288272 0.091383 2.487678 -1.102268 5.656568 
-0.126012 -0.316014 0.045122 -6.210316 -0.410894 0.796666 
0.080161 0.596756 -0.082115 1.094337 4.915268 -3.014165 
0.207079 0.505980 0.015902 2.127878 2.058563 5.488885 
-0.009382 0.733723 -0.094624 -4.068540 -2.544566 -3.862931 
-0.287370 0.296331 -0.093256 1.630046 -2.291483 -5.581867 
-0.081975 -0.438191 0.083983 0.177445 -1.278192 6.117938 
0.169945 -0.296344 -0.062808 4.216732 -0.575357 -4.618943 
0.529698 0.152997 0.026231 -3.665557 -0.558644 4.832760 
-0.126757 -0.451357 0.041107 -5.656079 -1.022026 2.486725 
0.113700 0.456539 -0.146779 0.020358 0.322892 -6.263230 
-0.129958 0.114398 0.013042 -6.159210 0.252349 0.846677 
0.212347 -0.020835 0.022142 6.074388 0.512219 1.203467 
0.099947 0.132341 -0.122828 1.946184 2.074932 -5.569287 
0.360352 0.278705 -0.052118 -3.960264 -3.247850 3.579258 
0.146568 0.453538 -0.143758 0.992867 -0.100796 -6.196638 
0.473301 0.209174 -0.069069 0.887836 -4.366518 -4.276817 
0.471677 0.219838 -0.007247 -2.251252 1.565865 5.389693 
-0.142471 -0.130253 0.038419 -6.086973 -0.029440 1.431079 
-0.015846 0.692679 0.049349 -5.028580 -2.104397 3.000592 
0.121881 0.372543 -0.139995 2.609141 -0.755399 -5.663315 
0.077211 -0.404557 -0.081232 -4.297251 -0.094692 -4.578954 
-0.174008 0.369337 -0.059632 4.166517 -4.318162 -1.796102 
-0.105668 -0.859053 0.032839 -4.242532 -4.619704 -0.239628 
-0.162298 0.400419 0.020940 1.521798 -3.955163 4.505175 
-0.103933 -0.851432 -0.012739 -4.411397 -3.735501 -1.840812 
-0.115611 0.335264 0.012104 -6.024251 -1.099813 1.384362 
-0.092645 0.086294 0.085504 -3.010200 1.132941 4.887345 
0.067362 -0.475382 -0.073129 -4.522565 0.219924 -4.350956 
-0.121263 -0.189201 -0.036034 -5.324454 -0.688532 -3.245581 
-0.532073 0.093629 0.025296 0.129269 2.447030 -5.468071 
-0.060648 -0.626547 0.036997 2.510006 -1.385051 5.578024 
-0.012309 -0.110933 -0.095001 3.271379 -2.208309 -4.871456 
-0.143012 -0.074939 -0.009085 -6.180918 0.095846 -1.011455 
0.160271 -0.313920 -0.070578 3.969514 0.039610 -4.868457 
-0.125592 0.535132 0.037523 -0.569643 4.201895 4.620030 
-0.065514 -0.054024 0.124242 -2.422441 -0.435656 5.766787 
0.080685 0.850985 -0.031481 4.970070 3.397205 -0.778067 
-0.092234 0.410683 0.074955 -3.970854 0.309763 4.855272 
0.115313 -0.869035 -0.047560 -0.049024 -6.266189 0.446583 
-0.037023 0.792475 -0.019381 -6.251652 0.258372 0.493998 
0.096835 -0.072479 -0.135135 -0.185401 -2.196815 -5.845002 
0.049164 -0.448014 -0.007323 -4.883566 -0.503503 3.900071 
-0.107324 0.441190 0.063525 -1.318664 0.150118 6.085819 
0.641634 0.029623 0.076971 5.706822 -0.100740 0.939442 
0.023604 -0.113572 -0.060929 -2.058009 -3.037534 -2.833497 
-0.125080 -0.340765 0.048048 -6.194067 0.232701 0.994071 
-0.070010 0.235723 0.089211 -3.308198 0.308929 5.318749 
0.581251 0.130970 0.049388 3.847417 3.627088 0.524851 
0.003373 -0.201524 -0.066557 4.457314 0.176850 -4.418322 
0.154588 0.277272 -0.088534 5.424320 -0.793794 -3.061255 
-0.253900 0.300488 -0.013465 4.114866 -3.884905 2.573505 
0.138768 -0.069692 -0.126013 3.358652 -1.589826 -5.001732 
0.121189 0.503011 0.051191 1.697787 3.113058 5.068368 
0.077844 0.055459 -0.154667 0.639108 1.615550 -6.019998 
-0.143456 -0.093861 0.030589 -6.217719 0.162056 0.817788 
-0.360996 0.214088 -0.059597 2.762025 -4.269927 -3.605333 
0.098354 -0.085183 0.109151 -2.318596 -2.984801 4.809455 
0.161158 -0.796837 -0.099350 4.268938 0.971140 -4.448162 
-0.138994 -0.448172 -0.004363 -6.219687 0.110602 0.179031 
-0.069313 -0.814795 0.066372 -2.275540 4.505508 3.433187 
-0.130064 -0.571069 -0.057569 -5.998752 0.025007 -1.810877 
-0.127708 0.094908 -0.021377 -6.179149 0.314593 -0.942667 
-0.111725 0.271869 -0.054829 -6.247137 -0.305965 -0.537123 
0.020190 -0.241369 0.066993 6.004139 -0.114798 1.823432 
-0.045203 0.137139 -0.107340 -2.134604 2.686402 -5.242450 
-0.154242 0.439698 0.048488 -2.763857 -2.848716 4.838527 
0.206114 0.025715 -0.013876 6.232155 0.217307 -0.674491 
0.023323 -0.706565 -0.035149 5.854053 -1.079419 1.994358 
-0.110897 -0.773908 -0.007201 -4.993869 0.579334 3.699008 
0.360415 0.327497 -0.133839 1.051844 0.045207 -6.177116 
0.226464 0.421196 -0.006220 -0.932466 -4.664108 4.053155 
0.189490 -0.610794 -0.065423 4.762134 -0.248323 -4.056339 
-0.045604 0.485062 -0.128840 -0.196284 0.982406 -6.199779 
0.073607 -0.424845 -0.077459 -4.366361 0.043274 -4.512185 
0.581707 0.119477 0.060197 -0.163731 2.490692 4.889662 
0.219840 0.488881 0.017029 1.671292 0.876603 5.941097 
-0.015326 -0.461634 0.059472 3.856577 -1.593207 4.692651 
0.194777 -0.263136 0.058020 5.385295 -0.326229 3.196031 
-0.006014 0.801592 0.064223 -3.976568 2.595160 3.955169 
0.137736 0.017671 0.115347 2.418405 1.145843 5.675397 
0.083088 -0.720004 -0.067074 -5.689732 -0.662710 -2.539108 
0.054844 -0.520426 -0.002189 -4.946331 -0.208430 3.800050 
-0.121149 -0.700266 -0.076213 -5.162517 -0.813130 -3.450900 
-0.139210 -0.058523 0.043928 -6.070104 0.366368 1.527595 
-0.025853 0.331371 -0.129039 -0.388481 0.272954 -6.260374 
-0.060206 -0.244685 -0.092020 -1.212058 0.093159 -6.116833 
0.045643 -0.559176 -0.035890 -5.854951 -0.165313 -1.808070 
0.086915 -0.817593 0.044570 -5.206469 -0.666717 2.355569 
-0.032336 0.052366 -0.139455 -1.436487 1.699285 -5.859985 
0.168555 0.222330 -0.057514 5.503755 -0.110085 -3.001266 
0.005435 0.604405 0.016670 -4.035010 0.075040 4.733258 
0.488539 0.239055 -0.026845 4.298438 4.461392 0.830445 
0.146382 0.229910 0.078587 4.691074 0.369604 4.159321 
0.063470 0.707551 -0.081994 2.749654 -3.639681 -4.297390 
-0.125042 -0.234487 0.080914 -5.454921 -0.465772 3.079370 
-0.129481 0.031082 -0.044754 -5.899275 0.656231 -2.049537 
-0.044199 0.008707 -0.136564 -1.386263 -0.900301 -6.027064 
0.076376 -0.308813 -0.087017 -3.823639 -0.119093 -4.982874 
0.301446 0.330391 -0.119036 -3.677169 -3.781186 -3.378780 
-0.006189 -0.242636 -0.075366 4.186562 -0.347941 -4.648948 
0.150277 -0.363253 0.076601 1.019604 -0.552710 6.152652 
-0.115303 0.134823 0.049003 -5.460279 0.390747 3.023244 
0.144658 0.122195 -0.098843 4.362322 1.317742 -4.290829 
0.111884 0.441185 -0.146874 -0.006729 -0.193868 -6.270885 
0.021745 0.105165 -0.136248 -0.993272 1.937477 -5.877622 
-0.021556 -0.241124 0.107298 1.973068 -1.409999 5.778469 
0.174727 -0.811135 -0.030454 5.616340 -2.203922 0.328792 
-0.034892 0.759076 0.009172 -6.025536 -0.660701 1.517049 
0.104453 0.764776 -0.007473 6.196484 -0.425697 0.535198 
0.214981 0.518806 -0.114593 1.980146 3.894726 -4.471515 
0.123802 -0.228572 -0.099646 1.265122 -0.566076 -6.091657 
-0.010771 -0.012992 -0.139225 -0.832511 -1.117553 -6.121368 
0.051193 -0.178332 -0.075602 -5.102308 -1.173548 -3.434138 
0.017248 0.218511 0.128536 -0.134288 0.313709 6.273381 
0.174085 0.318339 -0.071963 5.261092 -1.829135 -2.890329 
-0.135581 -0.413150 0.018646 -6.177068 0.423275 1.002493 
0.043239 -0.288217 0.027786 -6.202396 -0.126735 0.898473 
-0.028524 -0.605138 -0.092579 3.205298 -0.044124 -5.375407 
-0.009892 -0.684943 -0.085028 3.866663 1.320048 -4.730966 
-0.074611 0.170490 0.091481 -3.991731 0.000183 4.850839 
-0.071003 0.554213 -0.091944 -2.586307 3.730894 -4.333536 
-0.468337 0.156786 0.051917 2.323110 3.631733 4.460442 
0.096927 0.141933 0.116869 2.978864 0.498077 5.503014 
0.143860 0.244016 0.080140 4.604005 0.324045 4.256280 
0.245458 0.368021 -0.085533 -4.411028 -4.474042 -0.038778 
0.221283 0.392888 -0.087324 -4.617522 -4.233892 -0.255988 
0.014836 0.660530 0.071546 -1.872593 -5.822187 1.093180 
0.009735 0.285645 -0.128952 0.802592 0.013875 -6.230545 
-0.088007 0.109901 -0.089762 -4.313591 1.482264 -4.315054 
-0.357585 0.214503 -0.057283 2.898574 -4.473565 -3.197585 
0.104308 0.109887 0.114668 3.140180 0.684565 5.380876 
0.161178 0.439624 -0.138983 1.372557 -1.117238 -6.022002 
-0.006962 -0.830847 -0.096010 1.352860 -6.005398 -0.581280 
0.192844 -0.579534 0.016799 5.163222 -0.411367 3.537312 
-0.041722 0.027131 0.129000 -1.963192 1.103728 5.837209 
0.110875 0.243845 0.104391 2.578542 0.368466 5.670537 
0.189324 0.031057 0.072871 5.119220 1.142692 3.448153 
-0.552231 0.070098 0.004958 5.057775 1.061035 -2.152578 
0.363737 0.296900 -0.041110 -1.396740 -0.262024 5.875623 
-0.107649 -0.531674 -0.083199 -4.176594 0.652786 -4.645916 
0.201582 0.405572 -0.018477 5.959485 -1.774241 0.804168 
0.190484 -0.006373 0.068957 4.836288 -0.510350 3.803939 
0.631647 0.046304 0.103264 3.577220 1.556414 2.787862 
-0.067531 -0.096511 0.121397 -1.566712 -0.007284 6.065408 
0.081121 0.770302 -0.098886 4.896022 -0.033613 -3.144848 
0.603147 0.102709 0.020381 4.848465 2.753194 -0.719449 
-0.418818 0.174432 0.028151 2.006788 -0.871727 4.485680 
0.294991 0.373572 -0.140900 -0.751280 -2.539116 -5.665865 
0.137181 0.368692 0.081292 3.617980 0.143995 5.113412 
-0.039742 -0.303464 0.099442 1.776607 -0.849812 5.945799 
0.132940 -0.534589 -0.108529 0.765230 0.077971 -6.111124 
-0.068921 -0.578254 -0.103588 -0.328034 0.181123 -6.252500 
0.400365 0.329243 -0.083830 4.330751 4.489148 0.581985 
0.201562 -0.578688 -0.030332 6.177585 -0.703330 -0.747837 
-0.088383 0.574081 -0.020966 -1.064024 6.054566 0.630552 
0.043342 -0.274331 0.030517 -6.202026 -0.131764 0.947084 
0.091822 -0.732991 -0.079213 -5.285776 -0.434736 -3.351403 
-0.041354 0.570503 0.005829 -0.845391 4.967954 3.718370 
0.127710 -0.869600 0.044359 0.027978 -6.280102 -0.173637 
-0.001969 -0.188093 0.106493 3.820107 -0.465049 4.965110 
-0.013020 0.788201 0.059593 -5.473738 0.991198 2.785115 
-0.093234 0.296731 -0.094167 -4.321774 -0.424409 -4.479798 
0.213384 -0.079656 -0.006592 6.178360 0.382761 -0.920875 
0.512110 0.184628 0.014787 -2.228656 -1.369483 4.636528 
0.176076 0.100304 -0.067310 5.024607 1.557552 -3.363729 
-0.095970 -0.108596 0.111128 -2.499785 0.408297 5.723207 
0.063085 0.053107 -0.155606 -0.539621 1.905060 -5.952960 
0.052110 0.372854 0.105800 0.761343 1.198090 6.097031 
-0.078731 -0.316653 0.105690 0.337770 -0.411666 6.253279 
0.094756 0.795124 0.022263 5.713276 0.796246 2.447692 
0.165755 -0.823643 -0.031310 4.873337 -3.945373 0.173398 
0.241204 0.404779 -0.132695 -2.862857 -1.958365 -5.231708 
0.049011 0.426370 0.093939 0.474705 1.969390 5.933912 
0.079663 -0.235944 0.082463 -2.457888 -0.647787 5.657755 
0.585327 0.050876 0.034698 -5.973330 -1.412302 0.807704 
0.122375 0.069827 -0.133578 3.383056 1.521243 -5.059273 
-0.455292 0.200330 0.005334 -3.820678 3.745649 2.749160 
-0.271378 0.281005 -0.017882 3.925243 -4.116126 2.614873 
0.047794 0.594837 -0.089148 0.208941 3.812493 -4.985876 
0.450966 0.195285 -0.039950 -4.023668 -4.758373 0.502073 
0.090499 0.727675 0.045495 6.177845 -0.112426 1.109905 
0.250958 0.362751 -0.091583 -4.317302 -4.555091 -0.195071 
-0.110266 -0.616874 0.032192 -5.623806 0.040412 2.790752 
-0.128245 -0.319466 -0.004260 -6.276391 -0.028191 -0.206399 
0.083645 -0.320704 0.070316 -2.940758 -0.851388 5.399532 
0.199900 -0.069419 -0.045017 5.856681 0.156737 -2.250634 
-0.005358 -0.086024 0.125915 1.957380 -0.620883 5.876711 
-0.052033 -0.359824 -0.087375 0.151623 -0.663408 -6.137492 
0.101691 -0.535919 0.035024 -2.885823 0.120562 5.572263 
-0.091958 0.457400 -0.122566 -1.994273 0.110043 -5.943420 
-0.033867 -0.111630 0.126612 0.193491 -0.706226 6.227293 
-0.017890 0.148014 0.123823 -2.641648 0.129620 5.690935 
-0.061050 -0.799395 -0.144632 -2.460513 0.178393 -5.648406 
0.084369 -0.770976 -0.071290 -5.126341 1.523783 -3.286009 
-0.003375 -0.185713 0.107789 3.834091 -0.451371 4.955666 
0.006528 -0.316205 -0.049979 4.776984 -0.286067 -4.069355 
0.064552 -0.723372 -0.027704 -5.152968 -1.394525 -3.269210 
0.113902 0.509054 -0.136484 0.007178 1.414866 -6.086856 
0.038577 -0.352244 -0.029655 -6.068408 -0.402211 -1.492400 
-0.110254 0.294115 -0.071714 -5.726476 -0.603575 -2.383536 
0.625684 0.070234 0.073065 5.706156 2.577751 0.466599 
0.212639 -0.019296 0.019072 6.135317 0.590492 0.818825 
-0.024475 0.753389 0.043859 -5.417030 1.123626 2.889173 
0.209751 -0.144583 0.014296 5.862432 -2.043542 0.561637 
-0.001601 -0.363881 -0.054199 4.173129 -0.438047 -4.668216 
0.045489 -0.388817 0.008139 -5.714779 -1.117131 2.101992 
-0.053878 -0.739241 0.026129 0.167362 -0.081593 5.293795 
-0.138988 -0.445691 -0.009494 -6.213175 0.366237 -0.390928 
0.115528 -0.827271 0.156259 -1.570092 5.697276 1.307258 
-0.401887 0.183446 -0.040323 2.816307 -5.109692 -2.117511 
0.256013 0.459294 -0.003371 2.461710 -1.041584 5.615608 
0.207797 0.453433 0.023239 3.870265 0.081066 4.933696 
-0.017906 -0.617793 0.022589 0.680653 -0.710198 5.465988 
-0.127108 -0.724490 -0.037176 -6.162253 0.108436 1.031798 
-0.092423 0.532275 -0.097761 -2.105191 3.108738 -4.912025 
0.164804 -0.861122 0.144602 2.651633 -5.057175 0.850452 
0.019726 -0.739265 -0.066085 5.892509 -0.339461 -1.942379 
0.180538 0.563325 -0.026410 1.993763 5.252781 2.397493 
-0.110152 -0.236481 0.100633 -4.152312 -0.151560 4.304012 
-0.064318 -0.432889 0.083026 0.987283 -1.367869 6.047036 
0.300453 0.454040 -0.109972 3.513649 3.966829 -3.369451 
0.126709 -0.234112 -0.098380 1.762225 -0.761751 -5.956710 
-0.137923 -0.003980 0.005166 -6.224655 0.070639 -0.113757 
0.142107 -0.681277 -0.089606 2.870683 -0.069717 -5.566465 
0.204294 -0.063273 -0.033492 5.885489 0.192389 -2.159881 
0.100210 0.732043 0.002013 6.058366 -0.257382 1.401672 
0.060725 0.026598 -0.160350 -0.390210 -0.463697 -6.169731 
0.177319 0.321090 0.029557 5.914079 -0.289346 2.040982 
-0.110135 -0.383302 -0.056220 -4.505522 -0.269864 -4.359852 
-0.401451 0.273076 -0.045261 -4.861053 3.894657 -0.258101 
0.038356 -0.266664 0.008955 -0.286795 -0.321129 3.364561 
-0.095884 0.348015 0.060745 -4.784321 -1.411179 3.805111 
-0.139321 -0.063503 0.044305 -6.025843 0.250339 1.732673 
0.198097 -0.680126 -0.015650 6.165621 -0.010930 0.998525 
0.035689 0.658774 0.075724 0.267121 -6.155124 1.110651 
0.176439 -0.528485 0.046897 3.663296 -1.236831 4.945066 
0.177568 0.202677 0.043955 5.244920 0.338642 3.300725 
0.133623 -0.401778 -0.098518 2.495304 0.555660 -5.667318 
-0.127005 -0.676239 -0.069003 -6.045871 -0.162445 -1.506217 
0.040556 -0.315886 -0.039667 -5.515490 -0.082738 -3.007010 
0.237201 0.503023 -0.113849 3.069252 3.463408 -4.235555 
0.073307 -0.201284 -0.089985 -3.134090 -1.491202 -5.169539 
-0.036210 -0.838443 0.116701 5.405709 2.253873 1.824866 
-0.128099 -0.564456 -0.008773 -6.063400 -0.632169 1.500770 
0.138015 -0.101427 0.112340 1.112366 -0.367518 6.145405 
-0.110205 -0.714284 -0.086952 -4.985504 -0.512664 -3.775022 
-0.012031 -0.620912 -0.079226 4.230378 0.073148 -4.644824 
-0.033533 -0.863016 0.037798 1.563683 -5.929521 -0.318937 
-0.043408 -0.594549 0.035272 2.791498 -1.567058 5.392943 
0.019627 -0.672063 -0.011286 5.462415 -1.420252 2.737830 
0.054040 -0.721895 -0.002148 -6.085082 -0.870821 -1.017734 
-0.118217 -0.598632 0.013139 -5.681674 0.155738 2.627700 
-0.030811 -0.810990 0.058385 1.024926 2.171363 5.444373 
-0.123299 0.562809 -0.010868 -3.111024 5.160303 1.425482 
0.026435 -0.314881 -0.015578 5.742794 -0.046227 -2.337729 
-0.054913 -0.679519 -0.110867 1.003975 1.212278 -5.980674 
-0.037560 0.790365 -0.024478 -6.251745 0.417106 0.356399 
0.142672 0.099565 -0.108572 4.114169 1.633164 -4.421142 
0.378829 0.252189 -0.054566 -4.580100 -3.700021 2.147240 
0.168143 -0.808451 0.008768 5.987359 -0.618590 1.376392 
0.097599 -0.828790 -0.108161 -4.043591 -0.011351 -4.645602 
0.124784 0.383258 -0.140061 2.398156 -0.775500 -5.753395 
0.127928 0.425452 0.081136 1.988997 0.913907 5.850639 
0.197950 -0.699450 -0.022444 6.216775 -0.223773 -0.275952 
0.096694 -0.627727 0.027032 -4.049149 -1.251642 4.497699 
-0.111581 -0.539818 0.034378 -5.408715 -0.484813 3.132274 
0.011609 -0.472626 0.029321 4.995523 -0.712549 3.733680 
-0.021177 -0.529776 0.042879 2.766724 -1.362468 5.388266 
0.192653 -0.236494 0.062423 5.467750 -0.167243 3.024506 
-0.078826 -0.831361 -0.127603 -5.038365 -0.118253 -3.733843 
-0.128042 -0.680974 -0.051294 -6.263971 0.007707 0.314432 
0.139519 -0.300975 0.081608 0.517904 -0.362394 6.247428 
0.076263 0.669044 0.026651 5.000391 -2.847185 2.148877 
0.187715 0.307060 -0.022954 5.907624 -1.961466 -0.608707 
0.035068 0.379080 0.106173 0.375244 1.233465 6.135458 
0.160361 -0.829059 -0.085915 5.580091 -2.242364 -0.964930 
-0.026906 0.053097 0.128676 -1.461145 0.713597 6.064019 
-0.406036 0.263008 -0.055302 -5.073133 3.291921 -1.653348 
-0.327889 0.276017 0.005059 -0.435927 0.629165 6.227785 
-0.298376 0.290698 0.004606 1.319126 -1.042275 6.002960 
0.105028 0.583306 -0.018826 2.391971 4.580120 3.434973 
0.112127 -0.591228 -0.098412 -2.331104 -0.836623 -5.744428 
-0.026378 -0.829666 0.057662 5.986068 0.395159 0.847145 
-0.100062 0.348387 0.055670 -5.026670 -1.575947 3.389027 
-0.446512 0.218122 -0.014551 -4.541815 4.251370 0.429504 
0.125172 -0.756466 0.023597 -0.456050 -4.549479 4.278728 
0.096722 0.435696 -0.145689 -0.711029 -0.120815 -6.236888 
-0.043753 0.513459 0.060606 -1.045202 3.256563 5.266239 
-0.130248 -0.078081 -0.045412 -5.396793 -0.381074 -3.181052 
0.125983 0.005789 0.122359 2.092004 0.176857 5.784956 
-0.037897 0.485955 0.075374 -0.933518 2.787924 5.545341 
-0.034468 0.579910 -0.005124 -1.714209 4.599599 3.845779 
-0.131257 -0.053036 -0.045667 -5.645641 -0.244454 -2.717581 
0.078835 -0.213380 -0.089754 -2.834074 -0.991676 -5.505021 
0.286275 0.489726 -0.071986 4.425874 4.292875 -0.947486 
0.104395 0.198538 0.110705 2.975435 0.219152 5.478283 
-0.034815 -0.769474 0.021341 2.657156 5.042830 2.436309 
0.139389 -0.011186 -0.137118 3.936290 0.403702 -4.868352 
0.052157 -0.474153 -0.004999 -5.357327 -0.149391 3.181496 
-0.135214 -0.078995 0.063032 -5.744578 0.084762 2.307626 
-0.266490 0.358519 0.015740 -2.861299 -1.303325 5.338831 
0.019040 -0.205100 -0.045260 5.662210 0.056061 -2.666302 
-0.102464 -0.134267 0.109830 -4.078904 0.353016 4.657012 
0.166270 -0.142686 0.097482 3.060740 -0.728315 5.420248 
0.203041 -0.269913 -0.024758 3.093325 -0.327522 -0.952719 
-0.103223 -0.850886 0.116649 -5.708925 0.328290 1.708931 
0.252066 0.404643 -0.136803 -1.904873 -1.197697 -5.845566 
0.169634 0.424130 0.052242 3.369374 0.587760 5.267115 
0.047168 -0.375709 -0.046891 -5.459101 0.075887 -3.015996 
-0.128111 0.389436 -0.060282 -6.264752 -0.389039 -0.238696 
0.183025 -0.370579 0.063831 4.879261 -0.324492 3.739077 
-0.127670 -0.386929 -0.027612 -6.029636 0.402571 -1.660598 
0.055669 -0.297598 0.051587 -4.633866 -0.666823 4.188704 
0.070636 -0.275358 0.072058 -3.536580 -0.987205 4.982835 
0.033990 0.361212 -0.128617 -1.267297 -0.256339 -6.113430 
0.194769 -0.196314 0.059246 5.900228 -0.420146 2.079441 
-0.127416 -0.738109 -0.050582 -6.235489 -0.201499 -0.450081 
0.102879 -0.049964 0.123743 1.284864 -1.628343 5.875899 
0.157936 -0.864260 0.115374 1.751365 -5.964415 0.130089 
-0.083314 0.410445 -0.118982 -1.950287 -0.955483 -5.877798 
-0.128959 -0.533388 0.001993 -5.748563 -0.971836 2.274725 
-0.102931 -0.836865 0.071885 -4.395089 4.430392 0.648353 
-0.049119 0.227727 -0.117042 -3.649808 -1.479522 -4.889468 
0.018705 0.784495 0.083871 -1.406403 0.846489 5.751240 
-0.055887 0.267154 0.095008 -3.598468 0.118988 5.137076 
0.008549 -0.449041 -0.047914 5.267301 0.378018 -3.382179 
0.071338 -0.363769 -0.079153 -4.155217 -0.471342 -4.649927 
0.161720 -0.664539 0.026414 1.809868 -0.883891 5.876249 
0.053155 -0.709389 0.011971 -6.217995 0.048744 0.722752 
0.121754 -0.166780 -0.108041 1.102121 -0.940497 -6.081781 
-0.414011 0.252531 -0.011444 -4.517820 4.172166 1.091400 
-0.011229 0.622523 -0.046618 -5.019351 2.654207 -2.328785 
0.045792 -0.128846 -0.087426 -3.427361 -2.420781 -4.661954 
0.006200 -0.726110 -0.085418 4.300151 0.898399 -4.484169 
0.181850 0.249927 -0.022223 6.179190 -0.070780 -1.056859 
0.628623 0.036876 0.082994 -5.148912 -3.312427 0.123074 
0.071294 0.132570 0.127808 1.685054 0.146971 5.991817 
0.161686 -0.859639 -0.062670 4.640813 -2.862383 -0.308863 
0.102801 0.435887 -0.146405 -0.459400 -0.188477 -6.255550 
-0.012261 0.550684 0.033935 1.157423 5.136905 3.114492 
-0.203799 0.341222 -0.051528 3.569575 -4.887331 -1.100428 
0.022474 0.540772 -0.116257 -0.419574 2.439237 -5.769006 
0.293698 0.340107 -0.049314 -2.427488 -4.292991 3.845456 
0.190037 0.324321 -0.008986 6.229362 -0.614769 0.502907 
0.154350 0.322743 -0.101970 4.646126 -1.405710 -3.970198 
0.125414 0.583223 -0.078320 2.311643 5.209270 -2.393972 
0.580279 0.113962 -0.003445 3.633128 1.298370 -4.903492 
-0.562077 0.043233 0.064335 0.465226 -2.230897 1.312676 
0.014919 -0.755985 -0.029276 4.590085 -2.437390 3.511654 
-0.108424 0.013918 -0.090814 -5.253575 0.096756 -3.443779 
0.199133 -0.468118 -0.003681 6.236613 -0.099771 0.697731 
0.214109 -0.066855 0.015403 6.272342 0.162209 0.181446 
0.071387 -0.477554 0.010409 -3.639470 0.531486 5.055385 
-0.121402 -0.389818 0.067531 -6.113717 0.026051 1.388426 
0.012300 -0.412475 -0.041491 5.201076 -0.174510 -3.505237 
-0.126794 0.374616 -0.024658 -6.117963 -1.336369 0.061200 
0.151386 -0.214847 -0.089110 3.371403 -0.930830 -5.209496 
-0.109745 0.219521 -0.043706 -5.394384 -1.349789 -2.902757 
0.104191 -0.130181 -0.117970 -0.530047 -1.346840 -6.056586 
0.039619 -0.370057 -0.012125 -6.051512 -1.022691 1.306325 
-0.002147 0.307894 -0.129694 0.815769 0.334507 -6.213871 
-0.123960 -0.299356 0.070053 -6.091640 -0.758067 1.295733 
-0.068343 -0.863715 0.110210 -0.123222 -6.280089 0.138364 
-0.001353 0.787249 0.074576 -3.440609 1.421938 4.926239 
-0.010995 0.289821 0.116038 -1.884490 0.528472 5.932899 
0.152153 -0.865918 -0.062952 3.639752 -5.117064 -0.058265 
0.185782 0.018398 0.081855 4.807780 0.902247 3.895689 
0.198666 0.113883 -0.000567 6.124666 -1.154284 -0.202750 
-0.040115 -0.861028 0.120760 2.039004 -5.713587 1.169842 
0.276660 0.344225 -0.056102 -2.707294 -4.941191 2.704601 
0.199310 -0.513423 0.004130 5.969679 -0.061330 1.939203 
-0.024038 0.073062 0.126631 -2.155539 1.261088 5.711962 
0.107562 -0.315041 0.079286 -1.279243 -0.684963 6.083536 
-0.133511 0.040333 -0.027785 -6.000359 1.012034 -1.510259 
-0.128275 0.126445 0.015550 -6.186560 0.651316 0.849848 
-0.005266 -0.069571 -0.113862 1.575734 -3.307590 -5.074983 
-0.081562 -0.044227 0.117337 -3.448339 -0.198237 5.240114 
0.209136 -0.018530 -0.011384 6.053820 0.439398 -1.564577 
0.048024 -0.580732 -0.018347 -5.692559 -0.611655 2.577103 
0.006101 0.568253 0.023012 -1.866532 1.316752 5.745727 
-0.014841 -0.596821 0.026037 1.559281 -0.769213 5.974339 
-0.080292 -0.276916 -0.081476 -3.835882 -0.304531 -4.960907 
0.362768 0.290302 -0.042783 -2.558718 -1.444060 5.173787 
-0.002209 -0.706221 0.009037 5.057529 -1.450404 3.425724 
0.181457 0.177457 -0.031979 5.629594 0.818740 -2.651893 
-0.500127 0.150449 0.044944 -4.392475 4.411247 0.440812 
-0.160673 0.485005 0.054662 -1.542189 1.024241 5.973912 
0.212681 -0.015021 0.012492 6.117101 0.990050 0.093413 
-0.049608 0.129083 -0.109143 -2.602895 2.436150 -5.157670 
-0.140648 0.020832 0.029978 -5.963634 0.975883 1.514303 
-0.134861 0.483257 0.061483 -0.645175 0.936705 6.061479 
-0.124078 -0.050926 -0.060764 -5.367521 -0.648387 -3.192771 
0.194149 -0.443381 -0.054901 5.256511 0.863607 -3.330031 
0.226097 0.467727 -0.132692 0.892875 0.965184 -6.133367 
0.625156 0.042652 0.050721 -5.117010 -3.430233 -0.128452 
-0.026110 0.709320 0.027179 -5.730188 -2.016735 1.314750 
-0.033592 0.585956 -0.012807 -2.884535 4.450741 3.337171 
-0.003964 -0.613560 0.020141 2.082310 0.135848 5.830082 
-0.203976 0.444475 -0.084852 -2.203469 2.585390 -5.283052 
0.059294 -0.693298 0.022896 -5.340355 1.132049 3.089921 
0.001417 -0.784576 -0.110371 5.349287 1.436894 -2.884417 
-0.063007 -0.138313 -0.100804 -1.585078 -1.069134 -5.972890 
0.079515 0.014099 0.135869 1.887943 1.135396 5.845859 
0.034693 -0.309248 -0.000887 -5.907427 -0.428905 1.582847 
0.287870 0.403497 -0.014263 0.947801 -0.359541 5.990705 
0.606908 0.066752 0.080117 -4.907197 -3.102198 1.525079 
0.208863 -0.142694 0.026572 6.080972 -1.254410 0.895852 
0.161732 -0.675296 -0.075736 4.098581 -0.616601 -4.711044 
0.084491 0.090083 -0.144992 1.073269 2.029074 -5.811999 
0.092010 0.780242 0.035869 5.903253 0.984393 1.761471 
-0.107851 -0.701524 -0.090919 -4.480116 -0.326967 -4.382398 
0.129462 -0.334906 0.079861 -0.094965 -0.487005 6.253653 
0.451549 0.284635 -0.067336 4.165234 4.469722 1.048098 
0.073372 -0.650776 0.014820 -3.067915 2.335243 4.785880 
0.127706 -0.632886 0.034360 1.926951 -0.986168 5.824924 
-0.058467 -0.686270 0.019383 0.948621 -2.046888 5.826126 
0.061024 0.108269 0.131333 1.494290 0.892486 5.961699 
0.144016 -0.825788 0.097263 1.782020 5.883780 0.938924 
0.114879 -0.868683 -0.042426 -0.168866 -6.251463 0.570851 
-0.134077 0.406859 -0.068033 -0.554154 -3.915266 -3.929874 
0.139087 -0.197883 -0.099442 2.786363 -0.839897 -5.561750 
0.016062 -0.765336 -0.037205 5.717476 -0.992857 2.270376 
-0.009538 0.655523 0.005373 -5.465099 -1.622881 2.115775 
-0.435234 0.157992 0.019179 3.154519 -5.289662 1.108282 
0.006042 -0.261947 0.089059 3.623356 -1.004625 4.898913 
-0.055127 -0.666690 0.025362 1.367716 -1.655034 5.889163 
0.160728 -0.791396 0.019283 3.848042 -1.147883 3.810711 
0.147547 0.559392 -0.100536 1.816576 4.395312 -4.095061 
-0.010991 0.300582 -0.131052 0.383939 0.293437 -6.250202 
