0.061556 0.01151 -0.157129 -0.17471 -0.239328 -0.951854
0.20637 -0.035365 -0.025156 0.975235 0.010219 -0.219076
0.059777 -0.73835 -0.013122 -0.947613 -0.114262 -0.281354
0.032141 -0.138628 -0.06286 -0.858515 -0.345056 -0.378786
0.348619 0.329241 -0.135302 0.033178 -0.13572 -0.986137
-0.162351 0.437181 0.042114 -0.303492 -0.533505 0.784705
-0.122171 -0.6885 -0.026211 -0.969659 -0.093827 0.205423
-0.1154 0.030263 0.086313 -0.859612 0.117404 0.496057
-0.349537 0.213683 -0.043004 0.587338 -0.779779 -0.201475
-0.068189 -0.752711 -0.126497 -0.274161 0.18261 -0.939572
-0.012324 0.617959 -0.048724 -0.760197 0.537374 -0.356513
-0.276878 0.374696 0.006857 -0.769918 0.155442 0.618351
0.125886 0.283812 -0.12724 0.600384 -0.048577 -0.798089
0.158873 0.18393 -0.072968 0.761552 0.06238 -0.644996
-0.223098 0.412878 -0.091316 -0.242538 0.319298 -0.915386
-0.4798 0.117111 0.019163 0.708244 -0.679805 -0.142828
-0.001634 -0.799704 -0.12123 0.862981 0.014482 -0.49651
0.30311 0.337195 -0.126969 -0.498046 -0.481092 -0.719939
0.177936 -0.784563 -0.07134 0.866866 0.169356 -0.435475
0.042628 0.740618 0.097671 0.774202 0.267576 0.560181
-0.204672 0.490591 0.019083 -0.721603 0.507539 0.46551
0.182826 0.321003 0.016626 0.909254 -0.099772 0.403301
0.163662 -0.599007 0.033985 0.416832 -0.401699 0.81414
0.150663 0.261722 -0.093211 0.862799 -0.094236 -0.496084
0.205768 -0.299256 0.009408 0.999247 0.005861 0.028963
-0.126144 -0.324246 0.039144 -0.992542 -0.031696 0.116957
-0.093919 -0.862976 0.023252 -0.076995 -0.995408 -0.034561
-0.168459 0.472923 -0.087453 -0.385841 0.236435 -0.891272
-0.135837 -0.515117 -0.008036 -0.983169 -0.076168 0.164201
0.036054 -0.342819 -0.014491 -0.99397 -0.086644 0.009142
0.031617 0.14927 -0.117759 -0.134047 0.177177 -0.971743
-0.25771 0.430158 -0.028307 -0.732383 0.657879 0.165157
0.553443 0.119536 0.045565 -0.862321 -0.16286 0.456973
-0.008904 0.737719 0.065878 -0.58822 0.034536 0.802171
0.181656 -0.429586 -0.068262 0.736852 0.154311 -0.657843
0.44277 0.209084 -0.030881 -0.877398 -0.320823 0.346679
0.020329 0.751964 0.083784 -0.870981 0.211095 0.433218
-0.007258 0.597004 0.0063 -0.695653 0.209803 0.684062
0.110081 -0.826257 0.119689 -0.263387 0.962929 0.033449
0.081009 0.73903 -0.089561 0.662254 -0.388179 -0.640725
0.020193 -0.707726 -0.026809 0.909149 -0.128524 0.393489
0.179381 -0.007429 -0.088848 0.820829 0.073279 -0.566262
-0.015678 -0.338345 0.087386 0.466843 -0.097487 0.878808
0.020835 -0.65783 -0.006869 0.871304 -0.188496 0.452473
-0.106941 -0.550969 0.040313 -0.850743 -0.093106 0.516551
0.048045 0.543928 0.035247 0.065149 0.746156 0.659021
-0.504807 0.137338 0.074217 -0.482877 0.657073 0.400318
0.045393 -0.270653 -0.048482 -0.831147 0.019064 -0.555166
0.286485 0.489107 -0.073288 0.703184 0.680359 -0.182796
-0.122771 -0.093692 0.0832 -0.80807 0.034664 0.587433
-0.261101 0.395142 -0.087438 -0.361145 0.493152 -0.789558
-0.109241 -0.037988 0.096262 -0.723658 0.052852 0.688007
0.08838 -0.093258 -0.125572 -0.186614 -0.392685 -0.899648
0.0575 -0.664837 0.012963 -0.63496 0.191506 0.730295
0.057232 -0.027636 0.131523 0.053844 -0.167295 0.982927
-0.166251 0.483501 -0.085472 -0.464736 0.282758 -0.838742
0.285769 0.380066 -0.142248 -0.142841 -0.296273 -0.937906
0.108901 -0.183595 -0.106 -0.085407 -0.146674 -0.984897
0.200072 -0.259363 0.046794 0.942079 -0.015889 0.334434
0.104433 0.417147 0.089089 0.182141 0.174405 0.965505
0.172608 -0.762664 0.020491 0.541892 0.097677 0.83073
-0.236596 0.444049 0.005019 -0.791561 0.438439 0.423404
0.311575 0.377896 -0.026623 0.604276 -0.24313 0.748797
0.154543 0.335787 0.062443 0.715572 -0.063553 0.695604
-0.00929 0.674827 0.04851 -0.817875 -0.454286 0.329073
-0.019561 0.688449 -0.009539 -0.993092 -0.103136 -0.018743
-0.102651 0.382725 -0.104864 -0.542286 -0.221899 -0.807837
-0.0619 -0.644498 0.033102 0.357516 -0.221159 0.907104
0.031793 0.637674 0.035972 -0.143334 -0.489822 0.856093
0.067291 0.777615 -0.109493 0.513295 0.008022 -0.857933
0.366219 0.284874 -0.125365 -0.323721 -0.383562 -0.864013
-0.083819 -0.369047 0.099777 0.050485 -0.209933 0.974562
0.166775 -0.744772 0.013138 0.315833 0.818908 0.476787
0.054728 -0.712602 0.021777 -0.95163 0.10305 0.287054
-0.136556 -0.204602 0.046222 -0.995566 -0.040222 0.084645
0.096402 -0.265175 -0.09679 -0.327031 0.044486 -0.941004
0.000695 0.794406 -0.112624 -0.367486 0.202627 -0.906088
0.075886 -0.528399 0.01675 -0.678072 -0.003351 0.734888
0.179631 -0.150886 -0.072749 0.700489 -0.088596 -0.708102
0.166156 0.392142 0.056056 0.690853 -0.002176 0.722689
-0.229393 0.469099 -0.030339 -0.786972 0.611012 -0.07965
-0.098627 -0.821241 -0.09521 -0.819893 -0.421352 -0.37012
0.196955 -0.148852 0.063164 0.892701 -0.094559 0.44045
-0.069542 0.471722 0.075323 -0.232766 0.351023 0.906369
0.234836 0.403606 -0.128249 -0.520077 -0.371716 -0.768106
-0.042093 -0.695076 -0.110292 0.349324 0.281179 -0.892732
-0.111511 0.174184 -0.043551 -0.886566 0.075443 -0.45589
-0.163941 0.527927 0.02904 -0.528283 0.664763 0.527182
0.005091 0.273743 0.122936 -0.277218 0.116776 0.952381
-0.076086 0.555389 -0.088021 -0.4203 0.614172 -0.667598
0.045546 -0.569035 -0.034437 -0.948334 -0.041841 -0.252215
-0.041015 0.054246 0.124224 -0.495853 0.178408 0.849745
0.15804 -0.762183 -0.08427 0.766784 0.338086 -0.537681
0.093546 -0.845711 0.137672 -0.83895 0.456319 0.290653
0.174869 -0.810518 -0.031785 0.931437 -0.353348 0.04644
0.287485 0.422575 -0.139474 0.16689 0.295419 -0.93488
-0.500047 0.151017 0.025628 -0.746345 0.665483 0.005464
-0.000522 0.337727 0.112824 -0.038208 0.055773 0.997252
-0.131322 0.407529 0.011867 -0.559579 -0.671973 0.228504
0.276964 0.47571 -0.10723 0.458661 0.667823 -0.584042
-0.082817 -0.820976 -0.122987 -0.771511 -0.124237 -0.622438
0.061837 -0.220755 0.072457 -0.683039 -0.103929 0.722815
-0.132533 0.005317 0.06617 -0.877247 -0.059742 0.444904
-0.103718 -0.747676 -0.097568 -0.908292 0.045332 -0.386026
0.181927 -0.076576 -0.079711 0.820705 -0.03972 -0.569276
0.13324 -0.869923 0.065144 0.01703 -0.999753 -0.008954
0.58364 0.129814 0.039788 0.748174 0.660525 0.055574
-0.049736 -0.678743 0.020955 0.080472 -0.285075 0.953188
0.189981 0.075561 -0.053345 0.886119 0.12737 -0.444221
-0.27023 0.325392 0.008223 0.093909 -0.169958 0.977223
-0.001525 0.708575 0.071943 -0.640562 0.003277 0.763289
-0.101464 -0.719864 -0.097887 -0.776094 0.022642 -0.630069
0.086949 0.402551 -0.145073 -0.119058 0.024579 -0.992321
-0.429866 0.229301 0.002818 -0.629988 0.577843 0.504003
-0.34323 0.266839 0.006253 0.015736 0.179261 0.983563
0.158224 -0.674921 -0.078858 0.630451 -0.076153 -0.771944
0.151618 0.377824 0.070264 0.671055 -0.041423 0.740178
-0.100213 -0.180639 -0.067952 -0.737433 -0.062335 -0.671839
0.2117 -0.128828 0.025902 0.965191 -0.155903 0.202832
0.065925 0.511256 -0.129285 -0.145377 0.106167 -0.98329
0.044277 -0.491607 -0.038786 -0.984792 -0.012869 -0.1694
-0.138493 -0.460408 -0.002078 -0.991166 -0.034846 0.116739
0.195856 0.131894 0.025141 0.873894 0.005307 0.483936
-0.040276 -0.392999 -0.080019 0.25492 -0.031592 -0.964958
-0.059662 0.433378 -0.128714 -0.150598 -0.112836 -0.981683
-0.523017 0.11995 0.064384 -0.757597 0.652114 0.019873
0.165165 -0.859074 0.013384 0.790479 -0.557873 -0.219041
0.163355 0.193855 -0.066756 0.793341 0.039197 -0.607013
0.068227 -0.004192 -0.15626 -0.242269 -0.154435 -0.956388
-0.246113 0.437455 -0.006955 -0.811576 0.493464 0.311918
0.05473 -0.65245 -0.037551 -0.881083 -0.151323 -0.447888
0.008979 -0.398171 -0.047024 0.805386 0.050486 -0.589223
0.143251 -0.664615 0.029554 0.142839 -0.158438 0.976863
-0.109329 -0.854396 0.018437 -0.722344 -0.687753 -0.071147
0.042169 0.348383 -0.13001 -0.339128 -0.067957 -0.932919
-0.478049 0.165788 -0.031376 -0.612758 0.524403 -0.59105
0.024884 -0.369171 0.022282 0.963544 -0.112017 0.233979
0.19315 -0.095851 0.073168 0.746162 0.002897 0.665735
0.17684 0.304948 -0.055652 0.894138 -0.272358 -0.355308
-0.092431 -0.610307 0.052405 -0.125964 -0.233167 0.954333
0.105684 -0.869885 0.102011 -0.062133 -0.993006 0.018686
0.077095 -0.481741 0.015734 -0.658601 0.077073 0.748263
0.104979 0.313256 0.101427 0.411422 0.124516 0.90267
-0.016711 0.281073 0.114756 -0.2685 0.021758 0.962963
0.078264 -0.101715 -0.118715 -0.323965 -0.388218 -0.862648
-0.092033 -0.839774 0.133073 -0.687214 0.681305 0.247009
-0.084591 0.130979 0.084143 -0.669862 0.024042 0.741965
0.008612 -0.160344 -0.05816 0.811739 -0.016532 -0.58302
-0.117841 0.16229 0.041576 -0.871925 0.020227 0.486978
0.131234 0.585648 -0.050901 0.552474 0.810211 0.163113
0.046707 0.793346 -0.117645 0.289728 0.172013 -0.939829
-0.001271 -0.118564 0.117611 0.527916 -0.19827 0.821781
-0.229953 0.465649 -0.009818 -0.833337 0.515671 0.189905
-0.138263 -0.157447 -0.010582 -0.937409 -0.12044 -0.325783
0.010161 -0.695432 -0.006511 0.776309 -0.237531 0.583637
0.058038 0.540791 0.039612 -0.040367 0.810169 0.580716
-0.113141 0.285743 -0.048638 -0.988723 -0.131146 -0.05836
0.000567 -0.13285 -0.073211 0.793951 -0.172734 -0.582893
-0.136859 -0.076519 -0.031048 -0.961906 -0.011097 -0.27306
-0.451061 0.143949 -0.015295 0.448509 -0.832166 -0.298376
0.132985 -0.074712 0.114407 0.202665 -0.009308 0.978577
-0.485443 0.141066 -0.028824 -0.123487 -0.741208 -0.596772
0.001188 -0.694117 -0.080791 0.492092 0.241801 -0.836211
0.145103 -0.459114 0.066564 -0.302521 -0.137674 0.937645
-0.097363 -0.792941 -0.109907 -0.797989 0.040954 -0.597553
0.018868 -0.229997 0.072984 0.954908 -0.031483 0.283795
0.147308 -0.738634 -0.090069 0.703929 0.178008 -0.679613
0.012863 -0.715786 -0.015595 0.771152 -0.05487 0.632394
0.15885 -0.104328 0.104327 0.487381 0.016206 0.869308
0.044258 -0.364707 0.012782 -0.958332 -0.093477 0.262656
0.131575 -0.866138 -0.00849 0.065052 -0.996899 -0.022855
0.200521 -0.341803 0.03052 0.932927 -0.09331 0.346986
-0.031483 0.04626 0.128435 -0.195683 0.121794 0.972746
-0.429803 0.236557 -0.01659 -0.722369 0.687865 0.067787
0.072785 0.692803 -0.061099 0.653129 -0.51732 -0.550915
0.066065 -0.47275 -0.07156 -0.727066 0.039463 -0.685301
0.05136 -0.078619 0.111202 0.132065 -0.5923 0.792814
-0.129248 0.102499 -0.002635 -0.994405 -0.090348 -0.039265
-0.156442 0.404056 0.022784 0.260558 -0.702825 0.659156
0.149809 -0.723625 -0.08516 0.701928 0.039511 -0.710744
0.124209 -0.869917 0.056795 -0.00043 -0.999856 -0.016214
0.195285 -0.206479 -0.056225 0.728511 -0.06686 -0.681647
-0.151811 0.421512 0.037929 -0.407594 -0.50244 0.759281
0.094865 -0.746515 -0.081793 -0.801568 -0.069944 -0.593112
0.226013 0.54954 -0.046702 0.443198 0.885426 0.134673
-0.034395 -0.791714 0.046603 0.540915 0.640116 0.544509
-0.019777 0.044739 0.131569 -0.330846 0.137388 0.930623
0.20132 0.400916 -0.049823 0.928526 -0.341303 0.020552
0.110136 0.382506 0.092217 0.351619 0.098896 0.930592
-0.113315 -0.513139 0.034634 -0.852168 -0.117915 0.507889
0.362112 0.265333 -0.076531 -0.786413 -0.605607 0.120204
0.182531 0.091748 -0.061156 0.825013 0.209936 -0.523583
0.026243 0.08767 -0.141789 -0.162282 0.246869 -0.955252
0.096983 0.762277 0.028814 0.976177 0.033728 0.20544
-0.120826 -0.497777 0.02816 -0.81019 -0.241753 0.533923
-0.015537 -0.817036 -0.135259 0.713837 -0.338419 -0.6068
-0.058207 -0.208581 -0.092244 -0.135181 -0.06493 -0.985479
0.177246 -0.382366 -0.065562 0.683901 0.221076 -0.689004
-0.033888 -0.493694 -0.094284 0.3981 0.107191 -0.905863
0.094554 0.481915 0.071119 0.198592 0.475482 0.854662
0.197062 0.35796 -0.028936 0.986862 -0.10706 0.110122
-0.059314 -0.70121 0.014215 0.114924 -0.267899 0.947425
-0.060307 0.297455 -0.119614 -0.436139 -0.028641 -0.899379
-0.033275 -0.216946 0.114643 0.16265 -0.191919 0.967105
-0.190718 0.515706 0.005854 -0.689276 0.69334 0.208226
0.02491 -0.386036 -0.011959 0.972165 -0.047525 -0.214071
0.087103 -0.771137 -0.075321 -0.788605 0.268714 -0.551189
-0.00283 -0.495259 -0.068227 0.781705 0.067056 -0.619867
0.171609 -0.848907 0.08179 0.740218 0.671922 0.012457
-0.094301 0.496268 -0.115017 -0.353172 0.303454 -0.884312
0.075784 -0.399309 0.038067 -0.676644 -0.325134 0.660352
0.135771 -0.822926 0.091903 0.21542 0.951869 0.213571
0.132464 -0.771747 0.033971 -0.038902 0.707778 0.688819
0.439914 0.204566 -0.048729 -0.698676 -0.685658 0.185465
0.193229 0.546522 -0.093473 0.301244 0.735307 -0.606628
-0.105871 -0.837664 0.053397 -0.716424 0.694813 0.060034
0.182674 0.224519 -0.014366 0.998032 0.010099 -0.059194
-0.117936 0.117057 0.048462 -0.87394 0.148679 0.461599
0.019878 -0.158451 -0.037569 0.943469 -0.016059 -0.32968
-0.43177 0.169373 -0.049957 0.352439 -0.654468 -0.655481
0.130578 -0.634081 0.03332 0.299407 -0.146825 0.941907
-0.016869 0.791121 0.050764 -0.854921 0.186124 0.476533
0.159114 0.470954 0.053271 0.600589 0.246275 0.758046
0.062674 -0.727588 0.03574 -0.358452 -0.053479 0.928691
0.384181 0.24833 -0.109104 -0.77832 -0.450838 -0.428897
-0.086766 -0.850651 -0.114747 -0.858897 -0.164106 -0.477969
0.161661 0.283654 -0.076917 0.868282 -0.162366 -0.467412
0.181891 -0.656375 -0.064055 0.635271 -0.266604 -0.724386
-0.118004 0.182029 -0.029218 -0.880787 0.120687 -0.457702
0.072131 0.124426 0.127688 0.274958 0.039644 0.956847
0.191823 0.470304 -0.135282 0.114176 0.022108 -0.993019
0.182274 0.006462 -0.080883 0.869545 0.068564 -0.483263
-0.393801 0.191384 -0.04889 0.281855 -0.810532 -0.48621
-0.084331 -0.178318 0.114569 -0.20264 -0.093509 0.97435
-0.061613 -0.824573 0.103911 -0.045939 0.993256 0.09277
0.032028 0.869659 -0.006054 -0.203162 0.97365 0.068582
-0.112828 -0.401726 -0.050138 -0.768639 -0.075971 -0.633661
-0.087302 0.546521 0.02832 -0.037049 0.741444 0.669788
0.206401 -0.197212 0.017796 0.992772 -0.03345 0.108566
0.043359 -0.295755 0.027501 -0.985584 -0.023233 0.160425
-0.097102 0.572632 -0.028414 -0.381884 0.904063 0.011649
-0.310764 0.302134 0.005442 -0.111553 0.064201 0.991296
-0.112051 -0.614284 -0.086957 -0.61959 0.09368 -0.779187
0.079601 -0.792459 -0.07322 -0.841597 0.22424 -0.489729
-0.288931 0.269509 -0.078692 0.517957 -0.525627 -0.674052
-0.039793 -0.793769 -0.149968 0.004484 0.274762 -0.952592
0.098959 0.234179 0.11036 0.547314 0.152543 0.793365
0.009678 0.136842 0.131089 -0.122541 0.03328 0.991762
-0.027184 0.490243 0.07484 -0.098416 0.446805 0.888421
0.190758 -0.754396 -0.01969 0.949199 -0.257004 -0.139607
0.234118 0.442772 -0.134839 -0.118395 0.046967 -0.990204
-0.189697 0.383574 -0.092994 0.319967 -0.409301 -0.852171
0.130003 0.110669 -0.115054 0.564697 0.300896 -0.766308
-0.388117 0.187832 -0.019246 0.624434 -0.778609 -0.013629
-0.071425 -0.284911 0.108053 0.068592 -0.11438 0.990891
0.1852 -0.123229 0.083086 0.719672 0.029277 0.693375
0.082758 0.351404 0.103883 0.270565 0.137327 0.95206
0.134174 -0.809743 0.059782 0.386711 0.726271 0.562489
0.064692 -0.423992 -0.068206 -0.744658 -0.000454 -0.667369
0.182717 -0.700121 0.00155 0.39629 -0.529069 0.745661
0.173699 0.482532 0.037359 0.59022 0.277906 0.754168
0.014147 0.262693 0.12623 -0.140387 0.099684 0.981659
0.197431 0.083218 0.010991 0.950603 0.286226 0.11424
-0.196742 0.489143 0.030745 -0.691753 0.295254 0.658068
0.086388 0.524857 0.048793 0.188127 0.545747 0.816048
0.06287 0.247454 -0.133096 -0.367853 -0.148128 -0.917715
-0.102964 -0.462928 -0.076436 -0.663344 0.124406 -0.735487
0.175921 -0.733056 -0.049397 0.833521 -0.185153 -0.52027
-0.398102 0.181015 -0.003586 0.561205 -0.824734 0.059373
-0.010467 0.811162 0.052549 -0.805197 0.336637 0.47929
0.12751 -0.285652 -0.093784 0.401261 -0.026096 -0.915258
0.089234 -0.825917 0.050906 -0.98602 -0.032693 0.130148
-0.118119 0.343126 0.006969 -0.976638 -0.142031 0.16103
0.043282 -0.306856 0.025051 -0.986322 -0.019761 0.153172
0.368441 0.337174 -0.129673 0.497711 0.251903 -0.82495
-0.045031 -0.458488 0.072945 0.209484 -0.239716 0.947942
-0.053233 0.395268 -0.126442 -0.255353 -0.076385 -0.962565
0.09106 0.751778 0.046001 0.92668 -0.016858 0.372787
0.189873 -0.366248 -0.049759 0.585509 0.235259 -0.77521
0.114019 0.360059 0.092848 0.411808 0.080894 0.90665
0.014865 -0.348809 -0.037916 0.783774 -0.038736 -0.61675
-0.079098 -0.194427 -0.085319 -0.535454 -0.037804 -0.842997
0.025597 -0.454265 0.0015 0.983479 0.020534 0.149224
0.086929 -0.842304 0.03662 -0.995624 0.08421 -0.001262
-0.147266 0.392699 -0.044854 0.717496 -0.676229 -0.164629
0.417466 0.294382 -0.119765 0.471558 0.458838 -0.751402
-0.114352 -0.061066 -0.07424 -0.785614 -0.178557 -0.592074
-0.125434 -0.243942 0.078676 -0.882774 -0.066988 0.464119
-0.114288 -0.28095 -0.040118 -0.879099 0.01137 -0.47629
0.027733 0.262894 -0.126214 0.006957 -0.074147 -0.995499
-0.067825 -0.793109 -0.141039 -0.455297 0.277299 -0.842508
-0.078555 -0.361347 -0.079929 -0.444812 -0.019547 -0.895322
-0.103423 -0.002036 -0.098774 -0.816075 0.000134 -0.575363
-0.013788 -0.249704 -0.080933 0.571188 -0.026024 -0.820194
-0.12629 0.11823 -0.024573 -0.949996 0.000175 -0.309964
-0.118857 0.095022 -0.048714 -0.871415 0.184106 -0.450481
0.114384 0.113027 -0.123725 0.484054 0.379033 -0.78783
0.019438 -0.688707 -0.018509 0.874871 -0.175679 0.451044
-0.330505 0.308442 0.000234 -0.365574 0.225473 0.90093
0.103772 -0.05051 0.123241 0.201197 -0.234758 0.946528
0.10549 -0.821491 0.085605 -0.360939 0.868184 0.325777
0.177936 -0.540727 -0.081694 0.697843 -0.036048 -0.71534
0.090433 0.736509 -0.075331 0.822798 -0.325334 -0.463617
0.064968 -0.40093 0.025155 -0.694508 -0.328057 0.640317
0.580185 0.069209 0.041562 -0.802601 -0.41281 0.411179
-0.090877 -0.860915 -0.015361 -0.298381 -0.936718 -0.121097
-0.119065 0.335122 -0.00757 -0.987225 -0.103898 0.119107
0.093611 0.819421 0.005075 0.806416 0.554003 0.202615
-0.06981 -0.862854 -0.079515 -0.019159 -0.998926 0.040568
0.166487 -0.863168 0.101955 0.219874 -0.965476 0.020195
0.133547 -0.403043 0.070328 -0.287111 -0.212669 0.933925
-0.127789 0.382931 -0.012504 -0.99265 -0.114323 0.034823
0.108579 0.049395 -0.146723 0.476459 0.235332 -0.846874
0.2059 -0.30828 0.002084 0.999609 -0.000368 -0.015226
0.315512 0.428793 -0.124896 0.473881 0.636208 -0.608704
0.053229 -0.684633 0.006997 -0.976395 -0.000411 0.210536
0.061597 -0.780231 0.025109 -0.781874 -0.136704 0.491585
-0.001431 0.70195 -0.072596 -0.637215 -0.5322 -0.557024
0.068163 0.766941 0.06947 0.3693 -0.376372 0.825559
0.180678 0.378304 -0.10489 0.510188 -0.4784 -0.713416
0.0477 -0.491493 -0.014165 -0.948792 0.000772 0.302022
-0.136332 0.042846 -0.001242 -0.986942 0.141939 -0.034318
-0.137448 -0.4244 0.006591 -0.996869 0.025818 0.062981
0.195098 0.366539 -0.075575 0.821889 -0.440143 -0.359939
0.294163 0.469875 -0.040587 0.791505 0.435081 0.422577
0.626014 0.041555 0.055647 -0.828182 -0.559497 -0.031779
0.084318 -0.849964 0.084002 -0.937929 0.320165 0.010549
-0.023368 0.196537 0.119808 -0.486962 0.119748 0.864936
-0.136756 0.036512 -0.009911 -0.980422 0.165107 -0.09995
0.576833 0.068288 0.030566 -0.865443 -0.484782 0.123751
0.038938 -0.161815 -0.061066 -0.86257 -0.261691 -0.431479
0.179758 -0.770954 -0.053721 0.769976 0.538651 -0.337642
-0.13555 -0.197772 -0.00142 -0.97246 -0.085059 -0.21167
-0.065218 -0.862135 -0.067182 0.001619 -0.998379 0.056322
0.166327 0.095794 0.07853 0.611815 0.23638 0.741742
0.20246 -0.096306 0.056738 0.852629 -0.042944 0.518678
-0.068117 -0.65149 -0.107842 0.009585 0.069817 -0.995571
0.174037 0.275396 -0.047538 0.923794 -0.113057 -0.364218
-0.137309 -0.449725 0.008427 -0.983628 -0.029502 0.175942
0.052664 -0.617389 -0.01217 -0.854848 0.122685 0.48907
0.126762 0.415308 0.082864 0.326698 0.131393 0.935261
0.192334 -0.16115 -0.059755 0.720539 -0.021482 -0.69227
0.484948 0.227044 -0.006231 0.289627 0.096408 0.939027
0.159467 -0.823805 0.034449 0.967884 0.109377 0.145366
0.051434 0.231567 -0.127901 -0.181588 -0.13249 -0.973185
0.148592 -0.364879 -0.082418 0.590159 0.12203 -0.797683
-0.100247 -0.032952 0.105091 -0.644102 0.037322 0.76395
0.616946 0.076656 0.007422 0.531911 -0.093747 -0.826642
-0.062228 -0.742129 0.02697 -0.032474 0.246611 0.964189
0.010118 -0.80436 -0.053816 0.960382 -0.236901 0.139011
-0.093553 0.032624 0.103708 -0.419492 0.258944 0.869983
0.301251 0.465465 -0.093753 0.677076 0.654447 -0.336287
-0.427711 0.23629 -0.005024 -0.694388 0.640084 0.287519
-0.107004 0.340122 -0.088277 -0.714373 -0.20146 -0.667786
-0.076553 -0.81059 0.053402 -0.683177 0.510789 0.52001
-0.070367 0.105124 0.100559 -0.492551 0.383293 0.780735
-0.295359 0.26938 -0.003013 0.724107 -0.249526 0.629699
0.199927 -0.425041 -0.031131 0.987571 -0.025205 -0.153221
-0.255334 0.335685 0.009946 0.029475 -0.372557 0.925034
0.093968 -0.789089 0.043991 -0.476269 0.339107 0.810735
-0.109149 0.285562 -0.07221 -0.909563 -0.077943 -0.403539
-0.384103 0.290542 -0.05009 -0.706535 0.705083 -0.052426
0.049021 0.476009 -0.129355 -0.258598 0.084404 -0.959485
-0.134289 -0.250129 0.048953 -0.983992 -0.084308 0.147075
0.117173 -0.227905 0.090765 0.037746 -0.169037 0.984875
-0.358805 0.207981 -0.012873 0.527108 -0.844026 0.085757
-0.251212 0.358434 0.017543 0.042069 -0.195711 0.976304
0.129855 -0.128191 -0.115053 0.322414 -0.269252 -0.905988
0.192922 -0.004642 0.066289 0.790961 -0.125034 0.585582
0.159033 -0.823144 -0.099433 0.714507 -0.339025 -0.598891
0.02449 -0.356047 0.031654 0.938072 -0.158133 0.303676
0.140804 0.14272 0.089637 0.670852 0.025956 0.741088
0.167994 0.248632 -0.058236 0.891416 0.02001 -0.45262
-0.120509 0.336245 -0.041014 -0.99984 -0.015754 0.003086
0.421375 0.274035 -0.12524 0.370131 0.122608 -0.920276
0.572806 0.135376 0.050786 0.173015 0.576195 0.535325
0.555011 0.103424 0.03623 -0.844597 -0.438493 0.301747
0.082485 0.420805 0.09093 0.097343 0.200081 0.973717
0.117389 -0.260832 0.08548 0.053524 -0.232981 0.96769
-0.122849 0.524646 0.045773 -0.053408 0.582481 0.809169
0.027576 -0.628848 -0.031393 0.997007 0.00421 -0.070395
-0.079726 -0.860243 -0.115996 -0.315685 -0.890513 -0.270139
0.072968 -0.195352 -0.091662 -0.49372 -0.230428 -0.83505
-0.013557 0.559973 0.021826 -0.017017 0.705447 0.701498
-0.110038 -0.797249 -0.088463 -0.916377 -0.081728 -0.386765
-0.027148 0.084264 -0.133222 -0.256536 0.314713 -0.912888
0.146414 0.30097 0.07183 0.777545 0.041963 0.626947
-0.247685 0.343135 0.012553 0.116824 -0.372055 0.916424
0.044315 -0.522237 -0.025214 -0.990933 0.001239 0.103732
-0.069881 0.558333 0.015631 -0.085123 0.773336 0.628124
0.110156 0.584357 -0.088814 0.312408 0.743002 -0.585428
0.017536 0.319208 0.119477 -0.158142 0.170631 0.970088
-0.326363 0.22667 -0.02549 0.663716 -0.747139 0.006775
-0.139095 -0.487102 -0.020757 -0.976045 -0.094073 -0.147511
0.053082 0.868751 -0.015855 0.418391 0.894495 -0.059985
0.021809 -0.457929 0.012597 0.899251 -0.029787 0.435342
-0.107132 -0.840018 -0.006224 -0.961578 0.19156 -0.10791
-0.117191 0.477856 0.061236 -0.033288 0.042061 0.998233
-0.066533 0.534261 -0.10662 -0.275116 0.450819 -0.848502
-0.040196 0.74585 -0.02975 -0.991682 -0.018482 -0.088411
0.054195 0.387312 -0.136174 -0.304242 0.007856 -0.952255
0.076641 0.601339 0.005267 0.746173 0.039203 0.664451
-0.381228 0.225496 -0.073718 -0.114506 -0.298066 -0.945365
-0.109536 -0.844414 0.077678 -0.87186 0.438393 0.183734
0.022978 -0.204384 0.061769 0.946303 -0.035837 0.321066
-0.113737 -0.430732 -0.055228 -0.741273 0.279911 -0.60983
-0.117325 -0.248249 -0.034615 -0.85056 -0.018852 -0.525497
-0.131561 -0.004031 -0.045861 -0.935002 0.05729 -0.348609
0.189749 0.092969 0.042718 0.970838 0.059825 0.221388
0.186499 0.357973 0.017263 0.90498 -0.149379 0.397522
-0.256128 0.288992 -0.050074 0.76111 -0.636637 -0.102212
-0.09187 -0.788519 -0.116689 -0.791027 0.130072 -0.597757
0.265156 0.460582 -0.126832 0.27461 0.515354 -0.811029
0.11745 -0.510611 -0.107713 -0.191109 0.00329 -0.981132
0.369101 0.355778 -0.07729 0.668046 0.651146 0.358767
0.212979 0.493154 -0.128957 0.199948 0.275882 -0.938644
0.19073 -0.391749 0.047706 0.93289 -0.027111 0.358396
0.194702 -0.06882 -0.057333 0.871675 -0.008659 -0.489088
0.055185 -0.643413 0.006032 -0.650738 0.250931 0.706316
0.072298 0.503467 -0.13204 -0.311741 0.190955 -0.928672
-0.019084 -0.101383 -0.102783 0.378909 -0.323663 -0.862528
0.137649 0.395096 -0.136584 0.412494 -0.166587 -0.894784
-0.118319 0.318333 -0.058409 -0.952667 -0.168896 -0.239084
0.200089 0.444435 0.030127 0.640462 0.049887 0.765246
-0.070164 -0.749711 0.029181 -0.019693 -0.098839 0.988054
0.080615 -0.635101 -0.071805 -0.657036 -0.083976 -0.748582
-0.422532 0.213215 0.014717 -0.173927 0.187734 0.960624
0.028007 0.79374 -0.119002 -0.09 0.247091 -0.961936
0.131572 -0.097013 -0.122461 0.306546 -0.216037 -0.924851
0.354871 0.272327 -0.075443 -0.674307 -0.720762 0.157969
0.15022 -0.680964 -0.084938 0.644474 -0.010477 -0.764464
0.170427 0.566395 -0.028863 0.230104 0.91597 0.294683
-0.120497 -0.772781 -0.0361 -0.992195 -0.094973 0.063102
-0.523215 0.08518 0.096062 -0.072036 0.18101 0.898296
0.088612 0.384132 0.097437 0.152989 0.115057 0.981366
-0.087866 0.321456 0.07232 -0.839396 0.00144 0.525904
0.016916 -0.364015 -0.034114 0.856505 -0.006514 -0.510007
-0.118499 -0.302007 0.087171 -0.867812 -0.039336 0.486965
-0.041702 -0.781696 0.040084 0.122793 0.742658 0.647691
0.166378 0.151868 0.06402 0.711138 0.080228 0.698414
-0.095555 0.55379 -0.077322 -0.404672 0.687302 -0.603131
-0.094899 -0.116153 0.112046 -0.363387 0.058836 0.928643
0.167292 -0.69554 0.012927 0.38649 -0.502484 0.772851
0.077504 0.685761 -0.048797 0.737938 -0.374298 -0.560796
-0.018918 0.234655 -0.12831 -0.081768 -0.108866 -0.990263
0.050327 0.65729 0.050942 0.313666 -0.892143 0.298726
0.135652 0.419108 0.079056 0.465135 0.112562 0.874515
0.060578 0.281256 0.120739 0.18602 0.092786 0.977927
-0.123757 -0.488376 0.02811 -0.810628 -0.243554 0.532254
0.129939 -0.052821 0.11525 0.317169 -0.044783 0.946353
0.013064 -0.153321 -0.051697 0.834556 -0.051419 -0.547598
0.073945 0.548997 -0.120574 -0.104699 0.392632 -0.910862
-0.012858 0.187788 -0.116769 -0.283748 -0.237298 -0.928602
0.146487 -0.419788 0.071825 -0.218235 -0.098563 0.969964
-0.122804 -0.582475 0.001487 -0.927666 -0.038402 0.369475
-0.063255 -0.064551 0.124536 -0.316236 -0.055701 0.946846
0.197361 -0.202494 0.050963 0.945559 -0.046818 0.321027
-0.076239 0.303604 0.081802 -0.58392 0.005615 0.811393
-0.315405 0.341933 -0.009739 -0.5511 0.574146 0.595041
0.166125 0.213488 -0.062164 0.869378 -0.006716 -0.493941
-0.076984 -0.328727 0.104666 0.088918 -0.084037 0.992312
0.026174 -0.48474 -0.003949 0.97672 0.025947 0.167342
0.145042 0.507987 -0.134079 0.210585 0.368546 -0.903083
-0.118378 -0.736205 -0.072133 -0.754081 -0.036543 -0.655239
0.214469 -0.097409 0.012914 0.99914 -0.001519 0.033062
-0.006893 -0.750761 -0.105386 0.72948 0.219625 -0.644275
-0.32479 0.336776 -0.069393 -0.569481 0.709982 -0.410307
-0.115908 -0.205859 -0.041595 -0.851762 -0.098907 -0.513364
-0.121659 0.142933 0.032202 -0.949171 0.060562 0.306593
0.149009 -0.110401 0.109179 0.422743 -0.016616 0.904958
0.189271 -0.031105 0.073524 0.77491 0.025525 0.631161
-0.128339 -0.213854 0.07687 -0.908552 -0.040582 0.414988
0.033088 -0.290875 -0.016003 -0.984544 -0.133281 -0.108451
-0.072719 0.249491 0.08658 -0.578099 0.064908 0.811726
0.642154 0.038406 0.036739 0.981216 0.192579 -0.009819
0.097859 -0.868539 -0.090598 -0.446356 -0.869598 -0.07294
-0.042054 -0.614576 -0.099508 0.392058 0.034986 -0.917667
0.172084 -0.389327 -0.071641 0.666001 0.141871 -0.713569
-0.14259 -0.058852 0.029819 -0.986291 0.049421 0.154393
-0.004555 -0.024175 0.132906 -0.062884 -0.121224 0.987884
-0.060998 -0.224518 0.11507 -0.06139 -0.160877 0.983624
0.160879 -0.831665 0.04013 0.92885 0.358277 0.042494
0.078523 0.08238 0.127105 0.471138 0.02626 0.880806
0.212805 -0.018714 0.005972 0.987684 0.105059 -0.0878
0.201791 -0.513784 -0.039007 0.957794 0.075194 -0.276573
-0.02203 -0.848132 -0.094879 0.984622 -0.127215 0.032227
0.083837 -0.615194 0.018865 -0.729391 -0.235497 0.639933
-0.041194 0.030581 0.128595 -0.319396 0.165845 0.928827
-0.136764 -0.012352 0.037956 -0.993229 0.0307 0.110823
0.22122 0.481363 0.017381 0.340602 0.073589 0.929321
0.161887 -0.632877 0.026017 0.263753 0.154186 0.947858
0.205622 -0.077632 0.051634 0.908253 0.013131 0.413348
0.183239 0.115766 0.050927 0.851017 0.192334 0.486897
-0.090052 0.573982 -0.020595 -0.188381 0.972378 0.109224
0.132927 -0.86992 0.08423 0.006005 -0.999907 0.010047
0.110745 0.541249 0.027051 0.410056 0.575966 0.705857
0.014511 0.442244 -0.126989 0.030713 0.002637 -0.999276
0.164939 -0.321272 -0.066578 0.680974 0.002575 -0.731999
0.460534 0.196712 -0.005707 -0.724683 -0.328387 0.538554
-0.094591 0.350876 -0.1013 -0.57844 -0.146675 -0.802159
0.293769 0.477915 -0.051957 0.802058 0.539892 0.251762
-0.03478 0.482274 -0.12929 0.016887 0.129088 -0.991395
-0.001806 0.350024 0.112491 -0.073428 0.060704 0.99395
-0.119544 -0.684964 -0.006979 -0.983613 0.001325 0.174358
0.017457 -0.767327 -0.043384 0.971855 -0.10212 0.198686
0.043449 -0.0216 0.134692 0.077497 -0.220281 0.967699
-0.00207 -0.719582 -0.091197 0.61408 0.235947 -0.752302
-0.090666 0.445257 0.07208 -0.615293 0.118817 0.778917
-0.172952 0.420495 0.031883 -0.005368 -0.387202 0.921534
0.155206 0.558987 -0.008892 0.163964 0.756904 0.63255
-0.046229 -0.415402 -0.084537 0.145065 0.268733 -0.951371
-0.13564 -0.231934 0.042509 -0.99553 -0.051648 0.070573
0.190306 0.357271 -0.074453 0.819676 -0.436207 -0.369359
-0.048276 -0.250037 0.110789 0.127589 -0.123307 0.984032
0.039008 -0.105078 0.095582 0.482706 -0.589514 0.643932
0.591385 0.083574 -0.002317 0.595698 0.259958 -0.758509
-0.010419 0.362346 -0.128938 0.026171 -0.011799 -0.999384
0.127822 -0.824217 -0.11605 0.239816 -0.071512 -0.955394
-0.386122 0.191494 -0.041142 0.388792 -0.886611 -0.220272
0.173017 -0.687032 0.014982 0.463486 -0.423265 0.777337
0.087916 -0.216485 -0.09376 -0.433315 -0.12438 -0.891278
-0.095088 0.214985 -0.063825 -0.784618 -0.185255 -0.581735
0.053074 -0.71433 -0.000982 -0.991051 -0.089486 -0.085404
0.387157 0.239448 -0.062962 -0.607626 -0.759467 0.225554
-0.115243 -0.208261 0.09756 -0.706174 -0.018346 0.707554
-0.124657 -0.048942 -0.060243 -0.85472 -0.101498 -0.508838
-0.095577 -0.064208 -0.095216 -0.669562 -0.225574 -0.707585
0.068184 0.230881 0.122858 0.298556 0.096597 0.949273
0.186758 -0.439581 -0.064928 0.765298 0.170082 -0.620504
-0.049178 -0.863475 0.019704 0.046989 -0.998038 -0.037137
0.023355 -0.554046 -0.025443 0.90089 0.163549 -0.400135
-0.044882 0.493456 0.070299 -0.22979 0.503368 0.831913
0.207303 0.012308 0.017124 0.999594 0.019757 0.014576
0.205701 -0.373481 -0.01402 0.997726 0.01078 -0.055134
0.123102 0.250492 -0.124846 0.654037 -0.167682 -0.737609
-0.109111 0.078627 0.080562 -0.675439 0.406622 0.612156
0.162995 0.458816 0.052711 0.670762 0.117279 0.73133
0.199159 -0.589569 -0.046856 0.985032 -0.017283 -0.171398
-0.131818 -0.267913 0.041877 -0.976441 -0.182431 0.099226
-0.053337 -0.13805 -0.10277 -0.039868 -0.173047 -0.982223
-0.136868 -0.115715 0.055393 -0.962746 -0.00746 0.268823
-0.366077 0.204783 0.001353 0.502393 -0.682134 0.508231
-0.117665 0.46622 -0.111294 -0.432842 0.120914 -0.892971
0.11947 0.325242 0.094275 0.500531 0.104918 0.857073
0.294085 0.327211 -0.099116 -0.686741 -0.717234 -0.11015
-0.108236 0.014878 -0.091106 -0.836586 0.014921 -0.547554
-0.161785 0.418558 0.032013 -0.187287 -0.401448 0.887141
0.188774 -0.328283 0.060298 0.871851 -0.094887 0.477113
0.23376 0.448311 0.008564 0.614773 -0.076359 0.776689
-0.098296 0.081377 0.086266 -0.400552 0.487916 0.773468
-0.017764 -0.043162 0.132859 -0.026933 -0.213499 0.975637
-0.504889 0.144793 0.017362 -0.783433 0.620251 -0.025611
-0.128108 -0.280745 0.055715 -0.986281 -0.0992 0.127533
-0.008124 0.442852 -0.129362 0.10155 -0.006782 -0.994772
0.047025 0.657662 -0.064655 0.189294 -0.102551 -0.975481
0.150022 0.342976 0.067558 0.727101 -0.089682 0.680541
0.128925 0.178436 0.097671 0.5218 0.023226 0.852475
0.014972 -0.212531 0.084287 0.85674 -0.062492 0.511641
0.026811 -0.359582 -0.00284 0.99576 -0.028308 -0.07352
0.044248 -0.459188 -0.021596 -0.98192 -0.036983 0.157625
-0.142382 0.417653 0.038565 -0.411379 -0.799844 0.413292
-0.096367 -0.847361 -0.08459 -0.983208 -0.054004 -0.162972
0.112428 -0.825947 0.132184 -0.234795 0.965408 0.045377
-0.082123 -0.863445 0.044425 -0.03146 -0.999402 -0.008074
0.064421 0.632488 -0.061136 0.494005 0.315583 -0.808122
0.126156 0.364404 0.08813 0.393367 0.050836 0.916661
-0.050272 0.185367 0.104126 -0.485544 0.030046 0.873367
0.17457 -0.165912 -0.075954 0.707419 -0.05095 -0.704669
-0.550583 0.06289 0.016098 0.857011 -0.412228 -0.302917
0.158234 -0.305493 -0.072085 0.607487 -0.006564 -0.794068
0.095461 0.797339 -0.073901 0.894717 0.149621 -0.409379
-0.083385 0.571138 -0.061983 -0.483843 0.757788 -0.426183
0.025212 0.458196 -0.126606 -0.062626 0.057298 -0.995975
0.02013 -0.252102 0.066273 0.948628 -0.023108 0.315218
0.206723 -0.146562 0.036829 0.968444 -0.149126 0.196721
0.057256 -0.244715 -0.065896 -0.775434 -0.062093 -0.627371
0.197847 0.479403 -0.134219 0.112089 0.107568 -0.986634
-0.084081 -0.862879 0.000333 -0.063509 -0.997158 -0.035316
-0.127866 -0.331994 -0.010844 -0.995518 -0.004798 -0.083943
0.356109 0.373391 -0.105892 0.739028 0.66818 -0.053997
0.080396 -0.221607 -0.089472 -0.469199 -0.09276 -0.877702
0.197639 -0.273177 -0.035757 0.880086 -0.155662 -0.446375
-0.116774 -0.169983 0.096428 -0.722285 -0.013425 0.691155
-0.126216 -0.189821 -0.027317 -0.869494 -0.129727 -0.473758
0.120606 -0.664149 0.032387 0.099772 -0.141846 0.984436
0.066584 0.79566 0.073594 0.542337 0.288516 0.785517
0.194919 -0.475422 0.015003 0.952149 -0.000642 0.305097
-0.016508 -0.013161 0.138014 -0.053141 -0.721109 0.667213
0.194087 -0.542143 0.016455 0.929927 -0.063246 0.361637
0.073688 -0.140217 0.085941 -0.595639 0.032011 0.802553
0.454491 0.282632 -0.076098 0.732749 0.678582 0.001589
-0.294626 0.365387 -0.015017 -0.769088 0.558887 0.292124
0.155512 0.474336 -0.140536 0.281471 0.192058 -0.939617
-0.362419 0.309724 -0.035286 -0.625658 0.766392 0.136194
-0.115233 0.413749 -0.105741 -0.561725 -0.309431 -0.765835
0.186957 0.415518 -0.12645 0.244692 -0.393911 -0.885392
0.193155 -0.116711 0.07249 0.824849 -0.01528 0.563258
-0.077756 -0.721836 0.011855 -0.025202 -0.170724 0.950318
-0.026777 -0.53763 -0.093689 0.445095 0.019133 -0.894739
0.07033 0.334141 -0.141838 -0.341383 -0.032399 -0.939273
-0.084218 -0.203872 -0.081794 -0.591593 -0.027843 -0.805607
-0.091273 0.556483 0.016129 -0.042326 0.793082 0.606856
0.10111 -0.217681 0.091675 -0.133312 -0.18885 0.972402
0.167379 -0.844164 0.040553 0.839198 0.54199 -0.022975
0.154604 -0.864777 0.131715 0.333371 -0.937038 0.06085
0.081779 0.122523 -0.130655 0.151417 0.399424 -0.900527
0.214256 -0.124516 0.004886 0.997735 -0.057223 0.022101
-0.122325 -0.279948 0.079658 -0.944644 -0.034906 0.321521
-0.018916 -0.834397 -0.075245 0.656878 -0.670528 -0.008367
-0.096457 0.383598 0.070382 -0.610649 -0.141649 0.778889
0.573225 0.141225 0.037478 0.800627 0.581675 0.137815
0.131604 0.017756 0.11813 0.368887 0.22323 0.900979
0.050884 -0.637527 -0.033113 -0.953587 -0.139419 -0.255911
0.592919 0.11739 0.007383 0.235163 0.832153 -0.430366
-0.037862 0.254864 0.109013 -0.419227 0.029494 0.905252
-0.090621 0.090713 -0.093211 -0.717015 0.186699 -0.671332
0.158693 -0.697745 -0.077195 0.69859 -0.026132 -0.714485
0.053436 -0.705237 -0.012301 -0.973452 -0.150427 -0.166797
0.147032 -0.023778 -0.131378 0.667377 -0.028864 -0.74338
0.014694 0.195248 -0.11774 0.17796 -0.319812 -0.930054
-0.082645 -0.443376 -0.086105 -0.368025 0.277461 -0.885284
0.062541 -0.74016 0.033937 -0.271797 -0.366807 0.880694
0.173638 -0.316618 -0.057773 0.728537 -0.016063 -0.684575
-0.024504 -0.12477 0.124881 0.14515 -0.064559 0.985524
-0.565392 0.049535 0.052184 -0.950847 0.228545 0.178167
0.450137 0.197078 -0.033873 -0.701767 -0.684882 0.161241
0.037199 -0.158669 0.045402 0.018879 -0.499178 0.758647
0.194998 -0.553287 -0.060041 0.834381 -0.013287 -0.55097
0.196085 -0.572613 0.011389 0.926483 -0.004364 0.369997
0.083438 0.614718 -0.058969 0.537507 0.670411 -0.502589
0.225187 0.395285 -0.110376 -0.744371 -0.542393 -0.386266
0.031468 0.37184 0.107977 0.0476 0.199027 0.977979
-0.128724 -0.638668 -0.051161 -0.998494 -0.048547 -0.001591
-0.393502 0.190098 0.013366 0.567138 -0.419181 0.634898
0.119791 -0.427293 0.060959 -0.459557 -0.232404 0.855669
0.399033 0.227329 -0.079092 -0.608529 -0.782813 0.120044
0.14875 -0.164024 0.100028 0.25172 -0.265265 0.93039
0.008215 -0.349009 -0.045318 0.745441 -0.054853 -0.663918
0.082392 0.843602 0.009493 0.871628 0.475475 0.107559
0.094643 -0.865756 0.058666 -0.614922 -0.780104 -0.065575
0.027568 -0.619036 -0.029472 0.994932 0.01569 -0.082396
-0.062381 -0.728338 -0.123795 0.009981 0.203442 -0.978482
0.039875 0.750748 0.096037 0.512777 0.409943 0.72581
0.182752 0.23573 0.005035 0.999664 -0.012964 0.02014
0.075219 -0.116773 -0.111561 -0.283598 -0.23916 -0.921729
0.468547 0.187379 -0.01602 -0.579012 -0.813157 0.041545
0.206196 0.041976 -0.003556 0.995274 0.067815 -0.056722
-0.12558 -0.253605 0.076884 -0.900536 -0.08541 0.421961
0.192108 -0.148445 0.073395 0.901439 -0.041691 0.427729
-0.006613 0.231025 0.1224 -0.371082 0.121495 0.92057
0.041289 0.520722 0.055812 0.095192 0.557331 0.823176
0.14032 -0.693493 -0.090259 0.445977 -0.001692 -0.895009
-0.028653 -0.066663 -0.119106 0.02345 -0.369878 -0.928549
0.165215 0.122142 -0.073506 0.805248 0.201251 -0.554417
-0.08825 0.283732 0.072311 -0.660198 0.019258 0.749868
0.48241 0.178363 -0.027079 -0.557248 -0.829713 -0.010216
0.301522 0.453875 -0.039724 0.761634 0.359476 0.537076
0.17422 -0.336684 -0.057227 0.733507 0.031213 -0.678791
0.100845 0.725462 -0.000753 0.989592 0.017348 0.108471
-0.026722 0.779417 0.032132 -0.895553 0.100097 0.428395
0.009869 -0.007255 0.14585 0.067175 -0.370903 0.914238
0.230936 0.485156 0.010844 0.62688 0.042097 0.767839
-0.17757 0.371394 -0.001051 0.543304 -0.673013 0.500618
0.081575 -0.661192 -0.069987 -0.740999 -0.054424 -0.668941
-0.116432 0.53261 -0.086075 -0.365125 0.625052 -0.689779
-0.127692 0.074247 0.030789 -0.977033 0.150462 0.145411
0.166365 -0.177264 0.092941 0.37633 -0.173817 0.908275
-0.117495 -0.297736 -0.035573 -0.828172 0.048323 -0.558357
-0.099939 -0.741683 -0.001076 -0.630085 0.464618 0.609456
0.080668 -0.608782 -0.074562 -0.677346 -0.053734 -0.733625
0.557643 0.095749 0.029259 -0.814292 -0.559288 0.148131
-0.105176 -0.819001 -0.030977 -0.927078 -0.333421 0.081198
-0.213121 0.406335 -0.095037 -0.143317 0.165345 -0.975466
-0.119557 -0.025505 -0.072486 -0.849065 -0.032357 -0.526563
0.084275 0.841818 -0.043832 0.787472 0.605291 -0.11047
0.328727 0.389615 -0.139077 0.414871 0.024392 -0.908868
0.620952 0.04936 0.081417 -0.827718 -0.554565 0.016418
-0.080284 0.309172 -0.107209 -0.652064 -0.049316 -0.756101
-0.135634 0.519669 -0.086289 -0.397764 0.495569 -0.771728
-0.045431 0.224527 -0.118604 -0.525645 -0.249959 -0.81062
0.019145 0.350303 -0.126668 0.003819 -0.039996 -0.99776
-0.022348 -0.829817 0.031669 0.870044 -0.415659 0.22649
-0.119744 0.458186 0.06137 -0.06474 0.010786 0.997288
0.201388 -0.580911 -0.013775 0.984645 -0.090754 0.143111
0.106925 0.119448 0.112637 0.510598 0.032485 0.858356
0.060719 -0.548486 -0.061248 -0.779632 -0.049143 -0.624184
0.236379 0.478559 0.006083 0.585348 -0.029823 0.807498
0.104135 -0.048848 -0.143111 0.106938 -0.3346 -0.935274
0.072318 0.718899 0.073892 0.649734 0.088672 0.75385
-0.483181 0.128273 0.063301 0.657779 -0.598014 0.44838
-0.034888 0.835292 -0.037824 -0.710478 0.683207 -0.159849
-0.109475 -0.855772 0.045601 -0.751708 -0.656365 -0.012427
0.057731 -0.6768 -0.035615 -0.856951 -0.124702 -0.500058
0.149451 0.191761 0.078921 0.721574 0.050996 0.690428
0.15301 -0.440031 0.070651 -0.087154 -0.098729 0.983951
0.24544 0.385459 -0.032461 -0.424618 -0.695561 0.576751
-0.071227 -0.453559 0.080354 0.163313 -0.164652 0.97258
0.074968 0.627418 0.007807 0.814577 -0.120724 0.565847
-0.139533 -0.030025 0.02736 -0.969473 0.190302 0.14563
-0.011749 0.671446 -0.025147 -0.991658 -0.100714 -0.070454
-0.07041 0.222365 -0.097907 -0.691818 -0.251838 -0.676081
0.150158 0.268865 0.070323 0.759476 0.08344 0.644894
0.183141 0.265544 -0.004509 0.999745 -0.008427 -0.010096
-0.031909 -0.86175 0.024691 0.361879 -0.924931 -0.084459
0.183015 -0.325328 0.069179 0.76348 -0.057653 0.642183
-0.031195 -0.596413 0.029264 0.302341 -0.176575 0.93546
0.046638 0.852464 0.04682 0.317498 0.692857 0.646394
0.003065 -0.827484 -0.048417 0.901248 -0.424613 0.064981
-0.025836 -0.425737 0.075198 0.367519 -0.192376 0.908578
0.543105 0.190388 -0.002226 0.980009 0.098194 0.144378
0.076665 -0.431966 -0.080582 -0.690619 0.018312 -0.722949
0.213692 -0.126048 -0.010335 0.992323 -0.067721 -0.093905
0.492108 0.236645 -0.040032 0.682642 0.729759 0.035476
0.084548 -0.82249 -0.084877 -0.740656 -0.6165 -0.2263
0.049354 0.732617 0.091158 0.855596 0.144142 0.492137
0.053186 0.660135 0.070509 0.233731 -0.961346 0.136473
0.056733 0.453097 0.08714 0.115145 0.326073 0.938073
0.47112 0.194826 -0.054754 -0.232768 -0.622309 -0.739083
0.206317 -0.21256 0.010966 0.998044 -0.031481 0.052224
-0.126469 -0.41681 0.051556 -0.924235 -0.058792 0.375468
0.01457 -0.184897 -0.051098 0.831764 0.066583 -0.550993
0.164431 0.296041 -0.077596 0.855233 -0.22848 -0.464879
-0.048488 0.414533 -0.128524 -0.132443 -0.0617 -0.988857
0.081023 -0.468601 0.017292 -0.643657 0.062402 0.762623
-0.002215 -0.365007 0.07468 0.716321 -0.126383 0.6859
0.072472 0.637532 -0.053945 0.70206 0.264402 -0.659908
-0.1256 -0.665208 -0.073805 -0.909857 -0.013929 -0.403139
0.185512 -0.769438 -0.002064 0.920112 -0.308431 0.228843
0.18169 -0.396209 -0.064417 0.704646 0.106758 -0.700221
0.063081 0.520581 -0.127823 -0.165738 0.173181 -0.969078
-0.131785 -0.215808 0.067856 -0.930726 -0.048832 0.361969
0.091252 -0.859928 0.042955 -0.815946 -0.557684 -0.133852
0.139323 -0.844321 -0.110484 0.511518 0.029267 -0.856983
-0.083628 0.042555 0.10548 -0.451443 0.165906 0.87207
0.28793 0.482726 -0.044435 0.760623 0.564434 0.320258
0.425406 0.264288 -0.123855 0.400572 -0.046314 -0.910618
0.162915 -0.154297 0.097791 0.38053 -0.110723 0.916686
0.188916 0.042491 0.069412 0.771355 0.219657 0.596693
0.131849 -0.376047 -0.095939 0.471545 0.110117 -0.873189
0.017297 -0.134323 -0.049491 0.811851 -0.249086 -0.522864
-0.352078 0.228676 -0.070549 0.339816 -0.593724 -0.72849
0.131547 0.346371 0.086197 0.467994 0.026965 0.882794
-0.106231 -0.403056 0.087394 -0.608122 -0.221251 0.737088
-0.316004 0.239653 -0.005265 0.692946 -0.572986 0.418891
-0.077619 0.56163 0.010669 -0.066638 0.778157 0.624492
0.062173 0.693027 -0.07104 0.524037 -0.530111 -0.664741
0.138795 0.581783 -0.041396 0.2646 0.926952 0.254735
0.050146 -0.34678 -0.053563 -0.837127 -0.070481 -0.541866
0.132208 -0.795903 -0.116553 0.173021 0.312296 -0.931101
0.01463 -0.736038 -0.076755 0.811794 0.026523 -0.581136
0.136859 -0.861764 0.173757 0.062356 -0.966272 0.247895
-0.513367 0.130464 0.056679 -0.789299 0.607183 0.035484
0.180573 -0.197632 0.084195 0.574797 -0.107579 0.807876
0.167359 -0.809691 0.013144 0.961653 -0.112182 0.220707
0.05012 -0.293733 -0.055674 -0.822455 -0.014716 -0.568597
0.216352 0.445915 -0.132765 -0.084379 -0.180613 -0.979352
-0.06826 -0.779225 0.030367 -0.470643 0.51494 0.698421
0.343064 0.293008 -0.115361 -0.529849 -0.636547 -0.556942
0.186719 -0.687905 -0.045842 0.655568 -0.188991 -0.730357
0.026861 -0.671987 -0.043725 0.994794 0.00499 -0.076304
-0.06539 -0.862912 -0.005859 0.004032 -0.999248 -0.038431
0.12808 -0.268469 0.08399 0.05301 -0.085501 0.994594
-0.070782 -0.862896 -0.103244 -0.067771 -0.996223 -0.036441
-0.10379 0.566716 -0.010736 -0.149569 0.972708 0.150333
-0.507479 0.085721 0.065046 0.697343 -0.691678 0.106378
0.042202 0.05564 -0.152389 -0.13606 0.21408 -0.967259
-0.070053 -0.615372 0.043384 0.437427 -0.192451 0.878206
0.205739 -0.344922 -0.008386 0.995938 0.019822 -0.079895
-0.028271 0.600692 -0.048659 -0.692152 0.714914 -0.054774
0.194579 0.523828 -0.116307 0.180557 0.641141 -0.745827
-0.113874 0.448006 -0.114262 -0.429965 -0.027962 -0.901329
0.016791 -0.252569 0.076682 0.879402 -0.078083 0.457885
0.153278 -0.827624 0.088664 0.475588 0.865039 0.145816
0.095408 0.603509 -0.062356 0.653119 0.718732 -0.220412
-0.035803 0.796187 -0.006416 -0.995978 -0.002222 0.087987
0.059535 -0.617201 -0.054202 -0.77028 -0.0597 -0.634587
0.097643 -0.007237 0.129397 0.282573 -0.250304 0.925065
0.075934 0.74369 -0.096836 0.643923 -0.325801 -0.690831
-0.102215 0.431791 -0.117331 -0.411932 -0.108531 -0.903768
0.315877 0.438604 -0.04867 0.818736 0.32556 0.469479
0.055111 0.083291 -0.147331 -0.139252 0.314984 -0.938114
0.159092 -0.807083 0.03162 0.813639 0.278336 0.478296
-0.11864 -0.095826 -0.060328 -0.772412 -0.118441 -0.623186
0.094632 -0.50584 -0.097446 -0.557181 -0.020469 -0.83006
0.531348 0.199004 -0.057456 -0.133694 -0.566222 -0.811753
-0.00944 0.547742 -0.113181 -0.021849 0.363119 -0.9301
-0.021458 -0.747862 -0.117955 0.611204 0.309636 -0.726013
0.28941 0.36399 -0.134319 -0.295336 -0.52586 -0.794227
-0.170603 0.371941 -0.009483 0.595477 -0.710148 0.370721
-0.162682 0.543356 -0.030695 -0.619773 0.765098 -0.16921
0.043907 -0.107745 0.087699 0.568846 -0.623319 0.53394
0.034689 -0.026409 0.133605 -0.186702 -0.220563 0.939909
0.336554 0.341705 -0.041635 0.298774 0.077873 0.946509
0.039553 -0.053779 -0.127546 -0.329022 -0.432695 -0.839217
0.010028 -0.659876 -0.065909 0.583936 0.175443 -0.792358
-0.056555 -0.561862 -0.103192 0.08298 0.013693 -0.995163
0.034225 -0.286412 0.0027 -0.29001 -0.486708 0.485328
0.101456 0.004549 0.131291 0.278052 -0.009969 0.948065
0.022364 -0.543471 -0.02504 0.951608 0.051592 -0.298457
0.019348 -0.471128 -0.031228 0.926207 0.035691 -0.375064
-0.024539 -0.259109 0.104867 0.257742 -0.17774 0.94911
0.162095 -0.685497 0.020675 0.322455 -0.355931 0.875701
0.196584 -0.72458 -0.026868 0.978547 -0.072184 -0.17062
0.151849 -0.37636 -0.082153 0.560375 0.172856 -0.809789
0.048996 0.705457 -0.086944 0.242312 -0.639539 -0.728355
-0.032648 -0.837857 -0.137339 0.52855 -0.452672 -0.705186
-0.05166 -0.86108 -0.026172 0.155412 -0.983101 -0.073448
0.151914 0.229886 0.071904 0.777578 0.054451 0.626284
-0.014806 0.747069 0.058871 -0.752973 0.103358 0.649761
0.176168 -0.286881 0.074498 0.334592 -0.046355 0.938288
-0.006074 -0.132366 -0.08156 0.71317 -0.218466 -0.664465
-0.038056 0.779065 -0.016307 -0.983631 0.123311 0.127787
0.180628 -0.674056 -0.057077 0.697953 -0.314182 -0.642496
0.187065 -0.448173 0.048947 0.886768 -0.083318 0.454222
0.397166 0.332333 -0.084284 0.687451 0.715286 0.102374
0.016013 0.739352 0.081008 -0.817399 0.218295 0.528422
0.088913 0.685624 -0.005474 0.976179 -0.181779 0.03233
0.029552 -0.279138 -0.018341 -0.185829 -0.5154 -0.703877
-0.075937 0.477731 0.071137 -0.326502 0.368685 0.867168
-0.013887 -0.47975 0.052879 0.589015 -0.257232 0.76535
-0.050864 0.022573 0.126026 -0.430011 0.267861 0.858622
-0.093342 -0.094403 -0.089069 -0.67511 -0.137986 -0.723633
0.024529 0.697165 -0.083343 -0.144792 -0.6167 -0.771982
0.046021 -0.291052 0.039706 -0.898014 -0.058783 0.426065
-0.016863 -0.115605 0.123498 0.255652 -0.13361 0.956356
0.200605 0.53395 0.001605 0.253395 0.63743 0.727264
0.121241 0.0195 0.12116 0.306419 0.26878 0.912208
0.073029 -0.823006 -0.010398 -0.436 -0.889551 0.05437
-0.017474 0.261051 -0.130343 -0.02972 -0.055526 -0.997596
0.027957 -0.095479 -0.089014 -0.732805 -0.460457 -0.49841
-0.056942 -0.045585 -0.123597 -0.224139 -0.338065 -0.913366
-0.408521 0.175058 -0.003206 0.571021 -0.817167 0.008442
0.034578 -0.307257 -0.016711 -0.993538 -0.0618 -0.087466
0.070086 0.861587 -0.003399 0.483237 0.870245 0.082333
0.103809 -0.329101 -0.100169 -0.089361 0.018237 -0.989263
-0.191415 0.466251 -0.07987 -0.420553 0.398177 -0.813892
-0.276741 0.334797 0.008585 -0.139547 -0.047305 0.986045
-0.268053 0.403673 -0.076131 -0.492448 0.644519 -0.581522
0.191852 0.501197 -0.129534 0.080243 0.327224 -0.939963
-0.061903 0.030674 0.11954 -0.342332 0.297746 0.890196
0.027101 0.527288 -0.120692 -0.037056 0.185466 -0.981521
0.134601 -0.499755 0.056177 -0.44935 -0.139432 0.880833
0.051879 0.802176 -0.114311 0.276503 0.285333 -0.915255
0.003315 0.632364 0.016478 -0.725485 -0.188583 0.660641
-0.028191 -0.04125 0.13271 -0.075859 -0.217791 0.972063
-0.030934 -0.862801 0.042222 0.338422 -0.934736 -0.044118
-0.497096 0.106859 0.074212 0.636585 -0.179674 0.729083
0.093667 -0.238431 0.087339 -0.226693 -0.15992 0.960318
0.199846 -0.603811 -0.03226 0.997331 -0.063062 -0.031614
0.199529 0.037739 -0.038166 0.967391 0.068806 -0.242991
-0.093508 -0.26276 0.108432 -0.233054 -0.042987 0.97136
-0.014395 0.132036 -0.119335 -0.166674 0.427023 -0.888472
