-0.08047 -0.010603 -0.121199 -0.569948 -0.081431 -0.816505
0.401554 0.240667 -0.118598 -0.32932 -0.52965 -0.765733
0.041777 0.629871 -0.068017 0.032298 0.331934 -0.937887
-0.376671 0.297539 -0.055571 -0.702364 0.70059 -0.118213
-0.347699 0.217629 -0.003569 0.575372 -0.737002 0.343738
0.285814 0.405031 -0.01414 0.126724 -0.063409 0.981021
0.01621 -0.329504 -0.037238 0.845868 -0.029696 -0.529143
0.186103 -0.087827 0.081244 0.714637 0.030081 0.698744
0.014003 -0.503542 -0.043785 0.845042 0.027095 -0.533429
0.135882 -0.52042 -0.10743 0.186514 -0.000461 -0.979575
-0.227322 0.415332 0.029736 -0.525194 0.074497 0.844188
0.001125 0.602774 -0.078379 -0.254703 0.660675 -0.704303
0.336117 0.346977 -0.137365 0.061005 -0.061189 -0.99455
0.264826 0.408613 -0.013791 -0.074483 -0.241055 0.966728
0.190765 -0.578046 -0.065307 0.792931 -0.025867 -0.608446
0.10338 -0.006132 -0.153427 0.249844 -0.001242 -0.965227
0.118565 -0.823385 0.104463 -0.077653 0.985407 0.136573
0.211404 0.557402 -0.05475 0.46213 0.879379 -0.055536
0.015094 -0.775188 -0.080912 0.906545 0.049572 -0.410958
0.047938 -0.016228 -0.148039 -0.308527 -0.352244 -0.883576
0.142587 -0.491257 -0.105167 0.286662 0.05383 -0.955823
-0.020633 -0.360118 0.087088 0.415707 -0.15045 0.894223
-0.096763 0.364876 -0.103277 -0.50021 -0.22467 -0.835384
-0.141658 0.545642 0.019708 -0.332184 0.791405 0.512203
0.399451 0.321638 -0.114065 0.591353 0.519205 -0.616158
0.168371 0.279436 -0.061192 0.905736 -0.14859 -0.396334
0.08887 -0.470707 -0.093923 -0.564515 0.039698 -0.824341
-0.02475 -0.03054 0.132763 -0.047268 0.149122 0.986112
-0.137851 -0.194062 0.014519 -0.996271 -0.047303 -0.065712
0.597415 0.113759 0.052636 0.735733 0.658189 0.140442
-0.092341 -0.694417 -0.103221 -0.538417 0.082042 -0.836719
0.171497 0.069472 0.081636 0.734288 0.21044 0.645032
-0.026422 -0.859698 0.07578 0.807814 -0.559754 0.055699
0.175895 0.328504 -0.075372 0.814093 -0.335101 -0.473915
0.604957 0.101176 0.051768 0.831239 0.551558 0.05563
0.11995 0.192491 -0.106388 0.487874 -0.146277 -0.858218
-0.011695 0.715101 -0.073489 -0.687363 -0.544554 -0.475001
0.04169 -0.370968 -0.03506 -0.924055 -0.061636 -0.36893
-0.027579 0.800411 -0.086905 -0.884085 0.054877 -0.459156
0.098572 -0.626027 0.029771 -0.662092 -0.254514 0.700706
0.179384 0.219025 0.036226 0.932234 0.129287 0.334702
-0.476333 0.131786 0.057278 0.717395 -0.537134 0.440677
0.102643 0.527304 -0.129772 0.007374 0.302641 -0.950747
-0.12574 0.129387 0.025586 -0.939119 0.126359 0.312511
0.150175 0.015042 -0.123723 0.675218 0.066288 -0.734263
0.137807 -0.604553 -0.099488 0.191907 -0.153963 -0.965926
0.614973 0.059239 0.029986 -0.742695 -0.639248 -0.186444
0.006105 0.528141 0.055826 0.097724 0.572599 0.812135
0.051695 -0.084023 -0.117945 -0.418078 -0.444019 -0.791648
0.170305 0.300816 0.047881 0.73295 -0.016847 0.678634
-0.115969 0.170787 -0.035152 -0.862778 0.080076 -0.49673
0.124228 0.324614 -0.130949 0.558121 -0.102629 -0.82311
-0.03005 0.494679 -0.127421 0.004183 0.185405 -0.981809
0.200192 -0.59611 -0.012016 0.992084 -0.08126 0.092127
0.009037 -0.670292 0.008147 0.780793 -0.230987 0.578782
-0.016833 -0.095891 0.126653 0.13277 -0.128498 0.98265
0.205483 -0.332192 -0.007133 0.993904 0.029203 -0.102592
0.177745 0.278834 0.029268 0.937893 0.009934 0.3449
-0.072752 -0.164963 -0.093528 -0.570411 -0.149257 -0.807065
0.492951 0.193873 0.000659 0.015518 0.813877 0.453642
-0.381502 0.263513 -0.082523 -0.346762 0.026418 -0.933097
-0.139125 0.553746 0.004867 -0.442579 0.799561 0.396234
-0.403415 0.17813 -0.013547 0.495706 -0.867727 -0.030565
0.132627 -0.338035 -0.092213 0.499131 0.046862 -0.865001
-0.06979 0.139758 0.09657 -0.574591 0.087342 0.8131
-0.023243 0.834799 -0.062667 -0.526624 0.743243 -0.41248
0.489792 0.201427 -0.004406 -0.041348 0.627632 0.577937
0.208187 -0.150403 0.009993 0.972245 -0.214599 0.040954
0.098772 0.792083 -0.066259 0.935744 0.105765 -0.334892
0.121118 -0.459321 0.052848 -0.598272 -0.095679 0.795047
0.157328 -0.860414 -0.035394 0.579814 -0.779841 0.159468
0.008231 -0.154501 0.103464 0.686703 -0.114659 0.713181
0.169328 -0.75313 -0.058064 0.857023 0.176599 -0.471772
0.131982 -0.25248 -0.094411 0.441681 -0.083088 -0.890526
0.010028 -0.659876 -0.065909 0.583936 0.175443 -0.792358
-0.014445 0.538095 0.050778 -0.061048 0.608751 0.789564
-0.134873 -0.209066 0.000512 -0.976014 -0.084272 -0.199691
-0.119575 0.356518 0.009965 -0.973779 -0.170194 0.145002
0.030294 0.598863 0.026288 -0.033488 -0.018285 0.996071
0.099779 0.300883 0.104593 0.262474 0.087286 0.960786
0.045707 0.504145 -0.126819 -0.20725 0.06804 -0.97575
-0.544714 0.089968 0.028365 -0.564775 0.700411 -0.254016
0.397166 0.332333 -0.084284 0.687451 0.715286 0.102374
-0.018102 0.679539 -0.013322 -0.868651 -0.455097 -0.1667
-0.086912 0.522788 -0.105798 -0.292605 0.464762 -0.835644
0.526919 0.199292 0.008619 -0.019922 0.940303 0.333323
-0.124269 -0.728708 -0.065703 -0.867284 -0.037041 -0.486891
-0.118378 -0.736205 -0.072133 -0.754081 -0.036543 -0.655239
0.153362 -0.615264 -0.092205 0.477093 -0.164124 -0.863364
0.18272 0.113224 -0.048207 0.840229 0.300339 -0.450194
0.072427 -0.217429 -0.085642 -0.529311 -0.142971 -0.834747
-0.029298 0.727788 0.017952 -0.987828 0.028097 0.148454
-0.114116 -0.656924 0.022712 -0.856824 -0.130283 0.495921
0.287485 0.422575 -0.139474 0.16689 0.295419 -0.93488
0.011496 0.112936 -0.131384 -0.172312 0.40359 -0.898402
0.148883 0.549469 -0.109712 0.251197 0.653315 -0.713781
0.191945 -0.738153 -0.031131 0.774506 -0.245146 -0.580903
-0.111572 0.526473 -0.093135 -0.384119 0.5666 -0.728768
-0.128147 -0.667095 -0.05917 -0.998389 -0.008315 -0.036975
0.503781 0.225841 -0.060074 0.645855 0.747491 -0.140801
-0.52369 0.117479 0.084257 -0.683053 0.696967 0.115224
-0.020877 0.426423 -0.129954 0.041705 -0.020016 -0.998772
0.182947 -0.782087 -0.051952 0.988511 0.003759 -0.104747
0.642296 0.036202 0.025636 0.98453 0.165261 -0.017427
0.132759 0.009337 -0.138725 0.548671 0.107239 -0.828383
0.620933 0.057858 0.016926 -0.674308 -0.571618 -0.434745
-0.08896 0.141713 0.079394 -0.673409 0.077627 0.734852
-0.095011 0.117709 -0.080383 -0.715758 0.13531 -0.685048
-0.2201 0.350084 0.004679 0.351155 -0.538332 0.763854
0.206369 -0.120167 -0.037181 0.922599 0.018504 -0.383633
-0.092516 0.159401 -0.072835 -0.733983 0.181159 -0.636847
0.068133 0.559736 -0.1142 -0.120111 0.510938 -0.849422
0.004088 -0.37596 -0.048702 0.659228 0.049632 -0.750037
0.35836 0.356968 -0.062534 0.617932 0.567214 0.54434
0.076475 -0.312673 0.06789 -0.455232 -0.130474 0.878104
0.203897 0.140669 0.002281 0.913854 0.376414 -0.068931
0.025496 -0.679645 -0.028799 0.956436 -0.113718 0.244184
-0.129532 -0.405618 0.04047 -0.966449 0.076055 0.243984
0.205535 -0.290387 -0.007118 0.996453 -0.002294 -0.081659
-0.030666 0.726896 0.008092 -0.993442 0.037985 0.105436
-0.487866 0.132463 -0.015023 0.259961 -0.845954 -0.463634
-0.127454 -0.399284 -0.029937 -0.907286 0.018427 -0.419017
-0.114241 -0.324325 0.090908 -0.788736 -0.061085 0.605926
0.042815 0.468225 -0.128431 -0.211971 0.062321 -0.973623
0.20561 -0.395258 -0.000188 0.993515 -0.02242 0.10818
0.112474 -0.266017 -0.099421 0.059413 -0.01082 -0.990307
0.186833 0.380634 0.026591 0.878781 -0.1934 0.435021
-0.112418 -0.270858 -0.043795 -0.870748 -0.004392 -0.491098
0.026079 -0.497646 -0.000613 0.952343 -0.009799 0.294562
0.089881 -0.000428 0.134894 0.274377 -0.153306 0.946469
-0.012212 0.088178 0.128479 -0.371187 -0.03958 0.925679
-0.125709 -0.618683 -0.003406 -0.919026 -0.062347 0.354519
0.484604 0.186123 -0.053572 -0.113516 -0.457688 -0.866236
0.216965 0.550068 -0.072195 0.347732 0.898602 -0.260792
0.1003 -0.417698 0.052211 -0.556169 -0.331451 0.760924
0.094872 0.42065 0.089796 0.100369 0.168259 0.980455
0.153521 0.555425 -0.102056 0.247146 0.654843 -0.712483
0.201133 0.126344 -0.002059 0.934048 -0.243754 -0.194788
0.111301 0.21957 -0.12216 0.531542 -0.34568 -0.772779
0.126209 0.065838 0.106369 0.077739 0.203487 0.973826
0.378023 0.290353 -0.129658 -0.063687 -0.153745 -0.980163
0.052841 -0.14956 0.069469 -0.745075 0.038116 0.654059
-0.013416 0.569268 0.014302 -0.304845 0.600087 0.735726
0.203471 -0.03266 -0.035711 0.941813 0.022221 -0.333513
-0.076984 -0.328727 0.104666 0.088918 -0.084037 0.992312
-0.094308 0.145068 -0.075093 -0.6962 0.203699 -0.688254
-0.335485 0.307903 -0.08954 -0.354075 0.331093 -0.869834
0.068305 0.517429 0.056591 0.068558 0.534933 0.840208
0.580273 0.132576 0.009119 0.778341 0.612145 -0.136843
-0.009051 0.837763 -0.072977 -0.47626 0.719165 -0.505304
-0.101698 -0.101845 -0.079761 -0.709023 -0.106408 -0.696755
0.065032 0.458596 -0.137132 -0.294559 0.075294 -0.952169
0.152731 -0.249654 0.083527 0.11235 -0.07614 0.990457
-0.141371 0.021615 0.026853 -0.968056 0.151203 0.186951
-0.063318 0.255482 0.09096 -0.485261 0.069628 0.871428
-0.098624 0.361419 0.062696 -0.687571 -0.246168 0.682265
0.286485 0.489107 -0.073288 0.703184 0.680359 -0.182796
0.107355 0.077071 -0.140703 0.532266 0.264576 -0.804013
-0.229412 0.321577 -0.030967 0.703073 -0.708351 0.053653
0.183239 0.115766 0.050927 0.851017 0.192334 0.486897
-0.10165 -0.045424 0.104314 -0.630474 0.011908 0.77593
0.038216 -0.0723 -0.116968 -0.50256 -0.472588 -0.723482
-0.008128 0.664463 -0.037675 -0.857202 -0.172505 -0.472681
-0.123093 -0.272133 -0.026194 -0.851225 0.009699 -0.522685
0.066173 -0.364491 0.044015 -0.572815 -0.302602 0.737401
0.215517 0.426637 0.003868 0.289329 -0.852687 0.407562
0.18405 0.192301 0.018817 0.974517 0.192431 0.094315
-0.542451 0.094823 0.068063 -0.737022 0.670807 0.077114
0.104433 0.417147 0.089089 0.182141 0.174405 0.965505
0.089636 -0.835866 0.070805 -0.959799 0.275254 0.052985
0.2054 -0.24822 0.00311 0.999827 0.00109 0.002517
-0.120497 -0.772781 -0.0361 -0.992195 -0.094973 0.063102
0.172608 -0.762664 0.020491 0.541892 0.097677 0.83073
-0.131308 -0.267282 0.005309 -0.976831 -0.160544 -0.133263
0.028007 0.79374 -0.119002 -0.09 0.247091 -0.961936
-0.020312 -0.835608 -0.061702 0.831015 -0.525283 -0.012061
0.20048 -0.024322 -0.043605 0.950645 0.02868 -0.307796
0.153405 0.289864 -0.093513 0.855429 -0.126211 -0.501834
0.1237 0.544774 -0.120644 0.183796 0.520105 -0.833239
-0.127759 -0.728613 -0.044148 -0.998095 -0.010014 0.030408
0.447838 0.201347 -0.086877 0.679757 -0.560856 -0.289536
0.128633 0.305604 -0.126417 0.600055 -0.050926 -0.798083
-0.041628 -0.834165 -0.142743 0.191102 -0.338756 -0.919417
-0.108481 0.516157 0.051376 0.010604 0.473071 0.880828
0.08144 0.730642 -0.083862 0.686398 -0.418906 -0.593565
0.1322 0.290735 0.089011 0.648438 0.05066 0.759528
-0.051281 -0.309479 0.10245 0.203955 -0.105698 0.971102
0.180795 0.558697 -0.017787 0.238947 0.819482 0.518517
0.07409 -0.785064 -0.059495 -0.874488 0.159725 -0.457028
-0.140748 0.4597 0.060301 -0.20148 -0.111504 0.972534
-0.004451 -0.831714 -0.064021 0.19191 -0.962637 0.004176
-0.208215 0.453605 -0.077278 -0.467502 0.531934 -0.70545
0.027729 0.009219 0.142885 -0.010918 0.128347 0.991617
0.112876 -0.711504 -0.095331 -0.227293 0.099385 -0.961704
-0.132132 0.534685 -0.075922 -0.378729 0.669781 -0.637875
-0.286919 0.257634 -0.034585 0.695621 -0.703835 0.133914
0.213374 -0.132117 0.010899 0.987027 -0.13049 0.082302
-0.232685 0.424641 -0.081444 -0.43924 0.504256 -0.74312
0.036616 -0.340399 -0.024787 -0.986122 -0.061492 -0.143641
0.007918 -0.079032 0.121945 0.336106 -0.161728 0.927468
-0.129519 -0.530498 -0.054053 -0.889004 0.04082 -0.454826
-0.128382 0.440219 -0.106211 -0.496937 -0.15764 -0.850585
0.15827 -0.69432 0.017688 0.302268 -0.472047 0.826693
0.005314 -0.691627 0.002428 0.827142 -0.233186 0.508563
-0.143512 -0.143901 0.029485 -0.99302 -0.02748 0.110099
-0.29085 0.278868 -0.003681 0.630767 -0.364216 0.62035
-0.038358 0.807764 -0.040461 -0.976613 -0.189287 -0.079599
-0.071621 0.170203 0.093887 -0.63155 0.002607 0.774598
-0.00196 -0.607409 -0.069401 0.696218 0.023893 -0.717303
0.418967 0.21915 -0.048464 -0.58187 -0.726876 0.363653
0.273278 0.42423 -0.140814 0.01382 0.106871 -0.994081
-0.033735 -0.776248 -0.13902 0.224185 0.476293 -0.843329
0.024037 0.839191 0.060829 -0.212563 0.599995 0.769168
0.190714 0.327873 -0.029751 0.992757 -0.113647 -0.03618
-0.248159 0.440201 -0.047377 -0.717582 0.649631 -0.246022
0.069583 -0.784124 -0.049953 -0.897064 0.123756 -0.421731
-0.080688 -0.056411 0.117434 -0.565469 -0.014379 0.823684
0.129463 -0.188106 -0.104237 0.242818 -0.090384 -0.962409
0.091168 0.80711 -0.078417 0.87499 0.238993 -0.417001
0.197568 0.046556 -0.043386 0.95079 0.097181 -0.290495
0.515096 0.200134 -0.057381 0.120297 -0.482401 -0.865313
-0.075111 -0.863793 0.093678 -0.043934 -0.998946 0.008777
0.321568 0.345672 -0.136685 -0.123696 -0.193576 -0.970695
-0.12348 0.120529 0.034456 -0.902715 0.116272 0.412132
-0.091978 0.531094 -0.098763 -0.314981 0.466233 -0.812971
-0.186855 0.366689 0.002419 0.496774 -0.677052 0.541861
-0.140401 -0.145109 -0.009459 -0.907048 -0.122802 -0.402088
0.166318 0.013443 -0.105806 0.709804 0.014704 -0.676136
-0.097161 0.260445 -0.086292 -0.748076 -0.170087 -0.639765
-0.131561 -0.004031 -0.045861 -0.935002 0.05729 -0.348609
0.026991 0.317373 0.120462 -0.002583 0.119605 0.991511
-0.052039 -0.832879 -0.144466 -0.042991 -0.259385 -0.960307
-0.035972 0.751736 0.001123 -0.965178 -0.106512 0.232266
0.078968 -0.082586 -0.128128 -0.190867 -0.416526 -0.888681
-0.067132 0.051323 0.112761 -0.292751 0.081736 0.949573
0.490853 0.178417 -0.049756 -0.185455 -0.63384 -0.718207
0.150022 0.342976 0.067558 0.727101 -0.089682 0.680541
-0.402888 0.231859 0.012262 -0.027539 0.218297 0.972616
0.328677 0.304515 -0.059532 -0.581703 -0.627908 0.516981
0.117389 -0.260832 0.08548 0.053524 -0.232981 0.96769
0.005368 -0.388401 -0.049048 0.659932 0.098292 -0.744376
-0.017914 -0.274702 0.098021 0.366525 -0.220961 0.902918
-0.328339 0.322464 -0.003769 -0.462533 0.420485 0.77542
-0.099685 -0.812652 0.001237 -0.969544 0.062939 0.232917
0.01373 -0.788937 -0.046789 0.894102 -0.37085 0.250343
-0.081152 -0.432277 -0.08254 -0.414941 0.329644 -0.846643
0.196607 0.420383 -0.125112 0.385566 -0.496743 -0.776132
0.004522 -0.813839 -0.043138 0.944843 -0.225255 0.224218
0.041953 0.490991 -0.126656 -0.210711 0.083022 -0.97384
0.142422 0.581764 -0.062537 0.255351 0.95446 -0.091948
0.263773 0.357163 -0.046995 -0.619949 -0.662999 0.414339
-0.501365 0.141881 -0.016016 -0.878272 0.097557 -0.40046
0.044117 0.210071 0.12885 0.041905 0.03983 0.998249
0.078308 0.065419 0.128249 0.429959 0.069339 0.899606
-0.109214 -0.136525 -0.065661 -0.764687 -0.117015 -0.633254
-0.037999 0.812603 -0.0503 -0.958246 -0.21594 -0.170354
-0.108224 -0.050733 -0.084785 -0.779644 -0.148013 -0.60832
-0.086766 -0.850651 -0.114747 -0.858897 -0.164106 -0.477969
0.056345 -0.635564 -0.045916 -0.830463 -0.14478 -0.537425
-0.049273 0.361727 0.10302 -0.369397 -0.037154 0.925747
0.106621 -0.692964 -0.091215 -0.431614 0.077175 -0.894498
0.13242 0.52742 0.02971 0.255498 0.634123 0.729655
-0.050322 -0.416649 0.084171 0.234333 -0.227098 0.944438
0.061996 -0.059179 0.121856 0.031328 -0.426008 0.903216
0.372651 0.355953 -0.110308 0.698281 0.671823 -0.234428
-0.012746 -0.117006 -0.092481 0.581038 -0.298144 -0.756262
-0.065125 -0.73438 0.019249 -0.344075 0.532585 0.772883
-0.015271 0.554758 -0.109599 -0.092716 0.499117 -0.861313
0.014108 -0.523097 -0.045127 0.847816 0.051073 -0.527414
-0.143856 -0.104485 0.027647 -0.995372 0.007321 0.090342
0.039256 0.04546 -0.154508 -0.16153 0.290475 -0.942169
0.108146 -0.142349 0.108037 -0.521463 -0.145734 0.839894
-0.024292 -0.834288 0.040916 0.975483 0.089622 0.082832
0.198857 -0.563738 0.001824 0.959111 0.004118 0.282585
0.099833 0.15218 -0.117377 0.326824 0.247724 -0.911489
0.074546 -0.13443 -0.107327 -0.473883 -0.215644 -0.852547
-0.109205 -0.611322 0.03445 -0.902774 -0.001669 0.429765
0.618735 0.052094 0.049174 -0.774084 -0.628872 -0.024342
0.203719 -0.52478 -0.035728 0.96051 0.051026 -0.26896
-0.040437 -0.42548 -0.086372 0.207764 0.248423 -0.944772
-0.077081 -0.711476 0.015459 0.270998 -0.380991 0.882509
-0.080696 0.014429 0.117234 -0.458149 0.296804 0.837529
-0.011515 0.648225 -0.006869 -0.987165 -0.037786 0.130098
0.02013 -0.252102 0.066273 0.948628 -0.023108 0.315218
-0.056606 0.167017 -0.093917 -0.398297 0.032919 -0.908537
0.171697 -0.304598 -0.060214 0.702295 -0.059115 -0.709392
0.116657 -0.83768 0.174804 -0.47175 0.498284 0.698206
-0.124317 0.196408 -0.012087 -0.891475 0.202403 -0.403877
-0.133568 -0.463354 -0.039127 -0.896905 0.078299 -0.43377
0.282038 0.335821 -0.074623 -0.596589 -0.775495 0.198999
-0.081341 0.413824 0.083597 -0.641934 0.084037 0.761179
0.046022 0.162424 -0.119655 -0.093559 0.053126 -0.993688
-0.028762 -0.528373 0.046984 0.373337 -0.257818 0.890484
-0.036994 -0.021126 -0.135014 -0.162095 -0.166734 -0.971903
0.454213 0.21923 -0.087162 0.702749 -0.264005 -0.659736
0.177489 -0.708377 -0.05233 0.783544 -0.037048 -0.617302
0.025467 -0.020526 0.132002 -0.23314 -0.484362 0.814817
0.022209 -0.728711 -0.057409 0.975388 -0.009101 -0.210124
0.33713 0.424503 -0.104119 0.726575 0.664011 -0.15582
-0.269898 0.405645 -0.006051 -0.722749 0.522175 0.451749
0.05291 0.274958 -0.131912 -0.375469 -0.075008 -0.922721
-0.114744 -0.634775 0.024344 -0.856085 -0.016892 0.516014
-0.282587 0.310591 -0.096226 0.227461 -0.142386 -0.961053
-0.124755 0.187103 -0.015351 -0.86619 0.183359 -0.463575
0.197594 0.456987 0.030497 0.594799 0.144663 0.788873
0.03297 0.723196 0.100036 -0.042675 -0.461441 0.865074
0.312688 0.448507 -0.051463 0.740823 0.486449 0.458459
-0.11178 0.234228 -0.047651 -0.93744 -0.154352 -0.302146
0.146809 -0.867041 0.138999 0.239293 -0.958248 0.131641
-0.118119 0.343126 0.006969 -0.976638 -0.142031 0.16103
0.107794 0.260276 -0.135778 0.340075 -0.091515 -0.932184
0.021465 -0.435909 -0.017086 0.964786 0.127958 -0.223666
-0.054108 0.558773 0.018675 -0.190923 0.778828 0.597332
-0.078048 -0.535336 -0.099487 -0.267277 0.099794 -0.958359
-0.104548 -0.271352 -0.055944 -0.809765 -0.014796 -0.586269
-0.216843 0.479338 -0.044797 -0.661169 0.588467 -0.460625
-0.112828 -0.401726 -0.050138 -0.768639 -0.075971 -0.633661
0.032258 0.612984 -0.076001 -0.059679 0.375105 -0.91775
0.0575 -0.664837 0.012963 -0.63496 0.191506 0.730295
-0.128345 -0.316791 1.5e-05 -0.999818 -0.008581 -0.0164
0.099944 -0.295053 -0.098967 -0.182285 0.014394 -0.979883
0.14697 0.216778 -0.087232 0.714168 -0.173115 -0.67212
0.000173 0.475595 0.083522 -0.006109 0.434793 0.899874
0.021596 0.455237 0.090718 0.088903 0.275612 0.956876
0.19513 -0.612459 -0.057656 0.840102 -0.033514 -0.541052
0.110805 0.109138 0.111162 0.534721 0.088032 0.83921
0.134616 -0.305906 -0.089576 0.536879 0.006905 -0.842594
0.120046 -0.795878 -0.117032 -0.08803 0.512664 -0.848568
-0.112283 0.255652 -0.007752 -0.998966 0.037016 -0.002027
-0.121675 0.391336 0.037026 -0.942323 -0.249056 0.218604
-0.11387 0.559504 -0.052667 -0.438893 0.794655 -0.415829
0.591971 0.089005 0.06928 -0.831208 -0.179573 0.512213
0.142499 -0.869384 -0.078175 0.186043 -0.97188 -0.024433
-0.11526 -0.777022 -0.014273 -0.869037 -0.041652 0.490772
0.05102 -0.654196 -0.014051 -0.997339 -0.062788 -0.003642
0.024232 -0.586147 -0.035138 0.901202 0.113259 -0.405517
0.020198 0.826216 0.065914 -0.330212 0.525616 0.778671
0.060581 -0.200994 -0.079273 -0.712144 -0.204176 -0.671458
0.023494 -0.724898 -0.045397 0.985316 -0.061947 0.145931
-0.029485 -0.548735 -0.094997 0.407386 -0.006614 -0.912984
0.051035 0.202116 0.128626 0.085426 0.021131 0.995956
-0.448476 0.145481 0.013638 0.676043 -0.724007 0.08877
0.102142 0.108048 0.116049 0.502001 0.096699 0.857145
0.180201 0.062788 -0.074177 0.819361 0.179819 -0.543954
0.210599 0.415417 -0.03593 0.08827 -0.947353 0.129646
-0.144093 -0.073752 0.005786 -0.999441 0.012054 -0.021688
0.040246 0.362892 -0.130021 -0.313382 -0.044645 -0.946829
-0.014822 0.607425 -0.062325 -0.528173 0.690712 -0.490925
-0.020894 0.716492 -0.05361 -0.905468 -0.355227 -0.229147
-0.287759 0.361214 -0.083605 -0.645439 0.424343 -0.630854
-0.045628 0.375728 -0.12718 -0.229507 -0.03646 -0.971458
0.148344 -0.869011 0.070676 0.29687 -0.95454 -0.016795
0.206734 -0.187094 0.017214 0.993931 -0.013084 0.104696
-0.080189 0.568112 -0.070755 -0.478861 0.713347 -0.508818
0.080883 -0.261016 0.080001 -0.399901 -0.133568 0.90333
0.086397 -0.107037 -0.119531 -0.278731 -0.325001 -0.90301
0.17196 -0.152298 0.093013 0.583445 -0.083106 0.805719
0.086585 0.142055 0.120873 0.338429 0.06105 0.938421
0.06884 0.370013 0.1042 0.178679 0.165763 0.969357
-0.026698 -0.163926 0.121591 0.207304 -0.114721 0.969097
-0.102933 -0.838362 -0.056979 -0.918769 -0.350638 -0.092002
0.185188 -0.49388 0.044538 0.861303 -0.114563 0.494355
-0.127035 -0.074768 0.076576 -0.833556 0.020239 0.551847
0.000297 0.836081 -0.082488 -0.398336 0.728411 -0.557371
-0.252991 0.294724 -0.029141 0.709611 -0.672231 0.208613
-0.076823 -0.861443 -0.039546 -0.048072 -0.998178 -0.025933
0.088012 0.299135 0.107571 0.383907 0.126795 0.907108
-0.031347 0.791479 -0.079991 -0.88199 0.01861 -0.469289
-0.014689 0.677391 0.032428 -0.761641 -0.613174 0.190898
0.167507 -0.820752 -0.02035 0.810535 -0.583139 0.048311
-0.109211 -0.115975 0.102006 -0.685244 0.042684 0.726704
0.09377 0.308748 0.105095 0.205447 0.08691 0.97471
0.162052 0.055006 -0.102392 0.693559 0.257687 -0.672505
0.01101 0.619469 -0.067914 -0.261337 0.524752 -0.801245
0.192896 -0.552925 0.018215 0.9247 -0.022725 0.378178
-0.013783 -0.757831 -0.115046 0.68199 0.337133 -0.647987
0.145724 -0.760123 -0.09606 0.554252 0.222244 -0.795114
0.027363 -0.234459 0.043517 0.979693 -0.019076 0.199205
0.138477 0.373309 -0.131504 0.594772 -0.165578 -0.786531
-0.419865 0.236797 -0.056277 -0.748713 0.277357 -0.595052
-0.059683 0.150196 -0.096791 -0.319112 0.28548 -0.903481
-0.064458 -0.793162 0.045631 -0.347186 0.514298 0.76929
0.198593 0.377671 -0.051498 0.999519 -0.024141 0.012657
0.145012 0.358915 -0.122664 0.624742 -0.23466 -0.744345
-0.13567 -0.472659 -0.03409 -0.943787 0.045858 -0.319608
0.532453 0.187522 -0.047546 0.124301 -0.656899 -0.736277
-0.049218 0.540601 0.040527 -0.188548 0.634817 0.74872
0.153699 -0.209415 -0.08851 0.55828 -0.164423 -0.812756
0.014147 0.262693 0.12623 -0.140387 0.099684 0.981659
0.597417 0.066995 0.009032 0.896384 -0.3705 -0.187308
-0.011242 0.122005 0.127171 -0.343827 0.043905 0.931015
0.482401 0.246205 -0.03599 0.705179 0.702532 0.086956
0.052843 -0.452247 -0.00299 -0.735877 -0.032684 0.671235
0.242759 0.422563 -0.136699 -0.255843 -0.027083 -0.965686
-0.020731 0.750836 0.050592 -0.799813 0.145976 0.580819
-0.402958 0.190527 -0.053063 0.250679 -0.726141 -0.629777
0.634004 0.030531 0.100894 0.424664 -0.591189 0.325735
0.196939 -0.313684 0.044573 0.90173 -0.065934 0.424236
0.315512 0.428793 -0.124896 0.473881 0.636208 -0.608704
0.022942 -0.391349 0.018368 0.921929 -0.2303 0.307771
-0.100455 0.079528 -0.085124 -0.732516 0.205565 -0.648394
0.114835 0.235533 0.103198 0.468415 0.054085 0.880206
0.19949 -0.269688 0.047007 0.935852 -0.053632 0.347885
-0.018814 -0.66126 0.025269 -0.073781 0.058274 0.994172
-0.015528 -0.740414 -0.109951 0.605802 0.313859 -0.730709
-0.023368 0.196537 0.119808 -0.486962 0.119748 0.864936
0.102395 0.771479 -0.057785 0.942188 -0.062992 -0.320523
-0.056436 0.122915 -0.107937 -0.459005 0.321454 -0.82803
0.204004 -0.130749 0.05071 0.909638 -0.055882 0.409513
0.000778 -0.621909 -0.067724 0.667741 0.063438 -0.741373
0.429222 0.254591 -0.120797 0.414289 -0.231967 -0.877054
0.347075 0.382926 -0.09573 0.900768 0.408874 0.105868
-0.117813 0.022446 -0.073533 -0.865436 0.082757 -0.493146
0.538711 0.131633 0.025917 -0.698034 -0.671215 0.208936
0.005113 -0.402982 0.055368 0.79311 -0.210142 0.571236
-0.011135 -0.79576 0.003453 0.938134 0.129756 0.316551
-0.136486 -0.419444 0.014816 -0.990576 0.03054 0.12906
0.000695 0.794406 -0.112624 -0.367486 0.202627 -0.906088
0.030712 -0.035258 0.130554 -0.361347 -0.226155 0.89914
-0.039186 0.122556 0.114116 -0.466235 0.025965 0.882916
0.312443 0.456903 -0.073983 0.724663 0.687901 0.020626
-0.472145 0.16475 0.044699 0.051227 0.744016 0.656146
0.103933 0.397773 0.092074 0.243326 0.171753 0.953766
-0.111054 -0.014941 -0.086839 -0.831714 -0.04488 -0.553168
0.086839 -0.206533 0.090141 -0.323612 -0.101493 0.940372
0.164748 0.553785 -0.005341 0.200335 0.733757 0.649153
-0.011612 -0.578124 -0.07969 0.685161 -0.063359 -0.725609
0.342878 0.333704 -0.042617 0.234011 0.118084 0.9548
0.083645 0.483799 0.072597 0.14124 0.463199 0.874336
0.151914 0.229886 0.071904 0.777578 0.054451 0.626284
0.200845 -0.152531 0.051858 0.928237 -0.145111 0.340308
0.345276 0.382985 -0.08512 0.837335 0.478463 0.260689
-0.200899 0.48556 -0.059459 -0.641553 0.505568 -0.576266
0.144682 -0.825866 0.097062 0.293647 0.94107 0.150767
-0.024593 0.730829 0.044973 -0.911815 -0.071409 0.387212
0.042551 -0.262781 -0.043704 -0.859387 0.012251 -0.509226
0.169402 0.068931 -0.088319 0.791686 0.210746 -0.57321
-0.208555 0.440387 -0.085012 -0.374509 0.420017 -0.826149
0.128925 0.178436 0.097671 0.5218 0.023226 0.852475
0.058709 0.483179 0.074989 0.070559 0.448095 0.891025
-0.274238 0.395674 -0.079163 -0.49672 0.515528 -0.696547
-0.141944 0.469843 -0.098703 -0.425586 0.077806 -0.900629
-0.064997 0.403336 -0.123524 -0.319454 -0.129491 -0.938084
0.050893 -0.118125 -0.095875 -0.483077 -0.363084 -0.794164
-0.04333 -0.012029 -0.134973 -0.217895 -0.114035 -0.968357
0.057839 -0.533687 -0.059022 -0.826633 -0.071836 -0.533645
0.109248 -0.816479 0.074672 -0.18919 0.896222 0.394937
-0.023253 -0.117849 -0.09915 0.452875 -0.268982 -0.849731
0.140494 -0.135152 0.108874 0.29463 -0.202373 0.932308
0.09848 -0.3611 -0.099313 -0.317098 -0.018 -0.941582
-0.553679 0.052123 0.031699 0.826232 -0.56007 -0.040425
0.029781 0.506152 0.065761 0.105035 0.499473 0.859768
0.119706 -0.186015 -0.105912 0.066075 -0.098573 -0.990999
-0.042808 0.354736 0.104643 -0.218802 -0.106188 0.964958
-0.037832 0.404944 -0.129316 -0.078536 -0.029723 -0.996223
0.004403 -0.53039 -0.061892 0.807695 0.044879 -0.587842
0.014972 -0.212531 0.084287 0.85674 -0.062492 0.511641
0.10866 -0.609073 0.031796 -0.197659 0.220656 0.954407
0.017284 -0.77936 -0.048554 0.965601 -0.181285 0.163515
-0.065125 -0.863319 0.004807 0.004251 -0.999387 -0.03449
-0.111862 0.262336 -0.042849 -0.999549 -0.006075 -0.022396
-0.294626 0.365387 -0.015017 -0.769088 0.558887 0.292124
-0.005121 -0.001594 -0.142467 -0.162829 -0.156444 -0.973789
0.194435 -0.531794 0.017777 0.912377 -0.061199 0.404409
-0.135071 -0.247017 0.015334 -0.995896 -0.064458 -0.060549
0.018585 0.183305 -0.115326 0.113812 0.02091 -0.99102
0.205478 -0.227499 0.01788 0.995705 -0.044748 0.074839
0.028913 -0.290486 0.021148 0.993477 -0.040733 0.102229
-0.059325 0.51483 -0.118489 -0.184972 0.424792 -0.883045
0.067915 -0.772318 -0.042391 -0.894017 0.164011 -0.414789
0.144745 0.56192 -0.009846 0.178169 0.756306 0.629111
0.018201 -0.776789 -0.059293 0.991916 -0.095832 -0.00084
-0.457059 0.193972 -0.032167 -0.747797 0.348089 -0.558755
0.197009 0.034794 0.059554 0.878851 0.111217 0.458303
0.098675 0.777399 -0.068514 0.949294 0.010853 -0.312117
0.088679 -0.835874 -0.040335 -0.998483 -0.045076 0.000311
0.405601 0.235474 -0.043562 -0.457061 -0.652214 0.600815
0.029817 0.402535 0.100986 0.100936 0.312148 0.944207
0.356109 0.373391 -0.105892 0.739028 0.66818 -0.053997
0.043211 0.372567 0.106927 0.103089 0.247954 0.958686
0.183072 -0.485947 0.04974 0.864128 -0.092106 0.489503
-0.347643 0.289022 0.001767 -0.04876 0.287468 0.954501
0.329118 0.334217 -0.040479 0.012526 -0.209253 0.966075
-0.037733 -0.830675 0.106557 0.66442 0.666919 0.272819
0.148558 0.221177 0.076862 0.766627 0.066249 0.638559
-0.09202 -0.844194 -0.102512 -0.946985 -0.034396 -0.317514
0.035556 -0.326624 -0.001462 -0.942121 -0.084683 0.295609
0.073905 -0.033174 -0.148392 -0.170679 -0.399109 -0.898854
-0.09761 -0.305789 0.104995 -0.268773 -0.068812 0.952273
-0.134581 -0.411583 -0.014745 -0.958384 0.083125 -0.269854
-0.061992 -0.074321 0.12392 -0.296558 -0.11183 0.948012
-0.061267 0.117481 0.100659 -0.542103 0.12392 0.829716
0.07853 0.201073 0.12124 0.372104 0.045142 0.927039
0.149659 -0.828762 0.105558 0.423569 0.885051 0.168555
0.028168 -0.101082 0.104238 0.416537 -0.411069 0.806788
-0.005076 -0.341648 -0.060265 0.713165 -0.067265 -0.697625
-0.03363 -0.328263 0.09566 0.285687 -0.112989 0.950868
0.11524 -0.86643 0.004794 -0.147124 -0.98023 -0.092557
0.11065 -0.425699 0.055948 -0.532361 -0.303885 0.788032
0.127822 -0.824217 -0.11605 0.239816 -0.071512 -0.955394
-0.412861 0.171809 0.012615 0.681454 -0.726342 0.076297
0.158084 -0.84799 -0.085146 0.936446 -0.065927 -0.339343
0.199625 -0.443756 -0.031941 0.997356 0.010965 -0.066294
-0.048659 0.11089 -0.116864 -0.478023 0.355231 -0.803126
0.190749 -0.636129 0.011224 0.845446 -0.085662 0.515367
-0.136337 -0.409349 -0.003457 -0.991417 0.090668 -0.078956
-0.259922 0.362562 0.018299 -0.175689 -0.121238 0.964327
0.154604 -0.864777 0.131715 0.333371 -0.937038 0.06085
0.478453 0.210151 -0.069503 0.230129 -0.524965 -0.813063
0.001651 -0.657766 0.018178 0.623314 -0.110554 0.773331
0.068015 -0.794063 -0.048904 -0.925106 0.035605 -0.370492
0.054452 0.843274 0.051935 0.49513 0.565955 0.658356
0.016392 0.039257 0.138223 0.063376 0.110397 0.991735
0.069211 0.730348 0.07372 0.518027 0.193166 0.8289
0.199631 -0.359937 -0.034719 0.894672 0.166967 -0.412743
-0.037069 0.449808 -0.132083 0.023011 -0.03687 -0.997534
-0.000974 -0.170623 0.107511 0.610221 -0.111153 0.78424
0.023717 -0.042754 0.124263 -0.012054 -0.408013 0.903911
-0.016169 0.760388 0.05506 -0.791682 0.071505 0.604972
0.112562 0.478967 -0.144588 -0.018799 0.146104 -0.988048
0.182893 0.242717 -0.008162 0.999582 -0.012815 -0.022171
0.157114 -0.590251 0.039668 0.164105 -0.167709 0.969538
-0.370668 0.238397 -0.078698 -0.024032 -0.334862 -0.940063
-0.018978 -0.572896 -0.087106 0.655899 -0.053233 -0.750492
0.580185 0.069209 0.041562 -0.802601 -0.41281 0.411179
0.44309 0.29207 -0.068414 0.581508 0.774693 0.220582
0.022117 -0.520897 0.001362 0.868362 -0.171903 0.463673
0.067126 -0.813485 -0.027781 -0.975283 -0.195649 -0.029531
-0.123255 -0.044647 0.080079 -0.767097 0.06397 0.637988
-0.042316 -0.641358 -0.100792 0.436457 0.054065 -0.897371
-0.415654 0.230715 0.011021 -0.268438 0.381596 0.880094
-0.109884 0.565098 -0.003127 -0.133751 0.935043 0.293647
0.025573 -0.69813 -0.049958 0.980917 -0.0816 -0.138178
-0.037894 -0.350402 0.094389 0.320494 -0.137094 0.936701
0.096841 0.605385 -0.03652 0.888124 0.430645 0.137532
0.107886 -0.494709 0.039167 -0.590316 -0.066246 0.804272
0.312846 0.387927 -0.026266 0.548976 0.073137 0.821995
0.070739 -0.529174 -0.074762 -0.718672 -0.070637 -0.691734
0.023669 -0.161087 0.072005 0.868247 -0.238652 0.434394
0.2607 0.516237 -0.066611 0.702055 0.707164 -0.071863
-0.137139 -0.021619 -0.022712 -0.993148 0.052124 -0.102191
0.146067 -0.678275 0.02726 0.173739 -0.181054 0.967414
-0.097813 -0.849888 -0.056756 -0.920705 -0.38045 0.035026
0.387677 0.342053 -0.090754 0.698286 0.709663 0.059406
0.010305 -0.255438 0.086415 0.780896 -0.103152 0.61277
0.019464 -0.646459 -0.055308 0.667854 0.171368 -0.723939
0.088201 0.064477 -0.151494 0.243882 0.201537 -0.937085
-0.083505 -0.861387 0.140539 -0.188732 -0.955897 0.20988
0.110534 -0.148413 -0.112368 0.043525 -0.24171 -0.968896
-0.194329 0.350891 -0.016571 0.567267 -0.76223 0.308182
0.352573 0.288952 -0.050783 -0.604875 -0.521805 0.600889
0.176323 0.08403 -0.072825 0.81472 0.201612 -0.54294
0.109989 0.244826 0.104716 0.390413 0.057794 0.917204
-0.183855 0.485651 -0.074413 -0.510115 0.415508 -0.750583
0.027151 -0.587909 -0.022396 0.996399 0.041423 -0.044884
0.562896 0.088652 0.022518 -0.775343 -0.629461 0.038199
-0.407387 0.265002 -0.042214 -0.788872 0.609069 -0.058378
-0.134379 -0.229413 0.003384 -0.977148 -0.036906 -0.201315
-0.333482 0.236862 -0.066748 0.317009 -0.701281 -0.637056
-0.058735 -0.771799 -0.135602 -0.255175 0.378643 -0.886642
0.118597 -0.341531 0.078548 -0.227632 -0.198283 0.946136
0.078582 0.466102 0.080749 0.106273 0.342279 0.931188
-0.127952 0.151012 0.004834 -0.996619 0.021156 0.059255
0.12994 0.164245 -0.101677 0.499802 0.129577 -0.856276
0.012368 -0.228436 0.086707 0.831478 -0.064816 0.550928
0.19858 -0.647532 -0.022121 0.996171 -0.022393 0.076204
0.02045 -0.696489 -0.063802 0.841508 -0.013784 -0.536991
-0.04201 -0.306659 0.099703 0.276382 -0.115386 0.952772
-0.018233 0.396058 0.105416 -0.028605 0.083672 0.995888
0.047037 0.009071 0.142629 0.078018 0.118251 0.988683
-0.039103 0.7481 -0.009768 -0.957511 0.068635 0.239143
0.171189 -0.812944 -0.080219 0.810848 -0.501578 -0.25519
-0.12296 -0.488658 -0.058766 -0.795539 0.080439 -0.600512
-0.10379 0.566716 -0.010736 -0.149569 0.972708 0.150333
-0.071023 -0.678321 -0.110034 -0.164399 0.121291 -0.976543
-0.248424 0.297932 -0.039487 0.772207 -0.633931 0.030954
0.039275 -0.073079 0.117302 -0.001539 -0.535079 0.843851
0.034689 -0.026409 0.133605 -0.186702 -0.220563 0.939909
-0.013897 -0.152082 -0.083332 0.617198 -0.147565 -0.771335
-0.070808 0.031117 -0.130742 -0.551517 0.212955 -0.804576
-0.118944 -0.337606 -0.039461 -0.857966 0.100645 -0.502987
-0.097641 -0.057425 0.107127 -0.571501 0.020925 0.81902
-0.043757 0.577958 -0.00574 -0.198266 0.779988 0.59323
0.134246 0.48741 -0.141769 0.139551 0.304303 -0.939756
-0.114249 0.125042 -0.050559 -0.886769 0.056656 -0.458677
0.197645 -0.534265 0.007674 0.952498 -0.044616 0.301067
0.15129 0.236588 -0.086151 0.819815 -0.114227 -0.560458
-0.119107 -0.723156 -0.073448 -0.769266 -0.129896 -0.62387
-0.43377 0.17819 0.026737 0.059094 0.573787 0.811289
-0.037741 0.769301 -0.049852 -0.988249 -0.002368 -0.143847
0.307955 0.450491 -0.106254 0.576577 0.649089 -0.495911
-0.007495 -0.501156 -0.074742 0.744613 0.073637 -0.66315
0.072342 0.321562 -0.141631 -0.302326 -0.061302 -0.94739
0.098672 0.197237 -0.118378 0.320599 -0.432339 -0.837433
-0.041837 0.246223 0.106929 -0.513639 0.025328 0.855642
0.192991 -0.683257 -0.040202 0.789342 -0.154584 -0.592064
0.059935 0.465774 0.082263 0.094132 0.317466 0.942671
0.165393 -0.341507 -0.066229 0.680677 0.018682 -0.732121
0.149822 0.094988 -0.102884 0.701144 0.209941 -0.681003
-0.118676 -0.694428 -0.004879 -0.90304 -0.313322 0.25299
-0.026246 0.016182 -0.142031 -0.181714 -0.384751 -0.90178
-0.135796 0.047216 0.02309 -0.993637 0.093489 0.061174
-0.046567 -0.213529 -0.092108 0.083001 -0.053077 -0.994478
0.195461 -0.411916 0.031624 0.949777 -0.063215 0.305927
0.188633 -0.641698 -0.062145 0.741131 -0.158453 -0.651924
-0.061567 0.580135 -0.017687 -0.206229 0.882178 0.39092
0.025465 0.429609 -0.127172 -0.069882 0.04871 -0.995933
0.002906 -0.000441 0.144376 -0.012057 0.232324 0.95894
0.182916 0.247543 0.004126 0.999759 -0.012131 0.015891
0.102429 0.801927 -0.038305 0.89375 0.425311 -0.065524
0.027408 -0.646479 -0.030536 0.999572 -0.013806 -0.007664
0.129749 -0.313937 -0.092594 0.468847 0.029641 -0.881723
0.050147 0.24549 0.126249 0.183092 0.068017 0.977494
-0.025365 -0.449331 -0.084655 0.524163 0.082452 -0.842941
-0.276545 0.396402 -0.004575 -0.676863 0.554548 0.483369
0.012351 0.21508 0.128605 -0.048419 0.057334 0.996774
-0.00364 -0.321219 0.081606 0.549992 -0.157216 0.819614
0.023689 -0.447787 -0.01602 0.903757 0.15737 -0.394347
-0.040013 0.495408 -0.12716 -0.047594 0.238662 -0.968224
0.099922 0.052612 -0.150466 0.400186 0.225991 -0.885451
0.281813 0.393861 -0.016351 -0.136354 -0.311467 0.937147
-0.137561 0.441334 0.058089 -0.391356 -0.173332 0.885086
0.206317 -0.21256 0.010966 0.998044 -0.031481 0.052224
-0.031534 -0.704441 0.02363 -0.719039 0.089849 0.667766
0.186975 0.103394 0.050731 0.877915 0.144912 0.448846
-0.114896 -0.239233 0.096079 -0.686909 -0.022999 0.72632
-0.041753 0.257047 -0.126462 -0.41479 -0.06611 -0.900162
0.045358 -0.245097 0.044156 -0.912959 -0.057627 0.372139
0.055194 0.765467 0.072178 0.538929 -0.240103 0.804362
0.083473 0.649049 -0.028849 0.969208 0.058701 -0.225732
0.244971 0.521503 -0.019056 0.640692 0.612612 0.459246
0.001366 -0.354234 -0.052362 0.720102 -0.071135 -0.690015
0.044961 -0.42825 -0.041181 -0.950278 -0.024595 -0.283578
0.205541 -0.362583 -0.013292 0.995831 0.019399 -0.070853
-0.285959 0.271073 -0.01304 0.693934 -0.521868 0.477227
0.027915 0.761496 0.088888 -0.468893 0.252129 0.805835
0.115258 0.549189 0.017374 0.372563 0.661051 0.649951
0.038194 -0.35341 -0.027737 -0.974716 -0.062994 -0.19982
0.075347 0.14315 -0.124476 0.088109 0.336548 -0.934814
0.053849 0.681484 0.087321 0.41971 0.214818 0.876063
0.200072 -0.259363 0.046794 0.942079 -0.015889 0.334434
-0.140166 -0.178825 0.016608 -0.957697 -0.282857 -0.031559
0.149313 -0.866783 -0.044287 0.46763 -0.875647 0.087363
0.579133 0.105801 -0.006941 0.57534 0.081704 -0.81299
0.197564 0.073538 -0.034445 0.953585 0.105205 -0.268283
0.491226 0.236488 -0.067862 0.66565 0.735322 -0.117733
0.16653 -0.842828 0.075573 0.791163 0.611573 0.002182
0.157475 -0.792153 -0.101274 0.651328 0.232738 -0.720012
0.019608 -0.168392 0.078905 0.943568 -0.107895 0.308333
-0.131889 -0.226185 0.065601 -0.936314 -0.089622 0.33926
-0.001511 0.58755 0.013273 -0.590384 0.217154 0.776723
0.145539 0.291223 0.073673 0.786022 0.04764 0.615209
0.077971 -0.16776 -0.10098 -0.416556 -0.221521 -0.881414
-0.120166 -0.075139 0.086014 -0.782343 0.018616 0.622516
0.105361 0.78025 -0.021313 0.999869 -4e-05 0.006775
-0.489428 0.163331 0.004755 -0.776628 0.629589 -0.019252
0.139349 0.153184 0.090672 0.679429 0.020134 0.733406
-0.09187 -0.788519 -0.116689 -0.791027 0.130072 -0.597757
0.288121 0.475551 -0.034051 0.759683 0.445881 0.468314
-0.334501 0.333959 -0.039149 -0.676604 0.735575 0.031753
-0.128309 0.394815 -0.06268 -0.963728 -0.206655 -0.080995
-0.50961 0.085449 0.042071 0.590014 -0.748159 -0.257844
-0.135282 -0.549777 -0.038049 -0.990005 -0.0662 -0.101619
0.121595 0.480387 0.06495 0.216966 0.481938 0.846796
0.578174 0.137074 0.029196 0.746176 0.664736 0.02984
0.134258 -0.592811 -0.102442 0.089594 -0.158006 -0.978929
-0.079365 -0.863637 0.077979 -0.051301 -0.998623 0.002045
0.025276 -0.517372 -0.021794 0.936585 -0.030339 -0.325331
0.081262 -0.442283 0.021509 -0.690755 -0.271516 0.668757
0.111529 0.244151 -0.131363 0.47952 -0.217464 -0.848539
-0.253836 0.427411 -0.007356 -0.733005 0.607052 0.304792
-0.57023 0.032539 0.067467 0.037286 -0.153798 0.859404
-0.033275 -0.216946 0.114643 0.16265 -0.191919 0.967105
0.078494 -0.34656 -0.087176 -0.680973 -0.05457 -0.729005
0.254598 0.453724 -0.004494 0.365146 -0.229483 0.901776
-0.056002 -0.103367 -0.108147 -0.154804 -0.20449 -0.965567
0.199585 0.393188 -0.086612 0.956447 -0.271901 -0.08888
0.02328 -0.208383 -0.032941 0.499422 -0.036435 -0.838832
0.208334 -0.04011 0.036903 0.952979 0.030094 0.30139
-0.060213 -0.416794 0.086446 0.211274 -0.232052 0.948005
0.150553 0.427823 0.069592 0.677283 0.10723 0.727531
0.297896 0.405638 -0.018399 0.505411 0.059118 0.860038
0.052209 -0.053218 -0.133086 -0.352836 -0.432335 -0.829631
-0.491357 0.101543 0.064265 0.904426 -0.27372 0.277575
0.084089 0.660631 -0.021025 0.986181 0.064095 -0.104407
-0.127941 -0.613609 -0.065991 -0.963014 0.007045 -0.242443
-0.172909 0.433097 -0.094049 -0.066846 0.126539 -0.989105
0.108493 -0.652486 0.034097 -0.073653 -0.061031 0.991624
0.05136 -0.078619 0.111202 0.132065 -0.5923 0.792814
0.224334 0.452363 -0.133747 -0.030004 -0.000776 -0.997889
-0.100247 -0.032952 0.105091 -0.644102 0.037322 0.76395
0.19528 0.016011 0.066831 0.860802 0.107824 0.497375
0.184651 0.34882 -0.07607 0.775238 -0.430206 -0.460336
0.254343 0.404787 -0.016336 -0.176697 -0.376693 0.908298
0.119684 -0.187131 0.098034 0.01774 -0.145716 0.988124
0.530514 0.139206 -0.017584 -0.701559 -0.694878 -0.130611
0.003259 -0.281886 -0.058931 0.77418 -0.119107 -0.621561
-0.042027 -0.222986 -0.091688 0.126328 0.008242 -0.991018
0.048473 -0.472027 -0.050326 -0.8565 0.007799 -0.514718
-0.046167 -0.582224 -0.100693 0.338221 -0.018398 -0.940849
0.553862 0.129343 0.046135 -0.569592 -0.024543 0.809701
0.133593 -0.293279 -0.090658 0.512164 -0.033141 -0.857754
0.504499 0.222123 -0.025636 0.743416 0.627487 0.205191
-0.037671 0.145687 -0.10535 -0.238646 0.392009 -0.885012
0.182432 0.227216 0.01123 0.998733 0.013592 0.045834
-0.118521 -0.012264 -0.074476 -0.838872 0.005136 -0.542822
-0.066081 0.286203 0.088237 -0.395413 -0.000926 0.908206
-0.034821 0.571665 0.005353 -0.143508 0.778392 0.609402
-0.021341 0.694962 0.018574 -0.9555 -0.290559 0.033619
0.158188 -0.719076 -0.077248 0.711272 -0.019394 -0.701778
0.101703 -0.105078 0.106619 -0.530111 -0.104541 0.841251
-0.066186 -0.241547 -0.090549 -0.301939 -0.000577 -0.949782
-0.010176 -0.58911 -0.077684 0.680914 -0.031434 -0.731442
0.12096 0.438388 0.080876 0.240709 0.197174 0.948099
-0.062718 0.212104 0.096511 -0.468047 0.093793 0.878313
-0.118384 0.050661 -0.06368 -0.848364 0.150604 -0.506223
-0.06075 -0.825518 0.11481 -0.019852 0.990294 0.105657
0.110776 -0.448883 0.045974 -0.654331 -0.217248 0.719401
0.103782 -0.634875 -0.090218 -0.477617 -0.059705 -0.875414
0.0844 -0.235435 0.085005 -0.250841 -0.111218 0.956997
-0.134751 -0.550076 -0.024717 -0.967173 -0.155699 0.176631
-0.058474 -0.11245 0.122724 -0.214846 -0.028987 0.975822
0.024273 -0.121494 -0.053986 -0.508026 -0.535546 -0.497178
-0.038446 0.017885 -0.140571 -0.226882 -0.48744 -0.842778
-0.045702 0.202803 0.106162 -0.483429 0.01937 0.874736
0.063777 -0.15487 -0.094573 -0.597061 -0.205439 -0.769461
0.089509 -0.171894 0.094166 -0.43579 -0.131794 0.889871
0.176463 -0.105172 0.091404 0.692021 0.033826 0.720972
-0.023349 0.480951 -0.12905 0.055422 0.101997 -0.993148
-0.031209 -0.55982 -0.095572 0.397771 -0.026328 -0.917078
0.109451 0.072027 0.112798 0.50994 0.137878 0.848524
-0.060841 0.269242 -0.117465 -0.429928 -0.102982 -0.89479
0.100117 0.261641 0.107186 0.357214 0.071592 0.930179
-0.222728 0.331272 -0.013424 0.605028 -0.708556 0.353711
0.197529 -0.018432 0.060567 0.863048 0.093484 0.493864
-0.04399 -0.855125 0.136342 0.75124 -0.383659 0.464006
0.638785 0.038391 0.088263 0.959385 0.116743 0.193504
0.147762 0.1225 -0.095339 0.635736 0.217161 -0.735893
-0.033674 0.578135 -0.090367 -0.243583 0.662335 -0.707589
-0.187012 0.357035 -0.013634 0.523351 -0.778975 0.338778
-0.009567 -0.599913 -0.07684 0.683205 -0.008619 -0.729995
-0.076509 0.427188 -0.123579 -0.313855 -0.184453 -0.931194
0.111921 0.20981 -0.117746 0.533467 -0.373544 -0.758303
0.042916 0.196233 0.129371 0.06145 0.022628 0.997783
0.165215 0.122142 -0.073506 0.805248 0.201251 -0.554417
0.150384 -0.469156 0.066616 -0.173092 -0.116855 0.973829
0.074704 0.260865 0.118527 0.377189 0.057824 0.922099
0.140453 -0.068744 0.11232 0.328391 0.022211 0.944147
-0.17757 0.371394 -0.001051 0.543304 -0.673013 0.500618
-0.070028 -0.848534 0.163106 -0.035002 -0.379474 0.908732
-0.009925 -0.829949 -0.008419 0.441941 -0.884368 0.139497
-0.067994 -0.693113 0.019197 0.239608 -0.317656 0.91724
-0.189507 0.370771 -0.083019 0.477063 -0.646642 -0.582582
0.074139 -0.383135 0.043553 -0.647329 -0.301464 0.700002
0.005196 -0.323468 0.074957 0.646849 -0.201144 0.735495
-0.137656 -0.479342 0.000252 -0.963658 -0.047791 0.259105
0.089285 0.694863 0.011057 0.984329 -0.157861 0.050172
-0.125005 0.098585 0.035511 -0.934869 -0.001253 0.354174
-0.118107 -0.758037 -0.007154 -0.826818 -0.319592 0.435915
0.131985 -0.529839 -0.108351 0.104694 0.017383 -0.992843
0.120374 -0.199716 0.096301 0.051126 -0.186516 0.980401
0.053186 -0.09191 0.095215 0.316251 -0.760326 0.561309
0.163376 -0.837487 0.019114 0.9098 0.414219 -0.000963
0.544157 0.122126 0.010657 -0.85909 -0.498613 0.044842
0.191017 -0.377988 0.047922 0.930187 -0.032587 0.364282
0.596407 0.116295 0.027287 0.7637 0.64364 -0.039619
-0.205705 0.374557 0.016932 0.116493 -0.531839 0.838687
0.168071 -0.481647 -0.091766 0.664791 0.063042 -0.74371
0.021306 -0.224794 -0.039794 0.946776 -0.0153 -0.319176
0.027041 -0.638204 -0.037971 0.987961 0.015145 -0.145234
0.241954 0.535198 -0.058418 0.705197 0.708529 -0.018165
-0.023339 0.57436 0.005514 -0.351888 0.646796 0.672869
0.012295 -0.124961 0.105663 0.677368 -0.216394 0.702827
0.002186 -0.546973 0.021556 0.732117 -0.158046 0.662431
-0.126727 -0.300397 -0.01832 -0.974177 0.01841 -0.214196
-0.084916 -0.47063 -0.089791 -0.451397 0.109457 -0.885011
-0.103824 0.192899 -0.052969 -0.839113 0.119237 -0.530583
-0.129894 -0.279549 0.031822 -0.985211 -0.166289 0.02704
-0.054675 0.48311 0.073401 -0.178491 0.413453 0.892735
0.203762 -0.242481 0.030048 0.984051 0.025085 0.171985
-0.044743 -0.864123 0.077669 0.037941 -0.998966 0.01084
0.146212 -0.770373 -0.098973 0.488226 0.303282 -0.814052
0.188629 0.180703 -0.008559 0.952716 0.269548 -0.125635
0.035477 -0.278308 -0.031757 -0.888293 -0.079008 -0.449346
-0.031174 -0.28292 -0.089237 0.36281 -0.077165 -0.928407
-0.004856 -0.667683 -0.077303 0.520397 0.160328 -0.8376
0.088929 -0.560058 0.028513 -0.542858 -0.021492 0.837759
-0.118729 0.172822 0.039986 -0.878773 0.011188 0.476424
0.090718 -0.169137 -0.105093 -0.266881 -0.228759 -0.935126
-0.099876 -0.605285 -0.094993 -0.477107 0.069707 -0.875191
0.643493 0.030033 0.04525 0.961315 0.096458 0.012676
0.334873 0.371815 -0.137362 0.372272 0.069737 -0.918969
-0.135598 -0.24049 0.028702 -0.998974 -0.042522 0.008596
0.180396 0.261146 0.026814 0.974321 0.095942 0.199026
-0.103344 0.511012 -0.106299 -0.350074 0.386843 -0.851585
0.095324 -0.684794 -0.083257 -0.644279 0.027692 -0.76394
-0.037795 0.584233 -0.082008 -0.360687 0.723518 -0.584268
-0.03988 -0.721674 -0.116122 0.465311 0.22354 -0.855899
0.039486 -0.244707 0.010229 -0.353262 -0.083387 0.820741
0.206284 -0.131567 -0.037436 0.935745 -0.009033 -0.351564
0.006814 -0.127064 -0.06636 0.778751 -0.198655 -0.593576
-0.110352 -0.803512 -0.018401 -0.844389 -0.456551 0.268558
-0.132334 -0.398145 -0.017643 -0.903535 0.209998 -0.367056
0.377809 0.349362 -0.081804 0.667199 0.688791 0.268322
-0.134449 -0.560913 -0.03156 -0.986013 -0.107759 0.115355
-0.224164 0.326291 -0.041199 0.679779 -0.732403 -0.026366
0.141553 -0.172149 0.099214 0.161685 -0.276968 0.946305
0.081922 0.847345 0.000367 0.871389 0.484734 0.068199
0.127339 -0.178376 -0.105533 0.205718 -0.10385 -0.97009
0.068429 -0.585953 0.00864 -0.652358 -0.142186 0.744257
0.029632 -0.295006 0.006027 0.996691 -0.06697 0.040122
-0.012167 -0.062734 0.129221 0.113991 -0.112975 0.987017
-0.035227 -0.658915 0.023851 0.022656 -0.056032 0.990757
0.076607 0.54707 0.033489 -0.232193 0.739411 0.626419
0.097538 -0.813574 0.060573 -0.682462 0.518431 0.510655
0.031347 -0.170886 0.042625 0.705963 -0.330228 0.610158
0.033039 0.647607 0.042299 -0.110293 -0.604134 0.783754
-0.045004 0.333637 0.100069 -0.305509 -0.148795 0.936475
-0.176141 0.389285 -0.089085 0.485298 -0.460205 -0.733622
0.194755 0.030591 -0.054819 0.912807 0.026129 -0.407287
0.05057 -0.329669 -0.055938 -0.823277 -0.034263 -0.565812
0.043515 -0.404488 -0.011668 -0.989934 -0.07092 0.109865
-0.080845 -0.593684 -0.102568 -0.139302 0.026622 -0.989331
-0.10835 0.543394 0.030847 -0.033867 0.720233 0.69277
0.014483 0.239303 0.127568 -0.070449 0.042301 0.994985
0.197544 -0.672163 -0.014224 0.976858 0.041666 0.20789
0.111137 -0.864835 -0.005563 -0.299892 -0.944546 -0.07268
-0.101406 -0.434051 -0.070494 -0.652431 0.272452 -0.706709
0.135934 -0.445261 -0.102308 0.270042 0.127941 -0.952031
0.079804 0.592565 0.002652 0.723762 0.114275 0.677874
0.027637 -0.174121 0.051053 0.942891 -0.157761 0.289018
-0.090479 -0.522342 -0.093483 -0.511948 0.109602 -0.851963
0.33134 0.397847 -0.044199 0.806283 -0.048229 0.578294
0.031933 0.852773 -0.072609 -0.032899 0.839273 -0.541305
0.119926 0.108071 0.105517 0.490092 0.091335 0.865198
0.087104 0.065978 0.122832 0.440786 0.102175 0.889831
-0.027102 -0.841616 0.088997 0.964325 0.163006 0.174552
0.143687 -0.314183 0.080396 0.133125 -0.05583 0.988691
-0.09169 -0.290847 -0.070565 -0.714029 -0.023442 -0.699574
-0.0204 -0.547663 -0.089577 0.578207 -0.006643 -0.814597
-0.010077 0.653124 0.002605 -0.921393 -0.188397 0.305087
0.102961 -0.722969 0.031152 0.572418 -0.09142 0.813644
0.187389 -0.498845 -0.071918 0.785405 0.009384 -0.618874
0.122292 -0.868467 0.132346 -0.042068 -0.992088 0.115506
0.12389 0.189487 0.099816 0.516807 0.03425 0.854752
0.180114 -0.261721 -0.063008 0.632007 -0.222487 -0.740751
0.207139 -0.178415 0.012708 0.997323 -0.00962 0.07044
-0.029619 -0.339758 0.092603 0.297203 -0.09662 0.946517
0.127917 0.304694 0.090794 0.607778 0.074507 0.790148
-0.030787 -0.41676 0.078989 0.335294 -0.180218 0.924484
-0.042874 -0.330274 0.097779 0.231896 -0.095286 0.968006
-0.00669 -0.812877 -0.127306 0.80662 -0.282142 -0.515662
