0.110914 0.551535 -0.118557 0.167129 0.568285 -0.802282
0.029287 0.426954 0.095735 0.133385 0.186081 0.973053
-0.019785 -0.835084 -0.028897 0.77086 -0.572513 0.013474
-0.032742 -0.642703 -0.095457 0.490047 0.03539 -0.870771
-0.056942 -0.045585 -0.123597 -0.224139 -0.338065 -0.913366
0.061495 0.785628 0.079582 0.515254 0.14138 0.801787
0.046739 -0.431329 -0.00753 -0.846098 -0.115582 0.510526
-0.136704 -0.170055 -0.010949 -0.944106 -0.135788 -0.296165
0.095445 -0.129874 0.100237 -0.558427 -0.036708 0.828712
-0.301074 0.340922 0.000647 -0.411469 0.366672 0.83165
-0.111509 0.257593 -0.051474 -0.995589 -0.006881 -0.084602
0.145715 0.255637 -0.099428 0.803044 -0.113416 -0.584272
0.205636 -0.234469 0.002413 0.99862 -0.048898 0.014278
0.19813 -0.648837 -0.044613 0.962455 -0.090814 -0.23177
-0.114563 0.125259 0.052392 -0.83928 0.107849 0.531182
0.036935 0.289098 -0.128135 -0.142252 -0.017683 -0.988604
0.186537 0.087521 0.054409 0.897378 0.154813 0.410269
0.179516 -0.289307 -0.055232 0.681653 -0.16847 -0.711927
-0.058192 -0.725489 0.017651 -0.34397 0.463935 0.814205
0.033762 -0.062016 -0.120324 -0.404792 -0.477471 -0.779058
-0.062718 0.212104 0.096511 -0.468047 0.093793 0.878313
0.117389 -0.260832 0.08548 0.053524 -0.232981 0.96769
-0.035704 -0.785466 -0.144988 0.148016 0.467484 -0.864349
0.02525 0.261966 0.127086 -0.018013 0.074778 0.996592
0.196149 0.089995 0.004164 0.963092 0.223178 0.13575
0.198494 -0.103878 -0.051277 0.882657 0.037676 -0.467623
0.100038 -0.869492 -0.067122 -0.252171 -0.95924 0.046424
0.063784 0.386832 -0.139351 -0.382759 0.022936 -0.922987
0.001671 -0.151342 -0.067467 0.785961 -0.081098 -0.612163
-0.061567 0.580135 -0.017687 -0.206229 0.882178 0.39092
0.322985 0.396462 -0.035009 0.646266 0.17957 0.726277
0.01734 -0.738635 -0.023837 0.920063 -0.120725 0.367861
0.149314 0.577072 -0.068128 0.526156 0.787485 -0.308013
-0.183855 0.485651 -0.074413 -0.510115 0.415508 -0.750583
-0.141844 -0.07022 0.036397 -0.970127 0.027729 0.234366
-0.117813 -0.791409 -0.025025 -0.922465 -0.298547 0.213752
0.276548 0.386122 -0.141814 -0.271706 -0.174757 -0.937304
-0.486968 0.11383 0.057935 0.883975 -0.284937 0.35649
-0.014941 -0.224823 -0.082053 0.515277 0.015364 -0.856769
-0.042906 -0.133684 0.124375 -0.021627 -0.099474 0.994665
-0.449447 0.211838 -0.00418 -0.733794 0.620364 0.260545
0.120606 -0.664149 0.032387 0.099772 -0.141846 0.984436
-0.111598 -0.766358 -0.010065 -0.699641 0.017778 0.628952
-0.144093 -0.073752 0.005786 -0.999441 0.012054 -0.021688
-0.099987 -0.463994 0.077845 -0.564835 -0.321609 0.754785
-0.022326 0.11924 0.122188 -0.40383 0.075935 0.910192
-0.119984 0.346959 -0.005485 -0.991973 -0.099176 0.069603
-0.076553 -0.81059 0.053402 -0.683177 0.510789 0.52001
-0.017914 -0.274702 0.098021 0.366525 -0.220961 0.902918
0.284486 0.392097 -0.143941 -0.14715 -0.03239 -0.986248
-0.003618 0.649213 0.012431 -0.837001 -0.220926 0.496581
0.062167 -0.686242 0.024924 -0.636113 0.287271 0.7047
0.196584 -0.72458 -0.026868 0.978547 -0.072184 -0.17062
-0.270347 0.31473 0.00614 0.222207 -0.261105 0.938317
-0.029326 0.441883 -0.131117 0.05794 -0.059828 -0.996177
0.193884 0.045861 -0.053291 0.910351 0.131753 -0.3918
-0.114469 0.21629 0.042827 -0.960811 0.118193 0.246165
0.002215 -0.47357 0.040029 0.709769 -0.145596 0.688931
-0.50506 0.099128 0.027581 0.211951 -0.805821 -0.535523
-0.045164 0.554078 -0.103898 -0.275171 0.486224 -0.827997
-0.090341 0.151521 0.077396 -0.693521 0.010127 0.719753
-0.119205 -0.118934 -0.056003 -0.787877 -0.085438 -0.609613
0.081442 0.474825 0.076304 0.137133 0.417368 0.896757
0.447843 0.196507 -0.075095 0.10341 -0.939602 -0.21243
0.100312 0.334886 -0.143734 0.205813 -0.08568 -0.973062
0.05046 -0.195897 -0.068398 -0.817164 -0.164239 -0.551222
0.181815 -0.136795 -0.072075 0.715662 -0.071453 -0.694733
0.200352 -0.599676 -0.022907 0.994916 -0.099561 0.007074
-0.029374 0.737713 0.020011 -0.986061 -0.074593 0.146249
0.198848 -0.636864 -0.026393 0.9994 -0.014777 0.024393
-0.050385 -0.791534 -0.14683 -0.22636 0.327294 -0.904064
0.137273 0.226115 -0.102181 0.749228 -0.225953 -0.62156
0.072766 0.526676 0.050225 0.120676 0.524077 0.842666
-0.114089 0.016541 -0.080787 -0.87467 0.039602 -0.482283
0.004235 -0.493181 -0.058658 0.797361 0.06079 -0.600366
0.195808 -0.315244 -0.03133 0.852116 -0.018166 -0.521892
-0.025301 -0.596315 -0.090967 0.55302 -0.025357 -0.830253
0.042815 0.468225 -0.128431 -0.211971 0.062321 -0.973623
0.149923 0.383728 -0.126323 0.499973 -0.250369 -0.827693
0.001255 -0.792323 -0.020439 0.876257 -0.170063 0.446241
0.412268 0.236454 -0.117251 0.042162 -0.556548 -0.820786
-0.009647 -0.814627 0.00696 0.952584 0.034686 0.275284
-0.048938 -0.239185 0.112445 0.093976 -0.161743 0.982013
0.02672 -0.592714 -0.013245 0.981886 0.025299 0.16362
0.03026 -0.05221 0.12287 -0.347823 -0.384531 0.849462
-0.411568 0.243215 -0.063436 -0.643173 0.113023 -0.755197
-0.139095 -0.487102 -0.020757 -0.976045 -0.094073 -0.147511
-0.127539 0.179081 -0.009313 -0.976691 0.046145 -0.192627
-0.12296 -0.488658 -0.058766 -0.795539 0.080439 -0.600512
0.52252 0.214984 -0.038457 0.519883 0.782047 0.34174
-0.110131 -0.851903 0.00487 -0.791623 -0.555199 -0.117213
-0.011502 0.635586 -0.009522 -0.986691 0.006432 0.147325
0.022838 -0.718142 -0.055552 0.972654 -0.023894 -0.224976
-0.150402 0.540633 -0.053779 -0.459718 0.765653 -0.448693
-0.130216 0.061642 0.033247 -0.921913 0.33128 0.198374
0.000778 -0.621909 -0.067724 0.667741 0.063438 -0.741373
0.066993 0.196219 -0.119716 -0.200212 -0.220843 -0.949649
-0.109168 0.189785 0.057549 -0.826821 -0.053421 0.559761
0.126503 -0.593665 0.035976 -0.203447 -0.193558 0.959637
0.059053 -0.593228 -0.054788 -0.734605 -0.031117 -0.677695
0.499006 0.172005 0.01594 -0.533703 -0.706515 0.440407
-0.047456 -0.663851 -0.104993 0.365811 0.123904 -0.921352
-0.134241 -0.394276 -0.000554 -0.917622 0.355602 -0.042785
0.053357 0.547074 -0.118682 -0.1543 0.450829 -0.876316
0.171706 0.290507 -0.059621 0.852426 -0.254571 -0.456251
0.087305 -0.64392 -0.077432 -0.656168 -0.055953 -0.752061
0.405104 0.323883 -0.102248 0.678731 0.702698 -0.199578
0.06195 0.52986 -0.125254 -0.17194 0.130829 -0.974325
-0.449995 0.151886 0.037577 0.734066 -0.481322 0.446166
0.128257 -0.159289 0.105666 0.102943 -0.281906 0.95263
0.189271 -0.031105 0.073524 0.77491 0.025525 0.631161
0.340804 0.414357 -0.119821 0.613376 0.579475 -0.526382
0.052283 -0.311484 -0.0585 -0.814982 0.005868 -0.579392
0.164832 0.053159 0.093112 0.476662 0.279123 0.828838
-0.053344 0.531941 0.046105 -0.200849 0.612149 0.764791
0.15486 -0.748417 0.026097 0.310118 0.541508 0.668946
0.313281 0.455733 -0.085186 0.708626 0.699501 -0.088208
-0.113073 0.345708 0.027913 -0.923031 -0.197828 0.326876
0.285626 0.344319 -0.116714 -0.612208 -0.559466 -0.558149
-0.267794 0.337958 0.01007 -0.097836 -0.189376 0.974412
0.043211 0.372567 0.106927 0.103089 0.247954 0.958686
0.003661 -0.760675 -0.094038 0.798745 0.148931 -0.579312
0.029414 0.200431 0.129683 0.014411 0.049265 0.998602
0.092012 0.707312 0.029013 0.963475 -0.239416 0.092577
-0.268897 0.415002 -0.048027 -0.731524 0.676406 -0.078337
-0.128213 0.145204 -0.004403 -0.996178 0.03934 -0.054733
-0.205864 0.419964 0.036648 0.015398 -0.252695 0.963404
0.055194 0.765467 0.072178 0.538929 -0.240103 0.804362
-0.128112 -0.697718 -0.050275 -0.997512 -0.007207 0.033989
0.075886 -0.528399 0.01675 -0.678072 -0.003351 0.734888
0.194294 -0.286334 0.055364 0.906289 -0.064454 0.416849
0.065675 0.71183 0.079473 0.580378 -0.025585 0.810182
0.251575 0.369323 -0.049385 -0.658379 -0.653617 0.371681
-0.135071 -0.247017 0.015334 -0.995896 -0.064458 -0.060549
0.022587 -0.097334 -0.079216 -0.331714 -0.685686 -0.626227
0.01011 0.384097 0.106478 0.002775 0.205569 0.978245
0.058821 -0.748653 0.011574 -0.983263 -0.16101 0.054206
0.025242 -0.335973 0.038804 0.948042 -0.106958 0.297678
-0.115158 -0.132224 -0.059184 -0.76922 -0.101614 -0.630795
-0.007645 -0.615066 -0.075117 0.681481 0.015601 -0.73161
-0.044155 -0.431485 0.079613 0.236532 -0.226544 0.944018
-0.276545 0.396402 -0.004575 -0.676863 0.554548 0.483369
0.013492 -0.262101 0.080262 0.801032 -0.1242 0.584649
0.088072 0.310628 -0.142812 0.015538 -0.089302 -0.993963
-0.057871 0.184893 -0.096313 -0.529121 -0.182419 -0.82688
0.106189 0.596522 -0.050225 0.488473 0.860292 0.114055
0.017297 -0.134323 -0.049491 0.811851 -0.249086 -0.522864
-0.429866 0.229301 0.002818 -0.629988 0.577843 0.504003
0.252589 0.432072 -0.138072 -0.141073 0.113966 -0.979745
0.165625 0.032725 -0.105488 0.781063 0.09037 -0.616598
-0.208326 0.472275 -0.062433 -0.793213 0.369454 -0.441802
0.036267 0.178646 0.130148 0.054118 0.03649 0.997713
0.205306 0.471361 -0.133875 0.083347 0.060967 -0.993082
0.088201 0.064477 -0.151494 0.243882 0.201537 -0.937085
-0.225707 0.378611 -0.096485 0.062012 -0.00356 -0.996938
0.157319 -0.835309 0.121019 0.638617 0.75421 0.131952
0.261714 0.515136 -0.044062 0.73 0.672294 0.097955
-0.054336 -0.152413 0.122028 -0.088471 -0.021919 0.994848
-0.542451 0.094823 0.068063 -0.737022 0.670807 0.077114
0.174571 -0.791707 -0.080528 0.895897 0.063168 -0.434535
0.071336 0.059217 0.131191 0.190772 0.106219 0.970753
0.196858 -0.708303 -0.028008 0.973289 -0.010029 -0.200592
0.467804 0.215471 -0.074652 0.332734 -0.494602 -0.787623
0.130584 0.24189 -0.115816 0.692955 -0.202696 -0.690909
0.093487 -0.866849 -0.07517 -0.693609 -0.719076 -0.025526
0.191358 0.333447 -0.018638 0.987895 -0.146296 0.029272
0.117456 -0.55708 -0.105931 -0.249104 -0.111432 -0.961645
-0.02577 0.364064 -0.128928 -0.027704 -0.018084 -0.999364
-0.133086 -0.499557 0.005936 -0.883229 -0.178883 0.429662
-0.0628 0.027908 -0.135364 -0.387159 0.063581 -0.900566
0.146212 -0.770373 -0.098973 0.488226 0.303282 -0.814052
0.107536 -0.823841 -0.114127 -0.435583 -0.053061 -0.894314
0.016616 0.606384 0.022911 -0.472496 -0.068071 0.877574
0.520783 0.208766 -0.019701 0.18128 0.9387 0.283552
-0.001271 -0.118564 0.117611 0.527916 -0.19827 0.821781
-0.163197 0.424747 -0.09472 0.075527 -0.04168 -0.994894
-0.471056 0.127615 0.034185 0.740797 -0.650911 0.165092
0.166119 0.417209 0.055275 0.599131 0.071635 0.794881
0.301187 0.441288 -0.031859 0.75752 0.391847 0.489262
0.05598 -0.139361 0.071606 -0.638526 0.091804 0.763425
-0.059768 -0.178259 0.121252 -0.249923 -0.021645 0.962786
-0.079902 -0.55842 0.0612 0.440788 -0.175386 0.879474
0.108448 -0.778064 -0.10267 -0.472406 0.434108 -0.766485
-0.136123 -0.093606 0.059766 -0.954463 0.004164 0.293783
-0.011477 0.643059 -0.027852 -0.985059 0.068034 -0.124811
0.155139 -0.145115 -0.095544 0.479127 -0.153704 -0.847266
0.18477 0.019799 -0.076067 0.88619 -0.004683 -0.462961
0.161661 0.283654 -0.076917 0.868282 -0.162366 -0.467412
0.031562 -0.089787 0.107612 0.25131 -0.411289 0.8733
0.036655 0.105015 -0.138634 -0.108076 0.313172 -0.940496
0.14241 -0.20166 0.094132 0.02968 -0.151152 0.982693
0.180139 0.461344 -0.136932 0.150319 0.000928 -0.988601
0.052337 -0.463781 -0.004177 -0.798328 -0.026902 0.593082
-0.047483 0.448019 -0.131502 -0.073908 -0.061964 -0.994706
0.180863 -0.367598 0.067039 0.658845 -0.074976 0.731943
0.125185 -0.815842 0.074935 0.110662 0.923261 0.361489
0.174925 0.062403 -0.082882 0.818839 0.197528 -0.538341
-0.103478 -0.860482 0.023718 -0.564604 -0.807482 -0.05555
-0.029279 0.242648 0.112038 -0.283216 0.026337 0.95856
0.03824 -0.211399 -0.031386 0.431143 0.258904 -0.71787
0.195798 -0.427561 -0.048453 0.88768 0.099034 -0.442451
-0.00548 0.240618 -0.129131 0.057234 -0.056572 -0.995764
0.585201 0.047343 -0.00289 -0.838934 -0.543703 -0.012342
-0.08961 0.296726 -0.097886 -0.543226 -0.063092 -0.816336
-0.1311 0.016398 0.064502 -0.828915 0.292085 0.475435
-0.003653 -0.720929 0.006126 0.779756 -0.12337 0.612867
-0.125663 0.370983 -0.036348 -0.947904 -0.310962 -8.1e-05
-0.036197 0.470697 -0.130873 0.028584 0.114576 -0.992761
0.005196 -0.323468 0.074957 0.646849 -0.201144 0.735495
-0.143551 -0.069613 0.025405 -0.994281 0.022016 0.098088
-0.096246 -0.353732 0.101656 -0.174329 -0.141959 0.974149
0.019755 0.504545 -0.123063 -0.009637 0.01777 -0.999157
0.001033 -0.819177 -0.031353 0.963139 -0.069913 0.257988
-0.05375 -0.275699 -0.093011 -0.103086 -0.061968 -0.991227
0.018994 0.637602 0.031757 -0.454038 -0.390883 0.794349
-0.071748 -0.314505 -0.084787 -0.452701 -0.041766 -0.888904
-0.063318 0.255482 0.09096 -0.485261 0.069628 0.871428
0.360498 0.320603 -0.044583 0.217082 0.277859 0.934805
0.047024 0.068965 -0.15023 -0.184328 0.260513 -0.946907
0.043295 -0.273028 0.030271 -0.988553 -0.021979 0.14867
-0.137483 -0.437912 0.007236 -0.9917 0.013523 0.125888
0.10826 0.431841 -0.146395 -0.016944 -0.038789 -0.998809
-0.090776 -0.8633 0.075636 -0.023772 -0.999707 0.002345
-0.001984 0.198404 0.128432 -0.16954 0.069822 0.978631
-0.448148 0.2111 -0.037337 -0.751177 0.36228 -0.529774
-0.010176 -0.58911 -0.077684 0.680914 -0.031434 -0.731442
-0.029178 -0.055041 0.130511 -0.068572 -0.092864 0.992974
0.080194 0.646556 -0.040601 0.882353 0.160219 -0.433404
0.116212 -0.536198 0.041797 -0.397667 -0.046353 0.91473
0.095244 0.787897 -0.077095 0.891851 0.090675 -0.438964
0.124683 0.316573 0.091723 0.5519 0.080743 0.829865
0.137778 0.031733 -0.133079 0.651211 0.110494 -0.75019
0.157344 -0.295331 0.07896 0.241427 -0.09539 0.965649
0.0967 0.811616 -0.06016 0.918076 0.347377 -0.184173
0.207038 0.022099 0.016066 0.999392 0.030886 0.01411
-0.124755 0.187103 -0.015351 -0.86619 0.183359 -0.463575
-0.112051 -0.614284 -0.086957 -0.61959 0.09368 -0.779187
-0.003732 -0.471318 -0.06603 0.754521 0.103117 -0.647247
0.066264 0.648539 -0.055353 0.545777 0.163732 -0.821058
0.00902 -0.099085 0.117767 0.5461 -0.23522 0.799677
-0.126558 0.385121 0.006992 -0.966628 -0.206568 0.135905
-0.133948 0.057823 0.023708 -0.92811 0.317161 0.16071
0.187959 -0.625408 -0.065826 0.71691 -0.093781 -0.689921
0.015289 -0.087331 0.116394 0.570504 -0.255374 0.7803
-0.110448 0.319461 -0.077324 -0.871561 -0.164996 -0.460197
-0.109198 -0.11109 -0.069207 -0.754405 -0.099019 -0.64884
0.135495 -0.265266 -0.091245 0.468469 -0.086527 -0.877626
-0.128552 0.086516 0.00945 -0.99925 0.000794 0.03281
-0.495776 0.127743 -0.008297 -0.163567 -0.794389 -0.535022
-0.059302 0.549271 -0.101118 -0.363196 0.517816 -0.774344
-0.003754 0.276237 0.119515 -0.324511 0.073731 0.942828
-0.107392 -0.375969 0.09198 -0.673519 -0.074979 0.734424
0.150678 -0.408734 0.073492 -0.122566 -0.086074 0.986124
-0.036168 -0.688761 -0.105162 0.450248 0.269162 -0.851182
0.236814 0.505789 -0.111946 0.493602 0.552429 -0.671507
0.10903 0.351029 -0.14256 0.336766 -0.106017 -0.934902
0.028168 -0.101082 0.104238 0.416537 -0.411069 0.806788
-0.098337 0.151974 -0.068762 -0.729531 0.177556 -0.65945
0.206292 -0.223065 -0.014777 0.998072 -0.05711 -0.0216
0.155417 0.532545 0.018294 0.129975 0.657389 0.741775
0.135849 -0.802418 0.049854 0.429343 0.574776 0.691804
-0.121698 -0.766237 -0.047387 -0.974026 -0.220612 -0.020534
0.117636 0.202535 -0.111141 0.52995 -0.30768 -0.789818
0.264493 0.491492 -0.102638 0.565573 0.563605 -0.601601
-0.028498 0.759254 0.030632 -0.965523 0.016881 0.253178
-0.014546 -0.649149 0.024635 -0.04343 0.078968 0.989529
0.315041 0.306895 -0.098873 -0.684986 -0.706445 -0.157983
0.099085 0.71296 0.000216 0.831888 -0.504596 0.002384
-0.48756 0.165737 0.016656 -0.742133 0.666306 0.032467
-0.080599 -0.274047 0.109655 -0.03083 -0.101156 0.99287
-0.02884 -0.397776 -0.076135 0.431518 0.079701 -0.894265
0.198409 0.372021 -0.043338 0.999509 -0.0156 0.02527
-0.094591 0.350876 -0.1013 -0.57844 -0.146675 -0.802159
-0.335172 0.224147 -0.01032 0.491344 -0.851509 0.170517
0.203719 -0.52478 -0.035728 0.96051 0.051026 -0.26896
-0.014445 0.538095 0.050778 -0.061048 0.608751 0.789564
0.07227 -0.205465 -0.088313 -0.515367 -0.220848 -0.825616
0.098951 -0.768314 0.021214 -0.249396 0.804134 0.537685
-0.008028 -0.15368 0.115058 0.530754 -0.13429 0.836433
0.133791 -0.763487 0.024594 0.010295 0.492333 0.855793
-0.076175 0.445755 -0.127168 -0.245457 -0.106123 -0.962751
-0.076298 -0.020994 -0.122443 -0.563243 -0.15517 -0.811208
0.084029 -0.146932 0.092521 -0.600893 -0.016914 0.798293
0.087667 -0.852673 -0.081469 -0.973432 0.044418 -0.169982
-0.00684 -0.764802 -0.111177 0.734325 0.358326 -0.572932
-0.124232 -0.468 -0.053651 -0.797045 0.102933 -0.594871
0.158084 -0.84799 -0.085146 0.936446 -0.065927 -0.339343
-0.016464 -0.423379 0.070963 0.554337 -0.210474 0.803559
0.135698 0.18714 0.093057 0.680129 0.031011 0.732411
-0.141696 0.399792 -0.00697 0.528588 -0.819774 0.130241
0.140978 0.379285 0.078451 0.571667 0.011909 0.819491
0.009053 0.863064 0.014999 -0.177646 0.980451 0.060823
0.185431 -0.41498 0.056502 0.823481 -0.059626 0.563767
-0.06206 0.197389 0.097898 -0.442968 0.047473 0.894875
-0.113284 0.506598 -0.103731 -0.440084 0.355371 -0.814959
0.085816 -0.847754 -0.062864 -0.982711 0.175555 0.031151
-0.064416 0.202543 -0.096795 -0.558106 -0.246073 -0.791972
-0.279553 0.404082 -0.030337 -0.66489 0.739349 0.088194
-0.073218 0.360314 0.088941 -0.579084 -0.050936 0.811801
0.072847 -0.775766 -0.0534 -0.866028 0.194886 -0.459933
0.11134 0.447123 -0.147002 -0.011208 -0.002434 -0.999439
0.608113 0.096235 0.015804 0.774649 0.617007 -0.118426
0.06287 0.247454 -0.133096 -0.367853 -0.148128 -0.917715
0.052958 -0.695958 -0.017025 -0.977883 -0.103269 -0.165197
0.043906 -0.483666 -0.03111 -0.999716 -0.00021 0.014588
-0.357128 0.315222 -0.055675 -0.664797 0.739527 -0.077267
0.212662 -0.077103 -0.009687 0.973706 0.081996 -0.202778
-0.00593 0.532614 0.054608 0.03154 0.546018 0.834295
0.032002 0.658853 0.077038 -0.008532 -0.981867 0.186135
0.052975 -0.489132 -0.004094 -0.849323 -0.025576 0.521555
0.252127 0.518419 -0.025564 0.686223 0.607458 0.399642
0.174651 -0.054203 0.089752 0.686771 0.022572 0.72652
0.164328 -0.825786 -0.036434 0.769667 -0.638017 0.021533
0.518964 0.212973 -0.02893 0.481884 0.822039 0.30019
-0.012212 0.088178 0.128479 -0.371187 -0.03958 0.925679
-0.076284 -0.184911 -0.08788 -0.52054 -0.097952 -0.845042
-0.557397 0.069894 0.029219 -0.895981 0.439573 -0.034368
0.072427 -0.217429 -0.085642 -0.529311 -0.142971 -0.834747
0.174937 0.33563 -0.081928 0.784681 -0.338802 -0.518172
0.132376 -0.530285 0.049546 -0.365766 -0.174885 0.913429
-0.034984 0.116194 -0.120812 -0.287296 0.336399 -0.895513
0.017046 0.064961 -0.145431 -0.155591 0.209322 -0.965287
0.105684 -0.869885 0.102011 -0.062133 -0.993006 0.018686
-0.243865 0.39719 -0.092799 -0.230204 0.366603 -0.899205
0.062195 0.184965 0.127796 0.145963 0.029326 0.988732
0.089496 -0.861895 -0.083591 -0.858434 -0.442857 -0.14602
0.498 0.229602 -0.023745 0.635813 0.759607 0.130523
0.218899 0.414499 -0.022263 -0.456785 -0.729634 0.50131
0.425313 0.210931 -0.061356 -0.493575 -0.836467 0.237073
0.203171 -0.220299 -0.044048 0.922629 -0.072918 -0.375498
0.049894 0.433883 0.091636 0.072599 0.241967 0.966076
-0.057013 0.544699 0.034714 -0.188116 0.64892 0.734577
-0.031008 0.569928 -0.097613 -0.157146 0.590434 -0.79161
0.072132 -0.602053 0.007848 -0.763447 -0.189016 0.617576
-0.009093 -0.259962 -0.076789 0.641205 -0.081401 -0.761611
0.634662 0.053334 0.076044 0.920041 0.379845 0.091634
-0.02731 0.794177 0.026373 -0.90684 0.140949 0.395927
0.098069 -0.546926 -0.097516 -0.565237 -0.102064 -0.817946
-0.007165 -0.136351 0.118246 0.536859 -0.158072 0.822906
-0.098901 -0.717357 0.006405 -0.564663 -0.593561 0.568181
-0.354288 0.294415 -0.085551 -0.491451 0.328084 -0.803754
-0.012342 0.768482 0.061094 -0.842162 -0.083466 0.526843
-0.149084 0.463905 -0.095964 -0.337474 0.060001 -0.939146
0.092696 -0.661708 0.031614 -0.295345 0.170882 0.938273
-0.062821 -0.441224 0.081137 0.156171 -0.190891 0.969011
0.115318 -0.869554 0.102313 0.017445 -0.999629 0.019223
0.15442 0.198384 0.072579 0.737013 0.090039 0.669555
-0.106213 -0.51468 -0.081969 -0.680993 0.119687 -0.72173
0.019676 -0.094715 0.111265 0.587242 -0.257112 0.766296
0.088808 -0.832471 0.030583 -0.973922 -0.044404 0.027917
-0.079237 0.403476 0.085898 -0.649478 0.01786 0.759542
-0.120173 0.48309 -0.10676 -0.436955 0.18589 -0.878691
-0.537432 0.067444 0.067838 0.396749 -0.905238 0.12006
-0.249984 0.438323 -0.020452 -0.767669 0.612802 0.176066
0.065153 -0.798754 -0.039932 -0.950169 -0.136734 -0.269183
0.040692 0.545759 -0.116262 -0.179124 0.42551 -0.885625
-0.140166 -0.178825 0.016608 -0.957697 -0.282857 -0.031559
0.052447 0.719979 -0.098162 0.306635 -0.577252 -0.755179
0.119033 0.239313 -0.125366 0.606508 -0.281798 -0.739988
0.080282 -0.702992 -0.065005 -0.845025 -0.095674 -0.524666
0.53834 0.181437 -0.039692 0.525892 -0.598184 -0.592101
0.521165 0.148922 -0.022663 -0.709848 -0.699269 -0.076934
-0.082358 -0.863482 0.05518 -0.036709 -0.999247 -0.001984
-0.095557 -0.815881 0.024738 -0.906845 0.336852 0.245075
0.043647 -0.444181 -0.027516 -0.998456 -0.010906 0.010767
0.086438 0.779313 -0.093835 0.791743 0.038437 -0.608572
-0.059041 -0.863991 0.103679 0.001829 -0.999738 0.020647
0.189983 0.150161 0.033537 0.871335 0.157256 0.463732
0.087103 -0.771137 -0.075321 -0.788605 0.268714 -0.551189
-0.206883 0.48665 -0.050891 -0.695619 0.516104 -0.498736
0.033197 0.589541 0.0263 0.043028 0.008711 0.997147
-0.481317 0.122413 0.054011 0.792758 -0.465555 0.367154
0.047354 -0.105241 -0.10195 -0.462778 -0.490122 -0.73852
0.581922 0.054753 0.013529 -0.909854 -0.413132 0.03491
0.567434 0.141184 -0.006876 0.633084 0.179168 -0.735963
0.151623 -0.428703 0.071768 -0.110238 -0.097527 0.985064
-0.082565 0.152842 0.084535 -0.663312 -0.00012 0.747928
0.363477 0.366443 -0.100271 0.700681 0.712227 -0.005388
0.484604 0.186123 -0.053572 -0.113516 -0.457688 -0.866236
0.077551 -0.0829 0.104779 -0.114302 -0.760511 0.636826
-0.071443 0.231708 0.088478 -0.547548 0.068098 0.832961
-0.117398 0.19168 0.041181 -0.88745 0.030609 0.4583
0.161034 0.568606 -0.028335 0.344916 0.834093 0.425354
0.02105 0.498216 0.070967 0.090836 0.557043 0.824497
0.148404 0.00511 -0.126814 0.677191 0.120987 -0.725704
-0.476904 0.168883 0.036979 -0.310432 0.85601 0.370582
0.183726 0.293495 0.007579 0.985457 -0.088713 0.141163
0.19385 0.056863 -0.049944 0.891318 0.127868 -0.430021
-0.118083 -0.790364 -0.066721 -0.957647 -0.162929 -0.215811
-0.12553 -0.280919 -0.021281 -0.944606 0.01093 -0.321107
0.206934 -0.206862 -0.016148 0.998837 -0.039227 -0.026254
0.250698 0.362834 -0.080833 -0.698836 -0.715229 -0.001262
0.052109 -0.171254 0.068806 -0.795891 -0.03467 0.603412
0.046209 -0.168737 0.059364 -0.890006 -0.039613 0.450057
-0.101692 -0.841274 0.102591 -0.726854 0.674019 0.126264
0.31997 0.383975 -0.142568 0.217847 -0.044266 -0.974173
-0.131602 0.06636 0.00876 -0.894719 0.428214 0.030377
0.158873 0.18393 -0.072968 0.761552 0.06238 -0.644996
-0.121857 -0.041394 -0.066889 -0.853454 -0.087288 -0.513394
0.124412 0.350872 -0.135561 0.467888 -0.154912 -0.869871
0.045126 0.145352 0.130906 0.126117 0.016502 0.991692
0.395272 0.330377 -0.1101 0.598725 0.62032 -0.500628
0.195556 -0.697719 -0.006804 0.887133 -0.077597 0.432771
0.132482 0.355694 -0.131649 0.52634 -0.215234 -0.820741
0.075199 0.270467 0.117202 0.499928 0.10511 0.85963
-0.104821 -0.681838 -0.094706 -0.565059 -0.049342 -0.822931
0.079669 0.492506 -0.136218 -0.190954 0.160054 -0.968114
0.088644 -0.503503 0.026057 -0.558006 0.035692 0.828801
0.18287 0.274551 -0.014806 0.996931 -0.023736 -0.071456
0.014105 -0.026953 -0.137369 -0.014161 -0.37818 -0.92533
0.021039 0.576617 -0.099499 -0.077345 0.512312 -0.854944
0.197989 -0.328358 0.039307 0.920553 -0.06868 0.384442
0.194579 0.523828 -0.116307 0.180557 0.641141 -0.745827
0.17053 -0.237565 -0.074209 0.525877 -0.117816 -0.842074
0.081023 -0.468601 0.017292 -0.643657 0.062402 0.762623
0.205624 -0.113399 0.04841 0.921916 -0.024591 0.385675
0.128249 -0.869612 0.103898 -0.008219 -0.999781 0.017704
0.194702 -0.06882 -0.057333 0.871675 -0.008659 -0.489088
0.042814 0.789088 0.083272 0.073661 0.304574 0.948603
0.179719 -0.778958 0.007154 0.873231 -0.377129 0.307343
-0.004014 -0.202436 -0.073272 0.644246 0.027091 -0.763327
0.24666 0.487218 -0.119273 0.418803 0.486303 -0.766397
0.174672 0.32012 0.037912 0.92706 0.01982 0.372144
0.091747 0.32733 0.104165 0.259324 0.091927 0.961241
0.004293 -0.45722 -0.054436 0.771568 0.082407 -0.630585
0.161448 -0.855453 -0.002757 0.763339 -0.571579 -0.164904
0.08153 -0.639535 0.01523 -0.593305 0.330533 0.725285
-0.457573 0.159502 -0.043178 -0.035388 -0.697344 -0.658068
0.136422 -0.868905 0.032637 0.073722 -0.994151 -0.066352
0.578162 0.078856 0.058451 -0.03277 -0.753921 0.634401
-0.09435 0.240489 -0.081116 -0.688559 -0.368678 -0.621854
0.127079 -0.484978 -0.107356 0.017318 0.059056 -0.996105
-0.097325 -0.81382 0.014286 -0.952117 0.205157 0.220447
-0.566591 0.046936 0.042988 -0.904888 0.423623 0.033636
0.026108 -0.115778 -0.065983 -0.899462 -0.302708 -0.311797
0.116681 -0.788163 -0.112386 -0.219311 0.47247 -0.852442
0.438426 0.252095 -0.114379 0.571989 -0.233926 -0.781353
0.116583 0.127547 -0.116987 0.497063 0.325243 -0.803721
-0.132393 -0.199947 -0.01101 -0.904178 -0.111123 -0.412355
0.14875 -0.164024 0.100028 0.25172 -0.265265 0.93039
0.039875 0.750748 0.096037 0.512777 0.409943 0.72581
0.090188 0.559997 -0.11564 0.011627 0.592998 -0.803747
-0.057983 -0.163955 0.121845 -0.145875 0.008066 0.988517
0.026841 -0.506214 -0.01573 0.987105 0.007032 -0.154422
0.043459 -0.396815 -0.036922 -0.979299 -0.037712 -0.184855
-0.216843 0.479338 -0.044797 -0.661169 0.588467 -0.460625
-0.261059 0.35094 0.014985 -0.250289 -0.323698 0.910486
0.06574 0.862886 -0.018157 0.371135 0.923647 -0.030867
0.106643 -0.47171 0.039774 -0.662059 -0.043721 0.748029
0.122195 0.342941 0.090794 0.444166 0.0671 0.892454
-0.036236 0.771411 0.002854 -0.986317 0.049228 0.147993
0.180114 -0.261721 -0.063008 0.632007 -0.222487 -0.740751
0.129189 -0.055001 -0.135445 0.328099 -0.269224 -0.900362
-0.015218 0.729289 0.060348 -0.73869 0.003252 0.672665
-0.102276 -0.454508 0.078973 -0.597176 -0.142122 0.766933
0.082758 0.351404 0.103883 0.270565 0.137327 0.95206
0.165243 0.150054 -0.067076 0.823452 0.038432 -0.564341
0.15526 0.019119 0.106522 0.508003 0.185595 0.840856
-0.132076 -0.43628 0.032439 -0.917847 -0.088468 0.386655
-0.123451 0.377696 -0.076129 -0.906571 -0.27508 -0.313957
-0.079861 0.51272 -0.113646 -0.286526 0.399056 -0.870316
-0.079832 -0.579242 0.057532 0.369465 -0.188144 0.897564
0.095084 0.589002 -0.087509 0.169971 0.771837 -0.612453
-0.116892 0.39326 0.05414 -0.783251 -0.283998 0.549662
-0.109149 0.285562 -0.07221 -0.909563 -0.077943 -0.403539
-0.494031 0.151152 -0.024612 -0.8115 0.319683 -0.449838
0.59136 0.121303 0.020362 0.744753 0.66471 -0.051214
0.188667 -0.765014 -0.010446 0.948896 -0.297697 0.077874
-0.093711 0.29023 0.066745 -0.749364 0.065899 0.65826
0.224495 0.43995 -0.13336 -0.185494 -0.099955 -0.976084
0.169663 -0.848718 0.029021 0.939636 0.251965 -0.171604
0.00528 -0.389175 0.06032 0.777857 -0.174876 0.602337
-0.065356 -0.170504 0.120057 -0.240354 -0.074055 0.966152
0.085886 -0.575851 -0.083674 -0.650133 -0.114216 -0.751123
0.090718 -0.169137 -0.105093 -0.266881 -0.228759 -0.935126
0.195679 0.364779 -0.016922 0.973972 -0.1235 0.188994
-0.426288 0.165886 -0.038496 0.528264 -0.79295 -0.301751
0.027576 -0.628848 -0.031393 0.997007 0.00421 -0.070395
-0.013811 0.814072 0.043479 -0.833201 0.331275 0.43867
-0.382353 0.277326 -0.003118 -0.515067 0.566616 0.635121
-0.102651 0.382725 -0.104864 -0.542286 -0.221899 -0.807837
0.144924 -0.29923 0.081152 0.133669 -0.065922 0.988111
0.00833 0.349883 -0.127158 0.07246 -0.017926 -0.997136
0.05635 -0.01563 0.134444 0.073287 -0.332184 0.940278
-0.081391 0.364497 -0.111901 -0.474505 -0.140968 -0.868134
0.130405 0.08468 0.102703 0.316934 0.149645 0.928222
-0.121627 -0.236033 -0.028017 -0.879772 -0.024415 -0.47433
0.285769 0.380066 -0.142248 -0.142841 -0.296273 -0.937906
0.034219 0.492507 0.073019 0.083474 0.508359 0.856843
-0.105127 0.380209 0.062011 -0.731775 -0.206671 0.648235
-0.126907 -0.31285 0.037322 -0.993495 -0.054814 0.0993
0.094671 0.795836 0.022152 0.911955 0.125675 0.387923
0.226475 0.513032 0.007996 0.412041 0.486507 0.768999
0.185822 -0.736016 -0.004812 0.091381 0.494522 0.850316
-0.106917 0.288405 0.037613 -0.986415 0.002985 0.163018
-0.054298 -0.116106 -0.105772 -0.073447 -0.157809 -0.984072
0.214341 0.476742 -0.132675 0.124052 0.19262 -0.97311
-0.120435 0.338364 -0.0554 -0.998171 -0.039925 -0.042468
0.01193 0.084241 -0.139891 -0.199961 0.287567 -0.936278
0.01741 0.385685 -0.128051 0.002256 -0.020665 -0.999332
0.024836 -0.281809 0.049986 0.948034 -0.022329 0.308092
-0.016133 -0.832163 -0.020181 0.417296 -0.884108 0.031148
-0.504889 0.144793 0.017362 -0.783433 0.620251 -0.025611
-0.045524 -0.758918 -0.131701 0.051885 0.416526 -0.904881
0.010531 -0.527283 0.01788 0.703992 -0.170323 0.689182
0.042748 -0.063713 0.120612 0.008848 -0.385539 0.919703
-0.119788 -0.056996 -0.0671 -0.845633 -0.119114 -0.520121
0.010764 0.485699 -0.124405 0.134394 0.14424 -0.977935
-0.105108 -0.612475 0.043418 -0.889162 -0.04918 0.450737
0.396617 0.284284 -0.128823 0.082919 0.004006 -0.991053
0.125168 -0.261633 -0.096193 0.372685 -0.070789 -0.924972
0.049354 0.732617 0.091158 0.855596 0.144142 0.492137
0.038102 -0.105455 -0.095034 -0.668456 -0.42895 -0.605159
0.512349 0.196884 0.01114 -0.253602 0.838711 0.474035
-0.107502 -0.090981 0.10126 -0.680789 0.081015 0.727631
0.075219 -0.116773 -0.111561 -0.283598 -0.23916 -0.921729
-0.293635 0.373466 -0.053192 -0.879249 0.448449 -0.116403
0.162979 -0.247161 0.082398 0.243079 -0.108693 0.962523
-0.007148 -0.632244 0.023018 0.149437 0.150328 0.975111
-0.107132 -0.840018 -0.006224 -0.961578 0.19156 -0.10791
0.293895 0.480394 -0.076648 0.69479 0.672288 -0.245474
0.13153 -0.143023 0.109471 0.191096 -0.19635 0.960938
-0.091816 -0.037136 0.111106 -0.570108 0.013768 0.820591
-0.037632 -0.240991 -0.091642 0.195435 0.044775 -0.978894
0.543766 0.162907 -0.02396 0.649883 -0.203803 -0.729114
0.120211 -0.714101 0.022391 0.416781 -0.257891 0.865807
0.161648 0.174563 0.066681 0.720325 0.060472 0.690856
0.062674 -0.727588 0.03574 -0.358452 -0.053479 0.928691
0.343001 0.299943 -0.050866 -0.559867 -0.569575 0.600813
0.14902 -0.773657 0.035332 0.39579 0.295261 0.862957
-0.033748 0.195489 -0.112417 -0.36695 -0.353361 -0.860036
-0.047226 -0.741083 0.022218 0.45072 -0.593665 0.662386
0.254664 0.522569 -0.048171 0.706584 0.707123 0.02483
0.084119 0.410989 0.092935 0.160103 0.262095 0.950815
-0.094315 0.385213 -0.109896 -0.420101 -0.222439 -0.879261
0.081575 -0.661192 -0.069987 -0.740999 -0.054424 -0.668941
0.044505 0.574165 -0.103144 -0.054869 0.523072 -0.848369
-0.176375 0.373099 -0.07068 0.630713 -0.645236 -0.43103
0.012253 -0.36869 0.053984 0.846852 -0.137301 0.513427
0.161001 -0.193939 -0.085996 0.617893 -0.084948 -0.781564
-0.504713 0.130862 -0.004867 -0.669479 -0.266279 -0.539389
-0.004856 -0.667683 -0.077303 0.520397 0.160328 -0.8376
0.536972 0.1579 0.030467 -0.526668 0.160462 0.822485
0.155193 -0.78272 0.029042 0.453511 -0.254266 0.843624
-0.127508 0.405642 -0.084742 -0.912896 -0.290865 -0.278724
0.033489 0.84716 -0.080991 -0.008898 0.876464 -0.458164
0.063657 0.365798 -0.139215 -0.385463 -0.019582 -0.922074
0.179312 0.073669 -0.071885 0.817567 0.193455 -0.542072
0.212805 -0.018714 0.005972 0.987684 0.105059 -0.0878
0.007071 -0.464825 0.03624 0.753763 -0.090399 0.650301
-0.205953 0.426193 -0.091447 -0.234923 0.29069 -0.927446
0.160361 0.169622 -0.072786 0.763166 0.067264 -0.64224
0.433232 0.300146 -0.096598 0.617161 0.739389 -0.25657
0.214469 -0.097409 0.012914 0.99914 -0.001519 0.033062
0.051503 -0.245375 -0.057963 -0.818017 -0.080255 -0.568551
-0.064317 -0.235329 0.113535 -0.03518 -0.113601 0.992623
0.10422 0.762593 -0.008009 0.989372 9.4e-05 0.090753
-0.001085 0.436217 0.097253 0.026472 0.170292 0.984539
-0.100767 0.120183 0.070876 -0.704889 0.156184 0.6858
-0.108938 -0.747566 -0.00252 -0.454209 0.491036 0.735119
-0.106598 0.565697 -0.047584 -0.361473 0.890546 -0.275168
0.028007 0.79374 -0.119002 -0.09 0.247091 -0.961936
-0.03339 0.497612 0.070271 -0.150801 0.491479 0.857655
0.001168 0.009267 -0.145057 -0.146718 -0.245423 -0.953941
0.392542 0.247544 -0.117321 -0.593317 -0.542525 -0.591146
-0.200284 0.505855 0.003131 -0.747125 0.642094 0.163016
-0.141909 -0.165705 0.030205 -0.974435 -0.13506 0.170888
0.08221 -0.825946 -0.038542 -0.442346 -0.890456 -0.022225
0.141306 -0.089048 0.112314 0.259136 -0.028205 0.9633
0.172729 -0.764199 -0.058895 0.808138 0.406023 -0.419963
0.191647 -0.307691 -0.037691 0.784256 -0.052855 -0.617377
0.027984 -0.246325 -0.030077 0.141931 -0.090839 -0.902832
-0.241876 0.407016 -0.088409 -0.308948 0.474602 -0.823577
0.040012 0.565884 -0.106587 -0.10772 0.432195 -0.894362
-0.036539 -0.371266 0.089893 0.206563 -0.149094 0.966691
-0.13642 -0.213619 0.040595 -0.997213 -0.051088 0.051166
-0.014895 -0.236672 0.105619 0.372736 -0.18877 0.907919
0.101424 0.2181 -0.128035 0.326929 -0.364562 -0.870626
0.026229 0.194398 -0.114591 0.197735 -0.269809 -0.936679
-0.137836 0.558213 -0.018374 -0.334353 0.939459 -0.009506
0.063623 0.131657 0.129071 0.151307 0.023719 0.987333
0.207188 -0.157506 0.016663 0.995591 -0.068123 0.05532
-0.114587 0.238633 -0.027165 -0.961523 0.246785 -0.094153
-0.119769 -0.341945 0.078116 -0.953035 -0.013212 0.30164
-0.02583 0.289861 -0.131182 -0.11871 -0.002546 -0.991851
0.158734 -0.083849 -0.107466 0.84016 -0.09607 -0.506063
0.368061 0.256714 -0.092534 -0.7797 -0.595331 -0.181676
0.04423 -0.533546 -0.030732 -0.995262 -0.011927 -0.082385
0.54339 0.176319 -0.026706 0.824431 -0.016387 -0.46159
0.007828 0.194969 0.129713 -0.066747 0.047116 0.996647
-0.466955 0.140658 0.049602 0.712984 -0.519182 0.464468
0.151466 -0.866908 0.056565 0.43782 -0.897052 -0.030185
0.179631 -0.150886 -0.072749 0.700489 -0.088596 -0.708102
0.128494 0.316169 -0.127288 0.581346 -0.080983 -0.808849
0.131648 -0.462283 -0.10527 0.128606 0.103699 -0.985047
0.021825 0.02805 -0.15476 -0.188363 -0.008692 -0.969142
0.054594 -0.270457 -0.061902 -0.827194 0.007904 -0.561233
0.143251 -0.664615 0.029554 0.142839 -0.158438 0.976863
-0.495044 0.117398 0.072672 0.713066 -0.124266 0.689186
0.559349 0.161747 0.016622 0.733562 0.67937 0.010078
-0.083241 0.528194 0.044483 -0.055228 0.58349 0.809879
0.051346 -0.388125 0.017275 -0.692802 -0.35201 0.627344
-0.45453 0.179246 0.026218 0.012616 0.712631 0.700576
-0.065218 -0.862135 -0.067182 0.001619 -0.998379 0.056322
0.056609 -0.390481 -0.059883 -0.769527 -0.014754 -0.638361
-0.011242 0.122005 0.127171 -0.343827 0.043905 0.931015
0.0964 0.804901 -0.06742 0.935505 0.197813 -0.282088
-0.355184 0.235932 -0.076332 0.213457 -0.461771 -0.858178
0.076369 -0.405617 -0.080376 -0.685495 -0.014597 -0.727882
0.076665 -0.431966 -0.080582 -0.690619 0.018312 -0.722949
0.16587 -0.663362 -0.074522 0.604505 -0.188434 -0.773198
-0.507479 0.085721 0.065046 0.697343 -0.691678 0.106378
-0.142431 -0.090566 -0.012523 -0.970219 0.000927 -0.232398
0.203555 -0.057661 0.051793 0.88357 0.081055 0.458997
0.090968 0.826568 -0.04578 0.898542 0.414023 -0.080022
0.22172 0.545117 -0.025249 0.523876 0.759395 0.378663
0.155732 0.525132 -0.124023 0.215792 0.581107 -0.781875
-0.093807 -0.829172 -0.101024 -0.93566 -0.077383 -0.341475
0.081598 0.842698 -0.054622 0.733978 0.635111 -0.240163
0.089978 0.69909 -0.024502 0.963586 -0.233363 -0.068627
-0.046714 0.107789 0.112226 -0.491975 0.180216 0.851681
0.0208 -0.300327 0.058314 0.908418 -0.080962 0.409922
-0.081341 0.413824 0.083597 -0.641934 0.084037 0.761179
0.175612 -0.024807 -0.096148 0.841447 -0.004056 -0.539876
-0.01137 0.344156 0.111296 -0.28986 0.071206 0.943326
-0.281421 0.290217 -0.087914 0.415131 -0.474206 -0.774459
0.153681 0.155074 -0.081672 0.737831 0.049539 -0.672886
0.018103 -0.667557 -0.005571 0.870716 -0.225524 0.435729
0.029018 0.663503 -0.065962 -0.123204 -0.17528 -0.971666
0.10794 0.230893 -0.129159 0.448547 -0.296672 -0.839617
0.145616 -0.747177 0.028766 0.24627 0.78287 0.569065
0.158749 -0.604407 -0.091268 0.521794 -0.158913 -0.837524
0.073204 -0.272938 0.073784 -0.533323 -0.16415 0.827331
0.159983 -0.859514 -0.076464 0.848474 -0.489701 -0.17974
0.089018 -0.748245 0.02506 -0.060012 -0.62242 0.778922
0.195994 0.15896 -0.001763 0.834369 0.532627 -0.062818
0.053374 -0.520226 -0.054917 -0.874866 -0.074801 -0.47795
-0.042156 0.059348 -0.135708 -0.315347 0.205813 -0.923246
-0.026619 0.183204 -0.111129 -0.316026 -0.251455 -0.914476
0.152746 0.308275 0.0642 0.739589 0.030155 0.672187
-0.126216 -0.189821 -0.027317 -0.869494 -0.129727 -0.473758
0.08242 0.618742 -0.007017 0.93447 0.066192 0.343273
0.201106 0.071103 -0.009809 0.980574 0.190627 -0.036029
-0.116953 -0.104545 0.092928 -0.786851 0.086244 0.610321
0.191778 -0.228692 -0.05793 0.698756 -0.088018 -0.709433
-0.023325 -0.603272 0.026555 0.189542 -0.136083 0.971733
0.070826 -0.822892 -0.022199 -0.458146 -0.887175 -0.005639
-0.108877 -0.278323 -0.049758 -0.818596 0.00623 -0.574228
0.196384 -0.68223 -0.009171 0.959526 0.025089 0.274326
0.028061 -0.330452 0.017447 0.997886 -0.036037 0.048799
-0.366077 0.204783 0.001353 0.502393 -0.682134 0.508231
0.001703 -0.655972 -0.070967 0.556578 0.141532 -0.818631
0.104135 -0.048848 -0.143111 0.106938 -0.3346 -0.935274
0.011274 -0.265732 -0.052023 0.786933 -0.118429 -0.605067
-0.395751 0.21257 -0.066149 -0.240946 -0.336836 -0.909177
-0.059897 -0.425461 -0.086865 -0.110233 0.240364 -0.963107
-0.12833 0.560553 -0.013451 -0.409483 0.889226 0.112015
0.009151 0.261183 -0.12824 0.13536 -0.047687 -0.98961
0.335079 0.389303 -0.061569 0.892061 -0.155219 0.386432
-0.194825 0.347694 -0.031607 0.593841 -0.803581 0.031954
-0.049871 -0.495831 -0.098229 0.111006 0.097827 -0.987269
-0.027877 -0.307056 0.095839 0.309163 -0.091474 0.944935
0.122331 0.449678 0.077557 0.285082 0.352692 0.890297
-0.114616 0.329538 0.01251 -0.962602 -0.132992 0.23291
-0.027579 0.800411 -0.086905 -0.884085 0.054877 -0.459156
0.16987 -0.018 0.092848 0.691286 0.093084 0.715637
-0.119145 0.333887 -0.064447 -0.968644 -0.118481 -0.20502
0.003898 -0.039275 0.133192 0.176268 -0.307309 0.931721
0.178174 0.489199 0.031408 0.537204 0.350043 0.763944
-0.129226 -0.161846 0.077134 -0.873242 0.018912 0.48674
0.193281 -0.039652 -0.06247 0.905665 -0.027027 -0.423004
0.529165 0.17725 0.019331 -0.32419 0.314561 0.859975
-0.046567 -0.213529 -0.092108 0.083001 -0.053077 -0.994478
-0.130375 -0.190188 0.074637 -0.893998 -0.033296 0.44651
0.153075 -0.034351 -0.124126 0.70455 -0.108867 -0.700615
0.065165 -0.632484 0.003567 -0.211689 0.471715 0.851673
0.197782 -0.439432 -0.045242 0.963446 0.058091 -0.25047
0.28484 0.334493 -0.095599 -0.629877 -0.76278 -0.141904
0.186957 0.415518 -0.12645 0.244692 -0.393911 -0.885392
-0.006869 -0.696632 -0.086203 0.519432 0.266467 -0.811625
0.401577 0.22795 -0.065155 -0.599507 -0.782311 0.167857
-0.067168 -0.861621 -0.036951 0.023424 -0.998936 -0.033716
-0.131363 -0.015525 -0.047006 -0.936286 0.015904 -0.350871
0.040812 0.798419 0.081281 0.063295 0.242147 0.963902
0.194581 0.157905 -0.012338 0.843579 0.373667 -0.358464
-0.180591 0.399534 -0.094928 0.244147 -0.167255 -0.953109
0.023409 0.051783 0.136461 0.10945 0.080205 0.990746
-0.03463 -0.155611 0.122998 0.017438 -0.053324 0.99692
-0.056436 0.122915 -0.107937 -0.459005 0.321454 -0.82803
-0.072719 0.249491 0.08658 -0.578099 0.064908 0.811726
0.088457 -0.832013 -0.068589 -0.953404 -0.169389 -0.048992
-0.106902 -0.346233 0.096315 -0.589089 -0.096929 0.795155
0.187011 0.316614 -0.04102 0.879336 -0.342749 -0.32959
-0.077772 -0.264544 0.110702 -0.037958 -0.091028 0.995033
-0.01069 0.333876 0.112333 -0.171698 0.086353 0.977631
0.186105 -0.701849 -0.043858 0.684872 -0.065553 -0.724816
0.192773 -0.401962 0.041308 0.945482 -0.023335 0.323876
-0.012503 -0.508325 0.042682 0.587838 -0.233309 0.774549
-0.017654 0.850854 -0.028233 -0.599999 0.785743 -0.137667
0.034532 -0.31567 -0.009577 -0.998679 -0.032973 0.002815
-0.04479 -0.534633 0.051493 0.375836 -0.188546 0.906793
0.044322 -0.150985 0.058282 -0.863729 -0.111217 0.478339
-0.537217 0.070295 0.030653 0.578528 -0.692235 -0.426484
0.184041 -0.008042 0.076046 0.737116 -0.05863 0.67219
0.046299 -0.192235 0.057436 -0.879107 -0.067368 0.464783
0.010559 -0.36103 -0.042132 0.730043 -0.018527 -0.682757
0.04992 0.62842 0.028357 0.307379 -0.338923 0.880231
0.08492 -0.448049 -0.089108 -0.639335 0.055434 -0.766321
0.193167 -0.170615 0.070412 0.931594 -0.00102 0.362771
0.211404 0.557402 -0.05475 0.46213 0.879379 -0.055536
-0.070262 0.087538 -0.112684 -0.558419 0.255979 -0.789009
0.120942 0.333719 -0.134531 0.510272 -0.125163 -0.848641
0.068387 0.155773 0.127756 0.263787 0.031388 0.960765
0.18714 0.371003 -0.093851 0.654395 -0.488015 -0.577355
-0.004615 0.622815 0.006335 -0.776865 -0.001235 0.628554
0.141359 0.279767 0.079733 0.742948 0.047948 0.667447
0.089078 0.697018 0.031991 0.97087 -0.234759 0.039639
-0.023177 -0.689299 -0.097356 0.56037 0.232533 -0.794766
-0.125132 -0.373087 -0.035256 -0.915237 0.010302 -0.398708
-0.438075 0.22727 -0.015618 -0.715923 0.69448 0.07088
-0.135634 0.519669 -0.086289 -0.397764 0.495569 -0.771728
-0.012477 0.738956 -0.093644 -0.727448 -0.328311 -0.600214
0.059731 0.071218 0.130187 -0.008158 0.062956 0.995453
-0.461015 0.197278 -0.00193 -0.78315 0.609649 0.106843
0.190426 0.358042 0.006216 0.95791 -0.107315 0.263193
-0.046878 -0.2105 0.118265 0.093314 -0.196601 0.975959
-0.001697 0.019745 -0.148719 -0.183692 -0.431189 -0.876213
0.199007 -0.436321 0.008302 0.986373 -0.089127 0.137288
0.088612 0.384132 0.097437 0.152989 0.115057 0.981366
-0.029961 -0.747751 -0.122657 0.378965 0.413783 -0.824695
0.002246 0.670533 -0.053679 -0.700285 -0.232423 -0.671436
0.285218 0.362706 -0.02736 -0.131955 -0.628671 0.737077
-0.029441 0.099348 -0.12828 -0.21102 0.259311 -0.942232
0.004718 0.102577 -0.134214 -0.143262 0.29706 -0.942615
-0.077619 0.56163 0.010669 -0.066638 0.778157 0.624492
0.177492 -0.499533 0.05313 0.659134 -0.188294 0.723528
0.055707 -0.1924 -0.076897 -0.746109 -0.22091 -0.62749
0.165108 0.004225 -0.108857 0.821307 0.104191 -0.559541
-0.016269 -0.457869 0.061637 0.62462 -0.277579 0.729116
0.177745 0.278834 0.029268 0.937893 0.009934 0.3449
0.117857 -0.681962 -0.094316 -0.130932 0.045503 -0.989302
0.024508 -0.631036 -0.046236 0.887409 0.096388 -0.443074
0.021145 0.836307 -0.091368 -0.159037 0.715193 -0.679902
0.129538 0.176095 -0.100915 0.510548 0.045572 -0.857822
-0.015537 -0.817036 -0.135259 0.713837 -0.338419 -0.6068
0.047893 -0.237023 0.051258 -0.858038 -0.096604 0.504014
0.38396 0.266427 -0.123578 -0.353266 -0.421619 -0.833323
0.158659 0.282009 0.058723 0.735139 0.014415 0.677204
-0.470665 0.184667 -0.009581 -0.813212 0.57877 -0.047
-0.040223 -0.547099 -0.099245 0.319658 0.006087 -0.947188
-0.004419 -0.579476 -0.072167 0.735431 -0.037189 -0.676261
-0.103884 0.069489 0.089285 -0.487386 0.287359 0.822273
0.054889 -0.664559 -0.033696 -0.87259 -0.149538 -0.463281
0.145947 -0.347347 -0.08264 0.629576 0.040793 -0.775715
-0.103766 0.390187 0.065506 -0.642273 -0.125525 0.754693
0.140226 -0.637223 0.030553 0.273585 0.022309 0.955916
-0.031031 0.081968 0.121785 -0.242572 0.084395 0.960054
-0.134395 -0.482893 -0.039186 -0.922706 0.041106 -0.382459
0.049356 0.618037 0.025985 0.27829 -0.189348 0.933517
0.155465 0.137371 -0.081943 0.768829 0.12313 -0.627366
0.089952 -0.850155 -0.092483 -0.970639 0.049159 -0.233071
-0.064101 -0.628532 -0.10577 0.066471 0.069069 -0.994339
0.189763 0.110203 0.04107 0.924846 0.115114 0.35278
0.200398 -0.396616 0.018412 0.944764 -0.049628 0.323096
0.184336 0.294907 -0.022068 0.970089 -0.206414 -0.11878
0.185571 0.302377 0.003123 0.976883 -0.119651 0.173896
-0.062381 -0.728338 -0.123795 0.009981 0.203442 -0.978482
-0.107004 0.340122 -0.088277 -0.714373 -0.20146 -0.667786
-0.052607 -0.315052 -0.089983 -0.070397 -0.061715 -0.993453
0.201436 -0.316046 -0.020247 0.897479 -0.012037 -0.439961
0.0431 -0.251932 -0.044379 -0.873672 -0.002576 -0.485384
0.201722 -0.296746 0.03478 0.9408 -0.066797 0.331982
-0.01581 0.286328 -0.131527 0.002227 -0.008723 -0.999677
0.192276 -0.503493 0.02583 0.939031 -0.020095 0.340141
-0.556624 0.072843 0.046255 -0.90339 0.428293 0.016012
-0.090052 0.573982 -0.020595 -0.188381 0.972378 0.109224
0.178072 -0.188165 0.086555 0.484843 -0.07388 0.86987
0.052765 0.819084 0.069793 0.365269 0.537187 0.758261
0.094865 -0.746515 -0.081793 -0.801568 -0.069944 -0.593112
-0.003308 0.389108 0.105746 0.025413 0.090301 0.995288
0.189151 0.001869 0.074581 0.753877 -0.358419 0.54392
-0.518393 0.09678 0.024239 0.111562 -0.382191 -0.895564
-0.022903 0.141533 -0.11146 -0.231412 0.514414 -0.823461
-0.082949 -0.825312 0.085001 -0.239557 0.954312 0.148841
-0.213658 0.361385 -0.089529 0.345168 -0.493161 -0.795162
-0.007495 -0.501156 -0.074742 0.744613 0.073637 -0.66315
-0.115469 0.072223 0.074005 -0.844653 0.336636 0.4129
0.22105 0.394589 -0.058974 -0.76019 -0.627513 0.148374
-0.10686 -0.561582 -0.087992 -0.591234 0.0693 -0.801674
0.042514 -0.065686 -0.12268 -0.401879 -0.432021 -0.807305
0.069369 0.594625 -0.086901 0.130811 0.689369 -0.712238
0.201002 -0.498077 -0.037257 0.981138 0.083055 -0.17016
0.15022 -0.680964 -0.084938 0.644474 -0.010477 -0.764464
-0.00792 0.579608 0.011466 -0.537529 0.309699 0.782818
-0.057507 0.062966 -0.127452 -0.366863 0.23724 -0.896777
0.295824 0.338783 -0.049553 -0.392625 -0.665905 0.629471
-0.110886 -0.20631 -0.050211 -0.851204 -0.06299 -0.519983
0.175627 0.119995 -0.056656 0.848178 0.245077 -0.467917
-0.056712 -0.863251 -0.102522 -0.010655 -0.999724 -0.012781
0.059286 -0.003036 0.140116 0.080514 -0.401289 0.909872
0.349995 0.282501 -0.110005 -0.611149 -0.679994 -0.401937
0.006775 0.650138 -0.056326 -0.585231 0.036651 -0.801987
-0.11286 -0.295603 -0.043881 -0.862834 0.034291 -0.503659
-0.143858 -0.096375 -0.003332 -0.994136 0.002509 -0.098136
-0.116636 0.356252 0.023283 -0.938185 -0.20414 0.278665
-0.214525 0.33643 -0.015971 0.58928 -0.740402 0.321212
-0.397222 0.222254 0.013198 0.11318 0.085341 0.989567
0.14625 -0.864066 -0.01809 0.312705 -0.941494 0.055614
-0.277736 0.401763 -0.067289 -0.498997 0.785156 -0.346684
-0.046508 -0.172643 -0.095496 0.172131 -0.060431 -0.982894
-0.0257 0.470238 0.08422 -0.134863 0.39638 0.907241
0.102448 -0.294788 0.081136 -0.185288 -0.122517 0.97367
-0.114326 0.358869 0.032541 -0.916306 -0.250426 0.310707
0.070972 -0.441215 -0.075526 -0.710521 0.023563 -0.703208
-0.13826 -0.015213 0.0256 -0.995421 0.042747 0.083582
0.054621 0.262898 -0.131233 -0.36624 -0.09593 -0.925329
0.064566 0.542384 -0.121654 -0.140027 0.31044 -0.939076
-0.164611 0.46832 0.054023 -0.459688 -0.07594 0.884512
0.07762 -0.790139 0.028102 -0.706721 -0.210279 0.665855
-0.40854 0.176131 -0.026328 0.525047 -0.838356 -0.122923
-0.083933 0.307514 0.076435 -0.631094 -0.029827 0.768972
0.177631 -0.666374 -0.06389 0.662461 -0.262453 -0.700902
0.04176 -0.18957 0.040098 -0.977671 -0.061328 0.200689
0.126809 -0.84483 -0.117132 0.338345 0.14072 -0.923374
-0.191922 0.481554 0.038274 -0.661489 0.212947 0.718635
-0.123426 -0.426314 0.055434 -0.878589 -0.14474 0.454376
-0.130043 -0.105424 0.071991 -0.858124 -0.002486 0.512796
-0.095011 0.117709 -0.080383 -0.715758 0.13531 -0.685048
-0.083703 0.015863 -0.120137 -0.63185 -0.082574 -0.768654
0.027729 0.009219 0.142885 -0.010918 0.128347 0.991617
0.478342 0.234616 -0.011375 -0.100901 0.574166 0.780195
0.077186 0.566225 -0.110927 -0.062698 0.590685 -0.803206
0.099037 -0.510139 0.032357 -0.52435 0.012772 0.85124
0.085051 -0.825522 0.007001 -0.496873 -0.863364 0.061796
-0.118676 -0.694428 -0.004879 -0.90304 -0.313322 0.25299
-0.012072 0.665444 -0.007248 -0.985952 -0.107132 0.003977
-0.119813 0.312754 -0.031483 -0.996402 -0.083221 0.013422
0.173341 0.31161 0.042472 0.906019 0.049491 0.407677
-0.011612 -0.578124 -0.07969 0.685161 -0.063359 -0.725609
-0.052618 0.032782 0.122418 -0.405002 0.211328 0.887396
0.180058 0.266042 -0.030938 0.949932 -0.00688 -0.311119
0.195857 -0.299088 -0.032456 0.848745 -0.069783 -0.522792
-0.559398 0.044953 0.014635 0.900987 -0.417468 -0.075074
-0.024194 -0.8545 0.06378 0.927374 -0.291868 0.050448
0.024053 -0.693895 -0.029964 0.917365 -0.160746 0.360419
0.088596 -0.835876 -0.051236 -0.999104 0.018507 -0.000412
0.007581 0.140575 -0.11839 -0.092914 0.409873 -0.907384
0.046525 -0.395198 0.006726 -0.862684 -0.246979 0.432087
-0.124409 -0.554747 -0.068766 -0.817618 0.12418 -0.56082
0.183072 -0.485947 0.04974 0.864128 -0.092106 0.489503
-0.139024 -0.174737 0.00167 -0.948124 -0.215828 -0.226629
0.166923 0.202421 -0.060801 0.872951 0.022356 -0.487062
