0.021068 -0.491918 0.008385 0.884502 -0.019063 0.465472
0.157319 -0.835309 0.121019 0.638617 0.75421 0.131952
-0.039005 0.306631 0.102453 -0.5281 0.130352 0.837825
0.171462 -0.43409 -0.079167 0.649837 0.17413 -0.739226
0.040217 0.373091 -0.130368 -0.317308 -0.028126 -0.945793
0.007603 0.221919 -0.12737 0.080802 -0.065222 -0.993898
-0.131726 -0.271663 0.02268 -0.970357 -0.239272 -0.02049
-0.11483 0.565151 -0.036473 -0.368946 0.904344 -0.178251
-0.033748 0.195489 -0.112417 -0.36695 -0.353361 -0.860036
-0.004283 -0.07523 -0.110079 0.333153 -0.526404 -0.778057
-0.036956 -0.861837 0.01396 0.2481 -0.955284 -0.099764
-0.0127 0.622052 -0.013596 -0.945379 0.147527 0.280605
-0.380185 0.19391 -0.000969 0.553271 -0.803237 0.200801
0.099195 -0.591089 -0.091596 -0.576484 -0.11387 -0.808732
-0.012784 0.165251 -0.111708 -0.333631 -0.232734 -0.909783
0.050146 -0.34678 -0.053563 -0.837127 -0.070481 -0.541866
-0.076126 -0.091923 -0.102512 -0.536904 -0.188365 -0.819083
-0.107166 -0.371078 -0.059361 -0.721229 0.019198 -0.691526
0.177085 0.315156 -0.063461 0.862457 -0.305471 -0.399687
-0.030851 0.064117 -0.13708 -0.156752 0.188561 -0.969455
-0.125132 -0.373087 -0.035256 -0.915237 0.010302 -0.398708
0.165598 0.162628 0.063655 0.712677 0.071283 0.697828
0.206569 0.031864 0.023344 0.997983 0.041647 0.046085
0.057038 0.006475 0.141855 0.138682 0.041505 0.977808
0.207872 -0.136789 0.037866 0.964572 -0.125119 0.231007
0.277606 0.499221 -0.068702 0.713788 0.695291 -0.076677
0.186721 0.410272 0.038226 0.803811 -0.106116 0.580767
-0.012679 -0.767032 -0.119036 0.644851 0.436347 -0.625752
0.162967 -0.361888 -0.070612 0.621448 0.16893 -0.764439
0.168672 -0.410536 0.071415 0.3342 -0.073708 0.934685
0.336316 0.400831 -0.134388 0.544196 0.290767 -0.774996
-0.395751 0.21257 -0.066149 -0.240946 -0.336836 -0.909177
0.163361 0.076175 -0.094057 0.73549 0.239484 -0.633699
0.584996 0.073816 0.050368 -0.060271 -0.506625 0.814157
0.088012 0.299135 0.107571 0.383907 0.126795 0.907108
-0.102606 -0.103522 0.106874 -0.591841 0.084622 0.800311
0.133555 -0.866686 0.005142 0.079438 -0.992941 -0.08021
0.12424 -0.825077 0.134689 0.037517 0.996568 0.055331
-0.04454 0.571083 0.004012 -0.161414 0.793132 0.586721
-0.095544 -0.659891 -0.101335 -0.502162 -0.021293 -0.864298
0.067688 0.830475 -0.088297 0.446419 0.646202 -0.616466
0.05581 0.157194 -0.12068 -0.073717 0.067651 -0.994675
0.468547 0.187379 -0.01602 -0.579012 -0.813157 0.041545
-0.042097 0.153697 0.112506 -0.518979 0.073005 0.85116
-0.058871 0.526022 -0.113057 -0.198818 0.402225 -0.893449
0.036857 0.440613 0.091544 0.159497 0.184007 0.968588
0.108202 0.561338 -0.11263 0.188513 0.588276 -0.785399
-0.222084 0.388787 -0.09619 -0.021536 0.054848 -0.997649
0.181812 -0.622562 0.017854 0.277926 -0.010106 0.955596
-0.102878 0.297876 0.050401 -0.893696 0.197866 0.394482
0.272822 0.395562 -0.141612 -0.229278 -0.024755 -0.971393
0.110776 -0.448883 0.045974 -0.654331 -0.217248 0.719401
0.16084 0.231788 -0.070399 0.831813 -0.03871 -0.552923
-0.096396 -0.525087 0.061694 -0.860086 -0.049271 0.507326
0.151623 -0.428703 0.071768 -0.110238 -0.097527 0.985064
-0.078958 -0.076857 0.11831 -0.450659 -0.027738 0.89075
0.159061 -0.066948 0.102844 0.544661 0.036301 0.836778
-0.064313 0.157654 -0.092899 -0.345849 0.246879 -0.901996
-0.021068 0.091908 0.126188 -0.384502 -0.141966 0.908371
0.097643 -0.007237 0.129397 0.282573 -0.250304 0.925065
0.225427 0.507005 -0.118714 0.395702 0.488794 -0.775934
0.234836 0.403606 -0.128249 -0.520077 -0.371716 -0.768106
0.372651 0.355953 -0.110308 0.698281 0.671823 -0.234428
0.056733 0.453097 0.08714 0.115145 0.326073 0.938073
-0.019235 -0.561625 -0.088099 0.623008 -0.049043 -0.777682
-0.104633 -0.359238 -0.061214 -0.736335 0.07611 -0.672084
-0.269898 0.405645 -0.006051 -0.722749 0.522175 0.451749
0.193 -0.084702 0.073212 0.699362 0.021163 0.710315
0.099206 0.736419 0.007036 0.97332 -0.087868 0.211267
-0.479237 0.173661 0.016911 -0.598653 0.788664 0.124867
0.042237 -0.208161 -0.047617 -0.95063 -0.053401 -0.30366
-0.146244 0.511245 -0.085468 -0.434865 0.441382 -0.783985
-0.10613 -0.507756 0.047463 -0.8025 -0.192923 0.56453
0.155417 0.532545 0.018294 0.129975 0.657389 0.741775
0.200408 -0.54068 -0.046264 0.953014 -0.012051 -0.302468
-0.122544 0.115929 -0.034111 -0.91874 0.030737 -0.393068
-0.001847 0.69451 -0.065161 -0.657428 -0.516563 -0.54798
0.085051 -0.825522 0.007001 -0.496873 -0.863364 0.061796
-0.012918 -0.008556 0.145894 -0.094472 -0.391933 0.864785
0.102064 0.473152 0.073901 0.204417 0.402806 0.890285
-0.426282 0.240459 -0.03755 -0.742598 0.662359 -0.092932
0.166906 -0.817365 -0.087653 0.891005 -0.343478 -0.246938
0.191804 -0.182613 0.072219 0.907679 -0.057188 0.406071
-0.060341 0.23085 0.095289 -0.557539 0.093824 0.823507
0.2117 -0.128828 0.025902 0.965191 -0.155903 0.202832
-0.129367 0.542747 -0.068341 -0.377782 0.722394 -0.578383
0.053436 -0.705237 -0.012301 -0.973452 -0.150427 -0.166797
-0.556381 0.06979 0.012132 -0.901511 0.407346 -0.102231
0.031468 0.37184 0.107977 0.0476 0.199027 0.977979
0.089392 0.828186 0.011092 0.967713 0.207509 0.128062
0.092278 0.422819 -0.145115 -0.120794 0.011454 -0.99238
0.026367 -0.341726 -0.012432 0.967245 -0.061433 -0.228841
0.181266 -0.221858 0.079164 0.623052 -0.179031 0.756235
-0.175381 0.523236 0.021511 -0.648927 0.600471 0.403511
-0.230729 0.452757 0.007691 -0.821596 0.407859 0.397771
0.277034 0.338939 -0.089082 -0.62714 -0.767013 -0.119777
0.016402 -0.513443 0.014157 0.782296 -0.140618 0.602728
0.178611 0.346568 0.031736 0.852347 -0.108106 0.505067
-0.091293 0.276709 -0.094918 -0.692296 -0.071913 -0.717847
-0.054488 -0.223563 -0.092584 -0.046632 0.011388 -0.998489
-0.067302 0.189303 -0.091353 -0.577916 -0.155499 -0.800124
0.043906 -0.483666 -0.03111 -0.999716 -0.00021 0.014588
0.190714 0.327873 -0.029751 0.992757 -0.113647 -0.03618
-0.040908 0.485261 0.075177 -0.164154 0.439679 0.882796
0.309514 0.333212 -0.046866 -0.383223 -0.532929 0.753017
-0.122759 -0.625983 0.004316 -0.955897 -0.040063 0.287751
0.098568 0.728034 -0.042948 0.952758 -0.228883 -0.195355
-0.131628 0.415998 -0.086737 -0.635117 -0.599784 -0.426345
0.102515 -0.072532 0.117686 -0.066944 -0.466186 0.876665
0.08242 0.618742 -0.007017 0.93447 0.066192 0.343273
0.004718 0.102577 -0.134214 -0.143262 0.29706 -0.942615
-0.095199 0.127532 0.0749 -0.670396 0.049497 0.74013
0.062416 -0.654896 0.01274 -0.302206 0.296372 0.90443
-0.092234 -0.75837 0.018449 -0.572371 -0.156695 0.794963
-0.566591 0.046936 0.042988 -0.904888 0.423623 0.033636
-0.168375 0.527833 -0.055065 -0.584818 0.658789 -0.471676
0.149376 0.204784 0.077896 0.725431 0.070755 0.684459
0.151849 -0.37636 -0.082153 0.560375 0.172856 -0.809789
0.310384 0.434154 -0.038394 0.788629 0.251125 0.556752
-0.562238 0.037852 0.008006 0.903763 -0.419808 -0.019179
-0.003804 -0.480032 0.044365 0.688574 -0.194352 0.698038
0.001546 0.596875 0.013701 -0.644901 0.119152 0.751706
-0.005197 0.671907 -0.044914 -0.769491 -0.269179 -0.578473
0.087916 -0.216485 -0.09376 -0.433315 -0.12438 -0.891278
0.073397 0.806881 0.062535 0.774228 0.261813 0.57242
-0.095557 -0.815881 0.024738 -0.906845 0.336852 0.245075
-0.376804 0.194735 -0.038967 0.498024 -0.843246 -0.188896
0.045677 0.782775 -0.119151 0.272203 0.054192 -0.957329
-0.013253 -0.538196 0.035916 0.556339 -0.18094 0.81028
-0.052709 -0.26123 -0.093676 -0.03148 -0.01528 -0.995552
0.207548 -0.193821 -0.015208 0.998735 -0.033624 -0.034281
0.582218 0.131641 0.01903 0.77672 0.627108 -0.047736
-0.045315 -0.862361 0.004747 0.136035 -0.986971 -0.068217
0.025748 0.041695 0.137163 0.102364 0.114614 0.987571
-0.34382 0.239035 0.007724 0.260884 -0.180339 0.947852
-0.100247 -0.032952 0.105091 -0.644102 0.037322 0.76395
0.242958 0.375901 -0.05115 -0.584458 -0.71626 0.380907
-0.109292 0.288809 0.025713 -0.966698 -0.05776 0.248464
-0.101692 -0.841274 0.102591 -0.726854 0.674019 0.126264
0.080883 -0.261016 0.080001 -0.399901 -0.133568 0.90333
-0.215625 0.399706 0.031175 -0.155387 -0.323993 0.929235
0.287485 0.422575 -0.139474 0.16689 0.295419 -0.93488
-0.308936 0.31293 0.004815 -0.159199 0.089039 0.982931
0.197543 -0.717434 -0.018963 0.993116 -0.006053 0.048063
0.052365 0.384027 0.104026 0.111228 0.187202 0.975077
0.154106 -0.485241 0.064961 -0.089045 -0.163765 0.977515
-0.118232 0.302349 -0.031529 -0.965139 -0.250521 0.011001
-0.321111 0.30715 -0.094567 -0.217134 0.167046 -0.957765
0.053389 -0.584088 -0.007608 -0.86922 -0.107798 0.480836
-0.482691 0.15742 -0.034075 -0.619248 0.478346 -0.620963
0.163621 -0.351647 -0.068138 0.65411 0.079029 -0.75218
-0.107579 0.470267 -0.115464 -0.450871 0.131634 -0.882575
-0.125244 -0.745716 -0.02734 -0.956133 -0.064954 0.265078
0.197395 -0.541881 -0.055959 0.908803 -0.00943 -0.409212
-0.10835 0.543394 0.030847 -0.033867 0.720233 0.69277
-0.12868 -0.376998 0.003773 -0.990558 0.084028 0.008664
-0.123196 -0.365004 0.062351 -0.980876 -0.05313 0.185735
-0.234415 0.357936 -0.094963 0.192026 -0.29449 -0.934988
0.180191 0.389284 0.041413 0.773303 -0.152634 0.613198
0.443205 0.198854 -0.063796 -0.519583 -0.847453 0.054828
0.040583 -0.349025 0.001788 -0.939226 -0.126025 0.306938
0.140759 0.419192 -0.140101 0.386021 -0.232387 -0.89243
0.002396 0.772345 -0.115635 -0.484071 -0.046209 -0.872104
0.240576 0.499363 0.001249 0.651174 0.280998 0.702218
-0.07339 -0.740929 0.021915 -0.378685 0.629579 0.673758
-0.100955 0.018108 -0.102046 -0.741328 0.054477 -0.667145
-0.126457 -0.654789 -0.029515 -0.979507 -0.059331 0.185996
0.130217 0.193757 -0.100522 0.566456 -0.075441 -0.818915
-0.044477 0.22438 0.106002 -0.522101 0.048589 0.850888
0.288704 0.422766 -0.016046 0.447279 0.204741 0.869553
-0.130013 -0.599546 -0.037274 -0.996734 -0.061472 0.038589
0.122127 0.493833 0.056238 0.23275 0.533419 0.812644
-0.116435 0.104353 -0.049771 -0.842556 0.13026 -0.517957
0.139631 -0.593188 0.03922 -0.203218 -0.207175 0.956484
0.114817 0.517203 -0.134191 0.032365 0.417507 -0.904536
0.034219 0.492507 0.073019 0.083474 0.508359 0.856843
-0.067005 0.425378 -0.126354 -0.241739 -0.155933 -0.957033
0.460508 0.275279 -0.073247 0.741908 0.667596 -0.022682
0.632778 0.038164 0.107831 0.1092 -0.238766 0.938053
-0.025618 0.479729 0.080449 -0.101166 0.422894 0.897443
0.14357 -0.727272 0.010706 0.484423 0.051752 0.864601
0.051434 0.231567 -0.127901 -0.181588 -0.13249 -0.973185
0.093611 0.819421 0.005075 0.806416 0.554003 0.202615
0.183395 0.201623 0.003036 0.995385 0.070186 0.001508
0.175177 -0.859614 0.077893 0.912912 -0.360451 -0.006477
-0.361085 0.205887 -0.022175 0.558156 -0.825074 0.009888
0.145905 -0.650931 0.03062 0.198749 0.01632 0.976162
-0.129501 -0.415852 0.04225 -0.948694 0.006802 0.312024
-0.087329 0.173528 0.080867 -0.663213 -0.010113 0.748247
0.187064 0.421969 0.039574 0.678428 -0.051705 0.732336
0.042087 -0.239746 -0.04324 -0.895917 -0.06834 -0.438121
-0.119629 -0.690412 -0.080435 -0.776294 -0.124266 -0.614309
0.103181 0.791101 -0.054439 0.947179 0.153802 -0.266405
-0.057732 -0.808852 -0.145388 -0.398858 -0.07368 -0.910846
0.176624 -0.694781 0.008412 0.425194 -0.493843 0.757905
-0.107678 0.517996 -0.100816 -0.368935 0.38867 -0.837659
0.013834 -0.651477 0.007362 0.767235 -0.143544 0.623796
0.113539 -0.319153 0.079878 -0.14129 -0.088509 0.985095
-0.23603 0.314588 -0.047954 0.748451 -0.656605 -0.084785
-0.045521 0.452804 0.087527 -0.193665 0.318442 0.926899
0.55083 0.105591 0.011829 -0.927944 -0.364771 0.052071
0.026578 -0.332334 -0.014584 0.950246 -0.035934 -0.299902
0.05257 0.302964 0.119824 0.17515 0.127938 0.975086
0.025855 -0.183542 -0.031212 -0.650162 0.034635 -0.751626
0.206373 -0.048476 -0.025451 0.97224 0.005555 -0.231114
0.214192 -0.08664 0.018122 0.996475 0.008623 0.074193
0.198119 0.361722 -0.04887 0.989983 -0.130112 -0.029321
0.139067 0.127086 0.091659 0.666568 0.02203 0.745087
0.026539 -0.288835 0.043419 0.979047 -0.005477 0.189207
-0.340243 0.219855 -0.037717 0.616023 -0.776089 -0.07983
-0.079727 0.116352 0.088809 -0.613927 0.196406 0.7615
0.569283 0.15004 0.005325 0.80425 0.574044 -0.094688
0.123552 -0.307036 -0.09531 0.3952 0.008049 -0.916927
-0.10846 -0.391657 0.08855 -0.62017 -0.167383 0.758887
-0.045905 -0.802413 -0.149651 -0.190091 -0.022845 -0.970916
-0.091816 -0.037136 0.111106 -0.570108 0.013768 0.820591
0.215102 0.405243 -0.090222 -0.928297 -0.367291 -0.037838
-0.026356 -0.853379 0.003931 0.70111 -0.689945 -0.162499
0.10606 -0.636204 0.033221 -0.470609 0.057867 0.869753
-0.038056 0.779065 -0.016307 -0.983631 0.123311 0.127787
-0.010232 0.167368 0.127344 -0.3227 -0.012293 0.940195
-0.367463 0.238119 0.01012 0.053634 0.010992 0.998308
-0.119976 -0.67686 -0.082125 -0.796782 -0.062659 -0.598075
-0.181061 0.500985 0.038569 -0.564619 0.461932 0.681505
-0.060367 0.563447 0.010878 -0.120429 0.791229 0.59843
-0.018948 0.414857 0.102412 -0.10244 0.303436 0.945972
-0.236596 0.444049 0.005019 -0.791561 0.438439 0.423404
-0.031688 0.750031 -0.064317 -0.885241 -0.360492 -0.293704
-0.127935 0.162096 -0.005693 -0.991898 -0.020194 -0.108116
-0.026847 0.313902 -0.13 -0.101516 0.064138 -0.992068
0.045321 -0.032669 0.131881 0.185881 -0.161242 0.967564
-0.116626 0.060264 0.081347 -0.799357 0.243089 0.529084
-0.227653 0.471404 -0.019734 -0.784717 0.616745 0.042594
-0.267689 0.277331 -0.034268 0.721279 -0.677269 0.136585
0.124412 0.350872 -0.135561 0.467888 -0.154912 -0.869871
-0.076334 -0.828844 -0.130847 -0.78723 -0.011028 -0.615573
0.031316 0.640429 -0.064847 -0.095923 0.143785 -0.984761
-0.098841 0.009111 -0.10486 -0.85095 0.00017 -0.492384
0.248973 0.364697 -0.092624 -0.689432 -0.723568 -0.030863
-0.109083 0.560143 0.006731 -0.143771 0.863794 0.481121
0.063587 -0.100093 0.082061 -0.070767 -0.618449 0.74787
0.025369 0.02699 0.140218 0.050136 0.258412 0.964135
0.209583 -0.14002 0.024788 0.962852 -0.217564 0.156974
0.144591 -0.803064 0.043172 0.500134 0.565268 0.654222
-0.113874 0.448006 -0.114262 -0.429965 -0.027962 -0.901329
0.114426 -0.61853 0.036171 -0.167803 0.208836 0.955569
-0.035761 0.372782 -0.128612 -0.095333 -0.025694 -0.994207
0.117462 0.071477 0.107072 0.408949 0.157883 0.897061
0.064081 -0.778736 -0.035319 -0.91419 0.096933 -0.392175
-0.209347 0.337143 -0.046064 0.608199 -0.775835 -0.159577
-0.112051 -0.614284 -0.086957 -0.61959 0.09368 -0.779187
-0.107177 0.171493 -0.052024 -0.852333 0.080517 -0.51667
0.042169 0.348383 -0.13001 -0.339128 -0.067957 -0.932919
0.200008 0.394284 -0.061409 0.979001 -0.191031 0.016651
0.17613 -0.066303 0.088858 0.691685 0.040688 0.721003
0.060975 0.280292 -0.135298 -0.324442 -0.042007 -0.944754
-0.080595 0.369703 0.082925 -0.720695 -0.048105 0.688987
0.184041 -0.008042 0.076046 0.737116 -0.05863 0.67219
0.051522 -0.652189 -0.02638 -0.982382 -0.088693 -0.144382
0.076495 -0.600844 -0.07112 -0.684283 -0.047823 -0.727527
0.421375 0.274035 -0.12524 0.370131 0.122608 -0.920276
0.096326 -0.757355 -0.082919 -0.764578 0.04465 -0.642204
0.085816 -0.847754 -0.062864 -0.982711 0.175555 0.031151
-0.022859 0.515385 -0.122087 -0.048434 0.242267 -0.968929
-0.040583 0.082233 0.119462 -0.350701 0.101808 0.92807
0.601027 0.087739 0.00396 0.439572 0.108829 -0.885728
-0.102215 0.431791 -0.117331 -0.411932 -0.108531 -0.903768
0.095244 0.609549 -0.048349 0.802033 0.552057 -0.180165
0.004239 0.367341 0.110357 -0.08475 0.226518 0.967734
0.053218 -0.71753 0.009077 -0.997608 -0.046503 0.042978
-0.492593 0.157104 0.045392 -0.653615 0.729532 0.189752
0.051883 -0.262755 0.053581 -0.804067 -0.101372 0.58355
-0.115386 -0.346059 0.08619 -0.797878 -0.097704 0.59409
-0.138804 -0.01781 -0.000593 -0.992894 0.091941 -0.04693
0.178288 -0.061063 -0.086168 0.818266 -0.078946 -0.569136
0.195556 -0.697719 -0.006804 0.887133 -0.077597 0.432771
-0.508662 0.13897 0.05523 -0.869723 0.490447 0.040143
0.054621 0.262898 -0.131233 -0.36624 -0.09593 -0.925329
0.08714 0.618802 -0.016899 0.875936 0.204491 0.42553
0.02672 -0.592714 -0.013245 0.981886 0.025299 0.16362
-0.117916 0.233851 -0.015882 -0.930971 0.357567 -0.028127
-0.472145 0.16475 0.044699 0.051227 0.744016 0.656146
-0.075204 0.547838 0.027728 -0.068891 0.739802 0.668673
0.220776 0.504453 0.013155 0.225034 0.320789 0.912372
-0.018108 0.709024 0.053695 -0.884153 -0.16473 0.43332
-0.128936 -0.389839 -0.023675 -0.966596 0.10346 -0.232988
0.209235 0.411461 -0.095043 0.078173 -0.88952 -0.131268
0.348574 0.296172 -0.122643 -0.464255 -0.580878 -0.665646
0.121362 -0.863524 -0.116382 0.151681 -0.638394 -0.733743
0.003644 0.146437 0.129864 -0.123042 0.02141 0.992097
-0.106795 0.52727 0.044555 -0.016804 0.577041 0.816269
0.020486 -0.532368 0.000375 0.924354 -0.139627 0.352829
-0.031992 -0.408749 -0.07927 0.371738 0.17271 -0.910162
0.048334 0.536955 0.043617 4.6e-05 0.744075 0.66695
-0.023177 -0.689299 -0.097356 0.56037 0.232533 -0.794766
0.156835 0.09206 -0.096087 0.724333 0.219676 -0.653476
0.032258 0.612984 -0.076001 -0.059679 0.375105 -0.91775
-0.037084 -0.610817 0.02936 0.338063 -0.111124 0.933484
0.285122 0.403523 -0.143402 -0.107184 0.1169 -0.984245
-0.078048 -0.535336 -0.099487 -0.267277 0.099794 -0.958359
0.204891 0.410469 -0.026502 0.828261 -0.517008 0.13539
0.124492 -0.234112 -0.098963 0.239974 -0.112672 -0.96295
0.196935 -0.640289 -0.050514 0.925075 -0.079075 -0.345282
-0.033388 0.215383 0.112114 -0.376474 0.045307 0.921427
0.112976 0.444794 0.081395 0.19801 0.206355 0.957549
-0.048427 0.098499 -0.12141 -0.43131 0.289814 -0.854195
0.113139 -0.679929 0.032256 0.198616 -0.01517 0.97793
-0.116622 0.338582 -0.074727 -0.878083 -0.207602 -0.427669
0.203503 -0.01975 -0.034455 0.938411 0.043504 -0.341155
-0.256128 0.288992 -0.050074 0.76111 -0.636637 -0.102212
-0.127568 0.05322 -0.041724 -0.938233 0.128617 -0.31665
-0.091978 0.531094 -0.098763 -0.314981 0.466233 -0.812971
-0.025529 -0.669969 -0.093473 0.533422 0.174754 -0.826602
0.187616 0.513155 0.019578 0.259914 0.390908 0.881427
-0.045072 -0.049899 -0.124346 -0.15987 -0.417133 -0.89251
0.24666 0.487218 -0.119273 0.418803 0.486303 -0.766397
-0.434746 0.231416 -0.02475 -0.738302 0.674065 -4e-05
-0.461615 0.186685 0.017833 -0.321054 0.716587 0.599285
-0.066012 -0.862502 -0.016716 0.007655 -0.998886 -0.045754
-0.033834 -0.467174 0.06692 0.262333 -0.276344 0.924188
0.076162 -0.144992 -0.105456 -0.433169 -0.201883 -0.877918
-0.039479 0.736438 -0.023183 -0.996133 -0.086006 0.004398
0.04722 -0.181298 0.060881 -0.861857 -0.043644 0.503742
0.142059 0.428552 0.074211 0.457978 0.12508 0.878795
-0.019758 0.55007 0.038456 0.041675 0.838562 0.533922
-0.350756 0.320241 -0.039813 -0.687835 0.707074 0.104751
-0.046497 0.364713 -0.126592 -0.266229 -0.034919 -0.962729
0.026243 0.08767 -0.141789 -0.162282 0.246869 -0.955252
-0.095807 -0.542367 -0.093004 -0.426437 0.077305 -0.889433
0.039814 0.740127 -0.113391 0.118434 -0.391908 -0.910657
-0.118456 -0.517935 -0.069342 -0.752235 0.13649 -0.643877
-0.505371 0.141172 0.064322 -0.654138 0.702878 0.25289
-0.292804 0.362641 -0.075331 -0.737358 0.498063 -0.44042
-0.137309 -0.449725 0.008427 -0.983628 -0.029502 0.175942
0.105421 -0.43917 0.04562 -0.613838 -0.382867 0.690285
0.045463 -0.280779 -0.048928 -0.834477 0.008468 -0.550543
0.024273 -0.121494 -0.053986 -0.508026 -0.535546 -0.497178
-0.135796 0.047216 0.02309 -0.993637 0.093489 0.061174
0.196289 -0.386376 0.032068 0.942281 -0.031272 0.333303
0.088452 -0.308828 0.073778 -0.357415 -0.141729 0.922705
0.198043 -0.458693 -0.048148 0.966609 0.039069 -0.2315
-0.079235 0.404237 -0.119485 -0.303442 -0.12453 -0.944193
0.014865 -0.348809 -0.037916 0.783774 -0.038736 -0.61675
-0.086116 -0.633768 0.046358 0.237433 -0.358364 0.901285
-0.084405 -0.836042 0.141662 -0.461568 0.804851 0.369895
-0.024067 0.576239 -0.094817 -0.198263 0.794595 -0.529822
-0.249681 0.324835 -0.083664 0.59125 -0.49427 -0.636635
0.157328 -0.860414 -0.035394 0.579814 -0.779841 0.159468
-0.02587 0.594477 -0.073042 -0.510077 0.711634 -0.479061
0.071433 -0.047664 0.126795 0.046685 -0.404309 0.912633
-0.114607 0.449888 0.062224 -0.150008 0.026791 0.987718
0.199429 -0.175201 -0.050669 0.845484 0.015017 -0.530564
0.144071 -0.582431 -0.101599 0.324243 -0.146595 -0.934349
-0.007839 0.702006 0.064725 -0.710156 -0.16081 0.682842
0.584047 0.115215 0.061738 -0.050401 0.403249 0.905778
-0.004733 0.151739 0.128811 -0.20883 0.011073 0.975494
0.104808 -0.284546 -0.09935 -0.084911 0.008954 -0.992125
-0.127727 0.555762 0.009475 -0.224438 0.866101 0.432896
-0.037521 0.772707 -0.007739 -0.986049 0.07837 0.143107
0.212605 -0.091806 0.030334 0.970785 -0.006727 0.236643
-0.312091 0.354824 -0.031119 -0.662822 0.736607 0.13301
-0.089595 -0.44823 0.082257 -0.075057 -0.140071 0.985289
0.001796 0.641831 0.01848 -0.737092 -0.237148 0.632517
0.162218 -0.051333 0.100136 0.602818 0.004982 0.797588
0.012148 0.736723 -0.109017 -0.30934 -0.471919 -0.82172
0.037598 0.789833 -0.120221 0.07533 0.123998 -0.985752
-0.114879 0.292292 -0.030048 -0.959888 -0.269695 0.018742
-0.066936 -0.026967 -0.126319 -0.37485 -0.198251 -0.901483
-0.256647 0.306575 -0.078077 0.655274 -0.437996 -0.615395
-0.412801 0.239655 0.007368 -0.390497 0.507815 0.76506
0.206292 -0.223065 -0.014777 0.998072 -0.05711 -0.0216
0.107513 -0.213166 -0.101038 -0.199472 -0.113371 -0.970912
0.09026 0.70161 0.018305 0.955255 -0.294068 0.014425
0.118796 -0.053774 0.11913 0.285336 -0.083608 0.953654
-0.108831 -0.197911 0.103818 -0.643553 -0.023754 0.762911
-0.060094 -0.686301 -0.112185 0.010816 0.214743 -0.971417
0.207775 -0.096474 -0.029282 0.933956 0.058581 -0.351971
-0.244551 0.31992 -0.003711 0.549198 -0.553562 0.624044
-0.024531 -0.717439 -0.105601 0.520079 0.289354 -0.802685
0.023917 -0.54835 -0.012356 0.938575 0.022258 0.32166
-0.020877 0.426423 -0.129954 0.041705 -0.020016 -0.998772
-0.087365 0.30657 -0.101234 -0.659445 -0.071481 -0.748215
0.102643 0.527304 -0.129772 0.007374 0.302641 -0.950747
0.032609 -0.125023 -0.074067 -0.839388 -0.296487 -0.455144
-0.13943 0.031568 0.020294 -0.93684 0.334831 0.087994
0.047037 0.009071 0.142629 0.078018 0.118251 0.988683
0.088699 -0.419428 -0.091383 -0.584025 0.00109 -0.808987
-0.020552 -0.323021 -0.077447 0.683037 -0.09567 -0.724016
-0.050974 0.49318 -0.126885 -0.102369 0.294948 -0.944176
-0.003618 0.649213 0.012431 -0.837001 -0.220926 0.496581
0.069642 -0.814072 0.001146 -0.933245 -0.243704 0.249018
-0.028271 0.600692 -0.048659 -0.692152 0.714914 -0.054774
-0.50506 0.140474 -0.006882 -0.947377 0.192488 -0.235897
0.138313 -0.851494 0.182857 0.255626 -0.015953 0.950059
0.057003 0.410036 -0.136415 -0.290351 0.038941 -0.956081
-0.021782 0.074791 0.127118 -0.331757 0.195066 0.920465
0.177881 -0.11718 -0.079583 0.770745 -0.119774 -0.625749
0.185908 -0.534409 -0.073636 0.750518 -0.030293 -0.659917
0.198726 0.147608 -0.005262 0.947106 0.220946 -0.202242
-0.242279 0.425187 -0.074739 -0.474202 0.561357 -0.675714
-0.037681 0.562315 -0.101695 -0.241508 0.559988 -0.791326
-0.278493 0.375059 -0.086329 -0.635907 0.290146 -0.713749
-0.213289 0.493061 -0.025661 -0.753491 0.647363 -0.09236
0.190658 -0.458075 0.035454 0.963578 -0.069341 0.257647
0.080302 0.636538 -0.04436 0.853635 0.244562 -0.442662
-0.017638 0.494011 0.073658 -0.041173 0.455062 0.889194
0.027745 0.307641 0.121413 0.014773 0.096195 0.994392
0.017482 0.681558 0.086653 -0.437993 0.146335 0.878858
0.18202 -0.449645 -0.073002 0.729289 0.150999 -0.666491
0.193048 -0.211852 0.062841 0.947836 -0.035588 0.314216
-0.066533 0.534261 -0.10662 -0.275116 0.450819 -0.848502
0.316334 0.449395 -0.060769 0.791065 0.531879 0.285842
-0.285389 0.306245 0.006067 0.082771 -0.202825 0.97344
0.086269 -0.827947 -0.029545 -0.766569 -0.609726 -0.001973
0.129124 -0.208549 -0.101142 0.265415 -0.204753 -0.941197
-0.114159 -0.412843 -0.047765 -0.784789 0.070356 -0.613922
0.123102 0.250492 -0.124846 0.654037 -0.167682 -0.737609
-0.054834 -0.671299 -0.109201 0.205307 0.173989 -0.962846
-0.08233 0.33792 0.078696 -0.718845 -0.020588 0.691072
-0.012432 -0.389816 0.07671 0.569101 -0.218962 0.792533
0.010161 -0.695432 -0.006511 0.776309 -0.237531 0.583637
0.001187 -0.683074 0.012417 0.772937 -0.193211 0.600308
-0.216811 0.470949 0.017683 -0.766564 0.365146 0.520163
-0.115157 0.549007 -0.06912 -0.373189 0.767161 -0.51974
0.192896 -0.552925 0.018215 0.9247 -0.022725 0.378178
-0.032409 -0.20552 0.117184 0.231829 -0.235536 0.943757
-0.048938 -0.239185 0.112445 0.093976 -0.161743 0.982013
0.110275 0.150851 -0.113386 0.370398 0.196355 -0.906497
0.014972 -0.212531 0.084287 0.85674 -0.062492 0.511641
-0.477266 0.176383 0.004849 -0.683476 0.728568 0.032126
-0.088227 -0.56599 0.062038 -0.248692 -0.153055 0.912728
0.040627 -0.226209 -0.041884 -0.9357 -0.015511 -0.350014
-0.002149 0.296276 0.118313 -0.344001 0.125101 0.929485
-0.185942 0.524208 -0.01855 -0.699812 0.710579 -0.005411
-0.14269 -0.135007 0.036825 -0.977529 -0.015917 0.202473
-0.013366 -0.564725 0.030295 0.494533 -0.163736 0.851796
-0.142314 -0.153224 4.8e-05 -0.970549 -0.101215 -0.217199
0.042815 0.468225 -0.128431 -0.211971 0.062321 -0.973623
-0.073348 -0.350976 -0.082631 -0.398614 -0.019675 -0.915051
0.125062 -0.327723 -0.095259 0.419557 0.032131 -0.907159
-0.029441 0.099348 -0.12828 -0.21102 0.259311 -0.942232
0.548273 0.149201 -0.020776 0.620137 0.042581 -0.780993
0.163718 0.561525 -0.014975 0.243492 0.750556 0.613973
-0.125684 -0.180529 0.08326 -0.822088 0.007468 0.567654
0.019928 -0.196613 0.071972 0.964294 -0.016099 0.263793
-0.109723 -0.244724 -0.04936 -0.838569 -0.023139 -0.543653
0.546604 0.194526 -0.02836 0.967461 -0.232494 0.069082
-0.006378 0.068111 -0.141307 -0.162293 0.229573 -0.959531
-0.128339 -0.65064 -0.051265 -0.999285 -0.017696 0.024487
0.145947 -0.347347 -0.08264 0.629576 0.040793 -0.775715
0.138838 0.409774 0.078169 0.533544 0.080017 0.841597
0.576833 0.068288 0.030566 -0.865443 -0.484782 0.123751
-0.012406 0.848785 0.021007 -0.711794 0.557647 0.366719
0.016521 0.842489 0.055198 -0.349426 0.553762 0.753584
0.019811 -0.346062 -0.029012 0.910164 -0.02554 -0.412566
-0.169892 0.370735 -0.052413 0.675674 -0.691787 -0.25337
-0.007148 -0.632244 0.023018 0.149437 0.150328 0.975111
0.023175 -0.165066 -0.026438 0.230211 0.010531 -0.905097
0.183311 -0.784281 -0.038997 0.973212 -0.219445 -0.022563
0.044277 -0.491607 -0.038786 -0.984792 -0.012869 -0.1694
-0.125113 -0.524204 0.013864 -0.845021 -0.123701 0.519629
0.071717 0.582672 -0.097286 0.025518 0.679698 -0.726719
-0.002585 -0.735434 0.001346 0.635061 -0.374697 0.665979
0.138513 -0.12231 0.110824 0.167965 -0.082318 0.981578
0.057656 0.204173 -0.11997 -0.222561 -0.3924 -0.892097
-0.125581 -0.3187 -0.024361 -0.952224 0.017703 -0.296628
-0.138035 -0.189893 0.027702 -0.99601 -0.064893 0.041565
-0.145973 0.552787 -0.004429 -0.491669 0.84872 0.130594
0.20017 0.069285 -0.02275 0.985011 0.108738 -0.133492
0.068227 -0.004192 -0.15626 -0.242269 -0.154435 -0.956388
-0.129095 -0.283958 0.002675 -0.995954 -0.065141 -0.054528
0.030921 0.122231 -0.130172 -0.137899 0.441952 -0.885804
0.108168 -0.193133 -0.104661 -0.128946 -0.143003 -0.980352
0.112428 -0.825947 0.132184 -0.234795 0.965408 0.045377
-0.135239 -0.220512 0.054072 -0.988233 -0.052523 0.14111
-0.183701 0.388166 0.019337 0.29266 -0.476637 0.827514
0.007071 -0.464825 0.03624 0.753763 -0.090399 0.650301
0.068611 -0.083112 -0.125324 -0.272965 -0.437402 -0.856302
-0.017448 -0.333028 -0.073425 0.697037 -0.084546 -0.71185
-0.12558 -0.253605 0.076884 -0.900536 -0.08541 0.421961
-0.121526 -0.516668 0.020984 -0.830707 -0.09667 0.548006
0.080814 -0.421319 -0.084492 -0.698178 -0.006825 -0.715891
0.461794 0.250518 -0.026611 0.047342 0.621607 0.776172
0.082485 0.420805 0.09093 0.097343 0.200081 0.973717
-0.016269 -0.457869 0.061637 0.62462 -0.277579 0.729116
0.002201 -0.179493 -0.066808 0.745211 0.042859 -0.665093
0.064566 -0.38884 -0.069223 -0.747985 -0.035632 -0.662744
0.187488 -0.212534 0.074982 0.774276 -0.136885 0.61774
0.090792 -0.862661 -0.053283 -0.720233 -0.628073 0.174477
-0.037741 0.769301 -0.049852 -0.988249 -0.002368 -0.143847
0.196688 -0.626695 -0.001024 0.968585 -0.089519 0.228121
0.193155 -0.116711 0.07249 0.824849 -0.01528 0.563258
-0.003145 -0.254072 -0.071494 0.721746 -0.069082 -0.687399
0.140059 0.405255 -0.137271 0.380212 -0.180047 -0.907134
-0.04698 0.522333 0.054127 -0.169503 0.591218 0.788471
-0.113315 -0.513139 0.034634 -0.852168 -0.117915 0.507889
0.193329 0.068252 -0.047598 0.915286 0.124026 -0.38283
0.086949 0.402551 -0.145073 -0.119058 0.024579 -0.992321
0.168071 -0.481647 -0.091766 0.664791 0.063042 -0.74371
0.094738 -0.664238 -0.08199 -0.603244 -0.0065 -0.797454
-0.298707 0.278298 0.002268 0.46095 -0.19598 0.859759
0.109745 -0.507532 0.039277 -0.611405 -0.067516 0.788139
0.48125 0.201416 -0.061582 -0.061163 -0.590837 -0.799257
-0.086466 0.474308 -0.123264 -0.335658 0.134614 -0.931719
-0.026435 0.110822 -0.125403 -0.243661 0.350909 -0.903502
0.111026 0.173525 -0.109942 0.399734 0.086065 -0.910709
0.292722 0.397407 -0.144793 -0.049295 0.062421 -0.994536
0.091818 0.7257 -0.062974 0.867203 -0.365693 -0.335858
-0.018814 -0.66126 0.025269 -0.073781 0.058274 0.994172
0.147261 0.403266 0.074118 0.579051 0.032673 0.814418
-0.034935 0.386125 0.105198 -0.120379 0.084256 0.98802
0.136548 -0.869288 -0.094419 0.185246 -0.967915 -0.124098
-0.231065 0.327332 -0.009357 0.600692 -0.662895 0.443969
0.065044 0.489699 0.071241 0.079184 0.503609 0.859199
-0.114708 -0.716969 -0.017643 -0.827172 0.001446 0.537395
0.195404 0.447222 -0.133962 0.145364 -0.108318 -0.982967
-0.100834 0.122072 -0.07355 -0.75836 0.101551 -0.643135
0.187769 -0.358617 0.057211 0.865923 -0.048466 0.49695
-0.006676 -0.035484 -0.133849 -0.026209 -0.330292 -0.943115
-0.06075 -0.825518 0.11481 -0.019852 0.990294 0.105657
0.445356 0.202762 -0.096469 0.848514 -0.287607 -0.38474
0.097795 0.737694 0.016617 0.979449 -0.104175 0.171907
0.025974 0.863052 -0.048784 -0.079459 0.976673 -0.18841
0.148444 0.105868 0.083305 0.586969 0.086617 0.802676
0.177168 0.385605 -0.111597 0.43238 -0.501361 -0.748586
-0.149316 0.532892 0.033826 -0.304713 0.690384 0.652839
0.321601 0.440731 -0.061743 0.823757 0.424709 0.374157
0.166405 0.259542 -0.061546 0.895951 -0.025575 -0.442784
-0.070613 -0.122252 -0.100792 -0.411404 -0.114809 -0.903517
0.101806 0.175205 -0.113072 0.268635 0.038366 -0.959407
-0.050985 0.052075 -0.133594 -0.434363 0.289288 -0.850927
-0.234022 0.437579 0.01481 -0.726245 0.388992 0.565778
-0.045774 0.513895 0.059923 -0.168845 0.512752 0.84151
-0.119766 -0.55917 0.014635 -0.889925 -0.138358 0.434393
0.157344 -0.295331 0.07896 0.241427 -0.09539 0.965649
-0.009468 0.669677 0.027101 -0.771355 -0.608215 0.166994
-0.128923 0.07337 -0.017796 -0.982966 0.15194 -0.063234
-0.119171 -0.746128 -0.010115 -0.801764 0.201003 0.504538
-0.087042 -0.8633 0.093151 -0.021798 -0.999733 0.00086
-0.058254 -0.689737 0.018183 0.145547 -0.325824 0.930881
-0.085972 0.539911 0.035171 -0.026257 0.678238 0.733913
0.046788 0.283138 -0.130069 -0.301874 -0.048402 -0.951912
0.111512 0.562147 0.00516 0.422697 0.683743 0.593736
-0.011832 0.576041 -0.097215 -0.114005 0.556649 -0.822526
0.193558 0.090057 0.018576 0.949535 0.239836 0.165017
0.051325 -0.556063 -0.046995 -0.857937 -0.036951 -0.51236
0.084623 0.012888 0.134227 0.301003 0.248481 0.915731
-0.11387 0.559504 -0.052667 -0.438893 0.794655 -0.415829
0.135119 -0.866318 0.148742 0.02311 -0.985387 0.167015
0.010624 0.595055 -0.086861 -0.107448 0.624061 -0.772969
-0.548536 0.087073 0.057219 -0.851924 0.522061 0.025837
0.000192 0.295009 -0.130046 0.145182 0.0414 -0.9884
0.163387 0.340713 0.054931 0.674222 -0.077959 0.733923
0.13053 0.050877 -0.133734 0.557706 0.262412 -0.786739
-0.562646 0.061117 0.014206 -0.884333 0.438756 -0.126113
-0.104548 -0.271352 -0.055944 -0.809765 -0.014796 -0.586269
-0.080145 0.481898 -0.124051 -0.325937 0.229242 -0.915816
0.632885 0.060215 0.032226 0.823299 0.565734 -0.034346
0.519709 0.156398 0.020481 -0.491706 -0.372153 0.760029
0.151177 -0.867332 0.103078 0.458505 -0.886937 0.015999
0.057069 -0.429917 -0.059454 -0.767196 0.007846 -0.641097
0.03824 -0.211399 -0.031386 0.431143 0.258904 -0.71787
-0.215097 0.44046 0.03368 -0.624907 0.212909 0.746377
-0.06129 0.147449 0.100665 -0.562732 0.099127 0.82056
-0.456385 0.144631 0.039175 0.68249 -0.682844 0.204653
0.04169 -0.370968 -0.03506 -0.924055 -0.061636 -0.36893
0.14258 -0.869501 0.060948 0.133303 -0.985454 -0.018196
-0.314299 0.349191 -0.020131 -0.60541 0.713802 0.342551
-0.529016 0.110582 0.069204 -0.834731 0.545984 0.067389
-0.036168 -0.688761 -0.105162 0.450248 0.269162 -0.851182
0.133212 -0.323086 -0.091276 0.509322 0.03157 -0.859034
0.177631 -0.666374 -0.06389 0.662461 -0.262453 -0.700902
0.165215 0.122142 -0.073506 0.805248 0.201251 -0.554417
-0.128615 -0.362483 -0.008979 -0.999282 0.007854 -0.030555
0.167489 0.507835 0.031965 0.489165 0.439478 0.74854
0.174168 0.191563 -0.047414 0.911174 0.043115 -0.408521
0.089297 0.702331 0.04266 0.965566 -0.206357 0.144299
0.478614 0.21995 -0.073539 0.264479 -0.295877 -0.916122
-0.118935 0.516634 0.050921 -0.04819 0.475784 0.877579
0.001703 -0.655972 -0.070967 0.556578 0.141532 -0.818631
-0.135921 0.458313 -0.102601 -0.463895 0.047903 -0.88396
-0.011797 -0.668779 0.02537 0.216417 -0.029251 0.962206
0.455664 0.198433 -0.068721 0.422138 -0.772447 -0.447312
0.136287 0.447382 0.0738 0.393789 0.242607 0.879507
-0.136679 -0.212934 0.029766 -0.996742 -0.075549 0.00295
-0.40854 0.176131 -0.026328 0.525047 -0.838356 -0.122923
0.159715 -0.188022 0.093565 0.260008 -0.102731 0.95982
-0.023914 0.160831 -0.105907 -0.332831 -0.104645 -0.926744
0.021284 0.539397 -0.116793 -0.064004 0.394372 -0.916473
0.013477 0.371576 -0.127723 0.03087 -0.034654 -0.998767
-0.033872 -0.181856 0.120825 0.156603 -0.110507 0.980938
0.046021 -0.291052 0.039706 -0.898014 -0.058783 0.426065
-0.13479 0.01564 -0.032742 -0.965427 -0.00373 -0.25048
-0.1045 0.007969 -0.096983 -0.844032 0.009891 -0.536199
0.039008 -0.105078 0.095582 0.482706 -0.589514 0.643932
-0.08047 -0.010603 -0.121199 -0.569948 -0.081431 -0.816505
-0.461015 0.197278 -0.00193 -0.78315 0.609649 0.106843
-0.018403 -0.265343 0.100779 0.446333 -0.257718 0.856424
0.447981 0.197409 -0.043424 -0.658346 -0.74569 0.099183
0.267476 0.347422 -0.09156 -0.688712 -0.703936 -0.161925
0.274249 0.444331 -0.010792 0.323113 0.103152 0.936899
0.064207 0.314127 0.11446 0.285555 0.14814 0.946446
0.052841 -0.14956 0.069469 -0.745075 0.038116 0.654059
0.190717 -0.541569 -0.066829 0.814771 -0.028456 -0.578745
0.071564 0.607453 0.010831 0.693763 -0.005662 0.718023
0.047893 -0.237023 0.051258 -0.858038 -0.096604 0.504014
-0.131203 -0.387646 -0.010075 -0.955069 0.271439 -0.092998
-0.011057 0.755865 0.062108 -0.759384 0.039968 0.648539
0.158316 -0.370593 -0.076328 0.597353 0.196345 -0.776982
0.049586 0.835889 -0.091191 0.20797 0.676627 -0.704301
-0.125282 -0.712187 -0.032343 -0.859804 0.102785 0.483725
0.103718 0.440377 -0.146592 -0.071341 -0.023715 -0.996738
-0.047226 -0.741083 0.022218 0.45072 -0.593665 0.662386
0.19073 -0.391749 0.047706 0.93289 -0.027111 0.358396
0.098788 -0.731575 -0.088611 -0.710164 -0.037843 -0.69267
-0.068352 0.26199 -0.11198 -0.524245 -0.15577 -0.836958
-0.009079 -0.458404 0.055227 0.672128 -0.222876 0.705765
0.084275 0.841818 -0.043832 0.787472 0.605291 -0.11047
0.195782 -0.119358 -0.057071 0.806067 0.013064 -0.58983
-0.00792 0.579608 0.011466 -0.537529 0.309699 0.782818
-0.033711 0.577526 -0.002339 -0.229537 0.743133 0.626517
0.051083 -0.598877 -0.015098 -0.885886 -0.052009 0.460466
0.093102 0.727418 0.030066 0.951097 -0.057102 0.297269
0.105932 -0.587799 0.032112 -0.314957 -0.15813 0.93516
0.006168 0.61216 -0.071943 -0.250016 0.62588 -0.735443
0.166826 0.224531 -0.061279 0.869363 -0.014138 -0.493761
0.020337 -0.336135 -0.028331 0.908678 -0.019636 -0.416944
0.049637 -0.226908 0.056647 -0.843489 -0.138273 0.51615
0.212312 0.542237 -0.011597 0.365445 0.726519 0.578689
-0.00364 -0.321219 0.081606 0.549992 -0.157216 0.819614
-0.015265 0.704126 -0.053761 -0.766644 -0.511112 -0.388346
-0.106773 0.538742 -0.08578 -0.414121 0.605084 -0.67976
-0.133927 -0.243586 0.004065 -0.976316 -0.061313 -0.198555
0.172136 0.138861 0.059807 0.740978 0.128643 0.658578
0.02699 0.343529 0.114515 -0.045929 0.187025 0.980075
-0.042545 0.295032 -0.127504 -0.315573 -0.009702 -0.944475
-0.132334 -0.398145 -0.017643 -0.903535 0.209998 -0.367056
0.197706 -0.697389 -0.016535 0.991193 -0.031311 0.11133
0.072131 0.124426 0.127688 0.274958 0.039644 0.956847
0.192022 0.448481 0.035736 0.556501 0.126565 0.82052
0.195407 0.020875 -0.05316 0.921244 -0.030734 -0.386711
0.547363 0.126118 0.038183 -0.748527 -0.456554 0.458896
0.02184 -0.23598 0.061401 0.942953 -0.005392 0.330627
0.540023 0.150502 -0.026525 0.462275 -0.117365 -0.871876
-0.031279 0.729776 -0.04324 -0.820109 -0.425459 -0.367145
0.043525 0.807227 -0.114053 0.141935 0.381278 -0.90763
0.179719 -0.778958 0.007154 0.873231 -0.377129 0.307343
0.08575 0.675001 -0.008028 0.915345 -0.395687 0.018687
-0.357953 0.314533 -0.044975 -0.691607 0.719417 0.050442
0.020329 0.751964 0.083784 -0.870981 0.211095 0.433218
0.061428 -0.67387 0.018688 -0.532413 0.310157 0.780062
-0.432377 0.212433 -0.049296 -0.52057 0.10037 -0.847556
-0.517771 0.077206 0.06291 0.745562 -0.664431 0.046148
0.195627 0.097484 -0.003313 0.985869 0.025924 0.065349
0.162257 -0.846657 -0.065666 0.992102 -0.015985 -0.114958
-0.074047 -0.863493 0.014719 -0.020283 -0.999661 -0.014126
0.103473 0.516217 -0.134639 -0.037984 0.353261 -0.93298
0.05061 -0.646199 -0.008006 -0.990785 -0.048985 0.115996
0.083834 0.101108 0.124548 0.458304 0.00751 0.887809
0.009211 -0.773476 -0.026943 0.833714 -0.055193 0.546721
-0.001984 0.198404 0.128432 -0.16954 0.069822 0.978631
-0.071076 0.507284 -0.119326 -0.231716 0.352148 -0.906281
0.194517 -0.718526 -0.034171 0.796626 -0.09979 -0.593943
0.00065 -0.162357 -0.067988 0.768777 -0.018195 -0.639116
0.281813 0.393861 -0.016351 -0.136354 -0.311467 0.937147
0.205365 -0.272046 -0.007234 0.999351 0.017208 -0.03036
-0.08346 -0.319182 -0.076689 -0.602811 -0.006738 -0.797389
-0.034483 0.583514 -0.010472 -0.360591 0.742205 0.558784
0.167882 0.140429 -0.063615 0.859605 0.062719 -0.505021
-0.028277 0.238324 -0.127766 -0.129082 -0.129772 -0.982122
0.02054 -0.285086 -0.031607 0.949531 -0.065777 -0.305314
0.205847 -0.231098 -0.008317 0.998028 -0.060833 -0.014484
-0.363138 0.292508 -0.081149 -0.477253 0.409655 -0.775933
0.502064 0.205363 -0.001578 0.033461 0.641278 0.735602
0.098515 0.367475 0.097353 0.21875 0.084195 0.97171
0.026778 -0.579786 -0.01528 0.990837 0.032118 0.124341
0.151618 0.377824 0.070264 0.671055 -0.041423 0.740178
0.090544 0.576991 -0.102284 0.138573 0.670491 -0.728463
0.15917 -0.566656 0.042942 0.108153 -0.155259 0.978467
-0.150492 0.394322 0.002493 0.659313 -0.670512 0.336496
0.285814 0.405031 -0.01414 0.126724 -0.063409 0.981021
-0.405637 0.224352 -0.065407 -0.419287 -0.145146 -0.895582
-0.070572 0.125973 -0.099705 -0.541613 0.198087 -0.816484
0.011496 0.112936 -0.131384 -0.172312 0.40359 -0.898402
-0.150673 0.49749 0.05383 -0.249144 0.315936 0.914747
0.183251 0.20263 0.013472 0.998123 0.046004 0.023788
-0.397222 0.222254 0.013198 0.11318 0.085341 0.989567
0.248295 0.375945 -0.043123 -0.586557 -0.672201 0.448592
0.210528 -0.142442 0.015002 0.917729 -0.376163 0.109951
0.177408 -0.410612 0.066625 0.60494 -0.086875 0.78567
-0.111412 -0.592291 -0.085858 -0.655028 0.025847 -0.75515
0.124804 -0.753174 -0.100488 -0.181264 0.087684 -0.977673
0.202766 -0.404813 -0.026021 0.946923 -0.135051 -0.290204
-0.001525 0.708575 0.071943 -0.640562 0.003277 0.763289
-0.114435 -0.560289 -0.081629 -0.674866 0.09046 -0.730337
0.019949 0.280649 -0.127573 0.082425 -0.019892 -0.995375
-0.13717 -0.492008 -0.03078 -0.977911 -0.032356 -0.204394
0.19065 -0.512698 0.02928 0.916097 -0.046198 0.3964
0.553951 0.14178 0.044096 -0.433103 0.204199 0.877011
0.350612 0.353547 -0.052394 0.537606 0.43008 0.72277
0.099616 -0.138325 0.10276 -0.561146 -0.053838 0.825844
0.025455 -0.685564 -0.054751 0.964774 -0.011814 -0.260898
-0.026382 0.842341 -0.03969 -0.60562 0.75986 -0.231945
-0.38671 0.216526 -0.070027 -0.147719 -0.358676 -0.910926
-0.007112 0.063145 0.133621 -0.37041 0.215087 0.903068
0.172016 0.011734 -0.097591 0.810498 0.037355 -0.583785
0.622336 0.074889 0.018689 0.858549 0.482554 -0.162398
-0.06206 0.197389 0.097898 -0.442968 0.047473 0.894875
-0.463642 0.13245 0.01109 0.596312 -0.797114 -0.0262
0.216352 0.445915 -0.132765 -0.084379 -0.180613 -0.979352
0.032927 0.468093 -0.126942 -0.135216 0.065683 -0.988498
0.004693 0.695535 0.077035 -0.71942 0.020559 0.690305
-0.032648 -0.837857 -0.137339 0.52855 -0.452672 -0.705186
-0.001219 -0.529272 0.028609 0.651904 -0.15459 0.742051
0.177564 -0.077556 0.088533 0.599919 0.073991 0.777727
0.099057 0.52662 0.043516 0.284454 0.537482 0.792413
0.080668 -0.608782 -0.074562 -0.677346 -0.053734 -0.733625
0.10866 -0.609073 0.031796 -0.197659 0.220656 0.954407
0.129463 -0.188106 -0.104237 0.242818 -0.090384 -0.962409
0.089396 0.69038 -0.017612 0.988294 -0.140545 -0.054627
0.030203 -0.29112 -0.005236 0.990317 -0.104869 -0.066227
0.200934 -0.482728 -0.023745 0.993019 0.112581 -0.026402
0.187389 -0.498845 -0.071918 0.785405 0.009384 -0.618874
0.070972 -0.441215 -0.075526 -0.710521 0.023563 -0.703208
0.165535 -0.311471 -0.06596 0.67832 -0.00893 -0.734249
-0.050187 -0.86321 -0.09253 0.020041 -0.999354 0.020966
-0.061267 0.117481 0.100659 -0.542103 0.12392 0.829716
0.168674 -0.857157 0.137326 0.90396 -0.150035 0.215538
0.001471 -0.234572 -0.068382 0.723523 -0.065215 -0.687092
0.398957 0.327554 -0.072424 0.578885 0.731345 0.354349
0.183847 -0.292259 0.070806 0.55248 -0.04729 0.827883
0.578174 0.137074 0.029196 0.746176 0.664736 0.02984
0.057357 0.498072 0.067287 0.051303 0.467943 0.881921
-0.080284 0.309172 -0.107209 -0.652064 -0.049316 -0.756101
0.18397 0.050398 -0.072243 0.860669 0.166864 -0.480633
0.180648 0.274488 0.020623 0.970053 0.032507 0.235693
0.197228 -0.237811 0.052369 0.923374 0.04103 0.379519
-0.106393 0.260141 -0.072255 -0.897115 -0.116651 -0.422942
-0.415988 0.192963 0.02148 -0.042705 0.321593 0.944435
0.186785 -0.09061 -0.071091 0.8155 -0.071781 -0.574064
0.0085 -0.515933 0.023298 0.757821 -0.181136 0.626492
0.166711 -0.717501 -0.002701 0.491282 -0.31425 0.802162
0.05709 -0.4435 -0.060101 -0.757891 0.037785 -0.651096
0.036267 0.178646 0.130148 0.054118 0.03649 0.997713
-0.074979 -0.763268 -0.125366 -0.518779 0.188751 -0.829208
-0.113211 0.072413 -0.068196 -0.8573 0.145515 -0.492213
0.009059 0.660783 0.061547 -0.368392 -0.919016 0.12716
-0.038592 0.27892 0.106968 -0.509448 0.076582 0.856773
-0.043522 0.428536 -0.129928 -0.065852 -0.077701 -0.994441
0.064256 0.403784 -0.138865 -0.353922 0.04667 -0.932598
-0.003304 -0.067896 0.127463 0.178958 -0.134667 0.972872
-0.015238 -0.28753 -0.078177 0.680806 -0.119351 -0.722614
0.196495 -0.414745 -0.04415 0.934214 -0.004866 -0.351708
-0.092989 0.253998 0.068836 -0.718692 0.068551 0.6912
-0.112126 0.273583 -0.045953 -0.998065 -0.055195 -0.02756
-0.007258 0.597004 0.0063 -0.695653 0.209803 0.684062
0.127592 0.009017 0.121557 0.348464 0.128524 0.927355
-0.191977 0.504118 -0.051832 -0.680842 0.536794 -0.495176
0.172087 0.556142 -0.011277 0.209356 0.781345 0.586935
0.082668 0.845625 -0.032552 0.809094 0.572777 -0.091547
-0.116295 0.113788 -0.047868 -0.86436 0.098573 -0.490328
0.001651 -0.657766 0.018178 0.623314 -0.110554 0.773331
-0.011868 0.157841 0.12654 -0.394213 0.00243 0.910314
-0.112901 0.242352 -0.038815 -0.986819 0.139906 -0.078008
-0.014546 -0.649149 0.024635 -0.04343 0.078968 0.989529
-0.059709 0.455172 0.083229 -0.171922 0.317302 0.932331
-0.012576 0.687704 -0.038967 -0.887475 -0.32933 -0.317643
-0.357128 0.315222 -0.055675 -0.664797 0.739527 -0.077267
-0.310006 0.239182 -0.042079 0.522283 -0.849775 -0.056536
-0.285959 0.271073 -0.01304 0.693934 -0.521868 0.477227
-0.079055 0.240577 -0.096757 -0.662095 -0.313759 -0.680304
0.191448 0.168032 -0.001873 0.94846 0.287756 -0.03678
-0.082982 -0.508846 -0.095506 -0.341294 0.091552 -0.932187
-0.143101 -0.045203 -0.002605 -0.994479 0.041428 -0.078218
0.182432 0.227216 0.01123 0.998733 0.013592 0.045834
0.614869 0.056432 0.078699 -0.780643 -0.615541 0.064349
0.142661 0.131745 -0.097963 0.705421 0.198913 -0.679906
-0.071698 -0.860972 0.14681 -0.005486 -0.973478 0.225315
-0.126429 -0.344504 0.035812 -0.993995 0.033366 0.103105
-0.092988 0.248426 -0.086367 -0.694452 -0.310671 -0.648472
0.126554 -0.580144 0.039424 -0.217462 -0.234326 0.947118
0.088612 0.384132 0.097437 0.152989 0.115057 0.981366
0.055263 -0.011024 -0.152265 -0.235569 -0.234141 -0.940321
-0.388261 0.280162 -0.069907 -0.652313 0.608585 -0.450396
-0.121729 -0.649486 -0.080288 -0.808751 0.006882 -0.587541
0.170443 -0.50796 -0.090171 0.676787 -0.019955 -0.735694
-0.105612 0.147903 0.061488 -0.768978 0.061867 0.636184
-0.048196 -0.76334 0.021302 0.218247 0.668007 0.705903
-0.445675 0.192816 -0.043515 -0.587062 0.252682 -0.766057
0.587857 0.123381 0.056836 0.528156 0.651909 0.439815
0.521165 0.148922 -0.022663 -0.709848 -0.699269 -0.076934
0.192205 0.394368 0.017749 0.959872 -0.098344 0.258044
0.117456 -0.55708 -0.105931 -0.249104 -0.111432 -0.961645
0.027383 0.291023 -0.127455 -0.021286 0.000268 -0.998384
0.163943 0.451862 -0.140012 0.235548 -0.06045 -0.969489
0.129039 -0.090732 0.113991 0.099624 -0.063744 0.992613
-0.00708 -0.155197 -0.077339 0.732402 -0.095443 -0.673719
-0.119943 -0.024807 0.081142 -0.774253 0.067247 0.628303
-0.532059 0.106217 0.044093 -0.821632 0.54907 -0.130416
0.108579 0.049395 -0.146723 0.476459 0.235332 -0.846874
0.156522 0.216019 0.067617 0.77764 0.081035 0.62345
-0.105898 0.269938 -0.075754 -0.876622 -0.090679 -0.468075
0.173804 -0.592861 -0.082172 0.654904 -0.088104 -0.750443
-0.131071 -0.095713 0.070075 -0.841258 0.003425 0.540521
-0.106733 -0.270236 0.102248 -0.631316 -0.040943 0.768211
0.028355 -0.181725 0.044771 0.945819 -0.118534 0.294793
0.021997 -0.41124 -0.008065 0.982725 -0.152774 -0.08613
0.007023 -0.819682 -0.074266 0.875377 -0.476614 -0.023713
0.143513 -0.145749 0.106282 0.219881 -0.180248 0.957925
0.156212 -0.554778 0.045976 0.091085 -0.350893 0.931836
-0.046463 -0.087354 -0.111729 -0.017319 -0.230561 -0.972572
-0.020112 -0.801956 0.036225 0.924365 0.274787 0.263993
-0.063895 -0.654239 0.03118 0.363374 -0.272989 0.890716
0.198374 0.079214 -0.026392 0.978338 0.147669 -0.13321
0.157853 -0.501457 0.061838 0.05232 -0.198985 0.971305
0.138502 0.363262 -0.129152 0.587942 -0.205189 -0.781716
0.018682 0.375566 0.107915 0.077389 0.235247 0.968655
0.051516 0.063879 0.131446 0.135775 0.112956 0.982575
0.087771 -0.843941 -0.030974 -0.991391 -0.11441 0.042744
-0.282467 0.263881 -0.028458 0.686356 -0.663708 0.289724
0.025813 -0.579118 -0.028109 0.958928 0.099186 -0.23747
0.05291 0.274958 -0.131912 -0.375469 -0.075008 -0.922721
0.10469 -0.375518 -0.100843 -0.215913 -0.014605 -0.969431
-0.021555 -0.775124 0.012221 0.709814 0.586503 0.385187
0.133419 0.438335 -0.144961 0.141611 -0.077771 -0.986814
0.043429 0.608082 0.025772 0.199707 -0.113289 0.968894
-0.001019 -0.384918 0.068582 0.725387 -0.157847 0.669519
0.026174 -0.48474 -0.003949 0.97672 0.025947 0.167342
0.191071 -0.170982 -0.061055 0.701025 0.016943 -0.712048
-0.032276 -0.728129 0.025521 0.266695 -0.30333 0.907458
0.089952 -0.850155 -0.092483 -0.970639 0.049159 -0.233071
-0.058346 0.320835 -0.120825 -0.414261 -0.012634 -0.909827
0.545857 0.122221 0.025337 -0.819095 -0.546739 0.168209
0.007294 0.788804 0.08002 -0.405969 0.253682 0.873095
-0.021117 -0.474853 -0.084556 0.691329 0.096119 -0.716107
-0.118712 -0.273675 0.088748 -0.861803 -0.046174 0.497569
0.254516 0.359493 -0.066279 -0.711273 -0.694349 0.091735
-0.10915 -0.750578 -0.089064 -0.837097 0.041824 -0.545211
-0.208215 0.453605 -0.077278 -0.467502 0.531934 -0.70545
0.158439 0.359704 0.062121 0.67773 -0.108886 0.72694
-0.51204 0.087699 0.084796 0.797984 -0.41485 0.408706
0.094643 -0.865756 0.058666 -0.614922 -0.780104 -0.065575
-0.064828 -0.51124 0.066057 0.375503 -0.226934 0.898198
0.142687 -0.466287 -0.102998 0.232319 0.102969 -0.964731
-0.058457 -0.528764 -0.101673 0.023385 0.063818 -0.996129
0.618833 0.085408 0.052264 0.864144 0.502879 0.018439
-0.003522 0.229612 -0.128313 0.033489 -0.057365 -0.995995
0.068252 -0.459128 -0.073132 -0.725766 0.027313 -0.687312
0.279737 0.461315 -0.119505 0.412902 0.605173 -0.6799
0.641904 0.02255 0.051211 0.290368 -0.86191 -0.004194
0.204207 -0.505635 -0.012075 0.975323 0.103064 0.158638
0.120046 -0.795878 -0.117032 -0.08803 0.512664 -0.848568
