-0.007495 -0.501156 -0.074742 0.744613 0.073637 -0.66315
-0.052298 -0.449686 0.076693 0.249243 -0.275528 0.928161
0.201399 -0.571951 -0.037188 0.974641 -0.100356 -0.194925
0.574912 0.069783 0.007358 -0.866243 -0.496415 0.011525
0.138502 0.363262 -0.129152 0.587942 -0.205189 -0.781716
0.098438 0.27217 0.106933 0.337248 0.073031 0.93745
-0.090124 -0.432273 -0.077738 -0.53332 0.313554 -0.785004
0.073895 0.137735 0.126599 0.366082 0.062201 0.920356
-0.144295 -0.093384 0.010764 -0.999877 0.012485 0.000811
0.169978 -0.441684 0.067258 0.378334 -0.0956 0.917511
0.155575 0.273301 0.062546 0.797984 0.053391 0.599662
0.20132 0.400916 -0.049823 0.928526 -0.341303 0.020552
-0.009343 0.660632 0.012248 -0.849594 -0.386644 0.348778
-0.110739 -0.813345 -0.056853 -0.811079 -0.574673 -0.009925
-0.110215 0.398494 0.061698 -0.647758 -0.174682 0.740186
0.089526 -0.827099 -0.092158 -0.924646 -0.291744 -0.209645
-0.093974 -0.863293 0.061542 -0.028164 -0.998376 -0.00166
0.126043 0.201475 -0.104756 0.558481 -0.20588 -0.801815
0.123023 0.354112 0.089788 0.388312 0.054861 0.919605
0.082086 -0.776642 0.028296 -0.143423 0.860248 0.483541
0.124335 -0.436157 0.060773 -0.491868 -0.269346 0.827776
0.192108 -0.148445 0.073395 0.901439 -0.041691 0.427729
0.118314 -0.298915 0.081999 -0.045278 -0.073396 0.99612
-0.00646 -0.012642 -0.140067 -0.135336 -0.220111 -0.965553
-0.249258 0.368036 0.018823 0.022521 -0.113322 0.992939
0.191174 0.406147 0.027175 0.949922 -0.104133 0.288004
0.102218 0.03239 0.124439 0.472845 0.33328 0.812464
-0.093508 -0.26276 0.108432 -0.233054 -0.042987 0.97136
0.063081 0.520581 -0.127823 -0.165738 0.173181 -0.969078
0.032898 0.052659 -0.151677 -0.15235 0.234287 -0.960045
0.191479 -0.753194 -0.008611 0.957026 -0.271453 0.088914
0.037994 0.761074 0.091093 0.32784 0.364044 0.822622
-0.011457 -0.145158 0.118734 0.482875 -0.160654 0.858247
-0.026896 -0.581078 0.032168 0.377516 -0.296158 0.877282
0.129422 0.366375 -0.135972 0.457646 -0.16131 -0.872057
-0.021699 -0.145709 -0.090498 0.528092 -0.224359 -0.817381
0.143912 0.266352 0.078225 0.754158 0.07057 0.652855
0.14254 -0.260061 0.08368 0.061533 -0.066313 0.99575
0.153405 0.289864 -0.093513 0.855429 -0.126211 -0.501834
0.059291 0.214947 0.127176 0.199807 0.06965 0.974002
0.195798 -0.427561 -0.048453 0.88768 0.099034 -0.442451
-0.073826 0.500946 0.061099 -0.209606 0.413785 0.885321
0.055285 0.636682 0.030482 0.490444 -0.422489 0.756207
0.138795 0.581783 -0.041396 0.2646 0.926952 0.254735
-0.016951 -0.827407 0.020066 0.721832 -0.647511 0.233965
-0.047394 0.014682 -0.136631 -0.259844 -0.281124 -0.921681
0.214256 -0.124516 0.004886 0.997735 -0.057223 0.022101
-0.095509 0.244763 0.067667 -0.684012 0.125732 0.717737
-0.19213 0.43755 0.041907 0.088498 -0.299231 0.946293
-0.177216 0.435421 0.038951 0.020397 -0.474528 0.878404
0.027363 -0.234459 0.043517 0.979693 -0.019076 0.199205
-0.039504 0.264408 0.107692 -0.503704 0.060409 0.86101
-0.11214 0.083215 0.072402 -0.844259 0.269019 0.45906
-0.107132 -0.840018 -0.006224 -0.961578 0.19156 -0.10791
0.454491 0.282632 -0.076098 0.732749 0.678582 0.001589
0.177238 -0.488933 -0.083533 0.706909 0.020928 -0.706745
0.156775 0.283522 -0.086511 0.848829 -0.139599 -0.509584
0.112521 0.486776 0.063633 0.266631 0.535034 0.799506
0.027652 -0.259201 0.039665 0.98696 -0.033842 0.156666
-0.025289 -0.857404 0.030175 0.746921 -0.646432 -0.093184
0.172136 0.138861 0.059807 0.740978 0.128643 0.658578
0.077217 -0.520123 -0.082353 -0.708969 -0.061344 -0.702432
0.411798 0.315601 -0.105863 0.666745 0.639218 -0.366914
-0.040224 -0.799907 0.057198 0.149681 0.425691 0.878613
0.17572 0.367015 0.041821 0.81213 -0.140142 0.565734
-0.126708 -0.366422 0.041024 -0.992173 -0.04308 0.113343
0.089182 -0.835681 0.051979 -0.981134 0.185421 0.022579
0.055092 0.513677 0.05918 0.020561 0.510176 0.859581
0.153075 -0.034351 -0.124126 0.70455 -0.108867 -0.700615
-0.036337 -0.055657 -0.122811 -0.05798 -0.380094 -0.922252
-0.134325 -0.488143 0.008476 -0.903515 -0.163397 0.384633
0.125105 0.583664 -0.035898 0.379799 0.835045 0.388745
0.126513 0.274059 -0.126022 0.619917 -0.077155 -0.780635
-0.119744 0.458186 0.06137 -0.06474 0.010786 0.997288
-0.260639 0.328192 -0.092095 0.381518 -0.304491 -0.86936
0.199635 -0.305884 0.03934 0.936879 -0.062658 0.343337
0.388358 0.338558 -0.109357 0.712372 0.649094 -0.265471
0.548282 0.112258 0.003972 -0.948945 -0.3143 0.022893
0.542443 0.201202 0.000833 0.84999 0.34757 0.346949
-0.021027 0.43897 0.095911 -0.130638 0.232855 0.96285
0.18015 -0.551679 0.038755 0.634311 -0.179662 0.747303
0.197154 -0.49068 -0.055479 0.924778 0.01147 -0.372552
0.04449 0.415501 0.096774 0.041664 0.197656 0.979083
0.102515 -0.072532 0.117686 -0.066944 -0.466186 0.876665
0.059878 0.056448 0.131655 0.035868 0.145645 0.98659
0.18202 -0.449645 -0.073002 0.729289 0.150999 -0.666491
0.324786 0.374041 -0.140775 0.215506 -0.059449 -0.971648
0.149929 0.389968 0.072222 0.634508 -0.004636 0.770717
0.049637 -0.226908 0.056647 -0.843489 -0.138273 0.51615
-0.243865 0.39719 -0.092799 -0.230204 0.366603 -0.899205
-0.113284 0.506598 -0.103731 -0.440084 0.355371 -0.814959
0.210457 -0.051931 -0.009061 0.983169 0.022648 -0.172659
0.19627 0.088592 -0.02943 0.946925 0.25345 -0.18764
0.161833 -0.836023 -0.060367 0.99563 0.076211 -0.053076
0.01316 0.297027 0.121568 -0.11928 0.104247 0.986722
-0.009836 -0.335056 -0.06577 0.712812 -0.081083 -0.696621
0.199376 0.070858 0.024256 0.97135 0.209609 0.105907
0.093219 0.029693 0.127975 0.213839 0.239941 0.946137
-0.001219 -0.529272 0.028609 0.651904 -0.15459 0.742051
-0.010633 -0.44838 0.05961 0.696779 -0.204145 0.686095
0.21207 0.43659 0.019015 0.574328 -0.288938 0.75737
0.111026 0.173525 -0.109942 0.399734 0.086065 -0.910709
0.166849 -0.801663 -0.0932 0.842421 0.00534 -0.531312
-0.111911 0.10953 -0.057662 -0.892043 0.094287 -0.441352
-0.163595 0.396582 0.018031 0.314687 -0.657741 0.677268
0.020239 -0.670602 -0.060451 0.6849 0.151549 -0.701043
-0.012021 -0.393385 -0.063705 0.636652 0.103695 -0.763801
-0.023177 -0.689299 -0.097356 0.56037 0.232533 -0.794766
-0.126507 0.063895 -0.040625 -0.945913 0.133056 -0.294913
0.026234 -0.626976 -0.010941 0.966962 -0.028009 0.238523
-0.1154 0.030263 0.086313 -0.859612 0.117404 0.496057
0.365056 0.356187 -0.121305 0.635399 0.516226 -0.564745
-0.05252 -0.062795 0.127592 -0.192865 -0.048181 0.979369
-0.143528 -0.057509 0.01982 -0.996944 0.042837 0.058422
0.199869 -0.447517 -0.013201 0.99948 -0.014534 0.018843
0.14174 -0.078542 0.112175 0.338395 0.034084 0.930034
-0.027039 0.121583 -0.12084 -0.21935 0.353614 -0.908975
-0.112064 0.264767 -0.033194 -0.999638 -0.019293 -0.014969
0.058819 0.620097 0.021849 0.599814 -0.197668 0.774785
-0.041382 -0.170062 0.122812 0.043774 -0.056147 0.996583
0.000567 -0.13285 -0.073211 0.793951 -0.172734 -0.582893
0.180628 -0.674056 -0.057077 0.697953 -0.314182 -0.642496
0.163942 -0.139977 -0.08979 0.666533 -0.166442 -0.726442
0.11058 -0.01213 0.124441 0.391953 -0.147339 0.888649
0.06287 0.247454 -0.133096 -0.367853 -0.148128 -0.917715
0.017806 0.724514 0.08884 -0.800357 0.080997 0.58572
0.171388 0.385629 0.050483 0.738716 -0.061328 0.670553
0.489142 0.227486 -0.072314 0.292081 -0.116691 -0.929969
0.026602 -0.341834 0.027281 0.987668 -0.065104 0.135315
0.033489 0.84716 -0.080991 -0.008898 0.876464 -0.458164
-0.098901 -0.717357 0.006405 -0.564663 -0.593561 0.568181
-0.002833 0.636652 0.010301 -0.815082 -0.118275 0.561693
0.149867 -0.108008 -0.11049 0.579515 -0.168241 -0.795153
0.360997 0.267632 -0.098781 -0.703438 -0.676158 -0.20873
-0.080688 -0.056411 0.117434 -0.565469 -0.014379 0.823684
0.017416 0.710343 0.08815 -0.724576 -0.218603 0.625486
0.202103 0.558668 -0.057044 0.192905 0.976074 -0.059584
-0.012416 0.027244 -0.148147 -0.240081 -0.082947 -0.952604
0.080067 0.333079 -0.143558 -0.139386 -0.046262 -0.988027
0.20398 -0.35134 0.013672 0.97446 -0.103804 0.194192
-0.034192 0.316199 0.104808 -0.527109 0.125237 0.837699
0.052057 0.602972 0.022329 0.389187 -0.08666 0.916138
0.199995 -0.457833 -0.015467 0.999675 -0.001454 0.023791
0.111921 0.20981 -0.117746 0.533467 -0.373544 -0.758303
-0.114308 -0.218635 -0.042351 -0.881141 -0.051658 -0.469899
-0.003158 0.812144 -0.104171 -0.393986 0.483966 -0.779946
0.062351 -0.77033 0.02209 -0.400788 0.503042 0.686463
-0.137139 -0.021619 -0.022712 -0.993148 0.052124 -0.102191
0.014105 -0.773079 -0.035359 0.888502 -0.129514 0.435754
-0.031195 -0.596413 0.029264 0.302341 -0.176575 0.93546
0.024276 -0.570061 -0.008355 0.904191 0.070385 0.413057
0.092765 -0.852983 -0.019733 -0.801025 -0.563675 0.14927
0.081009 0.73903 -0.089561 0.662254 -0.388179 -0.640725
0.127592 0.009017 0.121557 0.348464 0.128524 0.927355
-0.142333 0.396904 -0.026662 0.758267 -0.650856 0.021992
-0.003681 -0.54992 -0.073398 0.779704 -0.017461 -0.625838
0.056608 -0.397047 0.017803 -0.682637 -0.341062 0.646222
0.040542 -0.380582 -0.030736 -0.963498 -0.104785 -0.236835
-0.133955 -0.026859 0.057654 -0.929527 0.10147 0.34688
-0.104639 0.233116 -0.061363 -0.789389 -0.374397 -0.485979
-0.284586 0.400808 -0.057618 -0.512551 0.842564 -0.151526
0.075639 0.492416 0.06823 0.130033 0.464822 0.875658
0.00341 -0.291436 0.084648 0.562951 -0.20319 0.796151
0.18397 0.050398 -0.072243 0.860669 0.166864 -0.480633
-0.523381 0.074378 0.092547 -0.022615 -0.92145 0.375428
0.124209 -0.869917 0.056795 -0.00043 -0.999856 -0.016214
0.042977 -0.170375 -0.06468 -0.870667 -0.197569 -0.449386
-0.024442 -0.076738 0.128913 0.027749 -0.070931 0.996795
-0.083797 0.481856 0.066291 -0.294905 0.309651 0.902557
0.200521 -0.341803 0.03052 0.932927 -0.09331 0.346986
0.205613 -0.212011 0.020864 0.989936 -0.019524 0.133207
-0.320782 0.34707 -0.043843 -0.689305 0.722987 -0.028736
-0.030936 -0.826743 -0.143144 0.316624 -0.388502 -0.863307
-0.117038 -0.272929 -0.034973 -0.835605 0.013259 -0.548581
0.150994 -0.239561 0.084878 0.129569 -0.185264 0.973248
0.119642 0.582637 -0.084868 0.337414 0.824599 -0.453015
0.108146 -0.142349 0.108037 -0.521463 -0.145734 0.839894
0.57221 0.080801 0.049238 -0.746123 -0.624215 0.227241
0.166119 0.417209 0.055275 0.599131 0.071635 0.794881
-0.005811 -0.68114 0.0212 0.732199 -0.11926 0.669405
0.0973 -0.210367 -0.098318 -0.332542 -0.16711 -0.927391
0.091168 0.80711 -0.078417 0.87499 0.238993 -0.417001
-0.128459 -0.350986 -0.001385 -0.999153 0.037326 -0.01186
0.114975 -0.173334 0.101454 -0.135782 -0.329499 0.931383
-0.350756 0.320241 -0.039813 -0.687835 0.707074 0.104751
0.360588 0.347423 -0.056872 0.584863 0.493449 0.640078
0.099878 -0.345105 0.072689 -0.350731 -0.225011 0.907052
-0.156688 0.490938 -0.088037 -0.438754 0.281994 -0.852945
0.287108 0.354915 -0.035785 -0.091212 -0.796868 0.587571
-0.119308 -0.211965 -0.034394 -0.865268 -0.096282 -0.491503
-0.123187 -0.318183 0.062138 -0.986836 -0.065299 0.147139
-0.103238 -0.245132 -0.059397 -0.796345 -0.045891 -0.601148
-0.327447 0.233311 -0.058761 0.361449 -0.825883 -0.422456
0.076102 0.211598 -0.127393 -0.083155 -0.369389 -0.924706
-0.003308 0.389108 0.105746 0.025413 0.090301 0.995288
0.194294 -0.286334 0.055364 0.906289 -0.064454 0.416849
0.081722 0.580841 0.003876 0.600378 0.288661 0.737209
-0.353413 0.284334 -0.088237 -0.276965 0.111628 -0.949637
0.007349 -0.682101 0.004571 0.781881 -0.286909 0.552861
-0.008794 0.855569 -0.024497 -0.48818 0.868942 -0.068557
-0.07339 -0.740929 0.021915 -0.378685 0.629579 0.673758
0.205672 -0.285266 0.005108 0.99973 0.020149 0.00954
0.105141 0.788681 -0.014247 0.998093 0.038798 0.03891
0.039553 -0.053779 -0.127546 -0.329022 -0.432695 -0.839217
0.031793 0.637674 0.035972 -0.143334 -0.489822 0.856093
0.139051 0.290896 0.081585 0.74118 0.047215 0.66963
-0.048361 0.586866 -0.026618 -0.391992 0.780066 0.448384
0.199604 0.049137 -0.034252 0.9686 0.081713 -0.234142
-0.046545 -0.298179 0.102749 0.258437 -0.155609 0.952571
0.019549 -0.272188 -0.036852 0.923378 -0.081699 -0.370227
-0.134822 -0.53683 -0.042689 -0.95019 0.001378 -0.277172
0.388845 0.251667 -0.042855 -0.601165 -0.419574 0.679636
-0.097766 0.211204 0.071698 -0.6435 0.057232 0.763145
-0.128095 -0.208258 -0.018472 -0.907679 -0.100161 -0.406732
0.08687 0.724228 -0.072076 0.740728 -0.443829 -0.497856
0.020329 0.751964 0.083784 -0.870981 0.211095 0.433218
-0.125064 -0.12795 0.081882 -0.827533 0.030109 0.560224
0.216352 0.445915 -0.132765 -0.084379 -0.180613 -0.979352
-0.562534 0.052542 -0.004689 -0.413731 0.454019 -0.595604
0.303649 0.415116 -0.023375 0.588438 0.121981 0.798293
0.271321 0.398243 -0.016027 -0.163994 -0.426253 0.889475
0.120367 0.517686 0.041551 0.264979 0.621621 0.735418
-0.131889 -0.226185 0.065601 -0.936314 -0.089622 0.33926
0.014391 -0.143765 -0.051377 0.834931 -0.120209 -0.535002
-0.056002 -0.103367 -0.108147 -0.154804 -0.20449 -0.965567
-0.50506 0.140474 -0.006882 -0.947377 0.192488 -0.235897
0.164958 -0.092232 -0.100261 0.749982 -0.125803 -0.649029
0.180542 0.023738 -0.084037 0.817089 0.012289 -0.572899
0.171065 0.348577 -0.09501 0.710629 -0.347768 -0.610739
0.013029 -0.391908 -0.040496 0.782179 0.038515 -0.62116
0.178355 0.140378 0.052434 0.755269 0.103008 0.647141
0.107513 -0.213166 -0.101038 -0.199472 -0.113371 -0.970912
0.110275 0.150851 -0.113386 0.370398 0.196355 -0.906497
0.096612 -0.832979 0.111802 -0.6608 0.728941 0.144789
-0.112828 -0.401726 -0.050138 -0.768639 -0.075971 -0.633661
-0.086125 -0.544966 -0.098121 -0.35159 0.086356 -0.931826
0.18926 -0.66715 0.008878 0.852903 -0.066762 0.5027
-0.023281 -0.847158 -0.069066 0.815893 -0.566274 0.063998
0.022978 -0.204384 0.061769 0.946303 -0.035837 0.321066
0.016791 -0.252569 0.076682 0.879402 -0.078083 0.457885
0.142861 -0.456452 -0.101676 0.334015 0.138053 -0.932288
0.19766 -0.695725 -0.026092 0.98275 -0.04207 -0.142526
0.093667 -0.238431 0.087339 -0.226693 -0.15992 0.960318
0.198086 0.362122 -0.038803 0.995511 -0.078156 0.031945
0.172247 0.347511 0.043235 0.827068 -0.060837 0.558017
-0.075651 -0.388615 -0.079483 -0.353243 -0.093989 -0.928571
-0.015475 -0.694924 0.025133 0.357213 -0.026095 0.932972
0.19849 0.381601 -0.0732 0.992817 -0.094102 -0.060949
-0.023321 -0.685674 0.026199 -0.152266 0.034959 0.987122
0.458526 0.213887 -0.08003 0.618666 -0.408672 -0.663322
-0.124282 -0.069888 -0.057292 -0.802976 -0.093844 -0.588318
0.140707 -0.869159 -0.051234 0.085087 -0.993836 0.062134
0.128813 0.031155 0.116266 0.198435 0.185292 0.952855
0.258639 0.510697 -0.025443 0.728532 0.556391 0.395541
-0.018964 0.364088 0.106645 -0.09325 0.005903 0.994261
-0.098534 -0.561501 -0.09314 -0.513216 0.056473 -0.856297
-0.132032 -0.1823 -0.017521 -0.881811 -0.159836 -0.443316
0.105949 -0.864761 0.009149 -0.384105 -0.891185 -0.149739
-0.128328 0.118139 0.020485 -0.972992 0.073414 0.213974
-0.143207 -0.055037 -0.003407 -0.994504 0.024106 -0.091273
-0.127514 -0.477234 0.02619 -0.869775 -0.197272 0.45188
-0.016297 -0.054832 -0.123542 0.0151 -0.452758 -0.891345
-0.024897 0.582806 -0.003261 -0.490721 0.594032 0.632391
-0.025365 -0.449331 -0.084655 0.524163 0.082452 -0.842941
0.026717 0.859559 -0.060307 -0.091852 0.875127 -0.470163
0.216553 0.552505 -0.045831 0.52902 0.832968 0.07783
-0.073024 -0.823201 0.081859 -0.230418 0.937789 0.253364
0.060989 -0.789528 -0.027975 -0.981138 -0.026643 -0.170638
-0.116962 -0.581344 -0.080827 -0.683117 0.033563 -0.729481
0.057811 -0.199073 0.071461 -0.679138 -0.108736 0.725665
-0.014407 -0.467825 0.056949 0.601648 -0.23155 0.764029
0.1134 0.34348 0.094898 0.428671 0.10265 0.893925
0.161461 -0.447208 0.069589 0.174216 -0.11602 0.970686
0.185869 -0.328173 -0.044074 0.745006 0.025794 -0.666513
-0.119065 0.213881 -0.019729 -0.958869 0.029752 -0.269474
-0.11153 -0.810374 -0.070405 -0.888889 -0.430185 -0.109884
-3.2e-05 0.253928 0.122338 -0.372984 0.064475 0.925589
0.070044 -0.609214 -0.064958 -0.675668 -0.019766 -0.73691
-0.005902 0.119916 -0.126257 -0.142438 0.361706 -0.920466
0.08651 0.023156 0.130087 0.307776 0.22376 0.923762
0.050172 0.486359 -0.12877 -0.200423 0.078647 -0.975848
-0.084081 -0.862879 0.000333 -0.063509 -0.997158 -0.035316
-0.07041 0.222365 -0.097907 -0.691818 -0.251838 -0.676081
-0.572031 0.033105 0.009446 -0.985448 -0.050509 -0.018363
0.199948 -0.467229 -0.017813 0.999721 -0.00243 0.017233
-0.206946 0.451561 0.036085 -0.554694 0.270568 0.786184
0.137273 0.226115 -0.102181 0.749228 -0.225953 -0.62156
0.601834 0.105646 0.062455 0.752405 0.603703 0.25554
0.185822 -0.736016 -0.004812 0.091381 0.494522 0.850316
-0.082494 0.107661 -0.09583 -0.626046 0.263195 -0.733728
0.189753 -0.563291 -0.067232 0.78379 -0.019953 -0.619199
-0.103402 -0.452349 -0.074073 -0.655712 0.170244 -0.733797
0.058382 -0.178066 0.074531 -0.648409 -0.058301 0.758359
0.476895 0.182913 -0.013312 -0.594813 -0.799451 0.078211
0.297869 0.472524 -0.084687 0.716083 0.646319 -0.258803
0.166936 -0.694153 -0.068533 0.789961 -0.0561 -0.610204
0.348007 0.390688 -0.1047 0.942326 -0.324692 0.047177
0.078662 0.107609 -0.138087 0.11797 0.443926 -0.887206
0.030929 0.327276 0.118937 0.042713 0.197275 0.978943
-0.216664 0.463976 -0.061758 -0.6494 0.517431 -0.512204
0.186246 0.068789 0.061671 0.829315 0.167586 0.532032
-0.00708 -0.155197 -0.077339 0.732402 -0.095443 -0.673719
-0.061992 -0.074321 0.12392 -0.296558 -0.11183 0.948012
0.218438 0.414288 -0.120608 -0.679298 -0.444002 -0.580898
0.089078 0.697018 0.031991 0.97087 -0.234759 0.039639
-0.031409 0.459346 -0.131481 0.087207 0.047176 -0.994723
0.022497 -0.495593 -0.026085 0.863724 0.056637 -0.495678
0.144179 -0.227596 -0.091353 0.505335 -0.147473 -0.850185
0.024884 -0.369171 0.022282 0.963544 -0.112017 0.233979
-0.049596 -0.767416 -0.135454 -0.084504 0.402719 -0.908134
0.003775 -0.438735 0.044779 0.77841 -0.136966 0.612255
0.061428 -0.67387 0.018688 -0.532413 0.310157 0.780062
-0.279825 0.365155 0.005786 -0.671789 0.179929 0.713466
0.010943 -0.256389 -0.054438 0.793318 -0.103682 -0.599857
-0.368422 0.29969 -0.069794 -0.646528 0.622833 -0.438408
-0.176599 0.399648 0.023129 0.152294 -0.411687 0.895185
0.0964 0.804901 -0.06742 0.935505 0.197813 -0.282088
-0.103203 -0.804702 -0.003451 -0.848022 -0.394954 0.347348
0.586083 0.086839 0.058209 -0.277549 -0.50875 0.775068
-0.135837 -0.515117 -0.008036 -0.983169 -0.076168 0.164201
0.196384 -0.68223 -0.009171 0.959526 0.025089 0.274326
0.141873 -0.613099 0.035749 0.158772 -0.233258 0.949477
-0.094192 -0.856816 -0.023883 -0.6683 -0.708228 -0.224965
0.141334 -0.236717 0.086764 0.110181 -0.223288 0.968287
0.087281 0.450873 -0.144603 -0.175674 0.0176 -0.983996
0.054621 0.262898 -0.131233 -0.36624 -0.09593 -0.925329
0.209583 -0.14002 0.024788 0.962852 -0.217564 0.156974
-0.073649 -0.340913 -0.082686 -0.423516 -0.024236 -0.904002
0.080904 0.471609 -0.141115 -0.358265 0.200358 -0.910418
0.163937 -0.545104 0.048971 0.24762 -0.310323 0.917377
-0.026726 0.149997 -0.105856 -0.235081 0.281099 -0.921286
-0.118499 -0.302007 0.087171 -0.867812 -0.039336 0.486965
0.166711 -0.717501 -0.002701 0.491282 -0.31425 0.802162
-0.092189 0.286661 -0.094706 -0.702602 -0.041883 -0.710264
-0.098783 0.515899 0.051271 0.011719 0.457912 0.888681
-0.118805 0.381225 0.040763 -0.915344 -0.229769 0.305561
-0.038639 -0.686188 0.019359 -0.220728 -0.15301 0.962195
0.06281 0.429864 0.090845 0.13051 0.232936 0.963564
-0.064405 0.432819 0.089007 -0.200748 0.192375 0.956445
0.343578 0.289968 -0.060335 -0.629975 -0.595627 0.497817
0.08838 -0.093258 -0.125572 -0.186614 -0.392685 -0.899648
-0.104077 -0.817951 -0.084397 -0.875719 -0.433253 -0.204132
-0.344184 0.250665 -0.080197 0.194195 -0.411097 -0.889899
-0.008128 0.664463 -0.037675 -0.857202 -0.172505 -0.472681
0.156342 -0.465194 -0.096823 0.452934 0.133174 -0.881505
-0.335485 0.307903 -0.08954 -0.354075 0.331093 -0.869834
0.206688 -0.21362 0.001122 0.999089 -0.033141 0.026172
0.12597 -0.291095 0.082672 -0.001692 -0.05662 0.99827
0.186833 0.380634 0.026591 0.878781 -0.1934 0.435021
0.108168 -0.193133 -0.104661 -0.128946 -0.143003 -0.980352
0.135698 0.18714 0.093057 0.680129 0.031011 0.732411
0.14625 -0.864066 -0.01809 0.312705 -0.941494 0.055614
0.081195 -0.69362 -0.067933 -0.831609 -0.042412 -0.553386
0.242349 0.371055 -0.078806 -0.702716 -0.711416 0.007826
0.053479 -0.561466 -0.005014 -0.828815 -0.009827 0.55755
0.172466 -0.803794 -0.083214 0.887449 -0.184579 -0.408374
-0.045487 0.090431 0.115912 -0.471229 0.123058 0.873217
0.046126 -0.208614 0.055142 -0.872734 -0.083095 0.473836
0.124728 -0.008212 0.119187 0.344256 -0.20405 0.914942
-0.113251 -0.317299 -0.045335 -0.861317 0.05252 -0.490157
0.020828 -0.402507 -0.021335 0.96849 -0.093375 -0.225165
0.020181 0.123712 0.132287 -0.07343 0.020016 0.99534
0.103305 -0.785392 0.045895 -0.144904 0.593894 0.783646
0.177591 0.323232 0.029169 0.934789 -0.05871 0.34712
0.212605 -0.091806 0.030334 0.970785 -0.006727 0.236643
0.048045 0.543928 0.035247 0.065149 0.746156 0.659021
0.057278 0.576209 0.020057 0.377563 0.031803 0.923588
0.623788 0.046015 0.090504 -0.867505 -0.492269 0.057289
0.210599 0.415417 -0.03593 0.08827 -0.947353 0.129646
-0.085755 0.005156 -0.118358 -0.62226 -0.027743 -0.7822
-0.082809 -0.284742 -0.079167 -0.622282 -0.052699 -0.780798
-0.121791 -0.407227 0.06432 -0.919281 -0.06809 0.382689
-0.404821 0.206767 -0.061721 -0.207797 -0.297868 -0.929164
0.004767 0.2111 -0.126303 0.051672 -0.23595 -0.969767
0.080683 0.83809 -0.06378 0.679451 0.596784 -0.423728
0.057003 0.410036 -0.136415 -0.290351 0.038941 -0.956081
-0.129504 0.469839 0.061902 0.009196 -0.035882 0.997914
-0.103076 0.241691 -0.070637 -0.784695 -0.331394 -0.522266
0.015091 -0.301771 0.069761 0.802531 -0.166202 0.572267
-0.376738 0.240537 0.010675 0.053109 0.054783 0.997023
-0.07817 -0.112678 0.118209 -0.360184 0.003996 0.932491
0.017355 0.588478 -0.092071 -0.11734 0.685979 -0.711664
-0.031688 0.750031 -0.064317 -0.885241 -0.360492 -0.293704
-0.140995 -0.118053 0.042849 -0.947262 -0.007273 0.317566
-0.35558 0.24363 0.009463 0.063173 0.038681 0.996906
0.055111 0.083291 -0.147331 -0.139252 0.314984 -0.938114
-0.03623 0.395262 -0.129165 -0.082151 -0.024456 -0.995746
0.014385 0.113566 0.132699 -0.095767 0.281059 0.953927
-0.07274 -0.083204 -0.106563 -0.436671 -0.225979 -0.868071
0.131801 0.121274 -0.110858 0.517145 0.27188 -0.808761
0.037052 -0.32548 -0.031121 -0.964007 -0.02143 -0.2645
-0.050322 -0.416649 0.084171 0.234333 -0.227098 0.944438
0.153278 -0.827624 0.088664 0.475588 0.865039 0.145816
0.027104 -0.662307 -0.039734 0.996832 0.004299 -0.057393
0.01774 -0.139291 0.09487 0.773628 -0.215983 0.594822
-0.111653 0.326328 0.021696 -0.939734 -0.125674 0.31434
-0.045905 -0.802413 -0.149651 -0.190091 -0.022845 -0.970916
0.126781 -0.789965 0.047083 0.304882 0.497156 0.806408
-0.012649 0.473233 0.084321 -0.061815 0.454527 0.886606
0.029483 -0.135615 0.078529 0.821399 -0.33404 0.461287
-0.137296 -0.050659 -0.029858 -0.969426 -0.010104 -0.244997
0.084432 -0.860793 0.104577 -0.788045 -0.540334 0.020548
-0.124504 -0.328561 0.050311 -0.981982 -0.022903 0.186634
-0.126364 -0.496443 0.020112 -0.845973 -0.200057 0.492734
0.191378 0.012062 0.074838 0.84699 -0.016305 0.512176
-0.008815 -0.723477 -0.098002 0.584616 0.30102 -0.75245
0.242742 0.371312 -0.102324 -0.685456 -0.72041 -0.094905
0.071743 -0.697723 -0.051599 -0.841636 -0.148669 -0.51789
-0.276681 0.386694 -0.083227 -0.564808 0.38648 -0.72283
0.073249 -0.1265 0.085025 -0.628811 0.022646 0.777138
0.011533 0.337765 -0.126836 0.088329 0.003916 -0.995823
0.197543 -0.717434 -0.018963 0.993116 -0.006053 0.048063
0.016753 -0.320646 0.063125 0.837576 -0.149904 0.520339
-0.021068 0.091908 0.126188 -0.384502 -0.141966 0.908371
0.020482 -0.309435 -0.028071 0.937328 -0.001135 -0.347319
-0.395751 0.21257 -0.066149 -0.240946 -0.336836 -0.909177
0.014683 0.80722 -0.113195 -0.183426 0.335973 -0.917177
0.100162 -0.03117 0.127605 0.233872 -0.072807 0.968521
0.106033 -0.491649 -0.103907 -0.346873 0.008386 -0.935923
0.126383 -0.739119 0.025652 0.233558 0.583707 0.743635
-0.118654 -0.388107 0.077997 -0.911992 -0.066229 0.402898
0.178611 0.346568 0.031736 0.852347 -0.108106 0.505067
-0.056436 0.122915 -0.107937 -0.459005 0.321454 -0.82803
0.120451 -0.402363 0.066815 -0.316071 -0.201869 0.926188
-0.130043 -0.105424 0.071991 -0.858124 -0.002486 0.512796
0.194702 -0.06882 -0.057333 0.871675 -0.008659 -0.489088
0.399411 0.306303 -0.123681 0.319221 0.282171 -0.885984
0.132921 -0.669852 0.030124 0.117184 -0.133023 0.984109
0.365457 0.346494 -0.127936 0.561978 0.361233 -0.741768
0.198339 -0.501652 -0.051502 0.952381 0.016085 -0.29616
-0.126809 -0.747776 -0.051257 -0.982054 -0.144176 -0.093997
-0.126667 -0.532589 0.008771 -0.892089 -0.126361 0.430179
0.045126 0.145352 0.130906 0.126117 0.016502 0.991692
0.068133 0.559736 -0.1142 -0.120111 0.510938 -0.849422
-0.118578 0.308094 -0.017529 -0.97982 -0.160159 0.095715
-0.048114 -0.3525 -0.087655 0.104481 -0.086467 -0.988295
0.145146 -0.851012 -0.106199 0.714917 -0.025195 -0.696436
-0.109303 -0.380705 -0.057126 -0.710106 -0.026587 -0.703342
-0.138278 -0.478531 -0.025433 -0.968653 0.037195 -0.240448
0.123979 -0.167624 0.103391 0.045885 -0.321403 0.944489
-0.072421 0.207716 0.091117 -0.561189 0.116801 0.819004
0.128719 -0.824005 0.106613 0.108549 0.986225 0.102583
-0.076509 0.427188 -0.123579 -0.313855 -0.184453 -0.931194
0.543105 0.190388 -0.002226 0.980009 0.098194 0.144378
0.062674 -0.727588 0.03574 -0.358452 -0.053479 0.928691
0.027733 0.262894 -0.126214 0.006957 -0.074147 -0.995499
-0.08912 -0.236305 -0.076778 -0.717228 -0.040881 -0.69551
-0.348262 0.213817 -0.013616 0.622944 -0.761866 0.158567
-0.123805 0.074712 -0.043935 -0.927999 0.119241 -0.351303
-0.067215 0.178341 -0.090047 -0.501508 -0.072932 -0.859798
0.061436 -0.538524 0.004008 -0.689467 -0.018566 0.723662
0.435257 0.274296 -0.117625 0.576309 0.197188 -0.790249
-0.09261 -0.798356 -0.116547 -0.798257 -0.040411 -0.599159
-0.02577 -0.025819 -0.135435 -0.097758 -0.22194 -0.969503
-0.015823 -0.455021 -0.076518 0.715357 0.088233 -0.692899
-0.466955 0.140658 0.049602 0.712984 -0.519182 0.464468
-0.126337 -0.720625 -0.060626 -0.971593 -0.033028 -0.227565
-0.106901 0.268807 0.036579 -0.982689 0.040446 0.179374
0.183026 -0.768857 0.00735 0.898125 -0.184585 0.384492
0.343679 0.417861 -0.099217 0.743305 0.667701 -0.024757
0.123206 -0.150933 0.109035 0.090542 -0.342128 0.925128
0.095945 0.599177 -0.072918 0.424294 0.821711 -0.347676
0.027446 0.822337 -0.10535 -0.026117 0.643156 -0.764026
0.162972 -0.758865 0.023775 0.126631 0.083463 0.980998
-0.037486 -0.115384 -0.104879 0.166425 -0.179317 -0.968529
0.137027 0.569972 -0.092695 0.369978 0.693704 -0.615917
-0.134879 -0.206211 0.058552 -0.975772 -0.034779 0.207256
-0.127458 0.377869 -0.046167 -0.982656 -0.172867 -0.001507
-0.546921 0.071069 0.088936 0.087694 -0.269423 0.929608
0.020611 0.01641 0.142142 0.009961 0.120467 0.992327
-0.128001 -0.347125 -0.011346 -0.996189 0.037713 -0.069085
-0.076071 -0.786022 0.031123 -0.516753 0.704807 0.483184
-0.083819 -0.369047 0.099777 0.050485 -0.209933 0.974562
0.09554 0.511142 0.055199 0.230907 0.549311 0.800526
-0.109329 -0.854396 0.018437 -0.722344 -0.687753 -0.071147
0.145163 0.545863 0.008475 0.271614 0.684549 0.675619
-0.120478 -0.012791 0.079923 -0.804918 -0.057735 0.579998
0.064038 -0.37691 0.036099 -0.704611 -0.286853 0.648808
-0.160374 0.401487 -0.086111 0.592154 -0.54668 -0.588944
0.090952 0.78313 -0.085605 0.863867 0.047598 -0.501116
-0.119026 0.016807 0.085244 -0.815115 0.231475 0.53057
0.008438 -0.235446 -0.060549 0.768614 -0.07742 -0.634594
-0.00976 -0.803055 -0.134167 0.709128 -0.122904 -0.692435
0.101536 0.021609 0.128401 0.264268 0.260953 0.927509
-0.249984 0.438323 -0.020452 -0.767669 0.612802 0.176066
0.55719 0.094582 0.002145 -0.75206 -0.658853 0.00031
0.1079 -0.61073 -0.094376 -0.416383 -0.103493 -0.902921
0.098826 -0.575625 -0.093773 -0.582224 -0.128618 -0.802751
-0.093536 -0.244699 -0.071275 -0.739318 -0.054176 -0.671048
-0.131552 -0.447551 0.03043 -0.909306 -0.125352 0.396325
0.267627 0.346345 -0.07016 -0.681907 -0.728565 0.058885
0.20017 0.069285 -0.02275 0.985011 0.108738 -0.133492
0.547363 0.126118 0.038183 -0.748527 -0.456554 0.458896
0.008111 -0.278493 0.08404 0.692933 -0.153862 0.702827
0.052518 -0.671211 -0.024676 -0.969184 -0.075299 -0.218904
-0.102912 -0.120725 -0.075653 -0.709261 -0.096787 -0.696033
-0.434746 0.231416 -0.02475 -0.738302 0.674065 -4e-05
-0.131785 -0.215808 0.067856 -0.930726 -0.048832 0.361969
-0.135785 -0.081214 0.061225 -0.945069 0.008927 0.322493
0.547523 0.177405 -0.007372 0.859152 0.51015 -0.0121
0.49333 0.180497 0.019261 -0.389708 -0.004122 0.81447
-0.033394 -0.862311 -0.105921 0.221876 -0.968737 -0.028869
0.023389 0.830036 -0.098532 -0.082613 0.700272 -0.708609
0.091144 0.506631 -0.1359 -0.101233 0.164799 -0.980363
-0.026908 0.745716 -0.074177 -0.869612 -0.310084 -0.377977
-0.109057 0.298292 0.027244 -0.957041 0.003598 0.289276
0.205478 -0.227499 0.01788 0.995705 -0.044748 0.074839
0.182585 0.245143 0.015213 0.998002 -0.013531 0.060852
-0.397206 0.185957 -0.041537 0.389319 -0.870047 -0.300765
-0.108403 0.134273 -0.059882 -0.833443 0.119141 -0.539168
-0.035139 0.327979 0.103248 -0.478722 0.012749 0.870733
0.028128 -0.334435 0.00367 0.998552 -0.049552 -0.003761
0.174721 -0.510555 0.052437 0.621406 -0.202578 0.752766
-0.013953 -0.548986 0.034045 0.505173 -0.191723 0.841432
0.346471 0.306099 -0.127978 -0.296667 -0.428191 -0.844414
0.066993 0.196219 -0.119716 -0.200212 -0.220843 -0.949649
-0.025145 0.170517 -0.108136 -0.258319 -0.208607 -0.93775
0.098951 -0.768314 0.021214 -0.249396 0.804134 0.537685
-0.562646 0.061117 0.014206 -0.884333 0.438756 -0.126113
0.194414 0.108158 0.022567 0.941586 -0.228123 0.241451
0.006875 -0.604297 -0.060356 0.735037 0.054385 -0.67556
0.019282 -0.215065 0.073027 0.958379 -0.02862 0.280518
-0.353311 0.26802 -0.08713 -0.033141 -0.224391 -0.97149
-0.026382 0.842341 -0.03969 -0.60562 0.75986 -0.231945
-0.109378 -0.003996 -0.089735 -0.824812 -0.001154 -0.565103
0.017146 -0.165257 0.087702 0.891693 -0.10626 0.433077
0.631648 0.03015 0.06976 -0.94918 -0.309245 -0.003048
0.008996 0.227922 0.127878 -0.136404 0.055064 0.988183
-0.136441 0.484481 -0.099512 -0.435573 0.181365 -0.881549
-0.059127 -0.86415 0.093231 -0.000176 -0.999888 0.012969
0.630579 0.034271 0.049489 -0.922356 -0.34615 -0.022913
-0.035803 0.796187 -0.006416 -0.995978 -0.002222 0.087987
0.075754 -0.514493 0.016565 -0.653179 0.015932 0.756944
0.217647 0.518649 0.006943 0.28381 0.551422 0.784185
-0.002644 0.008992 0.141674 -0.157718 0.201752 0.965366
-0.081685 -0.073915 -0.103675 -0.539543 -0.236752 -0.807714
0.074622 -0.760617 -0.049716 -0.860219 0.216227 -0.461105
-0.080097 -0.668356 -0.106999 -0.236044 0.029478 -0.969241
0.191358 0.333447 -0.018638 0.987895 -0.146296 0.029272
-0.043961 0.315867 0.099386 -0.398262 0.020363 0.913601
0.097914 -0.857404 -0.10897 -0.761842 -0.053561 -0.637556
0.156835 0.09206 -0.096087 0.724333 0.219676 -0.653476
0.175489 0.554913 -0.090872 0.322389 0.750306 -0.576304
0.20423 -0.344649 -0.017898 0.958116 0.090788 -0.251929
0.090103 0.595163 -0.011171 0.799125 0.288069 0.518648
-0.058192 -0.725489 0.017651 -0.34397 0.463935 0.814205
0.161148 0.022672 -0.111743 0.71862 0.047298 -0.693781
-0.139865 -0.053983 0.040866 -0.96755 0.077425 0.240028
0.11581 0.182612 -0.107535 0.423761 -0.042782 -0.902215
-0.102868 0.256204 0.056453 -0.906515 0.08113 0.403962
-0.083217 -0.739411 0.01375 -0.50209 0.588883 0.630568
0.056106 -0.724767 0.025641 -0.919669 -0.069475 0.356836
0.067915 -0.772318 -0.042391 -0.894017 0.164011 -0.414789
0.164885 -0.011961 -0.111937 0.770045 0.061499 -0.632977
0.171362 -0.409308 -0.075061 0.632304 0.072562 -0.771228
0.15323 -0.055173 -0.118328 0.685351 -0.200577 -0.699383
-0.002535 -0.181786 0.107455 0.610779 -0.077066 0.787985
0.205736 -0.220999 -0.030443 0.994222 -0.048771 -0.092538
0.062311 0.474689 0.078844 0.099932 0.392213 0.913088
-0.179558 0.35783 -0.037629 0.633728 -0.764969 -0.097588
-0.017638 0.494011 0.073658 -0.041173 0.455062 0.889194
0.086388 0.524857 0.048793 0.188127 0.545747 0.816048
-0.245852 0.437402 -0.056642 -0.65967 0.633579 -0.40039
0.063639 0.587707 -0.093612 0.070825 0.655485 -0.751718
-0.120262 0.038405 -0.064326 -0.875035 0.142124 -0.462122
0.120942 0.333719 -0.134531 0.510272 -0.125163 -0.848641
-0.104633 -0.359238 -0.061214 -0.736335 0.07611 -0.672084
0.014223 0.52667 -0.120529 -0.007869 0.217974 -0.974871
-0.046167 -0.582224 -0.100693 0.338221 -0.018398 -0.940849
-0.120302 -0.78449 -0.04121 -0.995683 -0.070517 0.026627
0.166698 -0.847704 0.014223 0.972463 0.097135 -0.127874
0.019676 -0.094715 0.111265 0.587242 -0.257112 0.766296
0.261721 0.499359 -0.01865 0.72838 0.417774 0.539565
0.086664 -0.843815 0.026485 -0.99873 -0.026666 -0.024126
0.094745 0.821188 -0.006047 0.841664 0.52227 0.116555
-0.059749 -0.601258 -0.10368 0.113059 0.034968 -0.991702
-0.133269 0.504978 0.05513 -0.151678 0.397934 0.904055
0.090734 -0.151107 -0.110152 -0.227809 -0.220076 -0.947667
0.187917 -0.27465 -0.04982 0.756797 -0.210788 -0.618619
-0.114608 0.203786 -0.030896 -0.908822 0.062396 -0.411506
0.243691 0.473574 0.001756 0.394641 -0.055464 0.91489
-0.079718 0.127072 -0.092731 -0.624503 0.16903 -0.762097
0.056788 0.107627 0.13267 0.303805 0.169079 0.927585
0.261714 0.515136 -0.044062 0.73 0.672294 0.097955
-0.06819 -0.863125 -0.093603 -0.02772 -0.999532 -0.003688
0.020152 -0.107536 0.105506 0.541181 -0.379107 0.744638
0.02193 0.203443 -0.120379 0.175349 -0.444983 -0.877603
-0.340711 0.296606 2.6e-05 -0.199296 0.272531 0.940798
0.498 0.229602 -0.023745 0.635813 0.759607 0.130523
0.053186 0.660135 0.070509 0.233731 -0.961346 0.136473
-0.120943 0.366114 0.014692 -0.966199 -0.205166 0.154583
-0.025977 -0.004036 -0.138344 -0.140851 -0.087583 -0.98588
0.133506 0.326511 -0.125143 0.643784 -0.134888 -0.752241
0.154159 -0.823838 0.062409 0.670932 0.72003 0.169118
0.142184 0.438433 0.072822 0.436839 0.135284 0.888043
-0.042093 -0.695076 -0.110292 0.349324 0.281179 -0.892732
-0.086884 -0.694169 0.024519 0.040074 -0.415511 0.905395
0.295698 0.412419 -0.141884 0.077168 0.296363 -0.948076
0.382627 0.337769 -0.117073 0.654913 0.519507 -0.548602
0.206284 -0.131567 -0.037436 0.935745 -0.009033 -0.351564
-0.097186 -0.700984 0.019226 -0.306733 -0.433028 0.836474
0.065833 0.164934 -0.120425 0.009372 0.096825 -0.994802
-0.114494 -0.367256 0.084883 -0.777045 -0.006068 0.626973
-0.126197 -0.127905 -0.044184 -0.659191 -0.058622 -0.716439
-0.291399 0.379803 -0.045708 -0.957278 0.207067 -0.010096
0.122406 -0.863279 0.166375 -0.039133 -0.985786 0.159626
-0.204934 0.416264 -0.094472 -0.167117 0.222917 -0.959388
0.405601 0.235474 -0.043562 -0.457061 -0.652214 0.600815
-0.082666 -0.0426 0.116705 -0.5482 -0.026626 0.835686
-0.080599 -0.274047 0.109655 -0.03083 -0.101156 0.99287
0.0508 0.633907 -0.06603 0.180691 0.254006 -0.944379
0.095 -0.534535 -0.096539 -0.585179 -0.065189 -0.808039
-0.058158 -0.068546 -0.115297 -0.222396 -0.274284 -0.935139
-0.137448 -0.4244 0.006591 -0.996869 0.025818 0.062981
-0.080015 0.231757 -0.090963 -0.697142 -0.326456 -0.637467
-0.109151 0.208792 -0.041959 -0.854087 -0.016843 -0.516763
0.080199 0.427494 -0.142996 -0.254652 0.023792 -0.965261
0.167902 -0.073773 0.096619 0.613671 0.053372 0.786596
-0.121148 0.353853 -0.025749 -0.990098 -0.128385 0.014721
-0.13328 0.550743 0.01603 -0.241704 0.864891 0.439349
-0.064612 -0.861912 -0.027233 0.028147 -0.998173 -0.050581
0.081919 -0.727647 -0.061454 -0.923346 -0.107977 -0.367197
-0.4037 0.178507 0.008202 0.562404 -0.818828 0.108604
0.14032 -0.693493 -0.090259 0.445977 -0.001692 -0.895009
-0.27468 0.278603 -0.016614 0.607019 -0.64382 0.463474
-0.13642 -0.213619 0.040595 -0.997213 -0.051088 0.051166
0.052332 -0.534822 -0.050598 -0.865243 -0.055377 -0.497747
-0.119575 0.356518 0.009965 -0.973779 -0.170194 0.145002
-0.047922 -0.685991 -0.10983 0.320598 0.228684 -0.917923
-0.105925 -0.571009 0.03937 -0.911943 -0.00551 0.409529
-0.117285 0.333437 0.002191 -0.970099 -0.164204 0.17786
0.098607 -0.151293 0.100909 -0.53177 -0.080909 0.842009
-0.022071 -0.846588 0.05003 0.985197 0.03575 0.062664
0.089109 0.214692 -0.128687 0.071431 -0.362403 -0.927848
-0.1355 -0.399402 0.008969 -0.982921 0.169719 0.051501
0.468831 0.186983 -0.02598 -0.524616 -0.851077 0.000803
0.051212 -0.281787 -0.057191 -0.820188 0.014517 -0.571792
0.212662 -0.077103 -0.009687 0.973706 0.081996 -0.202778
0.043311 -0.40771 -0.029107 -0.998568 -0.030087 -0.035415
0.168092 0.386815 -0.117758 0.417313 -0.408572 -0.808525
0.201106 0.071103 -0.009809 0.980574 0.190627 -0.036029
0.181526 0.36079 -0.090822 0.677934 -0.467632 -0.565502
0.206089 -0.222962 0.009129 0.998232 -0.042462 0.039641
-0.344567 0.229436 0.005247 0.372716 -0.398214 0.825338
-0.072126 -0.487789 -0.096536 -0.194863 0.090243 -0.975041
-0.183638 0.458008 0.044933 -0.119678 -0.042035 0.988522
0.049764 0.594334 -0.089469 0.041899 0.608478 -0.792146
0.024613 -0.323473 -0.018928 0.900165 0.016166 -0.430466
-0.11847 -0.628241 0.017195 -0.915602 0.021181 0.398199
-0.172639 0.363714 -0.033828 0.672815 -0.737078 -0.029601
0.062073 0.817145 -0.102796 0.343235 0.546334 -0.760376
0.019928 -0.196613 0.071972 0.964294 -0.016099 0.263793
0.019596 -0.378637 0.035238 0.942754 -0.105017 0.316262
0.144788 -0.26232 -0.085803 0.533301 -0.105971 -0.83911
0.484153 0.242612 -0.072978 0.638438 0.481253 -0.580527
-0.1063 -0.3205 0.0995 -0.662487 -0.046262 0.747217
0.102843 0.746245 0.001974 0.821498 -0.116414 0.535512
0.143284 -0.830763 0.142858 0.456122 0.881264 0.116565
0.138515 0.45899 -0.144714 0.115028 0.034315 -0.992719
-0.146881 0.498084 -0.090668 -0.458234 0.293504 -0.838246
0.096644 -0.767095 -0.085544 -0.773935 0.230703 -0.57085
-0.026777 -0.440385 0.072822 0.342301 -0.171743 0.918452
-0.515616 0.080762 0.07778 0.67071 -0.72068 0.173653
0.285626 0.344319 -0.116714 -0.612208 -0.559466 -0.558149
-0.096475 -0.84144 0.124029 -0.778365 0.556759 0.258875
0.161544 0.481958 -0.137784 0.17403 0.192785 -0.964369
-0.11217 0.253827 -0.029868 -0.998126 0.048498 -0.012729
0.069748 0.231074 -0.132406 -0.237795 -0.24395 -0.939739
0.045419 -0.580082 -0.03061 -0.992881 -0.048395 -0.051889
0.025455 -0.685564 -0.054751 0.964774 -0.011814 -0.260898
-0.118148 -0.467172 -0.061577 -0.774438 0.117546 -0.621519
0.019138 0.269255 -0.127235 0.105623 -0.057137 -0.991562
0.639133 0.042947 0.076462 0.928644 0.332322 0.142101
-0.078598 -0.132532 -0.094951 -0.552077 -0.097666 -0.827694
-0.446548 0.149326 0.025745 0.759204 -0.615045 0.192322
0.319348 0.380953 -0.031686 0.7407 -0.213746 0.630171
-0.105108 -0.612475 0.043418 -0.889162 -0.04918 0.450737
-0.120206 0.329635 -0.051395 -0.997571 -0.044465 -0.047076
-0.01047 -0.404382 -0.064397 0.551715 0.144989 -0.819593
0.15898 -0.864192 0.10831 0.255193 -0.963977 0.016088
-0.044595 -0.477146 0.06721 0.288495 -0.259622 0.921308
-0.255966 0.316069 -0.083596 0.595628 -0.424602 -0.679287
0.181953 -0.516878 -0.078653 0.742753 -0.009102 -0.669075
0.093125 -0.023976 -0.152535 0.062748 -0.24648 -0.966416
0.068387 0.155773 0.127756 0.263787 0.031388 0.960765
0.12389 0.189487 0.099816 0.516807 0.03425 0.854752
0.053218 -0.71753 0.009077 -0.997608 -0.046503 0.042978
0.30685 0.314796 -0.07723 -0.691508 -0.712386 0.101642
0.204279 -0.563547 -0.027337 0.985633 -0.097643 -0.106122
-0.095598 -0.742428 -0.107588 -0.749116 0.090388 -0.655263
0.140028 -0.869321 0.116654 0.054708 -0.998026 0.026632
-0.070516 0.420013 0.090249 -0.367801 0.145212 0.916854
-0.036227 -0.750885 0.004736 0.554644 -0.210042 0.785045
0.201471 -0.276468 0.039017 0.952031 -0.05374 0.301169
-0.120497 -0.772781 -0.0361 -0.992195 -0.094973 0.063102
0.022658 -0.507243 -0.026678 0.858732 0.030782 -0.508609
-0.046463 -0.087354 -0.111729 -0.017319 -0.230561 -0.972572
0.0526 0.42244 0.094991 0.086872 0.275379 0.956527
-0.040042 -0.273102 -0.092588 0.176028 -0.051986 -0.981746
0.191647 -0.307691 -0.037691 0.784256 -0.052855 -0.617377
0.079406 -0.753781 -0.055688 -0.862625 0.161545 -0.474061
0.164914 -0.820979 0.003995 0.845253 -0.519799 0.121915
-0.049068 -0.319823 0.100512 0.299691 -0.105883 0.947878
-0.336811 0.223774 -0.046184 0.500871 -0.842456 -0.182266
-0.035005 0.433912 -0.130674 0.0024 -0.076402 -0.996376
-0.08233 0.33792 0.078696 -0.718845 -0.020588 0.691072
0.065444 -0.157426 0.080279 -0.620456 0.02994 0.782447
-0.00593 0.532614 0.054608 0.03154 0.546018 0.834295
0.234694 0.542095 -0.063873 0.618276 0.773237 -0.125463
-0.354288 0.294415 -0.085551 -0.491451 0.328084 -0.803754
0.079314 0.719774 -0.078739 0.679815 -0.456555 -0.572875
-0.013757 0.780007 0.060394 -0.887244 0.031358 0.454689
-0.093656 -0.065999 0.110195 -0.544132 0.045844 0.837687
-0.117616 -0.4321 0.063966 -0.82028 -0.193776 0.537362
0.094829 0.105525 -0.136179 0.246813 0.387369 -0.886371
-0.105466 0.370534 -0.098599 -0.628246 -0.242625 -0.738618
0.106272 -0.734403 -0.094501 -0.462811 -0.029812 -0.884893
-0.558632 0.063082 0.074167 -0.905608 0.353862 0.218102
-0.042336 -0.507274 -0.097999 0.218348 0.076207 -0.971556
-0.07426 -0.628432 -0.105707 -0.077333 0.075504 -0.992896
0.450137 0.197078 -0.033873 -0.701767 -0.684882 0.161241
0.198848 -0.636864 -0.026393 0.9994 -0.014777 0.024393
-0.083001 -0.820608 0.067298 -0.381827 0.867806 0.29706
-0.131895 -0.237957 -0.003902 -0.936132 -0.037094 -0.349405
-0.012809 0.048951 -0.144382 -0.146359 0.20787 -0.966978
0.603169 0.068473 0.028985 -0.020143 -0.955024 -0.060564
0.145103 -0.835204 0.161527 0.465257 0.844239 0.255001
0.027957 -0.095479 -0.089014 -0.732805 -0.460457 -0.49841
0.082521 0.298713 -0.141377 -0.094369 -0.108839 -0.985951
-0.179714 0.358781 -0.022022 0.606205 -0.754963 0.245287
-0.354739 0.314352 -0.067555 -0.681167 0.67393 -0.276168
0.007217 -0.171681 0.101455 0.645796 -0.130727 0.748345
0.01367 0.207358 -0.123986 0.146634 -0.415735 -0.896703
0.205399 -0.301157 -0.008406 0.991607 -0.009876 -0.123847
0.000108 0.039072 0.137125 -0.172983 0.076119 0.98189
0.003644 0.146437 0.129864 -0.123042 0.02141 0.992097
0.019806 -0.537088 -0.033258 0.956195 0.025325 -0.286293
0.15444 0.561795 -0.094287 0.369604 0.704616 -0.605141
-0.460461 0.164916 0.042413 0.167495 0.629202 0.755443
0.121374 -0.212334 0.093147 0.078317 -0.203878 0.975029
-0.107394 -0.356213 0.094368 -0.701771 -0.112173 0.696727
-0.019813 -0.722447 0.021965 0.564229 -0.341152 0.735891
-0.051106 0.326071 0.097701 -0.326063 -0.085484 0.938685
-0.178475 0.507247 -0.065036 -0.609865 0.476489 -0.632712
0.102064 0.473152 0.073901 0.204417 0.402806 0.890285
0.312688 0.448507 -0.051463 0.740823 0.486449 0.458459
0.138155 -0.751815 -0.098929 0.396593 0.17575 -0.883751
0.180396 0.261146 0.026814 0.974321 0.095942 0.199026
-0.014513 -0.344134 -0.069306 0.692938 -0.074313 -0.716996
0.485056 0.1774 -0.005742 -0.570197 -0.818241 0.053516
0.013834 -0.651477 0.007362 0.767235 -0.143544 0.623796
-0.242279 0.425187 -0.074739 -0.474202 0.561357 -0.675714
-0.109149 0.285562 -0.07221 -0.909563 -0.077943 -0.403539
-0.018275 0.619242 -0.029792 -0.940434 0.281554 -0.011447
0.157039 -0.017342 0.103299 0.560718 0.09629 0.821166
0.059299 0.731165 0.078646 0.532484 0.341777 0.768187
-0.001984 0.198404 0.128432 -0.16954 0.069822 0.978631
0.174571 -0.791707 -0.080528 0.895897 0.063168 -0.434535
0.070563 -0.50484 0.011802 -0.603518 0.030286 0.796613
-0.455124 0.142556 0.026765 0.647981 -0.734543 0.18986
0.195742 -0.477583 -0.057385 0.876685 0.032407 -0.473514
0.052383 -0.291281 0.048962 -0.768758 -0.090996 0.631531
0.082998 0.84522 -0.009065 0.866499 0.497141 0.038362
0.189749 0.092969 0.042718 0.970838 0.059825 0.221388
0.117456 -0.55708 -0.105931 -0.249104 -0.111432 -0.961645
-0.040908 0.485261 0.075177 -0.164154 0.439679 0.882796
0.108279 0.179325 0.109046 0.545914 0.050763 0.83612
0.203555 -0.057661 0.051793 0.88357 0.081055 0.458997
0.198845 -0.447032 0.002858 0.990137 -0.042637 0.12694
0.193307 -0.277024 0.058457 0.86616 -0.055266 0.492809
-0.118944 -0.337606 -0.039461 -0.857966 0.100645 -0.502987
0.172608 -0.762664 0.020491 0.541892 0.097677 0.83073
0.379617 0.349321 -0.10607 0.71576 0.669952 -0.172276
0.187924 0.02735 -0.069917 0.922175 0.012202 -0.358729
0.286465 0.337172 -0.060426 -0.503562 -0.757409 0.395671
-0.014383 0.343221 -0.128915 0.004651 0.016632 -0.999587
-0.095199 0.127532 0.0749 -0.670396 0.049497 0.74013
0.045812 0.861934 -0.054034 0.095996 0.939221 -0.324249
-0.020768 0.769971 -0.094953 -0.759996 -0.146431 -0.632743
-0.037852 0.787254 -0.034911 -0.995272 0.076332 -0.041884
-0.113569 0.061404 -0.069745 -0.866822 0.075213 -0.492058
0.011931 -0.19372 0.092485 0.822 -0.071246 0.56497
-0.112105 -0.553692 0.031006 -0.882434 -0.105679 0.458206
0.20194 0.026968 0.050087 0.924962 0.107655 0.363254
-0.080821 -0.050756 -0.111325 -0.559532 -0.262436 -0.785366
-0.116516 -0.593578 0.017261 -0.892514 0.01881 0.449965
-0.087177 -0.844175 0.149542 -0.750695 0.386581 0.511284
-0.104396 -0.823013 -0.043029 -0.955083 -0.229747 -0.000693
0.076359 0.006277 0.137849 0.250692 0.051496 0.961261
-0.062755 0.226931 -0.106117 -0.617139 -0.266598 -0.740296
0.029817 0.402535 0.100986 0.100936 0.312148 0.944207
0.052414 0.016452 -0.157232 -0.14488 -0.319927 -0.934792
-0.059532 0.348293 -0.121048 -0.391141 -0.032677 -0.919367
0.022568 0.083355 0.134131 0.183416 -0.010123 0.981199
0.336495 0.320553 -0.131895 -0.221425 -0.352329 -0.908826
-0.118119 0.343126 0.006969 -0.976638 -0.142031 0.16103
0.076796 -0.617424 -0.070461 -0.664722 -0.054925 -0.745052
-0.000522 0.337727 0.112824 -0.038208 0.055773 0.997252
0.642154 0.038406 0.036739 0.981216 0.192579 -0.009819
0.18665 0.400892 0.036092 0.816825 -0.168196 0.549225
-0.011715 -0.047449 -0.127862 0.004091 -0.499783 -0.865438
0.153601 0.432861 -0.139329 0.257617 -0.219709 -0.940001
-0.501365 0.141881 -0.016016 -0.878272 0.097557 -0.40046
-0.108938 -0.747566 -0.00252 -0.454209 0.491036 0.735119
0.082858 0.373169 -0.144893 -0.136063 -0.003048 -0.989806
-0.213011 0.347029 -0.001227 0.460254 -0.645131 0.603501
0.104979 0.313256 0.101427 0.411422 0.124516 0.90267
-0.114435 -0.560289 -0.081629 -0.674866 0.09046 -0.730337
0.154074 -0.092006 0.106685 0.485229 0.002862 0.873919
-0.002772 -0.52018 -0.070606 0.792799 0.061386 -0.606235
0.052101 -0.686413 -0.014491 -0.996131 -0.043118 -0.070002
0.135934 -0.445261 -0.102308 0.270042 0.127941 -0.952031
-0.018102 0.783554 -0.100464 -0.722981 -0.050037 -0.688381
0.168327 0.023093 -0.102694 0.806893 0.03383 -0.58896
-0.074258 -0.863119 -0.000792 -0.013808 -0.999137 -0.03664
-0.077239 0.339985 -0.111704 -0.511504 -0.075942 -0.855802
0.051962 -0.310481 0.045421 -0.777042 -0.102057 0.619752
0.156522 0.216019 0.067617 0.77764 0.081035 0.62345
-0.123754 -0.63427 -0.002681 -0.969971 -0.120357 0.207408
-0.326725 0.318165 -0.088259 -0.343519 0.472986 -0.807307
0.191823 0.470304 -0.135282 0.114176 0.022108 -0.993019
-0.127163 0.555573 -0.048971 -0.376031 0.815076 -0.430611
0.522514 0.19563 0.01955 -0.120793 0.69342 0.675725
-0.117317 -0.355997 0.081744 -0.850187 -0.055106 0.521559
0.110776 -0.448883 0.045974 -0.654331 -0.217248 0.719401
-0.072891 0.155036 0.092799 -0.646458 0.001648 0.762736
-0.017106 -0.730782 -0.106762 0.539889 0.346673 -0.765505
0.057357 0.498072 0.067287 0.051303 0.467943 0.881921
-0.380419 0.292413 -0.025379 -0.678829 0.708399 0.18483
0.096368 0.322578 -0.143004 0.15825 -0.092179 -0.980273
0.0477 -0.491493 -0.014165 -0.948792 0.000772 0.302022
0.201002 -0.498077 -0.037257 0.981138 0.083055 -0.17016
0.164497 -0.547339 -0.093608 0.682774 -0.033679 -0.729851
0.067653 -0.744829 -0.030177 -0.862075 0.091935 -0.496357
0.087936 -0.856777 0.053996 -0.816391 -0.565516 -0.115528
-0.030071 -0.303956 -0.08621 0.449624 -0.11371 -0.885863
0.057935 0.660161 0.056871 0.341797 -0.9201 0.135696
0.157319 -0.835309 0.121019 0.638617 0.75421 0.131952
-0.020433 -0.586948 -0.087565 0.655023 -0.039871 -0.750743
-0.060341 0.23085 0.095289 -0.557539 0.093824 0.823507
0.096311 -0.704455 -0.08505 -0.693712 0.053644 -0.718122
0.186412 -0.767125 -0.032284 0.943847 -0.078205 -0.281234
-0.118729 0.172822 0.039986 -0.878773 0.011188 0.476424
0.17779 -0.747465 0.009379 0.357024 0.758021 0.544054
0.331693 0.352783 -0.041299 0.38892 0.182906 0.897234
0.102258 -0.448833 0.038423 -0.791409 -0.11378 0.573515
-0.126596 0.088775 0.028951 -0.974885 0.038763 0.208693
0.068252 -0.459128 -0.073132 -0.725766 0.027313 -0.687312
-0.128613 -0.633816 -0.061277 -0.99443 -0.024864 -0.09618
0.338114 0.331021 -0.135077 -0.084806 -0.216131 -0.967337
-0.128197 -0.643927 -0.043077 -0.996766 -0.053571 0.050284
