-0.040431 -0.515364 0.054862 0.409776 -0.284203 0.866329
-0.066069 0.480497 0.072594 -0.185172 0.400959 0.895165
-0.014125 0.58341 -0.091325 -0.153674 0.640044 -0.752481
-0.082654 0.035521 -0.118181 -0.67276 0.254038 -0.694727
-0.422561 0.200095 0.01815 -0.117309 0.278184 0.952449
0.019438 -0.688707 -0.018509 0.874871 -0.175679 0.451044
0.08561 0.817179 -0.081703 0.723624 0.440131 -0.527145
-0.076284 -0.184911 -0.08788 -0.52054 -0.097952 -0.845042
-0.003681 -0.54992 -0.073398 0.779704 -0.017461 -0.625838
0.132871 0.582305 -0.072328 0.323512 0.912106 -0.246089
0.041584 0.055441 0.134455 0.129311 0.074313 0.988322
0.532453 0.187522 -0.047546 0.124301 -0.656899 -0.736277
-0.388117 0.187832 -0.019246 0.624434 -0.778609 -0.013629
0.200289 -0.114682 -0.048722 0.879477 0.043019 -0.473649
0.150544 0.344701 -0.113231 0.649309 -0.238114 -0.721634
0.33382 0.288231 -0.093413 -0.670683 -0.725095 -0.147822
0.092742 -0.713163 -0.081802 -0.747963 0.015415 -0.661732
0.012863 -0.715786 -0.015595 0.771152 -0.05487 0.632394
-0.13861 -0.062006 0.046459 -0.967729 0.042516 0.248163
0.018707 -0.295449 -0.034463 0.924951 -0.053067 -0.369356
-0.133451 -0.453718 -0.03637 -0.897479 0.143109 -0.410623
-0.084637 0.283191 -0.101714 -0.669065 -0.05936 -0.740822
-0.006961 0.447593 0.094991 -0.031949 0.303525 0.950106
-0.356111 0.283544 0.002892 -0.058074 0.298119 0.951553
0.007603 0.221919 -0.12737 0.080802 -0.065222 -0.993898
-0.004636 -0.24317 -0.073786 0.685088 -0.057225 -0.724494
0.213244 -0.050861 0.020002 0.991246 0.033149 0.112901
0.161491 -0.287815 -0.070575 0.580381 -0.096443 -0.808253
0.293391 0.447187 -0.123435 0.470099 0.592713 -0.653291
0.099833 0.15218 -0.117377 0.326824 0.247724 -0.911489
0.022121 0.214704 0.128791 -0.009324 0.055848 0.99832
-0.128197 -0.643927 -0.043077 -0.996766 -0.053571 0.050284
-0.10579 0.567864 -0.034064 -0.387862 0.900535 -0.108995
0.150197 0.130817 -0.089929 0.740252 0.171106 -0.646924
-0.020433 -0.586948 -0.087565 0.655023 -0.039871 -0.750743
0.203897 0.140669 0.002281 0.913854 0.376414 -0.068931
-0.004368 0.087301 -0.136374 -0.133133 0.207579 -0.969061
-0.127833 0.100313 0.024357 -0.984968 -0.036489 0.164842
-0.143551 -0.107786 -0.005753 -0.98852 -0.023738 -0.141929
-0.049462 0.437928 -0.130352 -0.087892 -0.108227 -0.990068
0.081575 -0.661192 -0.069987 -0.740999 -0.054424 -0.668941
0.158526 -0.842467 0.147852 0.688896 0.690498 0.205592
-0.469578 0.126464 0.01724 0.738216 -0.673043 0.018006
0.095108 0.160294 0.116197 0.492934 0.069378 0.864288
0.177097 -0.802178 -0.053348 0.916622 -0.368406 0.00054
0.196955 -0.148852 0.063164 0.892701 -0.094559 0.44045
0.166728 -0.822426 -0.060276 0.76886 -0.638793 -0.027259
-0.494031 0.151152 -0.024612 -0.8115 0.319683 -0.449838
0.082964 -0.349897 0.062978 -0.500439 -0.324935 0.800987
0.053829 -0.654126 0.006849 -0.88974 0.110374 0.415561
-0.059676 -0.295389 -0.09026 -0.207885 -0.087226 -0.971926
0.081821 0.695175 0.060324 0.885452 -0.15676 0.431604
0.182051 -0.784144 -0.013349 0.92361 -0.360204 0.118293
0.207716 0.525272 0.006151 0.287115 0.566869 0.770969
-0.566591 0.046936 0.042988 -0.904888 0.423623 0.033636
0.213855 -0.119888 0.017284 0.99288 -0.062204 0.089878
0.019138 0.269255 -0.127235 0.105623 -0.057137 -0.991562
0.512317 0.203532 -0.001904 0.069148 0.906269 0.403325
0.199709 -0.578775 -0.004307 0.981315 -0.05257 0.18384
-0.041191 0.827953 -0.03628 -0.935464 0.328727 -0.101399
0.190015 0.349842 -0.066073 0.866651 -0.384136 -0.314849
0.129017 -0.505003 -0.108151 0.045386 0.013068 -0.995792
0.041994 0.083757 -0.144938 -0.14033 0.224561 -0.964171
0.17652 -0.625542 -0.075638 0.605902 -0.139967 -0.782736
0.083274 -0.824261 -0.071547 -0.57946 -0.804097 -0.115957
-0.040013 0.495408 -0.12716 -0.047594 0.238662 -0.968224
0.049443 0.118837 0.131344 0.127832 0.127551 0.982249
0.014865 -0.348809 -0.037916 0.783774 -0.038736 -0.61675
-0.003618 0.649213 0.012431 -0.837001 -0.220926 0.496581
-0.078048 -0.854454 -0.125169 -0.63205 -0.488394 -0.599072
0.086805 0.790159 -0.091834 0.846425 0.091246 -0.523762
-0.106773 0.538742 -0.08578 -0.414121 0.605084 -0.67976
0.319629 0.406701 -0.037131 0.600248 0.359732 0.712997
-0.010417 0.611395 -0.00029 -0.882116 0.08834 0.460427
0.04176 -0.18957 0.040098 -0.977671 -0.061328 0.200689
0.086615 -0.755574 0.015937 -0.038191 -0.769548 0.635685
-0.227887 0.365072 -0.095691 0.173509 -0.206075 -0.960466
-0.12749 -0.240025 -0.015737 -0.926973 -0.011726 -0.374577
-0.110234 -0.670782 0.024007 -0.770591 -0.243084 0.582489
-0.22113 0.33243 -0.061801 0.644137 -0.66424 -0.33012
-0.138018 -0.152885 0.051595 -0.972624 -0.028193 0.226293
-0.051989 -0.604003 0.037067 0.538755 -0.244894 0.771039
-0.035748 0.519346 -0.120318 -0.109117 0.302853 -0.945981
0.195101 -0.729583 -0.00712 0.54722 0.089789 0.821355
-0.133269 0.504978 0.05513 -0.151678 0.397934 0.904055
0.537739 0.199224 0.010818 0.378708 0.741891 0.511386
-0.261059 0.35094 0.014985 -0.250289 -0.323698 0.910486
0.198863 0.39351 -0.018075 0.984143 -0.152581 0.064346
0.101203 0.726982 -0.02373 0.922372 -0.345675 -0.10146
0.129432 0.587148 -0.061741 0.487225 0.852015 -0.079911
-0.499449 0.105443 0.019865 -0.037509 -0.781551 -0.615663
0.490853 0.178417 -0.049756 -0.185455 -0.63384 -0.718207
-0.115428 0.395196 -0.097785 -0.689212 -0.248479 -0.6781
-0.127134 -0.704066 -0.040948 -0.979547 0.027789 0.186669
0.089526 -0.827099 -0.092158 -0.924646 -0.291744 -0.209645
-0.134315 -0.23946 0.050653 -0.985457 -0.050234 0.155532
0.19627 0.088592 -0.02943 0.946925 0.25345 -0.18764
0.474581 0.22937 -0.077533 0.404967 -0.22406 -0.884174
0.156824 -0.319936 -0.073397 0.621773 0.01004 -0.783097
0.0208 -0.300327 0.058314 0.908418 -0.080962 0.409922
0.065815 0.040423 -0.159499 -0.025244 0.181946 -0.981731
0.067597 -0.519789 -0.072422 -0.736738 -0.071994 -0.671583
0.161749 -0.78746 0.020919 0.520915 -0.490462 0.667892
-0.146244 0.511245 -0.085468 -0.434865 0.441382 -0.783985
-0.10654 -0.684041 0.021651 -0.679152 -0.322152 0.658655
0.164742 -0.574703 -0.091643 0.604329 -0.070243 -0.791815
-0.008794 0.855569 -0.024497 -0.48818 0.868942 -0.068557
-0.119769 -0.341945 0.078116 -0.953035 -0.013212 0.30164
-0.053337 -0.13805 -0.10277 -0.039868 -0.173047 -0.982223
-0.036863 -0.459732 -0.091047 0.35057 0.121993 -0.927228
0.02643 0.070934 -0.145581 -0.146345 0.223231 -0.963367
-0.140674 -0.476994 -0.015766 -0.980594 0.085677 -0.148261
-0.06888 -0.547344 0.058759 0.354262 -0.188446 0.915902
-0.068608 -0.364052 -0.084017 -0.310285 -0.048626 -0.948624
-0.341307 0.240294 -0.073795 0.305579 -0.546012 -0.772335
0.080615 -0.635101 -0.071805 -0.657036 -0.083976 -0.748582
0.068734 -0.296207 -0.080872 -0.72847 -0.012926 -0.681676
0.15966 -0.82965 0.053706 0.893773 0.442884 0.06293
0.147494 -0.606645 -0.096656 0.336869 -0.149463 -0.928894
-0.121654 0.073915 0.054222 -0.948978 0.177555 0.260463
0.047509 0.094509 -0.143288 -0.10876 0.238836 -0.963974
0.108768 0.406236 0.089817 0.203315 0.127159 0.970726
0.044099 -0.473301 -0.036429 -0.991553 -0.000816 -0.10254
0.123327 0.580447 -0.026754 0.266304 0.892248 0.340178
-0.213464 0.461578 0.027007 -0.634069 0.334839 0.694945
0.005337 -0.520649 -0.059716 0.817043 0.05985 -0.573334
-0.138747 0.032438 -0.00131 -0.955527 0.264319 -0.118149
-0.467172 0.134532 0.041834 0.73277 -0.612558 0.275595
0.141201 -0.107443 -0.115537 0.48483 -0.211133 -0.848181
0.118597 -0.341531 0.078548 -0.227632 -0.198283 0.946136
-0.263547 0.421725 -0.038534 -0.79064 0.611696 -0.012245
0.106899 0.183601 -0.111548 0.364498 -0.100298 -0.921084
0.00528 -0.389175 0.06032 0.777857 -0.174876 0.602337
0.025461 -0.445099 -0.004615 0.987118 0.119622 -0.036006
-0.056988 -0.703758 -0.117257 -0.038069 0.21409 -0.970832
-0.072562 -0.368775 0.098125 0.134223 -0.184785 0.973497
0.077971 -0.16776 -0.10098 -0.416556 -0.221521 -0.881414
-0.107678 0.517996 -0.100816 -0.368935 0.38867 -0.837659
0.198427 -0.612336 -0.048352 0.978485 -0.017215 -0.182785
-0.117493 0.205938 0.0381 -0.918403 0.152745 0.362329
-0.016711 0.281073 0.114756 -0.2685 0.021758 0.962963
-0.14259 -0.058852 0.029819 -0.986291 0.049421 0.154393
0.032002 0.658853 0.077038 -0.008532 -0.981867 0.186135
0.036458 -0.006864 0.140353 0.282914 -0.549852 0.778695
0.008215 -0.349009 -0.045318 0.745441 -0.054853 -0.663918
0.641795 0.035787 0.006304 0.913786 -0.101509 -0.255894
-0.113569 0.061404 -0.069745 -0.866822 0.075213 -0.492058
-0.056446 -0.672157 0.024114 0.209106 -0.323142 0.922513
0.087687 -0.84305 0.076881 -0.914907 0.399856 0.032681
0.020835 -0.65783 -0.006869 0.871304 -0.188496 0.452473
0.042662 -0.165281 0.049933 -0.937 -0.120844 0.322389
-0.443614 0.211721 0.006192 -0.595346 0.495891 0.625699
-0.112771 0.280819 -0.039094 -0.994627 -0.101683 -0.015902
-0.273804 0.355419 0.0114 -0.469286 -0.051819 0.875406
-0.041321 -0.498859 0.059347 0.335145 -0.255904 0.905639
0.205427 -0.263602 -0.001855 0.999673 -0.000341 -0.023327
0.02608 -0.38612 -0.002332 0.994486 -0.065089 -0.0397
-0.005511 -0.311186 0.084849 0.326629 -0.117384 0.929942
-0.061471 -0.159483 -0.09766 -0.13325 -0.156581 -0.976533
-0.570355 0.028389 0.057912 -0.158307 -0.882704 0.149873
-0.129812 -0.132161 0.073181 -0.877434 0.043507 0.47767
-0.352481 0.222283 0.005281 0.364819 -0.460401 0.792665
0.06884 0.370013 0.1042 0.178679 0.165763 0.969357
0.153471 0.205369 -0.078217 0.766788 -0.005218 -0.641441
0.11065 -0.425699 0.055948 -0.532361 -0.303885 0.788032
0.076495 -0.600844 -0.07112 -0.684283 -0.047823 -0.727527
-0.555317 0.075845 0.064294 -0.888286 0.445913 0.069756
0.17053 -0.237565 -0.074209 0.525877 -0.117816 -0.842074
-0.125663 0.370983 -0.036348 -0.947904 -0.310962 -8.1e-05
-0.058205 -0.351093 0.099085 0.17324 -0.120745 0.97733
0.044524 0.850101 -0.075718 0.116653 0.820873 -0.556984
-0.034541 -0.263381 0.10589 0.178009 -0.18132 0.967159
0.063784 0.386832 -0.139351 -0.382759 0.022936 -0.922987
0.179381 -0.007429 -0.088848 0.820829 0.073279 -0.566262
-0.124409 -0.554747 -0.068766 -0.817618 0.12418 -0.56082
0.190944 0.34983 0.001275 0.972041 -0.055094 0.225484
0.168516 -0.86306 0.0718 0.295482 -0.944 -0.011117
0.234655 0.542472 -0.048976 0.66547 0.744537 0.042053
-0.299425 0.245739 -0.042297 0.643682 -0.760798 -0.034777
-0.45356 0.167339 -0.049298 -0.426274 -0.094089 -0.804812
0.084719 0.601958 -0.005483 0.76595 0.207484 0.603349
-0.101636 -0.241284 0.107108 -0.424621 -0.023677 0.904824
-0.039186 0.122556 0.114116 -0.466235 0.025965 0.882916
0.01942 -0.698022 -0.022005 0.889077 -0.153805 0.430107
0.165061 0.539296 0.01023 0.19597 0.659343 0.722419
-0.562646 0.061117 0.014206 -0.884333 0.438756 -0.126113
-0.133934 0.038722 0.047562 -0.92462 0.242597 0.289491
0.192205 0.394368 0.017749 0.959872 -0.098344 0.258044
-0.550984 0.08341 0.038799 -0.822614 0.563661 -0.022833
0.081355 -0.660435 0.025602 -0.5744 0.287278 0.763303
0.033774 0.712003 -0.095601 0.021606 -0.655393 -0.735608
0.007155 -0.555985 0.014002 0.685176 -0.144327 0.712752
0.142861 -0.371413 -0.087569 0.587798 0.124088 -0.799284
0.182572 -0.354178 0.066311 0.828498 -0.064243 0.554675
-0.079098 -0.194427 -0.085319 -0.535454 -0.037804 -0.842997
0.008447 -0.802893 -0.094905 0.940519 -0.149246 -0.298644
-0.067825 -0.793109 -0.141039 -0.455297 0.277299 -0.842508
-0.129176 -0.601932 -0.059682 -0.987649 -0.014847 -0.144722
-0.048951 0.263087 -0.122906 -0.502699 -0.091259 -0.859514
-0.395557 0.200628 0.015895 0.2806 0.078207 0.938296
0.128163 -0.81945 0.085782 0.140185 0.946972 0.275658
0.090376 -0.635014 0.020448 -0.674092 0.133468 0.705338
-0.0251 -0.391574 0.082539 0.341917 -0.223116 0.912455
0.130998 -0.580751 -0.104384 0.008282 -0.148745 -0.985891
0.173458 -0.456105 -0.082795 0.654324 0.16896 -0.736799
-0.046038 0.16201 0.108869 -0.58716 0.109135 0.801872
-0.183801 0.509654 -0.057313 -0.643061 0.520706 -0.559704
0.553619 0.128914 -0.017813 0.369936 0.056919 -0.885668
0.084981 -0.263633 -0.091406 -0.484705 0.0618 -0.872273
0.093894 -0.779964 0.039058 -0.152368 0.859918 0.487078
-0.082069 0.074289 -0.107019 -0.649377 0.20572 -0.729084
-0.053094 -0.406512 0.087142 0.207786 -0.179274 0.961299
0.003898 -0.039275 0.133192 0.176268 -0.307309 0.931721
0.285814 0.405031 -0.01414 0.126724 -0.063409 0.981021
0.142949 -0.434058 -0.097522 0.402849 0.166218 -0.899958
-0.004441 0.406861 -0.129042 0.063731 0.003419 -0.997924
0.101149 -0.867945 -0.109105 -0.442997 -0.807512 -0.300113
0.054377 -0.099118 0.086252 0.453608 -0.666218 0.587009
-0.104077 -0.817951 -0.084397 -0.875719 -0.433253 -0.204132
0.010171 -0.203303 -0.059091 0.778995 0.034655 -0.624461
0.068252 -0.459128 -0.073132 -0.725766 0.027313 -0.687312
-0.077009 -0.647639 -0.106967 -0.123538 0.063732 -0.989347
0.124603 -0.633043 -0.096845 -0.051038 -0.098269 -0.992954
-0.137969 -0.007315 -0.007309 -0.997199 0.058814 -0.042036
0.204138 -0.009831 -0.031559 0.947171 0.064636 -0.313357
0.087911 -0.497563 -0.093169 -0.593661 -0.022831 -0.803209
0.052841 -0.14956 0.069469 -0.745075 0.038116 0.654059
0.072692 0.289324 0.115807 0.420317 0.15436 0.892975
0.026771 0.392056 0.104316 0.054051 0.222482 0.972595
-0.081403 -0.611928 0.050573 0.345688 -0.220167 0.898191
0.080481 0.185064 -0.11835 0.13886 -0.16266 -0.969452
-0.098938 -0.838948 -0.07748 -0.961837 -0.179518 -0.198184
0.031705 -0.21975 0.027716 0.916205 -0.079899 0.385387
-0.114616 0.329538 0.01251 -0.962602 -0.132992 0.23291
-0.054108 0.558773 0.018675 -0.190923 0.778828 0.597332
-0.000466 0.502727 -0.124155 0.108487 0.096827 -0.988271
0.197236 -0.581896 -0.055384 0.924077 -0.020897 -0.374063
-0.132519 -0.117788 -0.035245 -0.851157 -0.100422 -0.51517
-0.114904 -0.157467 0.098848 -0.706911 -0.044735 0.704684
-0.104548 -0.271352 -0.055944 -0.809765 -0.014796 -0.586269
-0.122668 -0.761625 -0.034591 -0.951295 -0.281799 0.097284
0.033872 0.864128 0.023692 -0.048134 0.98573 0.15292
-0.020809 0.216321 -0.125457 -0.186031 -0.221233 -0.956411
0.030867 -0.165362 -0.039676 -0.914095 -0.115058 -0.387336
-0.030268 0.753441 0.02131 -0.963482 -0.091839 0.245168
0.169393 -0.173853 -0.080421 0.663384 -0.035396 -0.747002
-0.139419 -0.469151 -0.009144 -0.992821 0.05568 0.072527
0.025441 -0.083938 -0.096265 -0.436814 -0.659923 -0.602702
-0.111995 0.543079 -0.07829 -0.397059 0.663316 -0.633431
0.075068 0.057622 -0.154552 0.057332 0.247084 -0.965051
0.184782 0.528097 -0.114989 0.189977 0.613516 -0.766213
0.597706 0.066386 0.0205 0.71883 -0.588338 0.018906
-0.01625 -0.78313 0.010842 0.843224 0.317877 0.430161
-0.024702 -0.22809 -0.087603 0.390205 0.014703 -0.918849
0.112671 -0.502274 -0.10609 -0.265607 0.006648 -0.961388
0.062167 -0.686242 0.024924 -0.636113 0.287271 0.7047
0.024279 -0.714854 -0.045336 0.989537 -0.095307 0.045774
0.059257 0.224749 0.126332 0.259128 0.108117 0.953685
-0.12852 -0.307826 0.012206 -0.999809 -0.017136 0.004097
-0.082817 -0.820976 -0.122987 -0.771511 -0.124237 -0.622438
0.167994 0.248632 -0.058236 0.891416 0.02001 -0.45262
0.243543 0.532761 -0.070559 0.680546 0.710294 -0.176312
0.180191 0.389284 0.041413 0.773303 -0.152634 0.613198
0.192993 -0.106066 0.073038 0.782504 -0.01808 0.62053
0.272822 0.395562 -0.141612 -0.229278 -0.024755 -0.971393
0.185092 -0.072249 0.08074 0.706289 0.068975 0.704335
-0.007112 0.063145 0.133621 -0.37041 0.215087 0.903068
0.325617 0.44178 -0.092768 0.709661 0.684411 -0.158468
0.144924 -0.29923 0.081152 0.133669 -0.065922 0.988111
0.016289 -0.788357 -0.058182 0.896094 -0.418252 0.080111
0.04058 0.831686 -0.096866 0.070088 0.706389 -0.697332
0.111685 0.432979 0.083875 0.228353 0.213859 0.948929
0.043525 0.807227 -0.114053 0.141935 0.381278 -0.90763
0.19675 -0.337882 0.04039 0.905318 -0.078632 0.417332
0.204784 -0.017691 0.045463 0.90722 0.102507 0.402371
-0.493865 0.149757 0.064157 -0.264578 0.824804 0.475805
0.054806 -0.116673 0.061483 -0.140448 -0.410142 0.784465
0.121539 -0.022445 0.120385 0.353424 -0.016766 0.935193
-0.069662 -0.47559 -0.096021 -0.15708 0.09659 -0.982176
0.637609 0.050428 0.05483 0.867149 0.494064 0.028704
0.04449 0.415501 0.096774 0.041664 0.197656 0.979083
0.162291 0.465089 -0.140054 0.232594 0.089494 -0.967512
-0.021027 0.43897 0.095911 -0.130638 0.232855 0.96285
0.182285 -0.160503 -0.069073 0.667403 -0.06591 -0.741391
-0.075248 0.325318 0.082923 -0.541535 -0.08983 0.834867
0.065324 -0.326154 0.05721 -0.687767 -0.223546 0.686556
0.065032 0.458596 -0.137132 -0.294559 0.075294 -0.952169
0.066311 0.853385 0.031568 0.519651 0.665352 0.535584
0.121424 -0.567145 -0.105241 -0.18623 -0.134569 -0.970546
-0.459709 0.14404 -0.021442 0.316445 -0.851463 -0.414254
-0.118857 0.095022 -0.048714 -0.871415 0.184106 -0.450481
-0.034218 -0.806023 -0.149384 0.232162 -0.128177 -0.948483
0.20521 0.042243 -0.01332 0.980057 0.092145 -0.165765
0.01875 -0.059282 0.121382 0.280982 -0.185689 0.928641
0.173946 -0.559117 -0.084639 0.706011 -0.029965 -0.707465
-0.068117 -0.270553 0.10987 0.061306 -0.144277 0.987467
0.093546 -0.845711 0.137672 -0.83895 0.456319 0.290653
0.075454 -0.818816 0.017143 -0.857745 -0.391683 0.300634
-0.085296 -0.197818 0.112879 -0.177219 -0.060206 0.982054
0.166936 -0.694153 -0.068533 0.789961 -0.0561 -0.610204
-0.172639 0.363714 -0.033828 0.672815 -0.737078 -0.029601
0.30685 0.314796 -0.07723 -0.691508 -0.712386 0.101642
0.132307 0.450482 -0.145651 0.116621 -0.001472 -0.992771
0.084623 0.012888 0.134227 0.301003 0.248481 0.915731
-0.052325 -0.717989 0.015771 -0.528171 0.343832 0.774792
0.204768 -0.534009 -0.033087 0.983921 0.011353 -0.176348
0.345603 0.407528 -0.070562 0.823294 0.397132 0.3958
0.087146 -0.278529 -0.09375 -0.431136 0.062135 -0.90003
0.095378 -0.611981 -0.086361 -0.582198 -0.082344 -0.808492
-0.277353 0.345596 0.008911 -0.312627 -0.044153 0.941634
0.108615 0.388097 -0.145114 0.140303 -0.030676 -0.98915
-0.14013 0.007005 0.018659 -0.955992 -0.286461 -0.033263
0.02184 -0.23598 0.061401 0.942953 -0.005392 0.330627
-0.266994 0.38641 0.011531 -0.534844 0.287741 0.791107
0.154772 -0.374288 0.075292 0.131818 0.004211 0.990322
-0.272432 0.290127 -0.081576 0.573435 -0.522219 -0.629552
0.033678 0.837399 0.063049 0.004494 0.574443 0.809261
-0.517032 0.125999 0.027233 -0.790143 0.608664 -0.067153
0.065675 0.71183 0.079473 0.580378 -0.025585 0.810182
0.019279 0.22534 0.128259 -0.01999 0.039342 0.998971
0.544617 0.145855 0.037334 -0.583871 0.098275 0.792509
-0.058694 0.499903 0.064525 -0.152517 0.411383 0.89835
0.191662 -0.604719 -0.06305 0.792952 -0.026735 -0.607841
-0.011418 0.218537 0.122114 -0.429576 0.145395 0.890019
0.157114 -0.590251 0.039668 0.164105 -0.167709 0.969538
0.355721 0.355471 -0.131219 0.505294 0.306876 -0.803098
0.184252 0.020218 0.083372 0.758351 0.152921 0.630328
-0.02387 -0.465171 0.064835 0.428695 -0.275813 0.858484
-0.50095 0.093051 0.042829 0.527892 -0.808911 -0.226018
-0.129187 0.405053 -0.070868 -0.881419 -0.376027 -0.24551
-0.087302 0.546521 0.02832 -0.037049 0.741444 0.669788
-0.127755 -0.30218 0.035062 -0.995928 -0.058842 0.065556
-0.031131 -0.038577 -0.131079 -0.063006 -0.346283 -0.935913
-0.095796 -0.249424 0.10828 -0.296952 -0.020003 0.951613
0.13446 -0.237755 -0.095072 0.437326 -0.144841 -0.885961
0.20542 -0.270083 0.014008 0.999766 0.00225 0.019563
0.137649 0.395096 -0.136584 0.412494 -0.166587 -0.894784
-0.238472 0.45173 -0.046329 -0.763219 0.602625 -0.228024
-0.087602 0.121069 0.081595 -0.643786 0.109913 0.751629
-0.120488 -0.642361 0.009843 -0.962753 -0.075297 0.255999
-0.122849 0.524646 0.045773 -0.053408 0.582481 0.809169
0.044277 -0.491607 -0.038786 -0.984792 -0.012869 -0.1694
0.153706 0.4141 0.067994 0.702026 0.044837 0.710405
0.261714 0.515136 -0.044062 0.73 0.672294 0.097955
0.11561 -0.757261 0.02175 -0.170835 -0.265878 0.932807
-0.004283 -0.07523 -0.110079 0.333153 -0.526404 -0.778057
0.012659 -0.293684 0.075623 0.796711 -0.127444 0.590203
0.053218 -0.71753 0.009077 -0.997608 -0.046503 0.042978
0.192277 -0.249227 -0.052806 0.766577 -0.145258 -0.624526
0.145724 -0.41461 -0.0924 0.507581 0.106277 -0.854807
-0.170935 0.50652 -0.072035 -0.580318 0.428885 -0.691191
0.177728 0.29694 0.02984 0.945135 0.029966 0.324886
0.126781 -0.789965 0.047083 0.304882 0.497156 0.806408
-0.238561 0.391412 0.023096 -0.330543 -0.163054 0.927201
0.167773 -0.035656 0.095564 0.655153 0.018676 0.75464
0.310384 0.434154 -0.038394 0.788629 0.251125 0.556752
0.142191 -0.38346 -0.090343 0.558079 0.163116 -0.813554
0.095008 -0.464064 -0.097474 -0.53248 0.057993 -0.84418
0.165108 0.004225 -0.108857 0.821307 0.104191 -0.559541
-0.025796 0.300991 -0.130882 -0.108573 0.036856 -0.99229
0.152295 -0.253473 -0.082496 0.501706 -0.111888 -0.857708
0.159061 -0.066948 0.102844 0.544661 0.036301 0.836778
0.558337 0.162107 0.029476 0.720857 0.688801 0.073255
-0.478457 0.151134 0.062307 0.220527 0.740547 0.618929
0.10169 -0.84853 -0.110742 -0.560433 0.08882 -0.818527
-0.038534 -0.813782 0.061662 0.376975 0.71198 0.547847
0.045677 0.782775 -0.119151 0.272203 0.054192 -0.957329
-0.041382 -0.170062 0.122812 0.043774 -0.056147 0.996583
-0.030936 -0.826743 -0.143144 0.316624 -0.388502 -0.863307
0.395272 0.330377 -0.1101 0.598725 0.62032 -0.500628
0.248968 0.481396 -0.000943 0.493925 0.091364 0.860484
0.019464 -0.646459 -0.055308 0.667854 0.171368 -0.723939
-0.093232 -0.551375 -0.095425 -0.465986 0.080106 -0.880313
-0.237011 0.337581 0.006359 0.488731 -0.5342 0.688646
0.102423 0.43817 0.084701 0.189829 0.241255 0.951523
0.046795 -0.497662 -0.046089 -0.884281 -0.053615 -0.457476
0.041472 0.870463 -0.014373 0.027355 0.995957 -0.013724
0.103147 -0.024489 -0.151286 0.164399 -0.233091 -0.95698
0.043113 -0.316985 0.022903 -0.990283 -0.019751 0.134644
-0.395313 0.183997 -0.030356 0.505167 -0.847653 -0.150713
-0.022326 0.11924 0.122188 -0.40383 0.075935 0.910192
0.01211 -0.132 -0.0575 0.783223 -0.203672 -0.586198
-0.011242 0.122005 0.127171 -0.343827 0.043905 0.931015
0.187488 -0.212534 0.074982 0.774276 -0.136885 0.61774
0.147454 -0.015519 0.108982 0.538712 0.103011 0.835647
0.075061 -0.631023 0.006833 -0.526485 0.322295 0.771457
-0.0628 0.027908 -0.135364 -0.387159 0.063581 -0.900566
0.146971 -0.869147 0.091164 0.251299 -0.963362 0.008355
-0.096396 -0.525087 0.061694 -0.860086 -0.049271 0.507326
0.198339 -0.501652 -0.051502 0.952381 0.016085 -0.29616
0.02207 -0.524587 -0.02767 0.906221 -0.044149 -0.41527
0.177564 -0.077556 0.088533 0.599919 0.073991 0.777727
0.181398 -0.051676 0.083257 0.725384 0.033553 0.687294
-0.024331 0.78237 -0.093172 -0.801959 -0.084847 -0.588942
-0.004413 -0.435148 0.05611 0.774098 -0.176405 0.606256
0.139616 -0.826072 0.106374 0.226982 0.965136 0.126
0.119942 -0.454353 -0.104961 -0.045403 0.071541 -0.993954
-0.112041 0.212399 0.052518 -0.921233 0.076686 0.375652
0.010559 -0.36103 -0.042132 0.730043 -0.018527 -0.682757
0.224334 0.452363 -0.133747 -0.030004 -0.000776 -0.997889
0.22449 0.475745 -0.131117 0.191854 0.241976 -0.950222
-0.125675 -0.693793 -0.03685 -0.938824 0.031647 0.336224
0.09327 0.106955 0.120587 0.358475 0.056153 0.930344
-0.054675 0.48311 0.073401 -0.178491 0.413453 0.892735
0.05856 -0.287608 -0.067571 -0.81529 0.002413 -0.578961
0.210599 0.415417 -0.03593 0.08827 -0.947353 0.129646
0.205768 -0.299256 0.009408 0.999247 0.005861 0.028963
0.112976 0.444794 0.081395 0.19801 0.206355 0.957549
-0.012373 -0.726719 0.014343 0.640514 -0.259426 0.720793
0.082334 0.666885 -0.029262 0.979515 0.01882 -0.191321
0.368229 0.350862 -0.067789 0.617669 0.629427 0.467487
0.023321 -0.29185 0.053602 0.908156 -0.037904 0.416302
0.458848 0.19382 -0.05156 -0.144167 -0.966755 -0.142453
0.204827 -0.2661 -0.016074 0.994489 -0.003005 -0.100261
0.120315 -0.480048 0.049991 -0.579509 -0.110978 0.80719
0.115975 -0.867013 -0.027748 -0.111761 -0.98005 0.150499
-0.036227 -0.750885 0.004736 0.554644 -0.210042 0.785045
-0.123528 0.005413 -0.063597 -0.891832 0.073335 -0.445871
-0.309801 0.239177 -0.031544 0.548438 -0.835056 0.02937
0.145724 -0.760123 -0.09606 0.554252 0.222244 -0.795114
0.020425 -0.030537 0.128633 0.094951 -0.17431 0.956621
-0.135953 -0.019379 -0.032334 -0.983107 0.027565 -0.175599
0.074501 -0.454575 0.011778 -0.672549 -0.054021 0.732816
0.135014 -0.389691 -0.096103 0.464495 0.127619 -0.874584
-0.135504 -0.058462 0.06032 -0.93777 0.028636 0.334496
0.034736 0.578259 -0.099809 -0.073598 0.536901 -0.840093
-2.3e-05 -0.456294 0.04553 0.743413 -0.147191 0.652117
0.066576 0.012147 0.139158 0.179896 0.137611 0.972392
0.12921 0.502598 0.04947 0.256834 0.483213 0.836003
0.067732 -0.259908 -0.078915 -0.746387 0.017813 -0.662497
0.039364 0.830552 0.06676 0.112405 0.49718 0.859202
-0.023862 -0.234341 0.110382 0.301086 -0.217063 0.927526
0.021699 -0.300541 -0.02365 0.936041 -0.025379 -0.350664
-0.068194 -0.725871 0.014097 -0.324213 0.371339 0.867876
0.160567 0.313348 -0.090959 0.673974 -0.260334 -0.663575
0.34777 0.385491 -0.116369 0.94692 0.135696 -0.152564
0.378258 0.249784 -0.100103 -0.67521 -0.664446 -0.318492
-0.095108 -0.784924 0.010732 -0.739467 0.21365 0.573045
0.079147 0.849877 -0.041178 0.707206 0.677904 -0.19398
-0.082637 0.201773 0.08463 -0.618285 0.063214 0.783026
-0.044595 -0.477146 0.06721 0.288495 -0.259622 0.921308
0.052647 0.761127 -0.115476 0.421309 -0.145896 -0.893346
-0.028196 -0.85488 -0.122862 0.699959 -0.442849 -0.472361
0.026559 -0.370439 -0.002581 0.996916 -0.021592 -0.0554
0.114247 0.416619 0.087105 0.307538 0.197823 0.929129
0.000448 -0.301008 0.083764 0.488165 -0.216272 0.844219
-0.061331 -0.618443 -0.104875 0.097038 0.068465 -0.991857
0.045707 0.504145 -0.126819 -0.20725 0.06804 -0.97575
-0.007734 0.48174 0.080857 -0.029358 0.462247 0.88557
-0.106393 0.260141 -0.072255 -0.897115 -0.116651 -0.422942
-0.001525 0.708575 0.071943 -0.640562 0.003277 0.763289
-0.132334 -0.398145 -0.017643 -0.903535 0.209998 -0.367056
0.052264 -0.460535 -0.055632 -0.796051 0.034491 -0.603182
-0.006243 -0.295699 0.08876 0.407027 -0.183653 0.894037
0.11476 -0.064517 0.119165 0.162733 -0.124613 0.97095
0.014063 0.862353 -0.045263 -0.185075 0.958014 -0.186986
0.025467 -0.020526 0.132002 -0.23314 -0.484362 0.814817
-0.092057 -0.373729 -0.07193 -0.543647 -0.032099 -0.838171
0.059401 -0.781293 0.010633 -0.989034 -0.117864 0.071356
0.130681 -0.364283 0.077177 -0.158224 -0.18031 0.969478
-0.085826 -0.395002 0.094654 0.064316 -0.201428 0.977217
0.195285 -0.206479 -0.056225 0.728511 -0.06686 -0.681647
0.110712 -0.034788 -0.14649 0.184815 -0.280214 -0.94107
0.173791 0.501914 -0.130566 0.123953 0.314878 -0.940701
0.023756 0.562822 0.02669 -0.015908 0.10788 0.993543
0.023399 -0.394903 -0.015398 0.947863 -0.105824 -0.29917
-0.045996 0.188029 -0.103978 -0.456095 -0.241777 -0.855994
0.041777 0.629871 -0.068017 0.032298 0.331934 -0.937887
-0.105327 -0.763138 -0.09461 -0.830732 -0.001095 -0.555342
0.165393 -0.341507 -0.066229 0.680677 0.018682 -0.732121
-0.268897 0.415002 -0.048027 -0.731524 0.676406 -0.078337
-0.082565 0.152842 0.084535 -0.663312 -0.00012 0.747928
-0.051491 0.138096 -0.104347 -0.334489 0.362151 -0.868793
0.004931 -0.714482 -0.083923 0.637463 0.190479 -0.742683
0.205399 -0.301157 -0.008406 0.991607 -0.009876 -0.123847
0.397166 0.332333 -0.084284 0.687451 0.715286 0.102374
-0.052836 0.130946 0.107073 -0.520995 -0.0304 0.852536
-0.089562 -0.01443 -0.113398 -0.642202 -0.115646 -0.757432
0.205624 0.041114 0.027229 0.983565 0.128668 0.117502
0.007601 -0.752408 -0.088014 0.776956 0.078292 -0.624571
-0.163911 0.543162 -0.019722 -0.644565 0.763365 -0.028213
-0.050002 -0.722803 -0.120963 0.310282 0.15488 -0.932358
0.033762 -0.062016 -0.120324 -0.404792 -0.477471 -0.779058
-0.493851 0.158102 0.012102 -0.777064 0.629255 -0.010904
0.161544 0.481958 -0.137784 0.17403 0.192785 -0.964369
0.029064 -0.157748 0.058804 0.862502 -0.33517 0.352854
0.050964 -0.502906 -0.05314 -0.862453 -0.057568 -0.502482
0.050146 -0.34678 -0.053563 -0.837127 -0.070481 -0.541866
-0.053752 0.194779 0.102424 -0.485444 0.012861 0.873993
-0.171869 0.407182 -0.093873 0.228955 -0.167206 -0.958136
0.148108 -0.505124 0.060669 -0.211268 -0.170311 0.961805
0.119546 -0.867713 0.01346 -0.051704 -0.993023 -0.096618
0.144174 -0.037744 -0.131685 0.621002 -0.179802 -0.762006
0.144071 -0.715635 0.011562 0.399689 -0.240855 0.873367
-0.039866 -0.568633 -0.098739 0.350924 -0.025528 -0.936008
-0.00205 -0.45677 -0.061808 0.73957 0.095527 -0.666121
-0.011057 0.755865 0.062108 -0.759384 0.039968 0.648539
-0.011169 0.422186 0.100523 -0.045774 0.303261 0.950244
0.066993 0.196219 -0.119716 -0.200212 -0.220843 -0.949649
0.160911 0.199759 0.06444 0.771515 0.092008 0.628995
0.034915 -0.31142 -3e-05 -0.955405 -0.059548 0.28844
-0.054382 0.584454 -0.06471 -0.481323 0.80035 -0.350378
0.019928 -0.196613 0.071972 0.964294 -0.016099 0.263793
-0.138296 -0.008056 0.005708 -0.996375 0.083768 -0.012905
-0.237797 0.330404 -0.078641 0.51767 -0.604261 -0.604178
0.113305 -0.425285 -0.102881 -0.130229 0.042419 -0.985484
-0.132863 -0.124064 0.066964 -0.857966 0.024829 0.512187
-0.057013 0.544699 0.034714 -0.188116 0.64892 0.734577
-0.317503 0.263814 0.005537 0.101229 -0.08343 0.988258
0.15221 -0.322302 0.078475 0.221315 -0.050989 0.973407
0.008438 -0.235446 -0.060549 0.768614 -0.07742 -0.634594
0.087235 0.703232 -0.044319 0.770274 -0.498241 -0.365133
0.144985 -0.780454 -0.104201 0.394181 0.417584 -0.816876
0.045089 -0.534387 -0.020007 -0.954975 0.006862 0.256739
0.177159 -0.654445 0.020103 0.485644 -0.043077 0.872497
-0.070129 -0.480857 0.074886 0.304367 -0.168655 0.937445
-0.335854 0.291643 -0.092479 -0.208216 0.018037 -0.974906
0.190717 -0.541569 -0.066829 0.814771 -0.028456 -0.578745
0.147297 -0.389507 0.075314 -0.067174 -0.107731 0.990676
0.041558 -0.125717 -0.08623 -0.506822 -0.391563 -0.767529
0.003259 -0.281886 -0.058931 0.77418 -0.119107 -0.621561
-0.209347 0.337143 -0.046064 0.608199 -0.775835 -0.159577
0.077242 0.194977 -0.120437 -0.029942 -0.249486 -0.966806
0.038758 -0.024128 -0.142171 -0.241642 -0.388063 -0.888794
0.044249 0.763506 0.084029 0.711643 0.067864 0.682842
0.059255 -0.768617 -0.002522 -0.999359 0.020194 -0.016476
0.056106 -0.724767 0.025641 -0.919669 -0.069475 0.356836
0.027957 -0.095479 -0.089014 -0.732805 -0.460457 -0.49841
-0.0127 0.622052 -0.013596 -0.945379 0.147527 0.280605
0.062073 0.817145 -0.102796 0.343235 0.546334 -0.760376
0.052322 0.36896 0.106442 0.13339 0.22593 0.963591
0.109172 -0.184619 0.097849 -0.103167 -0.142933 0.983314
0.055495 -0.271341 0.056489 -0.730403 -0.125126 0.671322
0.372116 0.348826 -0.119833 0.648487 0.487528 -0.582994
0.12969 -0.781367 0.039915 0.164404 0.459488 0.863164
0.526919 0.199292 0.008619 -0.019922 0.940303 0.333323
-0.035139 0.327979 0.103248 -0.478722 0.012749 0.870733
0.204937 -0.256725 -0.012658 0.99833 0.003109 -0.056081
0.261526 0.357924 -0.106993 -0.582023 -0.732337 -0.347837
-0.128712 -0.467885 0.028539 -0.884063 -0.203017 0.420397
0.090422 0.138792 -0.123138 0.215767 0.328236 -0.918141
0.151238 -0.075375 -0.115655 0.659556 -0.162797 -0.733495
0.01734 -0.738635 -0.023837 0.920063 -0.120725 0.367861
-0.5058 0.105467 0.080704 0.600549 -0.267321 0.7498
-0.183168 0.361724 -0.061775 0.628512 -0.720534 -0.292285
0.042815 0.468225 -0.128431 -0.211971 0.062321 -0.973623
0.019183 -0.011066 -0.143463 -0.118762 -0.279336 -0.95166
0.190006 0.558102 -0.022829 0.285984 0.880835 0.372629
0.049356 0.618037 0.025985 0.27829 -0.189348 0.933517
0.096311 -0.704455 -0.08505 -0.693712 0.053644 -0.718122
-0.125282 -0.712187 -0.032343 -0.859804 0.102785 0.483725
0.342994 0.402653 -0.126896 0.672379 0.346632 -0.644869
0.586488 0.127159 0.028069 0.754926 0.655576 -0.002565
0.0967 0.811616 -0.06016 0.918076 0.347377 -0.184173
0.195929 -0.662784 -0.010717 0.953097 0.00161 0.296825
-0.02587 0.594477 -0.073042 -0.510077 0.711634 -0.479061
-0.128585 0.394215 -0.025174 -0.958686 -0.217164 0.003491
0.01316 0.297027 0.121568 -0.11928 0.104247 0.986722
-0.123426 0.055972 0.060541 -0.922679 0.224335 0.310274
0.088476 -0.193175 -0.099012 -0.375773 -0.213714 -0.901649
0.210113 -0.097863 0.037393 0.93894 -0.021898 0.343172
-0.128669 -0.458073 0.032737 -0.89509 -0.177924 0.407172
0.12131 0.106453 -0.122389 0.526677 0.341037 -0.776637
0.068645 0.452087 0.085733 0.137589 0.335451 0.931542
0.203577 -0.324833 -0.016094 0.945768 0.034972 -0.315177
0.187921 0.532713 0.007236 0.268589 0.604161 0.750091
-0.23486 0.346446 0.010076 0.377595 -0.401647 0.832377
-0.090877 -0.860915 -0.015361 -0.298381 -0.936718 -0.121097
0.022491 -0.069932 0.118055 0.246723 -0.282287 0.924443
-0.022231 -0.732664 0.018717 0.4376 -0.546314 0.702748
0.093295 -0.865898 0.117341 -0.481639 -0.870784 0.089293
0.344653 0.309346 -0.044157 -0.296128 -0.282344 0.888663
0.146166 -0.054144 -0.125124 0.594052 -0.22696 -0.771439
0.133792 -0.226974 -0.097196 0.37462 -0.123575 -0.916683
0.348007 0.390688 -0.1047 0.942326 -0.324692 0.047177
-0.508768 0.114476 0.085597 0.444666 -0.04846 0.871233
0.203171 -0.220299 -0.044048 0.922629 -0.072918 -0.375498
0.553469 0.16757 0.022471 0.696643 0.711083 0.073981
-0.079237 0.403476 0.085898 -0.649478 0.01786 0.759542
0.346471 0.306099 -0.127978 -0.296667 -0.428191 -0.844414
0.01169 0.174286 -0.116452 -0.01872 0.026042 -0.996379
0.237349 0.490492 0.005672 0.571648 0.073852 0.813896
0.197639 -0.273177 -0.035757 0.880086 -0.155662 -0.446375
0.043679 0.384649 -0.132231 -0.402903 -0.007254 -0.912845
0.092128 -0.105808 0.101362 -0.511369 -0.167797 0.842357
0.00341 -0.291436 0.084648 0.562951 -0.20319 0.796151
0.502064 0.205363 -0.001578 0.033461 0.641278 0.735602
-0.349815 0.216427 -0.052552 0.503597 -0.7934 -0.329446
0.270241 0.358055 -0.038452 -0.396132 -0.70757 0.577911
0.03824 -0.146676 -0.069529 -0.838756 -0.324595 -0.43569
0.177076 0.28327 -0.041427 0.933453 -0.140752 -0.32939
-0.132313 -0.403666 0.028714 -0.962525 0.138218 0.229997
0.109691 -0.855501 0.172394 -0.678125 0.276843 0.65028
0.070826 -0.822892 -0.022199 -0.458146 -0.887175 -0.005639
0.074765 0.780755 -0.104105 0.628091 0.030274 -0.775304
0.026436 -0.313229 -0.015472 0.924334 -0.01375 -0.379701
0.166145 -0.371114 0.073068 0.258245 0.00032 0.965225
0.137778 0.031733 -0.133079 0.651211 0.110494 -0.75019
0.03379 0.0352 0.137161 0.099492 0.203939 0.971624
0.052917 0.041931 -0.158186 -0.12617 0.250573 -0.956588
-0.039497 -0.862445 0.111785 0.254442 -0.956348 0.127644
-0.013562 0.768854 -0.103155 -0.781527 -0.145689 -0.588562
-0.103076 0.241691 -0.070637 -0.784695 -0.331394 -0.522266
0.031793 0.637674 0.035972 -0.143334 -0.489822 0.856093
0.054452 0.843274 0.051935 0.49513 0.565955 0.658356
-0.142049 -0.035717 -0.004959 -0.972424 0.174774 -0.119506
0.111624 -0.806007 0.060873 -0.08921 0.708077 0.695139
0.18732 -0.757359 -0.032292 0.843739 -0.067709 -0.529343
-0.043695 0.576698 -0.087572 -0.394284 0.661283 -0.635537
0.522514 0.19563 0.01955 -0.120793 0.69342 0.675725
-0.026027 -0.280648 0.099486 0.333349 -0.254921 0.906585
-0.298277 0.361063 -0.067496 -0.691841 0.654012 -0.3044
0.055092 0.513677 0.05918 0.020561 0.510176 0.859581
0.171667 -0.84955 0.09761 0.754121 0.655343 0.039234
0.084673 -0.518485 0.024344 -0.610509 0.037781 0.789594
0.130217 0.193757 -0.100522 0.566456 -0.075441 -0.818915
0.048132 0.716105 0.091302 0.577934 -0.127985 0.799263
0.047136 0.6492 0.042262 0.305399 -0.622326 0.715085
0.039444 -0.25519 0.009968 -0.383115 -0.037466 0.836024
0.02244 -0.405874 0.004215 0.975273 -0.18411 0.113096
0.029788 0.507444 -0.123741 -0.108066 0.052787 -0.992102
0.184976 -0.38788 -0.059294 0.705186 0.144657 -0.691785
0.162765 -0.848287 -0.028617 0.927511 -0.364669 0.052884
-0.435236 0.161894 -0.03954 0.310663 -0.889241 -0.327081
-0.03538 0.825669 -0.057725 -0.80715 0.390242 -0.377601
0.040542 -0.380582 -0.030736 -0.963498 -0.104785 -0.236835
0.100795 -0.869409 0.111168 -0.197104 -0.975034 0.04769
-0.10881 0.330655 -0.083579 -0.78412 -0.174453 -0.594572
0.183201 -0.463862 0.054382 0.877853 -0.098759 0.468345
0.093361 0.054919 0.121669 0.336383 0.13046 0.930734
0.046909 0.855016 -0.067184 0.152205 0.855469 -0.49464
-0.108096 0.086843 -0.070882 -0.801536 0.20713 -0.560368
0.41678 0.256287 -0.032107 -0.123489 0.194186 0.966842
-0.014192 -0.309697 0.0897 0.439525 -0.13061 0.888189
-0.127454 -0.399284 -0.029937 -0.907286 0.018427 -0.419017
0.166318 -0.524395 -0.093133 0.655581 -0.036781 -0.754148
0.167157 0.329697 -0.08972 0.746913 -0.33097 -0.575046
0.051831 0.09374 0.13219 0.141882 -0.367975 0.916723
0.096599 0.202171 0.113722 0.389466 0.046129 0.919732
0.24666 0.487218 -0.119273 0.418803 0.486303 -0.766397
-0.439292 0.224611 -0.036341 -0.722435 0.628248 -0.236593
0.109494 -0.84387 0.16885 -0.811388 0.1877 0.553279
-0.143986 -0.133361 0.026403 -0.996543 -0.010604 0.074889
0.135812 0.305419 -0.119958 0.715371 -0.067254 -0.693844
0.055115 0.557172 -0.113281 -0.137871 0.455327 -0.878974
0.023278 0.143121 -0.11896 -0.123668 0.430806 -0.893386
-0.015005 -0.828615 0.010349 0.640142 -0.735841 0.20945
0.189749 0.092969 0.042718 0.970838 0.059825 0.221388
0.458526 0.213887 -0.08003 0.618666 -0.408672 -0.663322
0.206191 0.043324 0.01378 0.995314 0.0858 0.032162
0.10273 -0.091129 0.109446 -0.498674 -0.194692 0.842698
-0.129296 -0.043182 0.071024 -0.847529 0.055313 0.525335
0.277891 0.494059 -0.041098 0.73411 0.591054 0.330227
-0.015867 0.080776 -0.136113 -0.15527 0.216243 -0.963908
-0.017701 0.322242 -0.129827 -0.008599 0.063238 -0.997371
-0.127935 0.162096 -0.005693 -0.991898 -0.020194 -0.108116
-0.011715 -0.601574 0.024452 0.280521 -0.128029 0.949929
0.181093 0.189876 -0.029793 0.941387 0.06738 -0.326458
-0.036539 -0.371266 0.089893 0.206563 -0.149094 0.966691
0.012584 -0.588586 0.007192 0.560011 0.038177 0.825927
0.142386 -0.365168 0.077322 0.062938 -0.131733 0.987513
-0.004014 -0.202436 -0.073272 0.644246 0.027091 -0.763327
-0.027596 -0.755238 -0.000406 0.594618 -0.035806 0.756558
-0.128393 -0.441601 0.03957 -0.921059 -0.100883 0.375906
-0.084658 0.503221 -0.116184 -0.298077 0.338052 -0.891213
0.099616 -0.138325 0.10276 -0.561146 -0.053838 0.825844
-0.136793 0.013114 0.052071 -0.962641 0.080172 0.240379
-0.009526 -0.748303 -0.005388 0.282338 -0.748296 0.597813
-0.199503 0.496461 -0.050342 -0.6544 0.562492 -0.503593
-0.156442 0.404056 0.022784 0.260558 -0.702825 0.659156
0.07409 -0.785064 -0.059495 -0.874488 0.159725 -0.457028
-0.026246 0.016182 -0.142031 -0.181714 -0.384751 -0.90178
-0.032572 -0.862095 -0.095718 0.263815 -0.957222 0.067027
0.10866 -0.609073 0.031796 -0.197659 0.220656 0.954407
0.183017 -0.505738 0.044642 0.83269 -0.141163 0.534405
-0.118617 -0.455861 0.053251 -0.832462 -0.236736 0.500653
-0.01181 0.354151 0.110022 -0.374593 0.168602 0.905184
-0.092444 -0.424413 -0.072615 -0.551254 0.328243 -0.765698
-0.023353 0.740928 0.048536 -0.824803 0.031166 0.563557
-0.46727 0.189472 -0.000239 -0.747624 0.66116 0.041256
0.132985 -0.074712 0.114407 0.202665 -0.009308 0.978577
-0.152059 0.549062 0.003317 -0.412509 0.873906 0.239429
0.110745 0.541249 0.027051 0.410056 0.575966 0.705857
-0.085504 -0.587646 0.05857 0.140096 -0.202484 0.96476
0.201106 0.071103 -0.009809 0.980574 0.190627 -0.036029
0.077103 0.401965 -0.143333 -0.225194 0.040991 -0.972327
0.208823 0.5166 0.011113 0.276699 0.409928 0.867477
0.163467 0.559881 -0.09136 0.331123 0.725568 -0.603018
-0.033872 -0.181856 0.120825 0.156603 -0.110507 0.980938
-0.077162 -0.419521 -0.079437 -0.414438 0.271544 -0.866208
0.011489 0.863272 -0.032226 -0.155983 0.98436 -0.065878
0.158906 0.116982 0.07666 0.575583 0.176429 0.797391
0.053186 0.660135 0.070509 0.233731 -0.961346 0.136473
-0.111164 -0.644922 0.029092 -0.858874 -0.06878 0.506864
0.022247 -0.47844 0.007434 0.906344 -0.107159 0.407985
-0.134128 -0.567231 -0.039507 -0.994838 -0.075763 -0.028558
0.178272 0.170485 -0.040288 0.902475 0.103278 -0.417199
0.386111 0.255688 -0.118468 -0.517158 -0.520907 -0.672584
-0.300861 0.24478 -0.031967 0.675468 -0.731378 0.084977
0.076704 -0.671358 0.026047 -0.549571 0.31308 0.773473
0.183159 0.479106 0.032866 0.477908 0.310694 0.82092
0.005314 -0.691627 0.002428 0.827142 -0.233186 0.508563
0.202976 -0.573431 -0.027383 0.961362 -0.23338 -0.11062
-0.01195 -0.816511 0.020167 0.962302 -0.069405 0.187652
0.203742 0.060322 0.003023 0.962428 0.264049 0.034929
-0.006426 0.730627 -0.094875 -0.550991 -0.489243 -0.670384
0.490001 0.234915 -0.018001 0.577977 0.713988 0.363914
-0.104596 -0.660472 -0.095871 -0.553422 -0.016608 -0.832348
0.195857 -0.299088 -0.032456 0.848745 -0.069783 -0.522792
-0.048196 -0.76334 0.021302 0.218247 0.668007 0.705903
0.336117 0.346977 -0.137365 0.061005 -0.061189 -0.99455
0.168885 -0.678222 0.020312 0.393562 -0.265684 0.878239
-0.043085 -0.322927 -0.089087 0.159308 -0.069086 -0.979249
0.167695 -0.220536 0.086047 0.365183 -0.255331 0.893344
0.186302 0.441183 -0.134757 0.157859 -0.143008 -0.97595
0.604957 0.101176 0.051768 0.831239 0.551558 0.05563
-0.335485 0.307903 -0.08954 -0.354075 0.331093 -0.869834
0.026038 -0.308808 0.04364 0.962831 -0.05839 0.240733
0.554542 0.155303 0.043036 -0.25243 0.10147 0.957381
-0.02884 -0.397776 -0.076135 0.431518 0.079701 -0.894265
-0.091253 -0.776849 -0.114362 -0.757211 0.163633 -0.632017
0.074587 -0.822788 -0.044996 -0.436799 -0.890412 -0.063564
0.150401 0.1568 0.079774 0.706535 0.040966 0.706444
-0.128791 -0.360107 0.002739 -0.999888 0.009907 -0.001909
-0.124822 -0.216219 -0.0239 -0.856223 -0.094473 -0.507617
0.186975 0.103394 0.050731 0.877915 0.144912 0.448846
0.433232 0.300146 -0.096598 0.617161 0.739389 -0.25657
0.186785 -0.09061 -0.071091 0.8155 -0.071781 -0.574064
0.018569 0.761411 0.077193 -0.745513 -0.059942 0.624469
-0.109044 -0.84138 0.004716 -0.840766 0.53198 -0.072996
0.149969 0.126719 0.081871 0.657656 0.034042 0.751759
-0.019523 -0.52637 0.042764 0.505398 -0.225402 0.830161
0.205478 -0.227499 0.01788 0.995705 -0.044748 0.074839
0.098072 0.810048 -0.003427 0.960907 0.257153 0.085881
0.083513 -0.852809 0.071858 -0.978952 -0.013544 -0.069445
0.20158 -0.253791 -0.034058 0.929378 -0.120219 -0.347374
-0.117461 -0.762632 -0.074211 -0.901536 -0.031759 -0.424597
0.042619 -0.37103 0.000175 -0.980368 -0.074444 0.181302
-0.136668 -0.041011 -0.032753 -0.964486 0.009255 -0.26078
0.149659 -0.828762 0.105558 0.423569 0.885051 0.168555
0.085968 -0.111579 0.096194 -0.572177 -0.146182 0.806684
-0.04817 -0.24425 -0.092897 0.047289 0.049054 -0.995361
0.021485 0.241365 -0.125541 0.077075 0.01737 -0.996268
0.106852 -0.305885 -0.099428 0.015045 0.016019 -0.994056
0.10606 -0.636204 0.033221 -0.470609 0.057867 0.869753
-0.121364 -0.674952 -0.016791 -0.972431 -0.052925 0.221495
0.142022 0.20518 0.085809 0.717351 0.05985 0.694052
-0.031195 -0.596413 0.029264 0.302341 -0.176575 0.93546
-0.024975 -0.765815 6.5e-05 0.63825 0.524818 0.552958
0.2177 0.527561 0.00041 0.337396 0.614788 0.712242
0.012159 0.457755 -0.126757 0.065919 0.042487 -0.996491
0.017382 -0.267685 0.072592 0.895684 -0.078225 0.428586
0.006479 -0.115102 -0.071783 0.744035 -0.356809 -0.556681
0.012368 -0.228436 0.086707 0.831478 -0.064816 0.550928
0.198399 -0.029102 0.060377 0.877538 0.039909 0.476947
-0.073471 -0.085164 0.119922 -0.304169 -0.036261 0.948949
-0.017239 0.81728 0.034806 -0.826053 0.362399 0.427926
0.202722 0.048651 -0.020619 0.964241 0.119815 -0.224739
0.201389 -0.335538 -0.022099 0.88983 0.109973 -0.441694
-0.305155 0.361752 -0.038184 -0.67958 0.73144 0.036318
0.189105 -0.514308 -0.069759 0.832883 0.011772 -0.553253
0.172373 0.046315 0.0889 0.669054 0.240426 0.702885
-0.058871 0.526022 -0.113057 -0.198818 0.402225 -0.893449
-0.081427 -0.207862 0.11312 -0.208959 -0.039845 0.976898
-0.56346 0.060016 0.025379 -0.926243 0.36326 -0.026764
-0.270449 0.413677 -0.037477 -0.745779 0.665636 0.009317
-0.288298 0.395011 -0.025696 -0.782329 0.568584 0.221507
0.061683 0.766569 -0.11237 0.432122 -0.080434 -0.897863
0.07023 0.031518 -0.160955 0.004575 0.065224 -0.997631
0.017252 -0.514107 -0.03952 0.889008 0.04276 -0.453678
-0.074049 -0.036427 0.121535 -0.436708 0.020278 0.897821
0.110671 -0.573546 -0.100753 -0.445071 -0.158523 -0.880971
0.101361 0.116883 -0.128806 0.315825 0.370033 -0.873227
-0.31993 0.285864 -0.093888 -0.03579 -0.208142 -0.976946
-0.103718 -0.747676 -0.097568 -0.908292 0.045332 -0.386026
-0.375175 0.198912 -0.049765 0.529487 -0.785222 -0.310985
0.08324 -0.078196 0.111063 -0.097674 -0.671064 0.734147
-0.124032 -0.670596 -0.025137 -0.951164 -0.102435 0.290971
0.042977 -0.170375 -0.06468 -0.870667 -0.197569 -0.449386
-0.093508 -0.26276 0.108432 -0.233054 -0.042987 0.97136
-0.082458 0.431372 0.080216 -0.586402 0.128621 0.799272
-0.013253 -0.538196 0.035916 0.556339 -0.18094 0.81028
-0.013309 -0.440399 0.064255 0.647242 -0.173638 0.740768
0.201686 0.130044 0.01207 0.92747 -0.1936 0.28442
0.088198 -0.693439 0.035923 -0.096499 0.088202 0.989626
-0.140524 0.546538 -0.054065 -0.504788 0.726094 -0.466403
-0.470037 0.183466 0.013523 -0.641517 0.710269 0.259214
0.082112 -0.802881 0.035524 -0.86557 -0.022538 0.497044
-0.08512 0.337179 -0.105904 -0.58331 -0.087704 -0.807456
0.204829 -0.236934 -0.024586 0.993776 -0.080143 -0.071613
0.027517 0.093089 0.134854 0.080656 -0.185543 0.975805
-0.260849 0.297964 -0.008438 0.565273 -0.595622 0.568742
0.028707 -0.308457 0.00893 0.998625 -0.047452 0.016142
0.592025 0.057657 -0.005428 0.942039 -0.183454 -0.233904
0.207872 -0.136789 0.037866 0.964572 -0.125119 0.231007
0.10216 0.737895 -0.035874 0.903503 -0.203616 -0.369462
0.109563 -0.092245 -0.127685 0.037506 -0.285581 -0.957415
-0.108517 0.119264 0.061366 -0.761728 0.169452 0.622384
-0.08637 -0.025901 0.113583 -0.536556 0.051083 0.841979
-0.139449 -0.025353 0.017585 -0.982571 0.164888 0.064183
-0.127752 -0.368806 0.029225 -0.996423 -0.012209 0.082087
-0.09084 -0.297019 0.106764 -0.108611 -0.086581 0.98901
-0.025077 -0.794083 0.038862 0.688137 0.503369 0.516122
-0.047035 0.214919 0.105009 -0.522179 0.04552 0.851422
0.096987 0.75706 -0.072798 0.941508 -0.106538 -0.301899
-0.072278 0.113535 0.095612 -0.561481 0.237384 0.78331
0.282144 0.361156 -0.128669 -0.38413 -0.614258 -0.685962
0.097343 -0.042414 -0.145714 0.051177 -0.319764 -0.945229
-0.042906 -0.133684 0.124375 -0.021627 -0.099474 0.994665
0.049849 0.455796 -0.131796 -0.417141 0.078857 -0.902794
0.272461 0.341542 -0.080003 -0.639308 -0.766352 -0.004046
-0.460092 0.147541 0.049185 0.656499 -0.297621 0.658803
0.21864 0.534678 -0.006895 0.363605 0.674192 0.642305
-0.100198 -0.750805 0.007805 -0.589105 0.517018 0.620587
-0.032453 -0.509602 0.053268 0.356719 -0.267696 0.89458
-0.061138 -0.191751 0.120287 -0.242557 -0.083202 0.963133
0.019313 -0.487547 -0.032063 0.92007 0.025921 -0.389411
-0.026935 0.25253 0.112452 -0.277288 0.011763 0.960681
0.16849 -0.858195 0.026333 0.809825 -0.491255 -0.218998
-0.120292 -0.187436 0.091835 -0.8072 0.004237 0.590096
-0.127736 -0.31913 0.027787 -0.995299 -0.03064 0.086957
0.148364 -0.403376 -0.089932 0.527134 0.097428 -0.843615
0.08553 -0.826235 -0.06062 -0.554372 -0.829709 -0.057649
0.202381 -0.419017 -0.000828 0.974648 -0.182965 0.120562
-0.461051 0.135101 0.023469 0.67435 -0.725191 0.13844
0.33743 0.289698 -0.104354 -0.501991 -0.751886 -0.418724
-0.04454 0.571083 0.004012 -0.161414 0.793132 0.586721
0.041857 -0.377491 -0.007229 -0.977685 -0.111694 0.175691
0.15804 -0.762183 -0.08427 0.766784 0.338086 -0.537681
0.063081 0.551231 -0.117883 -0.16808 0.479548 -0.858435
-0.114256 -0.255417 -0.040345 -0.890556 -0.013641 -0.454229
-0.116435 0.104353 -0.049771 -0.842556 0.13026 -0.517957
0.198019 -0.248754 -0.044199 0.88107 -0.142311 -0.447249
0.099878 -0.345105 0.072689 -0.350731 -0.225011 0.907052
-0.556624 0.072843 0.046255 -0.90339 0.428293 0.016012
-0.063726 0.078798 -0.119663 -0.483084 0.267981 -0.832933
0.215517 0.426637 0.003868 0.289329 -0.852687 0.407562
0.172729 -0.764199 -0.058895 0.808138 0.406023 -0.419963
0.157207 0.361232 -0.113764 0.579169 -0.297819 -0.758537
-0.082686 -0.660912 0.036315 0.215942 -0.298362 0.92312
-0.099311 -0.285609 -0.062597 -0.745105 -0.004891 -0.66687
0.169859 -0.848551 0.111012 0.781221 0.61306 0.095102
-0.118848 -0.262658 -0.032444 -0.827851 0.003763 -0.560436
0.201411 -0.220666 0.038226 0.952656 0.02773 0.302666
-0.476114 0.122412 0.00606 0.463595 -0.803099 -0.354593
-0.107066 -0.702004 0.011351 -0.721891 -0.410374 0.55403
-0.069256 -0.138426 -0.099133 -0.356276 -0.124755 -0.924508
0.13902 -0.56392 -0.105325 0.238037 -0.095159 -0.962501
0.019356 -0.455909 -0.029418 0.925863 0.048547 -0.374646
-0.128459 -0.350986 -0.001385 -0.999153 0.037326 -0.01186
0.133436 0.311578 0.086523 0.67338 0.058596 0.733261
-0.12842 -0.29338 -0.003518 -0.996922 -0.016818 -0.069349
0.163965 0.482293 0.045954 0.57582 0.320786 0.751537
