0.008974 -0.277406 -0.05265 0.756636 -0.122566 -0.641392
0.013654 -0.445009 0.029581 0.827746 -0.049754 0.558783
0.111137 -0.864835 -0.005563 -0.299892 -0.944546 -0.07268
-0.135837 -0.515117 -0.008036 -0.983169 -0.076168 0.164201
0.133262 -0.826319 0.141038 0.235313 0.965877 0.087421
0.090376 -0.635014 0.020448 -0.674092 0.133468 0.705338
0.079688 -0.739075 0.031026 -0.034636 -0.548513 0.835267
0.163689 -0.845572 -0.050395 0.99001 -0.079613 -0.054128
0.165339 -0.757148 -0.067397 0.825831 0.308119 -0.467005
-0.002687 0.852489 0.030075 -0.540416 0.725648 0.424834
-0.03339 0.497612 0.070271 -0.150801 0.491479 0.857655
-0.089595 -0.44823 0.082257 -0.075057 -0.140071 0.985289
0.187797 -0.721214 -0.040496 0.700885 -0.189593 -0.683911
0.052075 0.106255 -0.139514 -0.055066 0.437456 -0.896605
0.117438 0.356864 -0.139861 0.385851 -0.142796 -0.91123
0.407173 0.222213 -0.075395 -0.613582 -0.784832 0.081526
0.461794 0.250518 -0.026611 0.047342 0.621607 0.776172
-0.093807 -0.829172 -0.101024 -0.93566 -0.077383 -0.341475
-0.128076 -0.681751 -0.059535 -0.99712 -0.00747 -0.057978
0.027363 0.072981 0.134489 0.106162 0.108081 0.98742
-0.002873 -0.540865 0.027709 0.647428 -0.15592 0.744562
0.085968 -0.111579 0.096194 -0.572177 -0.146182 0.806684
-0.068622 -0.115596 0.120883 -0.211302 -0.034252 0.97667
0.163355 0.193855 -0.066756 0.793341 0.039197 -0.607013
0.155417 0.532545 0.018294 0.129975 0.657389 0.741775
0.458526 0.213887 -0.08003 0.618666 -0.408672 -0.663322
0.157227 0.075062 0.08807 0.225264 0.296358 0.925288
0.109873 0.226595 0.105712 0.428983 0.064189 0.900918
0.050104 -0.199604 0.062587 -0.809571 -0.080517 0.581104
0.046702 -0.546925 -0.014848 -0.825166 -0.010324 0.558601
0.165138 0.087144 -0.088189 0.765264 0.206791 -0.608639
-0.119788 -0.056996 -0.0671 -0.845633 -0.119114 -0.520121
0.11036 -0.060915 -0.137807 0.143561 -0.289468 -0.945829
0.142022 0.20518 0.085809 0.717351 0.05985 0.694052
0.146184 -0.336315 -0.082085 0.616599 0.023613 -0.786907
0.029798 0.483377 -0.125104 -0.212537 0.132555 -0.967964
-0.084201 -0.176965 -0.083437 -0.607579 -0.095846 -0.787966
0.200688 -0.211201 -0.048559 0.823592 -0.02722 -0.564557
0.07605 -0.568191 0.017206 -0.69774 -0.008397 0.716202
0.168672 -0.410536 0.071415 0.3342 -0.073708 0.934685
0.099833 0.15218 -0.117377 0.326824 0.247724 -0.911489
0.015091 -0.301771 0.069761 0.802531 -0.166202 0.572267
-0.064317 -0.235329 0.113535 -0.03518 -0.113601 0.992623
0.171983 -0.674413 -0.066377 0.683244 -0.20884 -0.699012
0.046113 -0.589728 -0.027529 -0.977116 -0.029709 0.112578
0.189984 -0.36904 0.051484 0.912574 -0.043839 0.404344
0.328677 0.304515 -0.059532 -0.581703 -0.627908 0.516981
0.021445 -0.42661 -0.010385 0.987306 0.102831 -0.102993
0.103772 -0.05051 0.123241 0.201197 -0.234758 0.946528
0.064312 -0.715157 0.03534 -0.354813 0.105757 0.914017
-0.181003 0.470186 -0.082905 -0.380702 0.312707 -0.869075
-0.113838 -0.572422 -0.083056 -0.683748 0.0423 -0.728321
-0.328892 0.296135 0.002635 -0.222356 0.11795 0.967095
0.139067 0.127086 0.091659 0.666568 0.02203 0.745087
-0.336825 0.22232 -0.027086 0.489255 -0.865704 0.000172
0.068015 -0.794063 -0.048904 -0.925106 0.035605 -0.370492
-0.062381 -0.728338 -0.123795 0.009981 0.203442 -0.978482
0.061011 -0.500214 -0.066655 -0.738622 -0.025677 -0.673473
0.154654 -0.816187 -0.106623 0.651931 -0.181164 -0.729185
0.057839 0.626175 -0.066581 0.302261 0.361488 -0.878201
-0.129654 -0.523628 0.0042 -0.896421 -0.143948 0.416572
-0.5058 0.105467 0.080704 0.600549 -0.267321 0.7498
-0.214399 0.333132 -0.038117 0.565072 -0.823714 -0.018474
0.143009 -0.240401 -0.089679 0.495642 -0.148198 -0.855642
-0.11395 0.304034 -0.062287 -0.954707 -0.153053 -0.253848
0.001111 0.263574 0.122181 -0.372446 0.077756 0.924197
0.138513 -0.12231 0.110824 0.167965 -0.082318 0.981578
0.110048 -0.869239 0.118226 0.01097 -0.998565 0.050382
-0.144396 -0.112125 0.015767 -0.999906 -0.00056 0.012094
0.053218 -0.71753 0.009077 -0.997608 -0.046503 0.042978
-0.131505 -0.586528 -0.046256 -0.988492 -0.12674 -0.075492
0.062781 -0.787351 0.018183 -0.663816 -0.616371 0.408648
-0.049546 0.069205 -0.129495 -0.401727 0.221143 -0.888545
0.508916 0.222385 -0.04915 0.456142 0.860117 0.056471
0.370999 0.281486 -0.041287 -0.399093 -0.296856 0.84901
-0.140495 -0.027203 0.00688 -0.956325 0.289544 0.012777
-0.357864 0.210317 -0.002151 0.55983 -0.790879 0.247093
0.110805 -0.767856 -0.098039 -0.469921 0.385783 -0.789514
0.101877 -0.221808 -0.098833 -0.28156 -0.077082 -0.95621
-0.025423 0.328551 0.108373 -0.47214 0.288336 0.824376
-0.182278 0.527277 -0.008526 -0.709503 0.695565 0.109997
-0.005061 -0.098244 -0.096293 0.538709 -0.383973 -0.748902
-0.053386 0.284179 -0.122074 -0.44468 -0.048465 -0.894102
0.089465 0.836223 -0.014424 0.933512 0.349941 0.0086
0.195169 -0.623483 -0.056727 0.828616 -0.054595 -0.556964
0.118516 -0.283368 -0.098087 0.291658 -0.026489 -0.954472
-0.087968 0.061281 -0.103978 -0.713477 0.14314 -0.68535
0.033365 0.240814 0.127826 0.020802 0.033613 0.999013
-0.021595 -0.806219 0.045821 0.895513 0.308742 0.297523
-0.011715 -0.047449 -0.127862 0.004091 -0.499783 -0.865438
-0.106827 0.419788 -0.112372 -0.442074 -0.229163 -0.86133
0.003775 -0.438735 0.044779 0.77841 -0.136966 0.612255
0.092602 0.23908 -0.135876 0.046237 -0.177816 -0.981655
-0.121698 -0.766237 -0.047387 -0.974026 -0.220612 -0.020534
0.048634 0.282041 0.122425 0.125572 0.113737 0.985424
-0.08825 0.283732 0.072311 -0.660198 0.019258 0.749868
0.071743 -0.697723 -0.051599 -0.841636 -0.148669 -0.51789
0.174937 0.33563 -0.081928 0.784681 -0.338802 -0.518172
-0.008815 -0.723477 -0.098002 0.584616 0.30102 -0.75245
0.387157 0.239448 -0.062962 -0.607626 -0.759467 0.225554
0.455063 0.203507 -0.014245 -0.748425 -0.140078 0.614241
-0.073945 -0.800159 -0.137148 -0.64495 -0.133085 -0.744266
0.187435 -0.257567 -0.056813 0.723986 -0.183114 -0.664963
0.624563 0.05569 0.108053 0.09654 0.292622 0.917644
-0.098556 -0.814889 -0.102662 -0.800752 -0.338301 -0.490693
-0.517032 0.125999 0.027233 -0.790143 0.608664 -0.067153
0.047136 0.6492 0.042262 0.305399 -0.622326 0.715085
0.101805 -0.483104 -0.102444 -0.393088 0.015719 -0.919086
0.602698 0.070154 0.075549 -0.736934 -0.585415 0.283218
0.128499 -0.192219 0.096831 0.083933 -0.152054 0.984722
-0.098624 0.361419 0.062696 -0.687571 -0.246168 0.682265
-0.116114 0.138241 0.047152 -0.882496 0.054877 0.466778
0.236877 0.426611 -0.002237 0.439171 -0.493138 0.716959
0.517967 0.179338 -0.047062 0.412032 -0.418005 -0.808195
-0.119302 -0.260281 0.08911 -0.860693 -0.054598 0.501273
-0.127766 0.002296 -0.055295 -0.925333 0.073116 -0.371174
-0.05824 -0.203115 0.119453 -0.133348 -0.139784 0.976466
-0.201973 0.403005 -0.096861 -0.085328 0.065853 -0.992388
-0.098627 -0.821241 -0.09521 -0.819893 -0.421352 -0.37012
-0.027579 0.800411 -0.086905 -0.884085 0.054877 -0.459156
0.084548 -0.82249 -0.084877 -0.740656 -0.6165 -0.2263
-0.026356 -0.853379 0.003931 0.70111 -0.689945 -0.162499
0.107637 -0.271644 0.08377 -0.034355 -0.13953 0.988803
0.196289 -0.386376 0.032068 0.942281 -0.031272 0.333303
-0.137969 -0.007315 -0.007309 -0.997199 0.058814 -0.042036
-0.064598 -0.500054 0.068473 0.4102 -0.200609 0.889043
0.123327 0.580447 -0.026754 0.266304 0.892248 0.340178
-0.453546 0.203278 0.004606 -0.708541 0.578565 0.393964
-0.090349 0.419904 0.075725 -0.637674 0.08674 0.765217
-0.140009 -0.108433 0.046008 -0.945343 0.001551 0.325917
0.291121 0.329401 -0.089853 -0.663176 -0.746229 -0.026182
-2.3e-05 -0.456294 0.04553 0.743413 -0.147191 0.652117
0.210001 0.555527 -0.065122 0.519425 0.774625 -0.339473
-0.183757 0.522573 0.006975 -0.702615 0.681471 0.203335
0.027729 0.009219 0.142885 -0.010918 0.128347 0.991617
-0.113429 0.289389 -0.016542 -0.980756 -0.187934 0.043613
-0.034991 -0.759528 -0.129941 0.275164 0.423981 -0.85872
0.135239 -0.816702 0.071583 0.286286 0.896289 0.332671
0.13069 0.124504 0.098436 0.550316 0.026703 0.833011
0.080415 -0.211249 -0.090813 -0.44586 -0.181586 -0.87627
0.072057 -0.061067 -0.13624 -0.220575 -0.382122 -0.896626
0.597417 0.066995 0.009032 0.896384 -0.3705 -0.187308
0.06884 0.370013 0.1042 0.178679 0.165763 0.969357
0.017482 0.681558 0.086653 -0.437993 0.146335 0.878858
0.154561 -0.630932 -0.088752 0.469564 -0.149496 -0.869676
0.522939 0.189846 -0.050337 0.149106 -0.493265 -0.851541
0.179918 -0.274782 0.073738 0.453424 -0.012685 0.890257
-0.073183 0.349019 0.087998 -0.542859 -0.112108 0.82763
-0.094425 -0.391343 -0.068852 -0.55843 -0.116483 -0.819264
0.016289 -0.788357 -0.058182 0.896094 -0.418252 0.080111
0.188916 0.042491 0.069412 0.771355 0.219657 0.596693
0.077607 0.700366 0.068142 0.746817 -0.067468 0.659918
0.126273 -0.77181 -0.105229 -0.042749 0.382815 -0.916925
-0.098854 -0.857541 -0.009049 -0.613255 -0.758839 -0.216419
-0.074047 -0.863493 0.014719 -0.020283 -0.999661 -0.014126
0.073824 0.647463 -0.048545 0.745921 0.17382 -0.638887
0.440687 0.269989 -0.038787 0.193093 0.559076 0.804639
0.199251 -0.590938 -0.00249 0.985599 -0.02805 0.166644
0.044886 0.863777 -0.044641 0.07376 0.978955 -0.185769
0.128925 0.178436 0.097671 0.5218 0.023226 0.852475
-0.245669 0.44501 -0.038418 -0.760434 0.643373 -0.082364
0.067785 -0.747227 0.027496 0.026025 -0.540076 0.791382
0.086594 0.829067 -0.066548 0.824014 0.461577 -0.318014
-0.061942 0.341996 0.093095 -0.642515 -0.081722 0.759769
0.213022 -0.019659 0.016302 0.990873 0.087607 0.078716
-0.023322 -0.415343 -0.07702 0.498309 0.225409 -0.836931
0.125886 0.283812 -0.12724 0.600384 -0.048577 -0.798089
0.608113 0.096235 0.015804 0.774649 0.617007 -0.118426
0.155314 -0.398788 0.074531 -0.003572 -0.068594 0.996516
-0.035972 0.751736 0.001123 -0.965178 -0.106512 0.232266
-0.388049 0.284763 -0.024905 -0.681361 0.697973 0.21221
0.045812 0.861934 -0.054034 0.095996 0.939221 -0.324249
-0.001789 -0.70672 -0.086435 0.531376 0.275107 -0.800726
-0.069742 0.575668 -0.014219 -0.230183 0.885659 0.400202
0.00997 -0.538637 -0.054709 0.86749 0.041653 -0.495666
-0.243865 0.39719 -0.092799 -0.230204 0.366603 -0.899205
0.068184 0.230881 0.122858 0.298556 0.096597 0.949273
0.140759 0.419192 -0.140101 0.386021 -0.232387 -0.89243
-0.082846 -0.496717 -0.094364 -0.416594 0.116907 -0.895255
-0.26098 0.285336 -0.030665 0.70635 -0.673087 0.214892
-0.119984 0.346959 -0.005485 -0.991973 -0.099176 0.069603
0.15284 -0.451626 0.069274 -0.08698 -0.123105 0.981656
0.19134 -0.306731 0.058101 0.901993 -0.081602 0.421719
-0.100035 -0.641919 0.043084 -0.379913 -0.26441 0.868244
0.105684 -0.869885 0.102011 -0.062133 -0.993006 0.018686
-0.000653 -0.632924 -0.069901 0.615382 0.061179 -0.785715
0.0876 0.725281 0.056799 0.879446 0.009919 0.454289
0.098072 0.810048 -0.003427 0.960907 0.257153 0.085881
-0.038592 0.27892 0.106968 -0.509448 0.076582 0.856773
0.182506 -0.46233 -0.075232 0.741574 0.138495 -0.655743
0.006917 -0.429617 0.042669 0.798196 -0.156814 0.581569
0.105818 -0.722291 -0.093821 -0.399084 0.060947 -0.914343
-0.041191 0.827953 -0.03628 -0.935464 0.328727 -0.101399
0.202976 -0.573431 -0.027383 0.961362 -0.23338 -0.11062
0.111624 -0.806007 0.060873 -0.08921 0.708077 0.695139
-0.136674 -0.505412 -0.01286 -0.99231 -0.09029 0.06061
-0.098472 -0.762729 -0.103595 -0.719933 -0.008912 -0.690892
0.194234 0.435737 0.035344 0.625686 -0.050219 0.775433
0.200004 -0.393119 -0.037124 0.930971 -0.04389 -0.360812
0.187921 0.532713 0.007236 0.268589 0.604161 0.750091
-0.006098 -0.039309 0.134113 0.017115 -0.155956 0.984738
0.360663 0.327547 -0.133785 0.169599 0.011015 -0.98506
-0.059041 -0.863991 0.103679 0.001829 -0.999738 0.020647
-0.106933 0.077307 -0.076539 -0.825548 0.162012 -0.539836
0.177745 0.278834 0.029268 0.937893 0.009934 0.3449
0.013936 -0.609446 -0.053225 0.728811 0.097803 -0.67748
-0.044155 -0.431485 0.079613 0.236532 -0.226544 0.944018
0.096369 0.728224 0.019338 0.970929 -0.018839 0.228839
0.195285 -0.206479 -0.056225 0.728511 -0.06686 -0.681647
-0.314299 0.349191 -0.020131 -0.60541 0.713802 0.342551
-0.040496 -0.862732 -0.090123 0.105726 -0.99239 0.045885
-0.033666 0.148216 0.117221 -0.474642 0.016062 0.879983
0.068121 0.41403 -0.139823 -0.377053 0.072157 -0.92196
-0.090494 0.013072 -0.113823 -0.718647 -0.01792 -0.694815
-0.080972 -0.512492 0.072703 0.208735 -0.212156 0.916634
0.032914 0.444015 -0.127874 -0.125943 0.009717 -0.99123
0.04956 -0.627121 -0.016326 -0.959229 0.090302 0.24686
-0.130602 -0.393539 0.028212 -0.954623 0.216226 0.196219
0.177228 -0.162003 0.089562 0.533031 -0.044812 0.843901
-0.061955 -0.553506 -0.102953 -0.012962 0.03986 -0.998803
0.175011 -0.011937 -0.096175 0.829675 0.05559 -0.553809
0.015329 0.631876 -0.063718 -0.317037 0.322812 -0.890595
0.087479 -0.360981 -0.093903 -0.50368 -0.054713 -0.861999
-0.039594 -0.537491 -0.098899 0.306061 0.026598 -0.951335
-0.02505 -0.838534 -0.12385 0.855441 -0.390406 -0.257753
0.319629 0.406701 -0.037131 0.600248 0.359732 0.712997
0.199285 -0.07284 -0.046934 0.930421 0.022949 -0.365445
-0.1282 -0.150989 0.078702 -0.887733 0.019233 0.45845
-0.105545 -0.157152 0.107286 -0.658682 -0.05241 0.750528
-0.129128 0.10019 0.007689 -0.995269 -0.091249 0.02078
0.195798 -0.427561 -0.048453 0.88768 0.099034 -0.442451
-0.342791 0.254728 0.00789 0.053183 0.031448 0.997347
-0.010157 0.780593 -0.108963 -0.708102 0.010969 -0.704998
0.157448 -0.684582 -0.078833 0.667694 -0.039237 -0.743113
-0.118564 -0.420664 -0.044166 -0.779893 0.23203 -0.576773
0.093811 0.362089 -0.145369 0.005302 -0.030914 -0.99946
0.144456 0.468405 0.063327 0.407076 0.362881 0.835946
0.021085 -0.647742 -0.00369 0.866409 -0.133643 0.480696
0.273006 0.487979 -0.097427 0.600954 0.597146 -0.53098
0.064038 -0.37691 0.036099 -0.704611 -0.286853 0.648808
0.112518 0.139814 -0.115192 0.423418 0.247082 -0.870781
0.126357 -0.869945 0.075982 -0.007282 -0.999928 0.006864
-0.042336 -0.507274 -0.097999 0.218348 0.076207 -0.971556
0.035551 -0.171245 -0.049016 -0.894262 -0.16234 -0.415569
0.046723 -0.606444 -0.027298 -0.98731 -0.087687 0.112606
0.188205 -0.269516 0.066784 0.745483 -0.013989 0.662463
0.586258 0.047146 0.031538 0.570563 -0.788359 0.167661
0.192358 0.156421 0.025606 0.872214 0.30207 0.37946
-0.098574 -0.09164 0.108384 -0.548889 0.061451 0.83251
0.331393 0.389769 -0.051194 0.891583 -0.238912 0.370247
-0.376671 0.297539 -0.055571 -0.702364 0.70059 -0.118213
-0.048259 -0.862837 -0.083082 0.044824 -0.997185 0.054484
0.022491 -0.069932 0.118055 0.246723 -0.282287 0.924443
-0.092308 -0.311816 -0.069277 -0.679797 -0.003588 -0.733266
0.51338 0.189489 -0.052683 0.221595 -0.367849 -0.902208
0.157207 0.361232 -0.113764 0.579169 -0.297819 -0.758537
0.047929 0.29513 -0.130953 -0.336124 -0.019107 -0.941252
-0.002724 0.860174 -0.016395 -0.562471 0.818318 -0.012786
0.175203 -0.573338 0.036087 0.53483 -0.227819 0.811999
0.138136 -0.385724 0.074377 -0.145953 -0.139638 0.977868
0.313187 0.42295 -0.038759 0.753264 0.24976 0.607093
0.02166 0.331723 0.117434 -0.173501 0.314149 0.930827
0.019608 -0.168392 0.078905 0.943568 -0.107895 0.308333
0.005975 0.72689 0.073103 -0.504873 0.148891 0.846187
0.026175 -0.35846 0.022164 0.984183 -0.095322 0.14268
-0.03742 0.78959 -0.021747 -0.994581 0.07294 0.070959
-0.016508 -0.013161 0.138014 -0.053141 -0.721109 0.667213
-0.104077 -0.817951 -0.084397 -0.875719 -0.433253 -0.204132
-0.1311 0.016398 0.064502 -0.828915 0.292085 0.475435
0.19125 0.036654 -0.062303 0.905534 0.0649 -0.418483
0.458848 0.19382 -0.05156 -0.144167 -0.966755 -0.142453
0.105375 -0.556567 -0.100972 -0.464098 -0.121448 -0.875933
-0.080646 -0.403568 0.091665 0.10843 -0.210888 0.969879
0.187962 -0.672028 -0.050694 0.705209 -0.296777 -0.642163
-0.105119 -0.836374 -0.027958 -0.994451 0.015926 -0.048805
-0.118935 0.516634 0.050921 -0.04819 0.475784 0.877579
-0.023565 -0.770554 -0.131645 0.449596 0.487564 -0.747689
0.004088 -0.37596 -0.048702 0.659228 0.049632 -0.750037
0.07898 0.573004 0.00908 0.499831 0.375638 0.77842
0.048991 0.025172 -0.15951 -0.111571 -0.132648 -0.979395
0.108901 -0.183595 -0.106 -0.085407 -0.146674 -0.984897
-0.160695 0.387204 -0.069027 0.669118 -0.624323 -0.401937
-0.11286 -0.354416 -0.05119 -0.768806 0.114186 -0.627551
-0.057718 -0.233548 -0.092388 -0.116583 0.028203 -0.990181
0.205736 -0.220999 -0.030443 0.994222 -0.048771 -0.092538
-0.012432 -0.389816 0.07671 0.569101 -0.218962 0.792533
-0.486819 0.113152 0.012948 0.427115 -0.738584 -0.478361
0.505935 0.164072 -0.038027 -0.404492 -0.874262 -0.257907
0.166906 -0.817365 -0.087653 0.891005 -0.343478 -0.246938
0.042237 -0.208161 -0.047617 -0.95063 -0.053401 -0.30366
-0.103063 -0.761458 0.005795 -0.580579 -0.50435 0.59026
0.083021 0.13169 -0.127437 0.152621 0.323452 -0.933152
-0.02884 -0.397776 -0.076135 0.431518 0.079701 -0.894265
-0.068117 -0.270553 0.10987 0.061306 -0.144277 0.987467
0.095845 -0.322752 -0.098108 -0.304522 0.010749 -0.947878
-0.086396 -0.543025 0.06695 -0.057733 -0.195331 0.973456
0.080006 -0.042547 0.128397 0.045332 -0.272539 0.954847
-0.015803 0.099826 0.129011 -0.338199 0.023144 0.935773
0.110275 0.150851 -0.113386 0.370398 0.196355 -0.906497
0.201722 -0.296746 0.03478 0.9408 -0.066797 0.331982
0.087524 0.692824 0.040955 0.919085 -0.335662 0.136035
-0.124973 -0.303009 0.060974 -0.963613 -0.18672 0.19076
0.126165 -0.756526 0.023593 -0.067908 -0.737908 0.670161
0.155821 -0.148683 0.101651 0.528694 -0.291892 0.795427
0.07217 0.656041 0.024144 0.796864 -0.335415 0.494313
0.225291 0.445315 0.014853 0.428475 -0.221405 0.870899
0.078762 -0.326876 -0.088376 -0.628628 -0.023696 -0.777171
0.166023 0.06419 0.088978 0.496407 0.227798 0.81947
0.161391 -0.265809 -0.074743 0.521297 -0.177099 -0.834306
0.02522 0.185804 0.130295 0.011113 0.029311 0.999441
-0.127923 -0.268534 -0.013474 -0.966271 -0.040108 -0.248156
0.107641 0.306926 -0.138319 0.33133 -0.070819 -0.939452
-0.060494 -0.863744 0.115795 0.002323 -0.999413 0.024495
0.192773 -0.693752 -0.03811 0.783096 -0.115134 -0.606386
0.011506 -0.162451 0.097373 0.804205 -0.12115 0.579774
-0.129362 -0.284547 0.012399 -0.995761 -0.086597 -0.015967
-0.061567 0.580135 -0.017687 -0.206229 0.882178 0.39092
-0.176599 0.399648 0.023129 0.152294 -0.411687 0.895185
-0.522364 0.072768 0.052108 0.606817 -0.780658 -0.139452
0.119685 -0.733407 -0.099111 -0.124038 0.087402 -0.979366
-0.11529 -0.365027 -0.050035 -0.769383 0.087503 -0.628789
-0.009794 -0.181939 -0.077634 0.617371 -0.013003 -0.786482
0.005368 -0.388401 -0.049048 0.659932 0.098292 -0.744376
0.077504 0.685761 -0.048797 0.737938 -0.374298 -0.560796
0.271375 0.389332 -0.020458 -0.199269 -0.404279 0.890243
0.045706 0.034177 -0.158555 -0.147436 0.134429 -0.977142
-0.034395 -0.791714 0.046603 0.540915 0.640116 0.544509
-0.002353 -0.215868 -0.072404 0.617669 0.025336 -0.783163
0.04169 -0.370968 -0.03506 -0.924055 -0.061636 -0.36893
-0.067215 0.178341 -0.090047 -0.501508 -0.072932 -0.859798
0.011961 0.047383 -0.149365 -0.204684 0.311308 -0.926632
-0.017243 -0.206934 0.112507 0.346942 -0.142663 0.925372
0.53834 0.181437 -0.039692 0.525892 -0.598184 -0.592101
-0.082146 0.269292 -0.102466 -0.655597 -0.108224 -0.746946
-0.471371 0.13694 -0.014183 0.291309 -0.863309 -0.410848
-0.288931 0.269509 -0.078692 0.517957 -0.525627 -0.674052
0.093896 0.815423 0.014437 0.805333 0.52757 0.26258
0.259975 0.367333 -0.123456 -0.491037 -0.668299 -0.554659
0.062311 0.474689 0.078844 0.099932 0.392213 0.913088
-0.204672 0.490591 0.019083 -0.721603 0.507539 0.46551
0.017404 0.199866 0.129712 -0.020876 0.05588 0.99808
-0.057225 -0.515286 0.061524 0.410332 -0.278026 0.867788
0.194581 0.157905 -0.012338 0.843579 0.373667 -0.358464
0.009298 0.678172 -0.064121 -0.489925 -0.417981 -0.763542
0.203336 -0.251756 0.034693 0.976016 0.042939 0.210479
-0.527718 0.103904 0.028431 -0.761766 0.290066 -0.481923
0.035471 0.56102 0.026271 0.104318 0.154351 0.974822
0.022553 -0.435797 0.007933 0.963984 0.149216 0.215205
0.519529 0.176265 0.016108 -0.226474 0.49109 0.833339
-0.135785 -0.081214 0.061225 -0.945069 0.008927 0.322493
-0.053708 -0.86119 0.140567 0.271829 -0.90821 0.256396
0.045102 -0.152339 -0.075899 -0.775188 -0.243339 -0.579985
0.022185 -0.189762 0.064444 0.953683 -0.028325 0.298202
-0.136041 0.48023 0.061576 -0.120854 0.111141 0.981966
-0.031206 -0.259736 -0.090277 0.320269 0.00094 -0.94716
0.036857 0.440613 0.091544 0.159497 0.184007 0.968588
0.12078 0.563709 -0.002271 0.346228 0.719422 0.600636
-0.03632 -0.178217 -0.092861 0.366516 -0.030074 -0.929897
0.447327 0.211963 -0.093569 0.83807 -0.119481 -0.529108
0.489797 0.216228 -0.069046 0.168914 -0.338874 -0.919739
0.073905 -0.033174 -0.148392 -0.170679 -0.399109 -0.898854
0.145591 0.370184 0.074853 0.640645 -0.030984 0.766873
-0.076719 0.203659 -0.085554 -0.760818 -0.076364 -0.644282
-0.018315 0.848013 -0.037896 -0.552638 0.804063 -0.215974
0.182674 0.224519 -0.014366 0.998032 0.010099 -0.059194
-0.184148 0.497644 -0.066257 -0.603607 0.463558 -0.647815
0.501108 0.164726 -0.025417 -0.592547 -0.803578 -0.051217
0.01741 0.385685 -0.128051 0.002256 -0.020665 -0.999332
0.165625 0.032725 -0.105488 0.781063 0.09037 -0.616598
0.013094 -0.383423 0.049377 0.856066 -0.131577 0.499366
-0.380476 0.235811 -0.077109 -0.154154 -0.304069 -0.938354
0.201647 -0.492815 -0.027683 0.986537 0.127101 -0.094864
-0.240627 0.367557 -0.097823 0.076054 -0.063284 -0.994504
0.087687 -0.84305 0.076881 -0.914907 0.399856 0.032681
-0.009051 0.837763 -0.072977 -0.47626 0.719165 -0.505304
0.205794 -0.355094 -0.005415 0.998652 -0.006752 -0.003499
0.176807 0.250404 -0.037954 0.93133 0.005128 -0.364118
0.16983 -0.294034 0.075604 0.251877 -0.07965 0.964237
0.175586 0.155888 -0.048405 0.896522 0.001592 -0.44232
-0.20369 0.431426 0.040083 -0.199386 -0.194231 0.947731
0.070754 -0.23904 -0.082241 -0.646526 -0.04292 -0.76102
0.000567 -0.13285 -0.073211 0.793951 -0.172734 -0.582893
0.026174 0.003902 -0.148295 -0.218046 -0.251555 -0.938915
-0.005048 0.101229 0.132762 -0.28934 0.129013 0.946867
0.191011 0.381828 0.017313 0.940745 -0.14922 0.299253
0.015997 -0.660379 0.001999 0.823696 -0.194721 0.529197
0.074038 -0.318908 -0.084912 -0.637858 -0.027693 -0.768428
0.059935 0.465774 0.082263 0.094132 0.317466 0.942671
0.153804 -0.849327 -0.094378 0.868018 -0.067118 -0.487117
0.484153 0.242612 -0.072978 0.638438 0.481253 -0.580527
0.145866 -0.323722 -0.08204 0.581172 0.023562 -0.811849
-0.09303 -0.133105 -0.083406 -0.665008 -0.090394 -0.741304
-0.083019 -0.372641 -0.077262 -0.47269 -0.034939 -0.880083
0.01168 -0.721474 -0.078752 0.738626 0.10697 -0.665254
0.042331 0.610066 -0.078175 0.045651 0.709194 -0.668976
-0.118764 0.30587 -0.041903 -0.978616 -0.18931 -0.064174
-0.193131 0.455272 0.043416 -0.355758 0.162544 0.915435
-0.299392 0.339612 -0.088807 -0.408066 0.438908 -0.798074
0.008111 -0.278493 0.08404 0.692933 -0.153862 0.702827
-0.511935 0.098095 0.085694 0.827683 -0.040304 0.5523
-0.123021 -0.007523 -0.066577 -0.864635 0.02665 -0.501511
0.28021 0.354306 -0.12058 -0.504013 -0.629524 -0.590452
-0.300499 0.326577 0.004771 -0.25757 0.178044 0.948663
0.585952 0.048656 -0.025665 -0.03311 -0.589285 -0.732151
0.084992 -0.822536 0.032593 -0.756779 -0.598319 0.202382
-0.081082 -0.648627 0.039596 0.30591 -0.271481 0.909075
-0.062489 -0.017844 -0.129315 -0.259031 -0.117997 -0.957764
0.204611 -0.510947 -0.027475 0.977346 0.101321 -0.159216
-0.403843 0.180724 -0.035912 0.478446 -0.83021 -0.271651
-0.374193 0.218744 -0.070926 0.16981 -0.479036 -0.858646
-0.242579 0.446877 -0.013206 -0.759961 0.618385 0.189191
-0.039497 -0.862445 0.111785 0.254442 -0.956348 0.127644
-0.077027 -0.861911 -0.065368 -0.043771 -0.997748 0.048327
0.083383 -0.781724 0.03706 -0.432272 0.367013 0.809484
0.048672 -0.381251 -0.049413 -0.907487 0.001823 -0.393711
-0.024702 -0.22809 -0.087603 0.390205 0.014703 -0.918849
-0.122759 -0.625983 0.004316 -0.955897 -0.040063 0.287751
-0.450259 0.197842 0.012001 -0.421325 0.569663 0.693012
0.027104 -0.662307 -0.039734 0.996832 0.004299 -0.057393
-0.093157 0.488041 0.061785 -0.176608 0.351318 0.917843
0.004931 -0.714482 -0.083923 0.637463 0.190479 -0.742683
-0.044669 -0.859805 -0.049604 0.208416 -0.973391 0.074544
-0.201096 0.506662 -0.007466 -0.762688 0.641995 0.076476
0.175627 0.119995 -0.056656 0.848178 0.245077 -0.467917
-0.016625 -0.773338 0.002145 0.684631 0.552177 0.471868
0.173946 -0.559117 -0.084639 0.706011 -0.029965 -0.707465
0.204319 0.017894 -0.025306 0.969279 -0.015532 -0.24032
-0.030766 0.034679 0.130373 -0.222803 0.195754 0.953491
-0.077009 -0.169332 0.117279 -0.263497 -0.145574 0.953463
-0.115492 -0.172943 -0.048529 -0.814564 -0.137916 -0.563025
0.52252 0.214984 -0.038457 0.519883 0.782047 0.34174
0.07795 0.160694 -0.120284 0.106135 0.143707 -0.983604
0.081362 0.71419 -0.070717 0.716699 -0.497855 -0.487838
-0.127935 0.162096 -0.005693 -0.991898 -0.020194 -0.108116
0.085886 -0.575851 -0.083674 -0.650133 -0.114216 -0.751123
0.115683 0.210169 0.104179 0.48246 0.04156 0.874923
0.131982 -0.25248 -0.094411 0.441681 -0.083088 -0.890526
-0.080118 -0.299095 -0.08014 -0.589934 -0.061824 -0.804916
0.18857 -0.140661 -0.064994 0.718866 -0.047816 -0.693255
0.000207 -0.13963 0.112197 0.576359 -0.157382 0.801865
-0.025184 0.703951 -0.008951 -0.847727 -0.511057 -0.093411
-0.109098 -0.157879 -0.060421 -0.783183 -0.142868 -0.604953
-0.057507 0.062966 -0.127452 -0.366863 0.23724 -0.896777
0.000582 -0.482133 -0.062469 0.838838 0.057619 -0.521368
-0.119197 -0.398779 -0.042411 -0.790425 -0.096738 -0.603679
0.069583 -0.784124 -0.049953 -0.897064 0.123756 -0.421731
0.055766 -0.594483 -0.006396 -0.781583 -0.13364 0.607063
-0.058004 -0.21495 0.117435 -0.094418 -0.114848 0.983645
0.490001 0.234915 -0.018001 0.577977 0.713988 0.363914
0.195742 -0.477583 -0.057385 0.876685 0.032407 -0.473514
-0.073187 -0.723629 -0.120932 -0.327305 0.230487 -0.910586
-0.120758 0.02963 0.077228 -0.851333 0.140312 0.504712
-0.099107 -0.022469 0.105018 -0.616902 0.024309 0.780425
-0.037775 0.125328 -0.11621 -0.343167 0.425284 -0.836512
0.204189 -0.387556 0.009034 0.962954 -0.010198 0.261619
-0.039103 0.7481 -0.009768 -0.957511 0.068635 0.239143
0.190428 0.138786 -0.022376 0.81977 0.041745 -0.567722
0.038695 0.858344 -0.063319 0.062936 0.844897 -0.530598
0.17196 -0.152298 0.093013 0.583445 -0.083106 0.805719
-0.083003 0.101785 0.093605 -0.598567 0.201178 0.7745
0.0508 0.633907 -0.06603 0.180691 0.254006 -0.944379
0.185722 -0.608413 -0.069655 0.701994 -0.044186 -0.710323
-0.303354 0.244357 -0.022505 0.659236 -0.722076 0.207996
-0.382521 0.192103 -0.011438 0.472119 -0.880106 0.040914
0.014972 -0.212531 0.084287 0.85674 -0.062492 0.511641
0.1371 0.09071 0.098194 0.58074 0.161066 0.794508
0.400977 0.226017 -0.100367 -0.549359 -0.813586 -0.167101
0.153893 -0.652071 -0.08509 0.533874 -0.155492 -0.830966
0.054889 -0.664559 -0.033696 -0.87259 -0.149538 -0.463281
0.135495 -0.265266 -0.091245 0.468469 -0.086527 -0.877626
0.042998 0.772938 -0.119968 0.208327 0.016093 -0.972925
0.198002 -0.508317 0.008974 0.954743 -0.008462 0.296756
-0.011953 -0.8273 -0.122509 0.597241 -0.68937 -0.397824
0.512317 0.203532 -0.001904 0.069148 0.906269 0.403325
0.060061 -0.45707 -0.064189 -0.731309 0.036983 -0.681006
-0.054125 -0.622582 0.035005 0.383814 -0.170323 0.906967
-0.107066 -0.702004 0.011351 -0.721891 -0.410374 0.55403
0.0383 -0.363261 -0.026529 -0.951296 -0.05596 -0.227043
-0.09384 0.179334 0.074952 -0.695998 -0.022633 0.717685
-0.155775 0.383648 -0.047936 0.558654 -0.808624 -0.161764
0.175667 -0.574743 -0.0823 0.677937 -0.051866 -0.730754
0.054549 0.548731 0.029131 0.143275 0.571796 0.804413
0.105044 -0.861117 0.164565 -0.343805 -0.891392 0.259008
0.162749 -0.826029 -0.081091 0.829512 -0.53495 -0.095426
-0.03623 0.395262 -0.129165 -0.082151 -0.024456 -0.995746
-0.071665 -0.614041 -0.105022 -0.047412 0.065465 -0.995923
-0.124783 0.370043 -0.058149 -0.931481 -0.343042 -0.113898
0.00358 -0.583586 0.014301 0.68803 -0.033817 0.723548
0.080975 0.679854 0.042682 0.833018 -0.54616 0.078016
-0.103402 -0.452349 -0.074073 -0.655712 0.170244 -0.733797
0.08206 -0.176935 0.089979 -0.455941 -0.075623 0.88565
0.056788 0.107627 0.13267 0.303805 0.169079 0.927585
0.202103 0.558668 -0.057044 0.192905 0.976074 -0.059584
0.06001 -0.447391 0.002696 -0.529073 -0.060361 0.843576
-0.105132 -0.778257 -0.096203 -0.843526 0.061505 -0.533334
-0.025364 0.31635 0.110868 -0.432613 0.142804 0.878122
0.02411 0.863527 0.023578 -0.057707 0.995646 0.070117
0.097863 -0.848545 0.151625 -0.883066 0.28386 0.368931
-0.055569 -0.386363 0.09084 0.173949 -0.184501 0.966853
-0.136175 -0.429834 0.016928 -0.986504 -0.012746 0.161321
-0.103821 -0.146599 0.109367 -0.674919 0.007032 0.737362
-0.025008 0.515142 0.063126 -0.130693 0.516875 0.844702
0.087519 -0.758797 -0.071434 -0.80943 0.133608 -0.570913
-0.059709 0.455172 0.083229 -0.171922 0.317302 0.932331
0.164449 0.212844 0.058262 0.73954 0.065503 0.669724
0.164497 -0.547339 -0.093608 0.682774 -0.033679 -0.729851
-0.030929 0.424218 -0.130086 0.000711 -0.038245 -0.999144
0.096705 -0.302328 0.07799 -0.407453 -0.214829 0.886787
0.086869 0.714224 -0.061253 0.738157 -0.521793 -0.418503
0.037915 0.760297 -0.120435 0.109365 -0.128626 -0.982881
-0.241927 0.414944 0.019189 -0.60545 0.267542 0.748451
0.03431 0.731277 -0.109301 -0.001783 -0.551729 -0.831811
-0.260109 0.295224 -0.07131 0.60686 -0.61337 -0.497924
-0.131244 0.458292 0.061486 -0.063896 -0.047041 0.995345
0.100845 0.725462 -0.000753 0.989592 0.017348 0.108471
0.018864 -0.630812 0.003695 0.802151 -0.045824 0.593067
-0.081969 -0.103904 0.116284 -0.426134 0.009471 0.902782
0.154052 -0.826133 0.075745 0.505983 0.847483 0.148557
0.124603 -0.633043 -0.096845 -0.051038 -0.098269 -0.992954
0.160171 -0.431693 -0.08722 0.540358 0.207879 -0.813779
0.108448 -0.778064 -0.10267 -0.472406 0.434108 -0.766485
-0.108501 -0.482505 -0.074349 -0.688946 0.114719 -0.715615
0.165535 -0.311471 -0.06596 0.67832 -0.00893 -0.734249
0.001931 0.588647 -0.089944 -0.116715 0.588798 -0.798862
0.033557 -0.227112 0.021813 0.866866 -0.151864 0.472105
-0.087365 0.30657 -0.101234 -0.659445 -0.071481 -0.748215
0.121115 -0.860374 0.178851 -0.098175 -0.94996 0.289352
0.204138 -0.009831 -0.031559 0.947171 0.064636 -0.313357
0.046021 -0.291052 0.039706 -0.898014 -0.058783 0.426065
0.032786 0.113298 -0.134772 -0.121775 0.403043 -0.9055
0.195627 0.097484 -0.003313 0.985869 0.025924 0.065349
0.140549 0.499712 0.046765 0.356638 0.525082 0.772473
0.063102 0.848911 -0.067781 0.424874 0.759127 -0.49227
0.196017 0.388311 -0.00092 0.967846 -0.120215 0.219146
-0.12833 0.560553 -0.013451 -0.409483 0.889226 0.112015
0.226847 0.387538 -0.095194 -0.719742 -0.687925 -0.085516
-0.320782 0.34707 -0.043843 -0.689305 0.722987 -0.028736
0.171775 0.21637 0.050107 0.761823 0.058346 0.644953
-0.115424 -0.326481 -0.043013 -0.851341 0.0766 -0.504999
-0.013267 -0.806639 0.019389 0.941045 0.207401 0.258147
-0.107579 0.470267 -0.115464 -0.450871 0.131634 -0.882575
-0.250203 0.42384 0.003178 -0.708775 0.51536 0.480478
0.197132 -0.438193 0.017752 0.971469 -0.097733 0.213599
0.142587 -0.491257 -0.105167 0.286662 0.05383 -0.955823
-0.097555 0.30571 -0.090896 -0.724475 -0.115998 -0.678404
0.141943 0.340321 -0.119885 0.662977 -0.173535 -0.727925
0.189753 -0.563291 -0.067232 0.78379 -0.019953 -0.619199
0.074587 -0.822788 -0.044996 -0.436799 -0.890412 -0.063564
0.207548 -0.193821 -0.015208 0.998735 -0.033624 -0.034281
-0.098841 0.009111 -0.10486 -0.85095 0.00017 -0.492384
-0.022027 0.737188 -0.07667 -0.789576 -0.401399 -0.457048
-0.101445 0.141551 -0.068713 -0.756464 0.199345 -0.622174
-0.429803 0.236557 -0.01659 -0.722369 0.687865 0.067787
0.026811 -0.359582 -0.00284 0.99576 -0.028308 -0.07352
0.112993 -0.151668 0.107676 -0.293363 -0.28203 0.898368
0.162979 -0.247161 0.082398 0.243079 -0.108693 0.962523
-0.139865 -0.053983 0.040866 -0.96755 0.077425 0.240028
-0.113679 0.09726 -0.05786 -0.872902 0.179154 -0.453276
0.174925 0.062403 -0.082882 0.818839 0.197528 -0.538341
0.025748 0.041695 0.137163 0.102364 0.114614 0.987571
0.194576 -0.186031 0.062696 0.950465 -0.085166 0.296536
0.008476 -0.748005 -0.016227 0.601276 -0.431177 0.665431
0.180058 0.266042 -0.030938 0.949932 -0.00688 -0.311119
-0.142263 0.022532 0.005161 -0.987872 0.068728 -0.093911
0.197751 -0.367178 0.03067 0.952013 -0.076178 0.296172
0.161935 0.493019 0.04254 0.453016 0.391813 0.795738
0.2607 0.516237 -0.066611 0.702055 0.707164 -0.071863
-0.068608 -0.364052 -0.084017 -0.310285 -0.048626 -0.948624
0.118056 0.555384 0.009205 0.367482 0.681883 0.632229
-0.00242 0.175782 0.129002 -0.151399 -0.001911 0.986447
-0.130216 0.061642 0.033247 -0.921913 0.33128 0.198374
-0.06513 0.302247 0.089185 -0.520977 -0.028879 0.852778
-0.376804 0.194735 -0.038967 0.498024 -0.843246 -0.188896
0.079314 0.719774 -0.078739 0.679815 -0.456555 -0.572875
-0.281348 0.281016 -0.008169 0.479914 -0.593833 0.643823
0.142861 -0.371413 -0.087569 0.587798 0.124088 -0.799284
-0.0552 -0.368514 -0.086614 -0.024682 -0.126802 -0.990315
-0.059054 -0.864012 0.041742 -0.004074 -0.999807 -0.019006
0.133735 -0.869794 0.055196 0.020396 -0.999401 -0.018794
0.070086 0.861587 -0.003399 0.483237 0.870245 0.082333
0.139631 -0.593188 0.03922 -0.203218 -0.207175 0.956484
0.1828 0.229552 -0.004318 0.999853 0.006862 -0.002696
0.119056 -0.824524 0.124983 -0.078563 0.994119 0.028226
0.144301 -0.665914 -0.088927 0.460451 -0.060185 -0.884063
0.090248 -0.52398 -0.093924 -0.58147 -0.054707 -0.8117
0.363309 0.363967 -0.083194 0.66064 0.710914 0.235978
-0.06665 -0.393559 -0.081581 -0.207028 -0.079529 -0.973175
-0.362419 0.309724 -0.035286 -0.625658 0.766392 0.136194
0.029558 0.749189 0.097217 -0.31895 0.453026 0.810062
-0.024739 0.387192 0.105816 -0.051186 0.0653 0.996533
-0.049285 -0.02207 -0.13199 -0.246398 -0.157732 -0.955476
0.178446 -0.635549 0.019324 0.36937 0.02549 0.927443
-0.027184 0.490243 0.07484 -0.098416 0.446805 0.888421
0.201744 -0.19947 -0.047568 0.85816 -0.007171 -0.512116
-0.049666 -0.369542 0.093463 0.301475 -0.278624 0.911673
-0.108846 -0.461045 0.06829 -0.805478 -0.195126 0.559342
-0.352752 0.263586 0.007152 0.057178 0.182724 0.98147
0.196899 0.09033 -0.018015 0.975531 0.199059 -0.071073
-0.128017 0.397871 0.015278 -0.97678 -0.20275 0.063872
0.026416 -0.652241 -0.0185 0.968828 -0.100692 0.192987
0.068429 -0.585953 0.00864 -0.652358 -0.142186 0.744257
0.016582 -0.588904 -0.04763 0.795185 0.067356 -0.601787
0.086585 0.142055 0.120873 0.338429 0.06105 0.938421
0.087701 -0.230437 -0.092515 -0.43321 -0.048405 -0.899799
-0.34005 0.328019 -0.028622 -0.680097 0.722913 0.11631
-0.125597 0.127628 -0.02671 -0.93599 0.023932 -0.344249
-0.024442 -0.076738 0.128913 0.027749 -0.070931 0.996795
0.11459 0.137554 0.107419 0.561647 0.026649 0.825591
0.110025 -0.379826 0.066569 -0.418907 -0.203996 0.884315
-0.091796 -0.458247 0.080653 -0.135736 -0.137698 0.978544
0.100312 0.334886 -0.143734 0.205813 -0.08568 -0.973062
0.01355 -0.282726 0.076321 0.804681 -0.090016 0.585938
0.036655 0.105015 -0.138634 -0.108076 0.313172 -0.940496
-0.204781 0.465489 0.032376 -0.577269 0.265456 0.771157
0.202898 0.403381 -0.073161 0.924442 -0.379451 0.019221
-0.037096 0.797771 -0.040032 -0.997061 -0.029948 -0.062052
-0.026435 0.110822 -0.125403 -0.243661 0.350909 -0.903502
0.166322 -0.220431 -0.078388 0.559878 -0.06218 -0.825844
-0.439803 0.219833 0.001444 -0.647026 0.634498 0.403689
-0.099987 -0.463994 0.077845 -0.564835 -0.321609 0.754785
0.298987 0.356864 -0.134193 -0.31352 -0.388628 -0.864099
0.141873 -0.613099 0.035749 0.158772 -0.233258 0.949477
-0.058011 -0.009237 0.133432 -0.273804 -0.566883 0.739439
-0.090816 -0.471046 0.079325 -0.238843 -0.155097 0.946168
-0.005005 -0.014928 0.136508 -0.026468 -0.614097 0.776174
-0.080821 -0.050756 -0.111325 -0.559532 -0.262436 -0.785366
-0.080865 0.145092 -0.086952 -0.578471 0.235818 -0.780777
0.12597 -0.291095 0.082672 -0.001692 -0.05662 0.99827
0.048183 -0.260793 -0.052124 -0.823734 -0.005764 -0.566781
-0.085049 -0.216959 0.112199 -0.19596 -0.033096 0.980036
-0.112051 -0.614284 -0.086957 -0.61959 0.09368 -0.779187
-0.077238 0.163002 0.08937 -0.638427 -0.009557 0.769603
0.08907 0.433436 -0.144701 -0.157869 -0.004549 -0.98714
0.098433 0.766183 0.01924 0.982829 0.014781 0.180769
0.056124 0.865588 0.004307 0.317123 0.934952 0.143012
-0.085391 -0.622199 -0.10382 -0.268562 0.084425 -0.958768
0.116249 -0.820986 -0.117526 -0.214011 -0.10329 -0.963052
0.275566 0.412334 -0.012807 0.045929 -0.139973 0.986525
0.00028 -0.110973 -0.083139 0.733515 -0.350509 -0.581391
-0.076334 -0.828844 -0.130847 -0.78723 -0.011028 -0.615573
-0.110081 0.314613 0.023801 -0.942233 -0.023272 0.333101
0.33686 0.4258 -0.086898 0.778248 0.62375 0.066086
0.022715 0.723495 0.097369 -0.609347 -0.146636 0.74002
-0.168412 0.381367 0.003012 0.516833 -0.686873 0.507631
-0.128108 -0.280745 0.055715 -0.986281 -0.0992 0.127533
-0.012345 -0.801093 0.011428 0.952922 0.16398 0.253892
-0.500047 0.151017 0.025628 -0.746345 0.665483 0.005464
-0.012072 0.665444 -0.007248 -0.985952 -0.107132 0.003977
0.140316 -0.539884 0.049987 -0.237217 -0.191195 0.952095
0.027576 -0.628848 -0.031393 0.997007 0.00421 -0.070395
0.061518 0.595081 0.017957 0.487203 -0.00269 0.871846
0.085873 -0.3954 -0.089565 -0.62047 -0.040329 -0.7829
-0.04399 -0.855125 0.136342 0.75124 -0.383659 0.464006
-0.065125 -0.863319 0.004807 0.004251 -0.999387 -0.03449
-0.063416 0.388811 -0.122346 -0.314721 -0.090202 -0.944875
0.093488 -0.328118 0.073183 -0.365234 -0.11022 0.918252
0.362081 0.271299 -0.110425 -0.610618 -0.689694 -0.380675
0.199958 -0.147539 -0.049889 0.855952 -0.013672 -0.513853
0.156857 -0.416198 0.07313 0.003376 -0.085837 0.994082
0.026367 -0.341726 -0.012432 0.967245 -0.061433 -0.228841
0.308092 0.313285 -0.094802 -0.701321 -0.709917 -0.05187
0.538858 0.193955 -0.054132 0.158967 -0.802524 -0.565735
0.112876 -0.711504 -0.095331 -0.227293 0.099385 -0.961704
0.109172 -0.184619 0.097849 -0.103167 -0.142933 0.983314
0.200355 -0.366876 0.021139 0.961637 -0.067203 0.265069
-0.261883 0.413306 -0.069888 -0.569295 0.656485 -0.493843
0.130633 -0.256663 0.084953 0.101393 -0.119586 0.987548
0.079109 0.152685 0.122802 0.415981 0.055813 0.906918
0.482789 0.217087 -0.008672 0.484663 -0.041738 0.833768
0.034915 -0.31142 -3e-05 -0.955405 -0.059548 0.28844
-0.060628 0.131145 -0.10328 -0.381557 0.277379 -0.880658
-0.12044 0.378518 0.031139 -0.957203 -0.209353 0.198777
0.244408 0.527103 -0.026941 0.671731 0.648615 0.352828
0.552548 0.1034 0.024015 -0.922212 -0.36336 0.122016
0.013318 -0.764041 -0.081515 0.838242 0.113425 -0.531397
0.230761 0.418663 -0.131623 -0.444893 -0.218081 -0.867809
-0.022516 -0.217684 0.112761 0.250232 -0.140204 0.956656
0.017874 0.622469 0.025672 -0.444378 -0.2039 0.861512
-0.015218 0.602032 -0.071172 -0.399754 0.73981 -0.53818
0.167055 0.54687 0.001882 0.20626 0.692463 0.690257
0.058114 -0.742139 0.018827 -0.959597 -0.240474 0.129729
0.150663 0.261722 -0.093211 0.862799 -0.094236 -0.496084
0.028818 -0.280765 0.025228 0.987322 -0.046238 0.150155
0.07449 -0.234408 0.080064 -0.50183 -0.106431 0.85524
-0.0619 -0.644498 0.033102 0.357516 -0.221159 0.907104
-0.156642 0.379561 -0.033453 0.712205 -0.698315 -0.056047
-0.002803 0.250659 -0.129285 0.099639 -0.045684 -0.99341
-0.125675 -0.693793 -0.03685 -0.938824 0.031647 0.336224
0.113971 -0.485696 -0.106181 -0.211874 0.034497 -0.974156
-0.024534 -0.810627 -0.145935 0.450719 -0.129784 -0.87743
0.000106 0.447705 -0.128353 0.136024 0.006696 -0.990589
0.017814 -0.539447 0.006763 0.895699 -0.084451 0.433197
-0.014192 -0.309697 0.0897 0.439525 -0.13061 0.888189
0.165525 0.529121 0.019057 0.286993 0.618057 0.730186
0.028707 -0.308457 0.00893 0.998625 -0.047452 0.016142
-0.114456 0.162087 -0.039394 -0.889754 0.113012 -0.441562
0.034532 -0.31567 -0.009577 -0.998679 -0.032973 0.002815
-0.008859 0.007626 -0.143172 -0.169995 -0.193267 -0.966006
0.037395 0.714913 0.096812 0.211747 -0.331041 0.911856
-0.232986 0.338483 -0.082323 0.449928 -0.595163 -0.663427
0.436656 0.233431 -0.107602 0.499657 -0.353594 -0.784567
-0.370439 0.303752 -0.036966 -0.662219 0.743866 0.083775
0.071564 0.607453 0.010831 0.693763 -0.005662 0.718023
0.164036 -0.417614 -0.08187 0.575851 0.127313 -0.807112
0.011704 0.249909 -0.127345 0.149445 -0.043313 -0.987722
-0.097813 -0.849888 -0.056756 -0.920705 -0.38045 0.035026
0.56719 0.08396 0.036701 -0.85675 -0.495178 0.131507
0.092781 0.470452 0.076336 0.167219 0.397697 0.901827
0.48241 0.178363 -0.027079 -0.557248 -0.829713 -0.010216
-0.479237 0.173661 0.016911 -0.598653 0.788664 0.124867
-0.100115 -0.823298 0.013756 -0.919184 0.344219 0.165554
0.025573 -0.69813 -0.049958 0.980917 -0.0816 -0.138178
0.164895 -0.094209 0.100684 0.615971 0.036228 0.786853
-0.033103 0.742066 0.004682 -0.930519 -0.216431 0.294763
0.067597 -0.519789 -0.072422 -0.736738 -0.071994 -0.671583
0.244971 0.521503 -0.019056 0.640692 0.612612 0.459246
-0.56378 0.03555 0.037135 0.825709 -0.561987 0.033602
0.10261 0.042722 -0.151904 0.381734 0.198479 -0.900563
-0.03604 -0.398001 0.084323 0.287446 -0.22562 0.930797
0.198043 -0.458693 -0.048148 0.966609 0.039069 -0.2315
0.084106 0.601687 -0.075548 0.291683 0.704739 -0.644353
0.311943 0.411193 -0.032238 0.71638 0.238339 0.652453
0.122043 -0.763249 -0.100967 -0.258465 0.294971 -0.910452
0.004293 -0.45722 -0.054436 0.771568 0.082407 -0.630585
0.200454 -0.552244 -0.002969 0.938119 -0.029635 0.342293
0.019535 -0.547912 -0.036159 0.944089 0.045487 -0.322592
-0.011418 0.218537 0.122114 -0.429576 0.145395 0.890019
-0.122382 0.106553 0.04118 -0.934194 0.094971 0.342803
-0.22113 0.33243 -0.061801 0.644137 -0.66424 -0.33012
-0.182353 0.363965 -0.006455 0.581411 -0.695016 0.421583
0.088106 -0.834549 -0.010082 -0.975373 -0.124753 0.005223
-0.078048 -0.535336 -0.099487 -0.267277 0.099794 -0.958359
0.122945 -0.813321 -0.119832 0.037454 -0.134961 -0.984548
-0.09105 0.10995 -0.086602 -0.697385 0.217862 -0.682479
-0.121827 -0.296407 0.079245 -0.945398 -0.064406 0.314233
0.127592 0.009017 0.121557 0.348464 0.128524 0.927355
0.242601 0.508527 -0.004683 0.639321 0.375254 0.670334
0.106852 -0.305885 -0.099428 0.015045 0.016019 -0.994056
0.433232 0.300146 -0.096598 0.617161 0.739389 -0.25657
-0.059187 -0.86278 -0.077786 0.009084 -0.998525 0.052389
0.141056 0.561142 -0.101262 0.297929 0.679368 -0.670346
-0.038446 0.017885 -0.140571 -0.226882 -0.48744 -0.842778
-0.001022 -0.047132 0.130595 0.130633 -0.30045 0.944428
-0.084331 -0.178318 0.114569 -0.20264 -0.093509 0.97435
-0.121638 -0.307294 0.076456 -0.969763 -0.089065 0.224624
0.047091 0.156603 0.130363 0.121419 0.039586 0.991801
0.158434 0.183607 0.069658 0.734205 0.054698 0.676454
0.044248 -0.459188 -0.021596 -0.98192 -0.036983 0.157625
0.111377 -0.295362 -0.099111 0.119768 -0.006221 -0.988744
0.026559 -0.370439 -0.002581 0.996916 -0.021592 -0.0554
-0.460461 0.164916 0.042413 0.167495 0.629202 0.755443
0.024529 0.697165 -0.083343 -0.144792 -0.6167 -0.771982
0.115501 0.591294 -0.061374 0.417198 0.886268 -0.065355
0.142185 0.431641 -0.142583 0.253718 -0.166488 -0.952602
0.01425 -0.599657 0.007141 0.606934 0.087965 0.789279
0.181033 -0.335321 -0.049611 0.734975 0.052472 -0.6759
0.553443 0.119536 0.045565 -0.862321 -0.16286 0.456973
0.019878 -0.158451 -0.037569 0.943469 -0.016059 -0.32968
0.024848 0.43768 0.094584 0.170617 0.179464 0.96804
0.412403 0.258822 -0.127 0.094893 -0.17696 -0.974511
0.144968 -0.869063 -0.061861 0.237124 -0.958709 0.022947
0.0434 -0.41707 -0.02408 -0.999646 -0.012648 0.012239
0.105726 -0.175558 0.099195 -0.216373 -0.220729 0.947127
0.190306 0.357271 -0.074453 0.819676 -0.436207 -0.369359
-0.413167 0.181501 -0.051642 0.408901 -0.637283 -0.626472
-0.091985 0.349272 0.066039 -0.770911 -0.162471 0.613346
0.042143 -0.199198 0.039406 -0.981808 -0.053116 0.181865
0.083438 -0.453531 0.020005 -0.664253 -0.147156 0.731957
0.055788 0.782931 -0.115332 0.391996 0.025152 -0.9186
0.087473 0.158859 -0.119197 0.202767 0.183797 -0.960957
0.176463 -0.105172 0.091404 0.692021 0.033826 0.720972
0.066947 0.659545 0.034087 0.667252 -0.558787 0.460371
0.610394 0.085226 0.084968 0.00689 0.486454 0.82993
0.139339 0.21406 -0.096107 0.767756 -0.18048 -0.613403
0.188027 0.076991 0.056862 0.855027 0.19705 0.478941
0.113589 0.035919 0.117559 0.405113 0.355417 0.831631
-0.335854 0.291643 -0.092479 -0.208216 0.018037 -0.974906
0.128829 -0.019215 -0.143825 0.405129 -0.030917 -0.908231
-0.10824 -0.839376 0.042573 -0.73899 0.673232 0.021696
-0.002465 -0.77839 -0.113921 0.836734 0.286045 -0.465986
-0.054633 0.205547 -0.104421 -0.528815 -0.311004 -0.789195
0.099476 -0.863547 0.021035 -0.616179 -0.74638 -0.209613
0.18772 0.185609 0.000524 0.93932 0.339544 -0.026842
-0.109329 -0.854396 0.018437 -0.722344 -0.687753 -0.071147
-0.126212 0.447481 0.061382 -0.06934 -0.017847 0.994713
-0.098893 -0.850722 -0.029736 -0.731901 -0.660651 -0.162816
-0.109238 -0.470446 0.06375 -0.778875 -0.295463 0.552326
-0.140094 -0.135697 -0.012975 -0.922812 -0.095157 -0.372992
-0.402496 0.182273 0.018193 0.620379 -0.500855 0.495298
-0.060307 0.297455 -0.119614 -0.436139 -0.028641 -0.899379
-0.1047 -0.631307 0.041121 -0.815145 -0.113736 0.55514
-0.113242 0.490124 0.06024 0.005266 0.158505 0.986435
0.079142 -0.281895 -0.088995 -0.552852 0.039512 -0.832084
-0.021532 0.566881 -0.101686 -0.121552 0.587473 -0.799797
0.484948 0.227044 -0.006231 0.289627 0.096408 0.939027
-0.204242 0.500239 -0.038143 -0.722145 0.627356 -0.287261
0.01145 -0.546216 0.012695 0.68227 -0.137426 0.717306
-0.202453 0.346126 -0.061197 0.553344 -0.755479 -0.34617
0.187488 -0.212534 0.074982 0.774276 -0.136885 0.61774
0.272576 0.504532 -0.061516 0.711363 0.702741 -0.005789
-0.136428 -0.521528 -0.032018 -0.996077 -0.003946 -0.068175
-0.1294 0.033431 -0.044321 -0.936586 0.117408 -0.329216
0.143806 0.060316 0.100955 0.698943 0.213156 0.679376
-0.059917 -0.490874 -0.098113 -0.035114 0.101003 -0.992653
0.172424 0.395175 -0.119781 0.333859 -0.448492 -0.827332
-0.052409 0.476294 -0.129894 -0.057278 0.12937 -0.989728
0.077689 0.237589 0.119345 0.420951 0.080393 0.90275
-0.099909 -0.511769 0.056262 -0.860977 -0.131516 0.48776
-0.354288 0.294415 -0.085551 -0.491451 0.328084 -0.803754
0.175529 -0.798193 -0.014923 0.920643 -0.338717 0.180614
0.163524 0.303411 0.054551 0.652692 -0.005672 0.757314
-0.023253 -0.117849 -0.09915 0.452875 -0.268982 -0.849731
0.417858 0.216627 -0.058025 -0.546444 -0.800906 0.230881
0.100624 0.792354 0.006095 0.916076 0.193807 0.346153
0.008215 -0.349009 -0.045318 0.745441 -0.054853 -0.663918
0.075527 -0.719722 0.035795 -0.056303 -0.040943 0.995748
0.015652 -0.435824 0.027406 0.846112 -0.055691 0.529084
-0.070168 -0.863903 0.104164 -0.026518 -0.999391 0.022389
0.094865 -0.746515 -0.081793 -0.801568 -0.069944 -0.593112
0.199846 -0.603811 -0.03226 0.997331 -0.063062 -0.031614
0.003314 -0.828027 -0.070982 0.832573 -0.553421 -0.016061
0.165574 0.3526 0.053829 0.791895 -0.088304 0.604115
0.101034 -0.859054 -0.019393 -0.631716 -0.762231 0.126416
-0.04937 0.56227 -0.096537 -0.353999 0.547667 -0.757904
-0.026422 -0.859698 0.07578 0.807814 -0.559754 0.055699
-0.115714 -0.312853 0.090244 -0.791446 -0.058789 0.605551
-0.038391 -0.131202 -0.10243 0.241686 -0.197593 -0.948951
-0.132076 -0.43628 0.032439 -0.917847 -0.088468 0.386655
0.164879 -0.862549 0.1283 0.314922 -0.942808 0.060554
0.017433 -0.719423 -0.071151 0.883645 0.058245 -0.457121
0.105932 -0.587799 0.032112 -0.314957 -0.15813 0.93516
0.136268 0.383496 -0.134931 0.491548 -0.16997 -0.848565
0.063353 0.680636 0.080527 0.61933 0.114367 0.775524
0.115856 0.25338 -0.131031 0.505418 -0.1414 -0.849512
0.27338 0.380357 -0.023419 -0.359764 -0.241381 0.901101
-0.014686 0.854328 -0.007336 -0.481107 0.876075 0.02905
0.167793 0.567033 -0.074899 0.351093 0.86857 -0.337436
0.167848 0.319284 -0.083062 0.80766 -0.271659 -0.522628
0.355721 0.355471 -0.131219 0.505294 0.306876 -0.803098
0.429222 0.254591 -0.120797 0.414289 -0.231967 -0.877054
0.110745 0.541249 0.027051 0.410056 0.575966 0.705857
0.154049 -0.663766 -0.083136 0.567679 -0.110566 -0.815663
0.062424 -0.271381 0.064355 -0.725337 -0.120539 0.677697
0.030811 0.385437 -0.128884 -0.12939 -0.014053 -0.99132
-0.064728 0.373748 -0.120602 -0.339061 -0.080335 -0.936792
0.046768 0.658442 0.062916 0.189098 -0.971361 0.143205
0.028007 0.79374 -0.119002 -0.09 0.247091 -0.961936
0.205664 -0.203612 -0.035328 0.98364 -0.020323 -0.167376
-0.011715 -0.601574 0.024452 0.280521 -0.128029 0.949929
0.063681 -0.528283 0.006541 -0.653869 -0.031466 0.754315
0.181814 0.239085 0.022795 0.989926 -0.013276 0.139153
-0.128525 -0.370793 0.014226 -0.99954 -0.004626 0.024722
