-0.110081 0.314613 0.023801 -0.942233 -0.023272 0.333101
-0.25878 0.425732 -0.052668 -0.731068 0.636846 -0.239615
0.187431 0.121583 -0.033651 0.848692 0.261618 -0.459208
-0.11286 -0.295603 -0.043881 -0.862834 0.034291 -0.503659
0.183239 0.115766 0.050927 0.851017 0.192334 0.486897
-0.140674 -0.476994 -0.015766 -0.980594 0.085677 -0.148261
-0.126197 -0.127905 -0.044184 -0.659191 -0.058622 -0.716439
0.090226 0.340676 -0.144672 -0.006929 -0.045353 -0.997793
0.17725 -0.094218 0.090061 0.682703 0.030161 0.729935
0.172087 0.556142 -0.011277 0.209356 0.781345 0.586935
-0.101406 -0.434051 -0.070494 -0.652431 0.272452 -0.706709
-0.124783 0.370043 -0.058149 -0.931481 -0.343042 -0.113898
0.38867 0.241503 -0.053285 -0.64343 -0.675663 0.345842
0.158076 -0.456046 -0.094408 0.487404 0.161281 -0.857648
0.028354 -0.147845 -0.040526 -0.913691 -0.23623 -0.328961
-0.109292 0.288809 0.025713 -0.966698 -0.05776 0.248464
0.201028 -0.515419 -0.001203 0.935295 -0.007491 0.352952
0.104036 0.493817 0.062217 0.31674 0.529476 0.783422
-0.268053 0.403673 -0.076131 -0.492448 0.644519 -0.581522
-0.020768 0.769971 -0.094953 -0.759996 -0.146431 -0.632743
-0.006296 -0.346847 0.08085 0.623977 -0.05558 0.774906
0.003502 0.859875 0.022546 -0.517116 0.809378 0.256888
-0.023349 0.480951 -0.12905 0.055422 0.101997 -0.993148
0.031467 0.24383 -0.125534 -0.045511 0.007761 -0.998582
0.16214 -0.835216 0.029577 0.915256 0.388622 0.019895
0.197165 0.381202 -0.013504 0.986657 -0.113933 0.111457
0.145103 -0.459114 0.066564 -0.302521 -0.137674 0.937645
0.102543 -0.532254 0.0353 -0.471914 0.023045 0.881118
-0.075286 -0.147647 0.119428 -0.298716 0.004556 0.951146
-0.461015 0.197278 -0.00193 -0.78315 0.609649 0.106843
-0.12434 -0.262753 -0.023763 -0.853654 0.035652 -0.51935
0.133262 -0.826319 0.141038 0.235313 0.965877 0.087421
0.161148 0.022672 -0.111743 0.71862 0.047298 -0.693781
0.141553 -0.172149 0.099214 0.161685 -0.276968 0.946305
0.00063 -0.427696 0.051894 0.766037 -0.210678 0.6062
0.163379 -0.007414 0.097425 0.631351 -0.143009 0.759752
0.035553 -0.184687 -0.04346 -0.831418 -0.244851 -0.49688
-0.030525 0.597181 -0.062496 -0.551437 0.792925 -0.253888
-0.060841 0.269242 -0.117465 -0.429928 -0.102982 -0.89479
0.023191 -0.198424 -0.032437 0.797085 0.054346 -0.503291
0.00028 -0.110973 -0.083139 0.733515 -0.350509 -0.581391
0.058821 -0.748653 0.011574 -0.983263 -0.16101 0.054206
0.056677 0.865179 -0.026219 0.307478 0.934109 -0.156242
0.084119 0.637848 -0.016529 0.980827 0.005288 0.170091
-0.034951 0.80695 0.002187 -0.97601 0.004784 0.202835
0.153278 -0.827624 0.088664 0.475588 0.865039 0.145816
0.010078 0.100185 0.135845 -0.075222 0.129221 0.986801
0.310456 0.454499 -0.097576 0.61314 0.668335 -0.420276
0.009143 -0.060604 -0.116293 0.143837 -0.670046 -0.726936
-0.50956 0.137652 0.02752 -0.848496 0.528352 -0.017435
-0.15526 0.409562 -0.087637 0.471312 -0.480002 -0.728078
-0.240585 0.36201 0.01749 0.11879 -0.226574 0.965877
3.4e-05 -0.399435 -0.055364 0.624414 0.099111 -0.77465
0.186397 -0.573963 0.026707 0.726916 -0.185001 0.659601
0.080067 0.333079 -0.143558 -0.139386 -0.046262 -0.988027
0.059709 0.598069 -0.085305 0.11981 0.652878 -0.747204
-0.567894 0.038771 -0.010564 0.46861 0.440981 -0.528513
0.326725 0.381096 -0.043807 0.809187 -0.048124 0.582392
-0.114504 0.232086 0.0286 -0.966649 0.217451 0.131086
0.28941 0.36399 -0.134319 -0.295336 -0.52586 -0.794227
-0.030839 -0.831547 0.088418 0.823408 0.5066 0.24614
0.036626 0.169208 -0.118192 -0.065472 0.165382 -0.978925
0.000448 -0.301008 0.083764 0.488165 -0.216272 0.844219
-0.001424 0.580288 -0.095491 -0.070821 0.56929 -0.817976
0.140549 0.499712 0.046765 0.356638 0.525082 0.772473
0.066529 -0.809737 -0.014467 -0.9626 -0.248474 0.056507
-0.385114 0.202779 -0.062625 0.080252 -0.688594 -0.696371
0.167 0.04662 -0.100175 0.776523 0.22769 -0.587251
-0.02424 -0.848125 0.073444 0.981106 0.016773 0.148499
-0.137173 -0.443252 -0.019563 -0.973371 0.106078 -0.196295
-0.07325 0.576063 -0.063301 -0.447766 0.822303 -0.349167
0.045976 -0.558455 -0.037352 -0.928416 -0.025614 -0.347945
0.011022 0.604332 -0.079438 -0.13043 0.629737 -0.764881
0.171953 -0.802051 -0.004583 0.938431 -0.209427 0.239829
-0.167034 0.519464 0.035171 -0.513233 0.596656 0.614202
-0.127165 -0.379363 0.035508 -0.988539 0.047254 0.133931
0.152669 0.096149 0.083251 0.388363 0.224604 0.881435
-0.259165 0.384278 -0.094023 -0.320796 0.367573 -0.870178
-0.130933 0.54801 -0.060301 -0.357775 0.779828 -0.509409
-0.025798 -0.313681 -0.082685 0.543943 -0.108242 -0.829903
-0.047906 0.337833 -0.125397 -0.317664 -0.016376 -0.947871
-0.114119 -0.410409 0.077318 -0.743593 -0.20672 0.635114
0.224334 0.452363 -0.133747 -0.030004 -0.000776 -0.997889
-0.115908 -0.205859 -0.041595 -0.851762 -0.098907 -0.513364
0.178862 0.547258 -0.098995 0.289444 0.731733 -0.616945
0.166711 -0.717501 -0.002701 0.491282 -0.31425 0.802162
-0.126364 -0.496443 0.020112 -0.845973 -0.200057 0.492734
0.173612 0.451073 -0.137763 0.189637 -0.061136 -0.979496
0.307955 0.450491 -0.106254 0.576577 0.649089 -0.495911
0.138795 0.581783 -0.041396 0.2646 0.926952 0.254735
-0.077552 0.008544 -0.123847 -0.573574 -0.040004 -0.817585
0.387157 0.239448 -0.062962 -0.607626 -0.759467 0.225554
0.160171 -0.431693 -0.08722 0.540358 0.207879 -0.813779
-0.128125 -0.359322 -0.018237 -0.993141 0.032617 -0.102246
-0.120949 -0.652423 0.00206 -0.981094 -0.123951 0.145512
0.578262 0.060957 0.00293 -0.927738 -0.371742 0.02727
0.097754 -0.107805 -0.121872 -0.151435 -0.287748 -0.94356
0.01627 -0.222228 -0.050572 0.866274 -0.016774 -0.497505
-0.08233 0.33792 0.078696 -0.718845 -0.020588 0.691072
0.355386 0.286084 -0.119688 -0.527867 -0.541468 -0.651203
-0.127035 -0.074768 0.076576 -0.833556 0.020239 0.551847
0.184564 0.193287 -0.004842 0.965627 0.244494 -0.034594
-0.363138 0.292508 -0.081149 -0.477253 0.409655 -0.775933
0.018256 -0.565357 0.002491 0.82312 -0.022167 0.553291
-0.176375 0.373099 -0.07068 0.630713 -0.645236 -0.43103
0.130462 0.455756 0.07353 0.29054 0.308579 0.90371
-0.024739 -0.407848 0.078556 0.439541 -0.198989 0.873746
0.003661 -0.760675 -0.094038 0.798745 0.148931 -0.579312
-0.062123 -0.131464 0.122472 -0.243442 0.013467 0.969566
-0.118654 -0.388107 0.077997 -0.911992 -0.066229 0.402898
0.096841 0.605385 -0.03652 0.888124 0.430645 0.137532
-0.003469 -0.161391 0.110783 0.594999 -0.119552 0.793224
0.051204 0.603907 -0.081868 0.100009 0.690904 -0.692399
0.139108 -0.551421 -0.106166 0.259866 -0.048899 -0.961178
-0.005062 0.753635 -0.107092 -0.609115 -0.297471 -0.732316
-0.264149 0.31188 -0.08768 0.530597 -0.342998 -0.773968
0.109873 0.226595 0.105712 0.428983 0.064189 0.900918
0.037003 0.626507 0.030556 0.032192 -0.450037 0.886621
0.044277 -0.491607 -0.038786 -0.984792 -0.012869 -0.1694
0.071868 0.420493 0.091902 0.157428 0.252702 0.954353
0.204784 -0.017691 0.045463 0.90722 0.102507 0.402371
0.082964 -0.349897 0.062978 -0.500439 -0.324935 0.800987
0.163755 -0.032587 -0.113139 0.750654 -0.071802 -0.656192
-0.10139 -0.031585 -0.098552 -0.74048 -0.085576 -0.666142
-0.026382 0.842341 -0.03969 -0.60562 0.75986 -0.231945
0.166183 -0.475668 0.065245 0.309698 -0.124832 0.935252
0.070536 -0.333799 -0.081427 -0.699714 -0.051061 -0.712378
0.530757 0.138435 0.006574 -0.769413 -0.637206 0.041326
-0.3581 0.229347 0.00933 0.141116 -0.179887 0.968944
-0.1256 -0.665208 -0.073805 -0.909857 -0.013929 -0.403139
-0.070164 -0.749711 0.029181 -0.019693 -0.098839 0.988054
-0.197342 0.362578 0.005048 0.376041 -0.700718 0.596754
0.180863 -0.367598 0.067039 0.658845 -0.074976 0.731943
-0.110859 -0.726644 -0.012583 -0.675576 0.066237 0.724226
0.001651 -0.657766 0.018178 0.623314 -0.110554 0.773331
0.189873 -0.366248 -0.049759 0.585509 0.235259 -0.77521
0.142891 0.330071 -0.116778 0.694551 -0.174295 -0.697879
-0.130252 -0.078957 -0.0453 -0.856489 -0.060464 -0.51182
0.040452 -0.279459 -0.040673 -0.879745 0.010736 -0.473893
0.00842 -0.660421 0.011711 0.726637 -0.16007 0.666125
0.006726 -0.480304 0.033734 0.731997 -0.165548 0.659033
0.075329 -0.717317 -0.050663 -0.889171 -0.173864 -0.423079
-0.223064 0.327751 -0.026356 0.655826 -0.747228 0.097044
-0.128026 0.139273 0.009823 -0.992333 0.049339 0.104427
-0.049019 -0.814501 -0.147735 -0.177363 -0.087138 -0.976706
0.066601 0.082896 0.13024 0.050815 0.017261 0.991979
0.210956 -0.016664 0.025883 0.93124 0.173958 0.315915
0.009719 -0.792942 -0.094235 0.950802 -0.023118 -0.297042
-0.129282 0.124507 0.001986 -0.989183 0.141867 0.019313
-0.143512 -0.143901 0.029485 -0.99302 -0.02748 0.110099
0.05136 -0.078619 0.111202 0.132065 -0.5923 0.792814
0.08651 0.023156 0.130087 0.307776 0.22376 0.923762
0.156694 -0.500653 -0.099821 0.473612 -0.002825 -0.880303
0.070029 0.850404 -0.059065 0.48205 0.764465 -0.426691
0.01463 -0.736038 -0.076755 0.811794 0.026523 -0.581136
-0.51575 0.128259 0.037611 -0.761796 0.647285 -0.01134
-0.067444 -0.863468 0.125498 -0.003986 -0.999068 0.038397
-0.063965 0.507292 0.059871 -0.14437 0.444227 0.884133
-0.012958 -0.542614 -0.083331 0.652499 0.003079 -0.756091
-0.038056 0.779065 -0.016307 -0.983631 0.123311 0.127787
-0.112929 -0.80353 -0.03023 -0.891419 -0.423961 0.151873
0.008215 -0.349009 -0.045318 0.745441 -0.054853 -0.663918
-0.11469 -0.70548 -0.08329 -0.747319 -0.113111 -0.654063
0.301187 0.441288 -0.031859 0.75752 0.391847 0.489262
-0.162767 0.380385 -0.005158 0.545054 -0.738022 0.397558
0.162697 0.565745 -0.083255 0.332353 0.805912 -0.48557
0.000215 -0.1196 -0.078702 0.775518 -0.258132 -0.574775
0.110354 -0.829571 0.154878 -0.593584 0.74069 0.264793
0.184651 0.34882 -0.07607 0.775238 -0.430206 -0.460336
-0.012735 0.553101 0.029556 0.148845 0.807607 0.560457
-0.366603 0.266199 0.007446 -0.055447 0.235393 0.970131
0.54543 0.180058 0.001937 0.832126 0.533495 0.119673
0.331792 0.422524 -0.062364 0.770958 0.461695 0.438304
0.039275 -0.073079 0.117302 -0.001539 -0.535079 0.843851
0.054902 -0.161619 0.072274 -0.677874 0.021026 0.734633
0.040498 0.641244 0.039423 0.278787 -0.551086 0.77654
0.140759 0.419192 -0.140101 0.386021 -0.232387 -0.89243
-0.118764 0.30587 -0.041903 -0.978616 -0.18931 -0.064174
-0.126997 -0.604355 -0.06947 -0.927952 0.022958 -0.364109
0.126728 0.221099 -0.111153 0.625709 -0.289957 -0.724105
0.133905 -0.316709 0.081145 0.034955 -0.056871 0.997394
0.049015 -0.145859 -0.083387 -0.724692 -0.222321 -0.650432
-0.013897 -0.152082 -0.083332 0.617198 -0.147565 -0.771335
-0.080145 0.481898 -0.124051 -0.325937 0.229242 -0.915816
-0.03899 -0.712245 0.022334 -0.488643 0.329276 0.807742
-0.132183 -0.581783 -0.037545 -0.983426 -0.156937 0.069418
-0.091818 -0.053438 -0.101978 -0.632431 -0.229235 -0.739817
-0.122451 0.002355 0.083806 -0.799879 -0.144246 0.558149
-0.025416 0.703626 0.006533 -0.882099 -0.469549 0.013358
-0.023871 0.156008 0.121039 -0.3706 -0.003163 0.928649
-0.033066 0.076666 -0.13419 -0.250136 0.275646 -0.925589
0.308288 0.321539 -0.060071 -0.546982 -0.659123 0.513069
-0.115424 -0.326481 -0.043013 -0.851341 0.0766 -0.504999
0.126322 -0.219997 -0.099838 0.228769 -0.110843 -0.966139
0.031128 0.395793 -0.128992 -0.119382 0.004145 -0.992779
0.119033 0.239313 -0.125366 0.606508 -0.281798 -0.739988
-0.102651 0.382725 -0.104864 -0.542286 -0.221899 -0.807837
0.051368 -0.501207 -0.007676 -0.87636 -0.007482 0.481167
-0.142314 -0.153224 4.8e-05 -0.970549 -0.101215 -0.217199
0.082731 -0.529355 -0.086899 -0.693581 -0.073118 -0.716189
0.124603 -0.633043 -0.096845 -0.051038 -0.098269 -0.992954
-0.007283 -0.12257 -0.0865 0.652363 -0.248499 -0.714455
0.119006 0.216999 -0.115936 0.583771 -0.335971 -0.738381
0.011416 -0.204713 0.091636 0.828722 -0.082666 0.552906
-0.012892 0.181557 0.126453 -0.378366 0.026836 0.920341
-0.128645 -0.299677 0.006263 -0.999679 -0.017198 -0.012459
0.01621 -0.329504 -0.037238 0.845868 -0.029696 -0.529143
-0.00792 0.579608 0.011466 -0.537529 0.309699 0.782818
-0.143753 -0.151347 0.010504 -0.996763 -0.05242 -0.050415
0.028707 -0.308457 0.00893 0.998625 -0.047452 0.016142
-0.006893 -0.750761 -0.105386 0.72948 0.219625 -0.644275
-0.06392 -0.28129 -0.090249 -0.277349 -0.057593 -0.95628
-0.047035 0.214919 0.105009 -0.522179 0.04552 0.851422
0.177936 -0.540727 -0.081694 0.697843 -0.036048 -0.71534
0.14043 -0.406358 -0.094815 0.510147 0.069662 -0.856997
-0.12833 0.560553 -0.013451 -0.409483 0.889226 0.112015
0.159471 0.38007 -0.119397 0.478695 -0.305494 -0.822055
-0.115469 0.072223 0.074005 -0.844653 0.336636 0.4129
0.138565 0.342375 0.079932 0.680904 -0.023298 0.729605
0.143687 -0.314183 0.080396 0.133125 -0.05583 0.988691
0.000464 -0.682483 -0.077858 0.488372 0.216791 -0.845074
0.112008 0.478108 0.068638 0.279862 0.490569 0.822586
-0.07036 -0.588253 0.050026 0.425424 -0.220428 0.877617
0.019419 0.09378 -0.13884 -0.18264 0.23742 -0.954063
0.146414 0.30097 0.07183 0.777545 0.041963 0.626947
0.127879 0.510996 0.044577 0.267552 0.576244 0.769902
-0.117398 0.19168 0.041181 -0.88745 0.030609 0.4583
0.478342 0.234616 -0.011375 -0.100901 0.574166 0.780195
-0.265835 0.288139 -0.014088 0.629138 -0.627734 0.454584
0.029552 -0.279138 -0.018341 -0.185829 -0.5154 -0.703877
0.232944 0.40235 -0.020962 -0.284218 -0.555518 0.756695
0.20758 -0.149997 0.022825 0.983335 -0.162516 0.071427
0.024559 0.784095 0.085606 -0.124128 0.433447 0.889946
0.055707 -0.152901 -0.088633 -0.663539 -0.193235 -0.722398
0.174133 -0.469645 0.061879 0.520277 -0.137564 0.838435
0.124561 -0.380604 0.072642 -0.269341 -0.189608 0.943714
0.207157 0.014436 0.003306 0.999561 0.018096 -0.021799
-0.042545 0.295032 -0.127504 -0.315573 -0.009702 -0.944475
0.029004 0.867082 0.004076 -0.382421 0.890275 0.239843
-0.065262 -0.574631 -0.103491 -0.014275 0.02205 -0.998761
0.076796 -0.617424 -0.070461 -0.664722 -0.054925 -0.745052
0.139464 -0.246793 0.08513 0.115812 -0.134982 0.983484
-0.069536 0.300974 -0.114627 -0.546721 -0.030833 -0.836533
-0.37209 0.228992 0.010463 0.090373 -0.015038 0.995276
0.179765 -0.53052 -0.080557 0.703852 -0.034432 -0.709442
0.166871 0.470506 0.04715 0.635065 0.18412 0.749254
-0.223745 0.356362 -0.090785 0.323319 -0.452533 -0.82853
-0.053801 0.430268 0.091059 -0.187075 0.228252 0.955035
0.206934 -0.206862 -0.016148 0.998837 -0.039227 -0.026254
-0.124973 -0.303009 0.060974 -0.963613 -0.18672 0.19076
-0.057983 -0.163955 0.121845 -0.145875 0.008066 0.988517
-0.347699 0.217629 -0.003569 0.575372 -0.737002 0.343738
-0.019084 -0.101383 -0.102783 0.378909 -0.323663 -0.862528
0.198082 -0.189007 0.050494 0.958644 -0.044499 0.279599
-0.061267 0.117481 0.100659 -0.542103 0.12392 0.829716
0.074708 -0.822101 0.004944 -0.541965 -0.798826 0.130369
-0.098901 -0.717357 0.006405 -0.564663 -0.593561 0.568181
0.435853 0.205214 -0.063969 -0.542315 -0.826847 0.130954
-0.067633 -0.863774 0.029184 -0.012545 -0.999836 -0.01212
0.180966 -0.263796 0.07309 0.524511 -0.019804 0.847481
-0.10376 -0.809326 -0.096282 -0.883868 -0.248847 -0.382261
-0.260639 0.328192 -0.092095 0.381518 -0.304491 -0.86936
0.197132 -0.438193 0.017752 0.971469 -0.097733 0.213599
-0.039504 0.264408 0.107692 -0.503704 0.060409 0.86101
0.18926 -0.66715 0.008878 0.852903 -0.066762 0.5027
-0.061708 -0.376713 -0.084412 -0.15682 -0.125398 -0.977515
0.021598 -0.366912 0.032859 0.929982 -0.160029 0.330395
0.387123 0.336719 -0.071889 0.577487 0.697333 0.415215
0.281708 0.373852 -0.021662 -0.321897 -0.286443 0.897757
0.169422 0.360111 0.049177 0.802458 -0.103732 0.587405
-0.137483 -0.437912 0.007236 -0.9917 0.013523 0.125888
0.100329 0.765375 0.009803 0.955011 -0.075571 0.277397
0.097125 -0.178891 0.096305 -0.305208 -0.119135 0.94175
0.065657 -0.426706 0.012796 -0.650133 -0.324111 0.686856
-0.003145 -0.254072 -0.071494 0.721746 -0.069082 -0.687399
0.405936 0.22257 -0.085675 -0.561781 -0.826749 0.020523
-0.012576 0.687704 -0.038967 -0.887475 -0.32933 -0.317643
-0.109907 -0.167922 0.102944 -0.670803 -0.018929 0.741247
-0.004733 0.151739 0.128811 -0.20883 0.011073 0.975494
0.104213 0.373848 -0.14532 0.121096 -0.037856 -0.99001
-0.230591 0.442314 -0.070056 -0.577419 0.556337 -0.597411
0.023873 0.376758 -0.127806 -0.060639 -0.033512 -0.997387
0.075058 0.855001 0.008948 0.654664 0.730571 0.193642
0.024848 0.43768 0.094584 0.170617 0.179464 0.96804
0.321568 0.345672 -0.136685 -0.123696 -0.193576 -0.970695
0.199669 0.395108 -0.04107 0.978519 -0.190676 0.023781
0.027035 -0.358629 0.009994 0.997991 -0.045059 0.032381
0.152556 0.062939 0.093295 0.346973 0.330247 0.87373
0.017536 0.319208 0.119477 -0.158142 0.170631 0.970088
0.075754 -0.514493 0.016565 -0.653179 0.015932 0.756944
0.123469 -0.566572 0.041561 -0.229365 -0.162877 0.958995
-0.331334 0.336026 -0.027994 -0.682491 0.720491 0.112711
0.016082 -0.725496 -0.019885 0.858262 -0.003773 0.507684
0.132984 0.199666 0.094802 0.552231 0.057682 0.829939
0.427119 0.301101 -0.104856 0.599956 0.672556 -0.425937
0.084546 0.706861 0.059693 0.830318 -0.136281 0.538779
-0.055501 0.065149 0.113755 -0.393397 0.120017 0.909213
0.097643 -0.007237 0.129397 0.282573 -0.250304 0.925065
0.111916 0.266839 0.102655 0.413699 0.050746 0.907255
0.096977 0.186135 -0.11501 0.244785 -0.202098 -0.944509
-0.113933 -0.036305 -0.079921 -0.824618 -0.077151 -0.560336
0.194979 0.044558 0.060597 0.82309 0.17826 0.537412
0.079406 -0.753781 -0.055688 -0.862625 0.161545 -0.474061
-0.120487 -0.508428 -0.064641 -0.782401 0.100473 -0.613893
-0.099987 -0.463994 0.077845 -0.564835 -0.321609 0.754785
0.057529 -0.740668 0.003395 -0.973523 -0.208392 -0.074136
-0.119769 -0.341945 0.078116 -0.953035 -0.013212 0.30164
0.041777 0.629871 -0.068017 0.032298 0.331934 -0.937887
-0.120841 0.166922 -0.02625 -0.889093 0.055945 -0.451241
-0.101445 0.141551 -0.068713 -0.756464 0.199345 -0.622174
-0.018321 0.611004 -0.018551 -0.910772 0.266811 0.297015
-0.163677 0.372652 -0.024782 0.688924 -0.718364 0.08612
0.199604 0.049137 -0.034252 0.9686 0.081713 -0.234142
0.195458 -0.718416 -0.008378 0.965608 0.007835 0.25759
0.209257 0.46232 0.021863 0.509826 0.027054 0.856774
0.06574 0.862886 -0.018157 0.371135 0.923647 -0.030867
-0.379273 0.205745 0.010498 0.416591 -0.167255 0.8774
0.089215 0.098515 -0.140618 0.253526 0.396948 -0.879847
0.012961 -0.62647 -0.057201 0.684031 0.120311 -0.719378
-0.43175 0.164316 0.03435 0.536536 -0.348002 0.730038
-0.135066 -0.251516 0.031546 -0.996566 -0.075471 0.019417
-0.001789 -0.70672 -0.086435 0.531376 0.275107 -0.800726
0.401554 0.240667 -0.118598 -0.32932 -0.52965 -0.765733
0.091268 0.795039 -0.083108 0.861493 0.117771 -0.492385
0.254716 0.487707 -0.113927 0.473044 0.53993 -0.696151
-0.029298 0.727788 0.017952 -0.987828 0.028097 0.148454
-0.282466 0.383387 -0.004059 -0.882531 0.148245 0.434754
0.095084 0.589002 -0.087509 0.169971 0.771837 -0.612453
0.110745 0.541249 0.027051 0.410056 0.575966 0.705857
-0.131244 0.458292 0.061486 -0.063896 -0.047041 0.995345
-0.128636 0.12158 -0.015121 -0.98209 0.030212 -0.181981
0.179735 -0.438621 -0.072866 0.684469 0.179459 -0.706517
-0.038798 0.094333 -0.127616 -0.299037 0.258424 -0.918059
-0.133934 0.038722 0.047562 -0.92462 0.242597 0.289491
0.205427 -0.320298 -0.004152 0.994208 -0.005354 -0.098772
0.007294 0.788804 0.08002 -0.405969 0.253682 0.873095
0.064336 0.174748 0.127745 0.182262 0.036584 0.977622
0.053253 -0.218024 -0.066677 -0.769274 -0.150965 -0.618218
0.199625 -0.443756 -0.031941 0.997356 0.010965 -0.066294
0.336316 0.400831 -0.134388 0.544196 0.290767 -0.774996
0.171406 -0.791056 0.010529 0.672908 -0.572835 0.431001
-0.019073 0.526092 -0.119966 -0.073385 0.257485 -0.962601
0.198494 -0.103878 -0.051277 0.882657 0.037676 -0.467623
0.093811 0.362089 -0.145369 0.005302 -0.030914 -0.99946
0.074487 -0.81957 -0.064029 -0.825655 -0.479049 -0.252213
0.20398 -0.35134 0.013672 0.97446 -0.103804 0.194192
-0.021595 -0.806219 0.045821 0.895513 0.308742 0.297523
-0.057137 -0.589343 0.043853 0.409402 -0.276292 0.869264
0.06651 0.097009 -0.143759 -0.0021 0.329735 -0.941435
-0.011868 0.157841 0.12654 -0.394213 0.00243 0.910314
0.151686 0.455142 -0.142868 0.186132 -0.007366 -0.981701
0.036271 0.025224 0.13999 0.08046 0.267895 0.959985
0.198942 -0.065853 0.062682 0.868127 0.067108 0.491279
-0.0628 0.027908 -0.135364 -0.387159 0.063581 -0.900566
-0.028018 -0.466425 -0.087712 0.427547 0.115512 -0.896504
0.089816 0.49031 0.067424 0.15265 0.465537 0.870695
0.346368 0.392117 -0.089845 0.768801 -0.577178 0.193658
-0.117191 0.477856 0.061236 -0.033288 0.042061 0.998233
0.103809 -0.329101 -0.100169 -0.089361 0.018237 -0.989263
0.123708 0.535373 -0.125428 0.151235 0.482839 -0.860412
0.078472 -0.64941 -0.068053 -0.713479 -0.090042 -0.69479
0.076102 0.211598 -0.127393 -0.083155 -0.369389 -0.924706
-0.052986 -0.449153 -0.093015 0.063047 0.201093 -0.975356
0.579133 0.105801 -0.006941 0.57534 0.081704 -0.81299
0.184093 -0.77126 -0.042963 0.943456 0.147696 -0.272496
-0.124554 0.083264 -0.039337 -0.940154 0.109741 -0.321779
-0.415988 0.192963 0.02148 -0.042705 0.321593 0.944435
-0.139121 0.019797 0.037118 -0.973722 0.107699 0.19155
0.190749 -0.636129 0.011224 0.845446 -0.085662 0.515367
0.0458 0.136079 -0.125793 -0.12404 0.412681 -0.901817
-0.426288 0.165886 -0.038496 0.528264 -0.79295 -0.301751
0.024037 0.839191 0.060829 -0.212563 0.599995 0.769168
-0.087685 0.0254 -0.117127 -0.731941 0.136911 -0.661183
0.070777 -0.802225 -0.056895 -0.893904 0.068039 -0.441191
-0.013887 -0.47975 0.052879 0.589015 -0.257232 0.76535
0.286465 0.337172 -0.060426 -0.503562 -0.757409 0.395671
0.12003 0.060654 -0.137369 0.508785 0.214301 -0.832723
-0.124712 -0.757433 -0.043625 -0.939215 -0.339128 0.004073
0.0734 0.704862 -0.071741 0.600782 -0.551574 -0.574383
0.034532 -0.31567 -0.009577 -0.998679 -0.032973 0.002815
-0.313814 0.353606 -0.045234 -0.673934 0.735856 -0.054712
0.020329 0.751964 0.083784 -0.870981 0.211095 0.433218
-0.091231 0.532546 0.04109 -0.013268 0.591674 0.805678
-0.127405 -0.448753 -0.045246 -0.826934 0.18563 -0.529605
0.070916 -0.731023 -0.035888 -0.87318 -0.105259 -0.468627
0.519709 0.156398 0.020481 -0.491706 -0.372153 0.760029
0.065147 -0.70992 -0.03625 -0.801212 -0.283559 -0.526349
0.246607 0.428149 -0.007247 0.457714 -0.354839 0.812663
0.11459 0.137554 0.107419 0.561647 0.026649 0.825591
-0.256128 0.288992 -0.050074 0.76111 -0.636637 -0.102212
-0.468996 0.18559 -0.02004 -0.788348 0.566799 -0.2268
0.199969 -0.164049 -0.049658 0.840824 -0.002828 -0.538887
-0.043756 -0.406483 -0.081462 0.181552 0.189301 -0.964532
0.066997 0.313551 -0.139143 -0.333635 -0.066938 -0.939592
0.235296 0.378163 -0.082703 -0.709171 -0.704961 -0.005146
-0.114751 -0.229642 -0.040469 -0.887025 -0.030511 -0.46064
0.037767 -0.126902 0.070251 0.759774 -0.499333 0.405849
0.141898 -0.515903 0.056377 -0.332167 -0.222341 0.913191
0.079419 0.74815 0.062875 0.648852 0.133578 0.748751
0.059299 0.731165 0.078646 0.532484 0.341777 0.768187
0.084743 0.148328 -0.121539 0.145032 0.227483 -0.962589
0.437902 0.284444 -0.109982 0.673371 0.4103 -0.61376
-0.127766 0.002296 -0.055295 -0.925333 0.073116 -0.371174
-0.128692 -0.359222 0.015619 -0.999544 0.011862 0.027372
-0.017098 -0.636704 -0.084073 0.666561 0.01737 -0.745167
-0.019217 0.035742 -0.145926 -0.170572 0.13094 -0.974656
0.198646 0.081583 -0.000313 0.973386 0.222651 0.049197
0.172136 0.138861 0.059807 0.740978 0.128643 0.658578
0.1185 -0.870027 -0.101437 0.041679 -0.994714 -0.090851
-0.20336 0.366799 0.011383 0.159964 -0.558054 0.813566
-0.196742 0.489143 0.030745 -0.691753 0.295254 0.658068
0.008335 0.23324 -0.12746 0.098895 0.002291 -0.994999
-0.084813 -0.728067 0.009121 -0.436681 -0.182402 0.846775
-0.482691 0.15742 -0.034075 -0.619248 0.478346 -0.620963
0.10095 0.80023 -0.001106 0.915101 0.323745 0.228527
0.153011 -0.861183 -0.011727 0.41487 -0.904832 -0.043681
0.05959 -0.759479 -0.005656 -0.997682 0.021178 -0.054606
0.508441 0.212568 -0.016529 0.546597 0.695539 0.464145
0.176263 -0.035351 0.08778 0.69863 0.021041 0.715118
0.003472 0.622515 -0.062704 -0.513656 0.507018 -0.68743
0.134414 -0.642945 -0.095542 0.148218 -0.089887 -0.984522
0.004582 -0.314075 0.078132 0.543457 -0.255301 0.79912
0.179927 -0.029914 -0.089083 0.823535 -0.036047 -0.565037
-0.438075 0.22727 -0.015618 -0.715923 0.69448 0.07088
-0.029279 0.242648 0.112038 -0.283216 0.026337 0.95856
0.103147 -0.024489 -0.151286 0.164399 -0.233091 -0.95698
0.185722 -0.608413 -0.069655 0.701994 -0.044186 -0.710323
0.009253 0.422721 0.098879 0.118041 0.201242 0.972145
-0.040284 0.74663 -0.020028 -0.993273 0.02061 0.057494
0.063984 0.260335 -0.135014 -0.314552 -0.088841 -0.943349
-0.004014 -0.202436 -0.073272 0.644246 0.027091 -0.763327
-0.121224 -0.233771 0.087777 -0.848977 -0.053502 0.52199
-0.058346 0.320835 -0.120825 -0.414261 -0.012634 -0.909827
0.054621 0.262898 -0.131233 -0.36624 -0.09593 -0.925329
-0.042959 -0.139951 -0.101013 0.238768 -0.303842 -0.920977
0.099265 -0.804803 0.055527 -0.601306 0.462433 0.634963
0.221495 0.404937 -0.115603 -0.688911 -0.510907 -0.508416
0.098948 -0.458955 0.033302 -0.68217 -0.077064 0.724842
-0.141371 0.021615 0.026853 -0.968056 0.151203 0.186951
-0.103582 -0.626992 -0.095084 -0.550349 0.075971 -0.829956
0.126145 -0.720936 0.018664 0.389296 -0.036195 0.915069
0.19813 -0.648837 -0.044613 0.962455 -0.090814 -0.23177
0.323683 0.323078 -0.046337 -0.415121 -0.502878 0.756094
-0.002596 -0.429792 -0.059964 0.739832 0.019551 -0.672458
0.159954 0.220728 -0.070865 0.791276 -0.044356 -0.609406
-0.122738 0.090782 0.041199 -0.953236 0.028106 0.293097
-0.075035 -0.359308 0.100407 0.165671 -0.19731 0.966105
0.073824 0.647463 -0.048545 0.745921 0.17382 -0.638887
0.056608 -0.397047 0.017803 -0.682637 -0.341062 0.646222
-0.002465 -0.77839 -0.113921 0.836734 0.286045 -0.465986
-0.106843 0.18163 -0.050819 -0.847322 0.124383 -0.515719
0.178025 -0.607415 -0.076933 0.643014 -0.079736 -0.761351
0.254636 0.360757 -0.100865 -0.640014 -0.741684 -0.19378
0.161935 0.493019 0.04254 0.453016 0.391813 0.795738
0.054227 -0.606986 -0.010051 -0.823499 -0.004084 0.564288
-0.079209 -0.446054 0.082327 0.081174 -0.149466 0.984501
-0.018348 0.780436 0.051109 -0.910007 0.046982 0.404286
0.183136 0.201212 -0.01262 0.992858 0.068582 -0.062558
-0.570687 0.039094 0.058861 -0.978971 0.195955 0.051404
0.201674 -0.587399 -0.021578 0.995869 -0.077451 0.002958
-0.124309 -0.697098 -0.07176 -0.87722 -0.121408 -0.461165
0.13804 -0.65187 -0.093034 0.376002 -0.119601 -0.918561
-0.124027 -0.298885 0.07009 -0.9701 -0.120437 0.209483
0.081519 -0.812649 -0.084086 -0.89869 0.063784 -0.426012
0.205003 -0.142307 0.04588 0.931258 -0.133907 0.335147
0.074617 0.501303 0.064567 0.110116 0.476293 0.870748
-0.076704 0.284344 0.081138 -0.52662 0.003527 0.8423
0.043325 0.71518 -0.09713 0.176149 -0.617344 -0.76354
0.343578 0.289968 -0.060335 -0.629975 -0.595627 0.497817
-0.192924 0.349428 -0.045165 0.627208 -0.772753 -0.087418
-0.018318 -0.661195 -0.086799 0.605288 0.116202 -0.786755
-0.043863 -0.640681 0.026956 0.28911 -0.112894 0.949274
-0.094804 0.398587 0.07324 -0.613785 -0.025522 0.788967
0.616946 0.076656 0.007422 0.531911 -0.093747 -0.826642
0.192922 -0.004642 0.066289 0.790961 -0.125034 0.585582
-0.023353 0.740928 0.048536 -0.824803 0.031166 0.563557
-0.194825 0.347694 -0.031607 0.593841 -0.803581 0.031954
0.263773 0.357163 -0.046995 -0.619949 -0.662999 0.414339
-0.273735 0.308976 -0.092698 0.398039 -0.267693 -0.87235
0.454491 0.282632 -0.076098 0.732749 0.678582 0.001589
0.313921 0.307342 -0.088141 -0.703115 -0.71056 0.001091
0.174826 0.055275 0.082426 0.731568 0.255844 0.630226
0.155314 -0.398788 0.074531 -0.003572 -0.068594 0.996516
0.071082 0.677889 0.072829 0.816711 -0.134333 0.516437
0.03636 0.195707 -0.112986 0.053094 -0.254344 -0.95802
0.174869 -0.810518 -0.031785 0.931437 -0.353348 0.04644
0.395044 0.279853 -0.038575 0.094987 0.221411 0.969617
0.089881 -0.000428 0.134894 0.274377 -0.153306 0.946469
0.16587 -0.663362 -0.074522 0.604505 -0.188434 -0.773198
-0.104096 -0.207567 -0.061246 -0.82763 -0.050123 -0.558783
0.196935 -0.640289 -0.050514 0.925075 -0.079075 -0.345282
0.118102 0.470766 0.070678 0.285321 0.467675 0.835516
0.196036 0.521497 0.012503 0.26395 0.510141 0.816867
0.146067 -0.678275 0.02726 0.173739 -0.181054 0.967414
0.118974 -0.780561 0.040229 0.076343 0.673379 0.728709
-0.084081 -0.862879 0.000333 -0.063509 -0.997158 -0.035316
0.182915 0.269371 0.007513 0.997586 0.005793 0.067612
0.109702 -0.414554 0.058748 -0.458053 -0.233012 0.857773
0.093308 -0.855562 0.146383 -0.888905 0.228136 0.391043
0.440057 0.289518 -0.058028 0.406079 0.803944 0.415553
0.24544 0.385459 -0.032461 -0.424618 -0.695561 0.576751
-0.129715 -0.005703 0.063974 -0.888957 -0.199257 0.400819
0.088808 -0.832471 0.030583 -0.973922 -0.044404 0.027917
0.086163 0.388929 -0.145338 -0.114093 0.016937 -0.993216
0.114888 -0.16343 0.104639 -0.120892 -0.305656 0.940182
0.118113 0.589862 -0.049063 0.322636 0.941308 0.082639
-0.566591 0.046936 0.042988 -0.904888 0.423623 0.033636
0.121115 -0.860374 0.178851 -0.098175 -0.94996 0.289352
0.028301 0.17264 0.130646 0.014508 0.039146 0.998976
0.155467 0.049684 0.097037 0.311058 0.31272 0.892138
0.218685 0.458277 0.017941 0.25561 -0.018354 0.965847
-0.08781 -0.727127 -0.113297 -0.620512 0.134077 -0.770171
0.080396 -0.221607 -0.089472 -0.469199 -0.09276 -0.877702
-0.123682 -0.505931 0.020489 -0.814374 -0.180533 0.550554
-0.500503 0.131744 0.083654 0.245355 0.206078 0.929398
-0.343816 0.322036 -0.019792 -0.688791 0.662374 0.275478
0.012122 -0.472222 0.028714 0.797611 -0.111896 0.592073
0.489797 0.216228 -0.069046 0.168914 -0.338874 -0.919739
0.180638 0.241007 -0.027701 0.960391 0.00726 -0.264868
-0.082565 0.152842 0.084535 -0.663312 -0.00012 0.747928
-0.024403 0.764067 0.040104 -0.860014 0.141246 0.489777
0.074799 -0.72704 -0.045568 -0.903954 -0.130545 -0.406294
0.20667 0.03635 0.005623 0.999004 0.040926 -0.005937
0.200089 0.444435 0.030127 0.640462 0.049887 0.765246
-0.111448 -0.436889 0.071117 -0.774161 -0.159764 0.611422
0.553443 0.119536 0.045565 -0.862321 -0.16286 0.456973
-0.091628 -0.612784 -0.099847 -0.450541 0.097069 -0.887407
0.149904 -0.841731 0.169895 0.640076 0.660677 0.360109
0.095265 -0.773733 0.028348 -0.261598 0.756113 0.574347
0.059257 0.224749 0.126332 0.259128 0.108117 0.953685
0.0431 -0.251932 -0.044379 -0.873672 -0.002576 -0.485384
0.44802 0.196582 -0.054357 -0.541402 -0.834643 0.045847
-0.026765 0.468065 -0.130458 0.086394 0.080868 -0.992839
0.1791 0.378825 0.039986 0.789471 -0.151311 0.594206
0.261526 0.357924 -0.106993 -0.582023 -0.732337 -0.347837
0.111242 0.332596 -0.139216 0.415223 -0.108148 -0.902887
0.114488 -0.843654 -0.117072 -0.423112 0.021785 -0.905572
-0.114587 0.238633 -0.027165 -0.961523 0.246785 -0.094153
-0.114089 0.016541 -0.080787 -0.87467 0.039602 -0.482283
0.032937 0.861153 0.039645 0.009632 0.895501 0.429162
0.133419 0.438335 -0.144961 0.141611 -0.077771 -0.986814
-0.084985 -0.157513 0.115749 -0.323655 -0.014722 0.945737
-0.070946 0.247228 -0.106576 -0.621406 -0.242121 -0.744844
-0.373116 0.216605 0.00958 0.273021 -0.154241 0.944469
0.104728 0.776588 -0.047779 0.992047 -0.017158 -0.112453
-0.138545 -0.172777 0.039647 -0.975566 -0.133241 0.170489
-0.065049 0.393197 0.095114 -0.361778 0.048197 0.929749
0.458923 0.19318 -0.030251 -0.415298 -0.907906 0.037604
0.045669 -0.421447 -0.007341 -0.929288 -0.109668 0.342392
-0.56378 0.03555 0.037135 0.825709 -0.561987 0.033602
0.008729 0.863424 -0.005717 -0.091646 0.995629 0.008434
0.154555 0.024046 -0.118597 0.746545 0.063484 -0.646662
0.097362 0.79988 0.012718 0.95996 0.118598 0.246079
-0.121189 -0.363661 0.071696 -0.957037 -0.018797 0.283593
-0.208686 0.463526 -0.068904 -0.623423 0.467748 -0.593467
0.046638 0.852464 0.04682 0.317498 0.692857 0.646394
0.063102 0.848911 -0.067781 0.424874 0.759127 -0.49227
0.015085 0.432239 0.096688 0.107962 0.148707 0.982937
-0.058735 -0.771799 -0.135602 -0.255175 0.378643 -0.886642
-0.063203 -0.799862 0.05312 -0.175243 0.821198 0.530506
0.091814 0.706228 -0.031159 0.881565 -0.421761 -0.155064
-0.536623 0.066672 0.05509 0.365146 -0.928537 0.02393
0.009211 -0.773476 -0.026943 0.833714 -0.055193 0.546721
-0.032409 -0.20552 0.117184 0.231829 -0.235536 0.943757
0.007197 0.092069 -0.136916 -0.154881 0.218278 -0.963317
0.148558 0.221177 0.076862 0.766627 0.066249 0.638559
0.035697 -0.304275 -0.02608 -0.975468 -0.049378 -0.205723
0.066104 0.648149 0.026444 0.662091 -0.343497 0.665458
0.163676 -0.838306 0.048172 0.831524 0.5534 0.016321
-0.010232 0.167368 0.127344 -0.3227 -0.012293 0.940195
0.008932 -0.301977 0.078743 0.736219 -0.175293 0.64581
0.282212 0.339401 -0.103865 -0.63447 -0.711637 -0.292409
-0.201846 0.505343 -0.029011 -0.741481 0.654956 -0.137688
-0.051352 0.589292 -0.036239 -0.319125 0.926817 0.160801
-0.128336 -0.290172 0.04122 -0.995067 -0.089692 0.040481
-0.043199 -0.792411 0.051756 0.050495 0.696358 0.699507
0.081009 0.73903 -0.089561 0.662254 -0.388179 -0.640725
0.01813 0.552313 -0.111233 -0.053969 0.453683 -0.887953
0.16109 0.224747 0.061228 0.752299 0.057012 0.655759
-0.076239 0.303604 0.081802 -0.58392 0.005615 0.811393
0.158752 0.571934 -0.076079 0.352237 0.823092 -0.431963
0.01169 0.174286 -0.116452 -0.01872 0.026042 -0.996379
-0.060448 -0.528821 0.059064 0.368828 -0.196976 0.907967
0.027586 -0.609218 -0.026631 0.994718 0.026575 -0.065994
-0.144128 -0.085301 0.002801 -0.999068 0.010884 -0.036018
0.11563 0.315221 -0.135743 0.456745 -0.060439 -0.886176
-0.029937 0.841192 -0.002019 -0.675804 0.713753 0.169583
0.093488 -0.328118 0.073183 -0.365234 -0.11022 0.918252
-0.023322 -0.415343 -0.07702 0.498309 0.225409 -0.836931
-0.293338 0.252167 -0.029942 0.707961 -0.684335 0.162276
-0.128931 0.075525 0.012976 -0.985155 0.134136 0.039965
-0.100181 -0.802704 -0.10514 -0.83212 -0.116541 -0.539897
0.187456 0.130699 -0.028693 0.847817 0.20014 -0.488599
-0.479237 0.173661 0.016911 -0.598653 0.788664 0.124867
-0.250755 0.395524 0.018521 -0.437254 0.141094 0.884021
0.211404 0.557402 -0.05475 0.46213 0.879379 -0.055536
-0.00196 -0.607409 -0.069401 0.696218 0.023893 -0.717303
0.022121 0.214704 0.128791 -0.009324 0.055848 0.99832
0.045447 0.85936 0.038891 0.300834 0.78544 0.540055
-0.087202 0.404721 0.079258 -0.626851 0.004344 0.778859
0.203577 -0.324833 -0.016094 0.945768 0.034972 -0.315177
-0.123963 0.372476 -0.067556 -0.933887 -0.292766 -0.199263
0.020251 -0.356049 -0.027385 0.915114 -0.017213 -0.401402
0.049237 0.255425 0.125902 0.196654 0.087187 0.975165
-0.440704 0.186406 -0.049528 -0.454437 0.281943 -0.841178
-0.053972 0.053134 0.116501 -0.515258 0.215774 0.825622
0.343001 0.299943 -0.050866 -0.559867 -0.569575 0.600813
-0.019561 0.688449 -0.009539 -0.993092 -0.103136 -0.018743
0.048232 0.747312 0.08593 0.836227 0.222576 0.494675
-0.003158 0.812144 -0.104171 -0.393986 0.483966 -0.779946
0.022715 0.723495 0.097369 -0.609347 -0.146636 0.74002
0.065506 0.66479 0.062032 0.630132 -0.762854 0.141481
0.017276 0.395447 0.10408 0.060806 0.209424 0.975414
0.008114 -0.704731 -0.07919 0.667937 0.182751 -0.719397
0.206684 -0.06945 -0.026887 0.951407 0.060739 -0.300567
-0.124755 0.187103 -0.015351 -0.86619 0.183359 -0.463575
-0.077009 -0.647639 -0.106967 -0.123538 0.063732 -0.989347
-0.117461 -0.762632 -0.074211 -0.901536 -0.031759 -0.424597
0.022491 -0.069932 0.118055 0.246723 -0.282287 0.924443
0.107665 -0.242071 0.088472 -0.029051 -0.130905 0.989946
-0.136486 -0.419444 0.014816 -0.990576 0.03054 0.12906
-0.147266 0.392699 -0.044854 0.717496 -0.676229 -0.164629
-0.107975 -0.710269 0.001594 -0.75879 -0.491101 0.42625
0.14771 -0.184291 0.096465 0.111716 -0.115938 0.986404
0.162239 -0.062279 -0.107901 0.709621 -0.116056 -0.693944
0.098572 -0.626027 0.029771 -0.662092 -0.254514 0.700706
-0.079902 -0.55842 0.0612 0.440788 -0.175386 0.879474
0.158543 -0.560191 -0.09651 0.536 -0.048146 -0.841261
0.011274 -0.265732 -0.052023 0.786933 -0.118429 -0.605067
-0.258255 0.403422 0.011245 -0.617133 0.366974 0.687899
-0.06857 0.062906 0.11107 -0.355429 0.165388 0.916989
-0.564455 0.055823 0.036318 -0.96249 0.259563 0.00221
0.102429 0.801927 -0.038305 0.89375 0.425311 -0.065524
-0.089748 0.390735 0.076585 -0.60725 -0.07512 0.790904
0.001187 -0.683074 0.012417 0.772937 -0.193211 0.600308
0.109563 -0.092245 -0.127685 0.037506 -0.285581 -0.957415
-0.093536 -0.244699 -0.071275 -0.739318 -0.054176 -0.671048
-0.120633 -0.318329 0.077504 -0.973206 -0.065672 0.219607
0.199295 -0.470387 -0.040265 0.995802 0.01211 -0.084943
0.048487 -0.158121 0.064361 -0.806904 -0.024298 0.589601
0.285814 0.405031 -0.01414 0.126724 -0.063409 0.981021
0.093342 0.253472 -0.137673 0.042837 -0.100049 -0.993842
0.047091 0.156603 0.130363 0.121419 0.039586 0.991801
0.107448 0.205605 0.108414 0.515913 0.043844 0.854658
0.392391 0.272526 -0.127792 -0.118498 -0.184788 -0.971728
-0.439647 0.216474 -0.043871 -0.593162 0.311013 -0.740044
0.11995 0.192491 -0.106388 0.487874 -0.146277 -0.858218
0.173638 -0.316618 -0.057773 0.728537 -0.016063 -0.684575
0.001471 -0.234572 -0.068382 0.723523 -0.065215 -0.687092
0.103349 -0.746172 0.027851 -0.049415 -0.406603 0.878405
0.134716 -0.182661 0.097548 0.09365 -0.183767 0.977468
0.03187 -0.1155 -0.078763 -0.789577 -0.34486 -0.506137
0.108168 -0.193133 -0.104661 -0.128946 -0.143003 -0.980352
0.142861 -0.371413 -0.087569 0.587798 0.124088 -0.799284
-0.04277 -0.723329 0.02493 -0.377 0.325538 0.855576
0.08907 0.433436 -0.144701 -0.157869 -0.004549 -0.98714
0.040715 0.468444 0.083441 0.135682 0.346437 0.928043
0.259129 0.365092 -0.042713 -0.647501 -0.595964 0.470692
0.107355 0.077071 -0.140703 0.532266 0.264576 -0.804013
-0.094084 0.338276 -0.099503 -0.618645 -0.136826 -0.773461
0.186412 -0.767125 -0.032284 0.943847 -0.078205 -0.281234
0.166324 -0.729021 -0.003211 0.429319 0.218135 0.851733
-0.032888 -0.861356 -0.116957 0.219699 -0.953346 -0.191882
0.072342 0.321562 -0.141631 -0.302326 -0.061302 -0.94739
0.100162 -0.03117 0.127605 0.233872 -0.072807 0.968521
-0.028653 -0.066663 -0.119106 0.02345 -0.369878 -0.928549
0.119685 -0.733407 -0.099111 -0.124038 0.087402 -0.979366
0.062887 0.300638 0.117507 0.373065 0.21628 0.900999
-0.021699 -0.145709 -0.090498 0.528092 -0.224359 -0.817381
0.140804 0.14272 0.089637 0.670852 0.025956 0.741088
0.210113 -0.097863 0.037393 0.93894 -0.021898 0.343172
-0.25771 0.430158 -0.028307 -0.732383 0.657879 0.165157
0.063983 0.808551 0.069303 0.498238 0.428356 0.753368
-0.102013 0.014334 0.104456 -0.516158 0.23097 0.8238
0.19266 0.339087 -0.026334 0.973538 -0.222445 -0.000303
-0.125176 -0.681222 -0.033125 -0.941532 -0.115023 0.308799
0.099602 -0.061181 -0.138858 0.034881 -0.33345 -0.940923
-0.018694 -0.02182 0.132502 -0.058112 -0.205944 0.96929
0.342994 0.402653 -0.126896 0.672379 0.346632 -0.644869
-0.034509 -0.852206 -0.131614 0.525631 -0.515642 -0.649101
0.01432 -0.533162 -0.045655 0.84724 0.046832 -0.528643
0.564662 0.125064 -0.012057 0.553997 0.187518 -0.809468
0.14902 -0.773657 0.035332 0.39579 0.295261 0.862957
-0.141658 0.545642 0.019708 -0.332184 0.791405 0.512203
-0.010879 -0.366529 -0.0623 0.714342 -0.093618 -0.693301
-0.090776 -0.8633 0.075636 -0.023772 -0.999707 0.002345
0.526437 0.14964 0.022338 -0.722636 -0.316111 0.586618
-0.317503 0.263814 0.005537 0.101229 -0.08343 0.988258
0.018236 0.063473 0.13644 0.161927 0.060991 0.984291
-0.103044 -0.307841 -0.058362 -0.760623 0.024339 -0.648065
0.020754 0.40767 0.10045 0.140421 0.276612 0.950008
0.160246 0.314583 0.056983 0.661457 0.020357 0.749228
0.062379 0.483035 -0.133138 -0.491402 0.325554 -0.799725
0.256007 0.519908 -0.03746 0.701293 0.682637 0.192984
0.128813 0.031155 0.116266 0.198435 0.185292 0.952855
0.010137 0.394329 -0.12827 0.030459 -0.002487 -0.999456
0.017273 -0.458575 0.023195 0.884596 -0.048042 0.463617
-0.092408 -0.139377 0.113813 -0.252514 0.015102 0.967345
-0.131071 -0.095713 0.070075 -0.841258 0.003425 0.540521
0.464216 0.268645 -0.060894 0.787236 0.607304 0.094527
0.033703 0.184824 -0.113922 0.018243 0.166008 -0.982038
-0.118848 -0.262658 -0.032444 -0.827851 0.003763 -0.560436
-0.12911 -0.54161 -0.00156 -0.935899 -0.135147 0.32243
-0.097647 -0.834217 0.085238 -0.664476 0.734962 0.123628
0.118314 -0.298915 0.081999 -0.045278 -0.073396 0.99612
-0.055704 -0.864287 0.071784 -0.004001 -0.999987 0.00119
-0.024442 -0.076738 0.128913 0.027749 -0.070931 0.996795
-0.119723 0.318568 -0.02092 -0.995988 -0.043182 0.072571
0.144924 -0.29923 0.081152 0.133669 -0.065922 0.988111
-0.128217 0.09255 0.017915 -0.994539 -0.024546 0.093484
-0.112805 0.006392 -0.084068 -0.861215 0.016741 -0.507863
-0.116636 0.356252 0.023283 -0.938185 -0.20414 0.278665
0.19134 -0.306731 0.058101 0.901993 -0.081602 0.421719
0.13502 -0.472665 -0.105777 0.165815 0.100554 -0.97893
0.199549 -0.347318 -0.030118 0.87542 0.164547 -0.45401
0.088476 -0.193175 -0.099012 -0.375773 -0.213714 -0.901649
-0.046508 -0.172643 -0.095496 0.172131 -0.060431 -0.982894
0.156857 -0.416198 0.07313 0.003376 -0.085837 0.994082
0.03926 -0.179114 0.034385 -0.499437 -0.384226 0.726167
-0.004682 0.822382 -0.095176 -0.380154 0.619755 -0.686283
0.141777 0.252945 0.08161 0.727554 0.052697 0.683899
-0.025529 -0.669969 -0.093473 0.533422 0.174754 -0.826602
-0.072504 -0.801959 0.051564 -0.425506 0.768693 0.462342
0.196939 -0.313684 0.044573 0.90173 -0.065934 0.424236
-0.109149 0.285562 -0.07221 -0.909563 -0.077943 -0.403539
0.052518 -0.671211 -0.024676 -0.969184 -0.075299 -0.218904
-0.284853 0.393938 -0.01497 -0.815995 0.384844 0.354582
-0.083505 -0.861387 0.140539 -0.188732 -0.955897 0.20988
0.191559 -0.577906 0.018792 0.818537 -0.087176 0.564907
0.553862 0.129343 0.046135 -0.569592 -0.024543 0.809701
0.18175 -0.789071 -0.027217 0.934112 -0.347666 0.075034
-0.517032 0.125999 0.027233 -0.790143 0.608664 -0.067153
0.064428 0.400687 0.098021 0.111966 0.205264 0.972267
-0.128085 0.38924 -0.004644 -0.993259 -0.098448 0.038343
0.56719 0.08396 0.036701 -0.85675 -0.495178 0.131507
-0.136742 -0.181897 0.051163 -0.994979 -0.045863 0.087697
0.405791 0.26791 -0.128087 0.0019 -0.068506 -0.994936
-0.10475 -0.233901 -0.057855 -0.844563 -0.040807 -0.533747
-0.001495 0.541044 0.04727 0.163865 0.806024 0.560129
0.156991 0.345194 0.061124 0.687176 -0.101808 0.718541
0.113971 -0.485696 -0.106181 -0.211874 0.034497 -0.974156
-0.133269 0.504978 0.05513 -0.151678 0.397934 0.904055
-0.024531 -0.717439 -0.105601 0.520079 0.289354 -0.802685
-0.049385 -0.199377 -0.093977 0.036654 -0.108266 -0.987366
-0.107748 0.330433 0.032893 -0.904859 -0.151345 0.39689
-0.11153 -0.810374 -0.070405 -0.888889 -0.430185 -0.109884
-0.121364 -0.674952 -0.016791 -0.972431 -0.052925 0.221495
-0.11774 0.309381 -0.054347 -0.941276 -0.218665 -0.250991
-0.076719 0.203659 -0.085554 -0.760818 -0.076364 -0.644282
0.576748 0.093126 -0.010375 0.624933 0.178094 -0.758496
0.147068 0.048175 0.101819 0.683894 0.302021 0.662967
-0.132863 -0.124064 0.066964 -0.857966 0.024829 0.512187
0.054377 -0.099118 0.086252 0.453608 -0.666218 0.587009
0.162257 -0.846657 -0.065666 0.992102 -0.015985 -0.114958
-0.511668 0.090361 0.031258 0.551755 -0.549651 -0.624201
-0.064278 0.579363 -0.066695 -0.450662 0.811748 -0.346835
0.522314 0.147067 -0.010841 -0.718257 -0.69545 -0.006904
-0.018108 0.709024 0.053695 -0.884153 -0.16473 0.43332
0.199585 0.393188 -0.086612 0.956447 -0.271901 -0.08888
0.264706 0.419531 -0.140863 -0.084704 0.038978 -0.994451
0.205483 -0.332192 -0.007133 0.993904 0.029203 -0.102592
0.022671 -0.146295 -0.032847 0.740523 -0.234989 -0.489601
0.00807 -0.617767 -0.06041 0.706558 0.091178 -0.701672
-0.106901 0.268807 0.036579 -0.982689 0.040446 0.179374
-0.043525 -0.863507 0.028076 0.068329 -0.996454 -0.040943
0.05626 -0.528784 -0.001125 -0.754401 -0.024182 0.654167
-0.038446 0.017885 -0.140571 -0.226882 -0.48744 -0.842778
0.042476 0.725777 0.098404 0.702855 -0.280489 0.640522
0.178515 -0.436523 0.063772 0.551999 -0.042163 0.830262
0.204547 -0.221601 0.026853 0.981938 -0.011115 0.184166
0.360663 0.327547 -0.133785 0.169599 0.011015 -0.98506
-0.011211 0.098227 -0.132931 -0.206888 0.394502 -0.888548
0.224089 0.430395 0.00741 0.308304 -0.638151 0.700652
-0.261101 0.395142 -0.087438 -0.361145 0.493152 -0.789558
0.055012 0.337345 -0.135349 -0.39352 -0.028287 -0.918856
0.200008 0.394284 -0.061409 0.979001 -0.191031 0.016651
0.009892 -0.79393 -0.039461 0.896134 -0.305652 0.32098
0.198418 -0.662001 -0.031888 0.995289 -0.0371 -0.080794
0.218438 0.414288 -0.120608 -0.679298 -0.444002 -0.580898
0.041222 0.091306 0.132606 0.136351 -0.416088 0.894898
0.079213 -0.238079 -0.087788 -0.5067 -0.045699 -0.860394
0.050889 0.351132 0.111846 0.174261 0.189902 0.96516
-0.341307 0.240294 -0.073795 0.305579 -0.546012 -0.772335
0.254359 0.46256 -0.128973 0.218239 0.396005 -0.89031
0.012668 0.30849 0.120262 -0.153877 0.127571 0.979251
-0.001121 -0.515604 0.031754 0.59742 -0.207978 0.774435
0.207638 -0.18851 0.003214 0.999109 -0.013986 0.034846
-0.076736 -0.153567 -0.092699 -0.55801 -0.146278 -0.81679
-0.004441 0.406861 -0.129042 0.063731 0.003419 -0.997924
0.016111 -0.044394 -0.128428 0.050758 -0.549419 -0.832668
0.41751 0.245286 -0.030697 -0.310949 -0.186136 0.890909
0.14091 0.569206 -0.018024 0.185505 0.784369 0.591747
0.169393 -0.173853 -0.080421 0.663384 -0.035396 -0.747002
0.025467 -0.299467 0.047996 0.94853 -0.035511 0.306831
-0.404821 0.206767 -0.061721 -0.207797 -0.297868 -0.929164
0.162052 0.055006 -0.102392 0.693559 0.257687 -0.672505
-0.131628 0.415998 -0.086737 -0.635117 -0.599784 -0.426345
-0.021341 0.694962 0.018574 -0.9555 -0.290559 0.033619
-0.120749 -0.533795 -0.069553 -0.789591 0.109417 -0.603743
-0.522824 0.073201 0.082324 0.246238 -0.920654 0.177263
-0.045602 -0.478486 -0.095677 0.173257 0.10765 -0.977838
0.101606 0.251446 0.107205 0.368339 0.074168 0.926665
0.154543 0.335787 0.062443 0.715572 -0.063553 0.695604
-0.020823 -0.346619 0.08886 0.381557 -0.092341 0.916965
-0.120716 -0.69374 -0.015458 -0.95995 -0.217271 0.143747
-0.056436 0.407988 -0.126791 -0.226407 -0.090095 -0.969518
0.164877 -0.825256 -0.049373 0.771939 -0.635576 -0.005896
0.099944 -0.295053 -0.098967 -0.182285 0.014394 -0.979883
-0.143858 -0.096375 -0.003332 -0.994136 0.002509 -0.098136
0.199594 -0.112056 0.061415 0.894428 -0.023744 0.446523
0.214047 -0.078756 0.000755 0.99616 0.040293 -0.074317
0.167493 -0.781704 -0.086558 0.735331 0.336341 -0.587318
0.290134 0.33063 -0.078228 -0.614164 -0.784536 0.058994
0.093546 -0.845711 0.137672 -0.83895 0.456319 0.290653
0.118779 -0.70529 0.026252 0.366685 -0.292636 0.881545
0.120932 -0.579261 -0.103343 -0.195879 -0.148731 -0.967093
0.066616 0.410202 0.095814 0.132704 0.240991 0.959355
0.198726 0.147608 -0.005262 0.947106 0.220946 -0.202242
-0.07486 -0.239363 -0.086835 -0.500804 -0.026989 -0.860652
-0.000927 0.551066 0.031047 0.074277 0.777192 0.62269
0.098412 -0.473167 -0.100169 -0.519897 0.034897 -0.853121
-0.001385 0.559186 0.024146 -0.163107 0.613382 0.765696
-0.095877 -0.858565 -0.08773 -0.811514 -0.530325 -0.129523
-0.011477 0.643059 -0.027852 -0.985059 0.068034 -0.124811
-0.1405 0.531186 0.038044 -0.183713 0.688947 0.701064
-0.034023 0.070479 0.122944 -0.343538 0.190313 0.918475
0.114835 0.235533 0.103198 0.468415 0.054085 0.880206
-0.017914 -0.274702 0.098021 0.366525 -0.220961 0.902918
0.115566 -0.49777 0.044175 -0.577333 -0.107595 0.809009
0.014108 -0.523097 -0.045127 0.847816 0.051073 -0.527414
0.54339 0.176319 -0.026706 0.824431 -0.016387 -0.46159
-0.095577 -0.064208 -0.095216 -0.669562 -0.225574 -0.707585
0.528795 0.158537 0.025445 -0.523287 0.063701 0.845131
0.175182 0.272283 0.036733 0.918276 0.062906 0.38874
0.543105 0.190388 -0.002226 0.980009 0.098194 0.144378
-0.184315 0.50784 0.029614 -0.652389 0.528285 0.542165
-0.076918 0.38314 -0.117318 -0.420898 -0.15217 -0.893728
-0.114352 -0.061066 -0.07424 -0.785614 -0.178557 -0.592074
0.056345 -0.635564 -0.045916 -0.830463 -0.14478 -0.537425
0.117389 -0.260832 0.08548 0.053524 -0.232981 0.96769
-0.135921 0.458313 -0.102601 -0.463895 0.047903 -0.88396
-0.039181 -0.748916 -0.126734 0.211511 0.429502 -0.877096
0.088252 0.776344 0.052098 0.893858 -0.024013 0.410524
0.103099 0.35897 -0.144738 0.154649 -0.05768 -0.98389
0.108872 0.013934 0.127719 0.353418 0.233463 0.902495
-0.029326 0.441883 -0.131117 0.05794 -0.059828 -0.996177
0.067017 0.777602 0.07541 0.47953 -0.286123 0.788033
-0.518393 0.09678 0.024239 0.111562 -0.382191 -0.895564
-0.04698 0.522333 0.054127 -0.169503 0.591218 0.788471
0.057764 0.556742 0.024071 0.203677 0.499828 0.840517
0.02614 0.493989 -0.123253 -0.090184 0.051403 -0.992702
0.047509 0.094509 -0.143288 -0.10876 0.238836 -0.963974
0.557645 0.162417 -0.005014 0.74223 0.660976 -0.10528
