-0.087367 -0.168613 0.114584 -0.273633 -0.055922 0.95986
0.200658 -0.317197 0.034307 0.93628 -0.06028 0.345624
-0.090547 0.548534 -0.085825 -0.386765 0.632648 -0.670523
-0.149084 0.463905 -0.095964 -0.337474 0.060001 -0.939146
-0.383614 0.194599 -0.051368 0.222279 -0.901209 -0.337032
0.205478 -0.394065 -0.016941 0.99178 -0.038082 -0.113508
-0.007905 -0.288831 -0.071238 0.707333 -0.126967 -0.695345
-0.129176 -0.601932 -0.059682 -0.987649 -0.014847 -0.144722
0.101006 0.402463 -0.145917 0.006957 0.001789 -0.999736
-0.077162 -0.419521 -0.079437 -0.414438 0.271544 -0.866208
-0.147662 0.442863 -0.096307 -0.287766 -0.10551 -0.947852
0.57221 0.080801 0.049238 -0.746123 -0.624215 0.227241
-0.022882 0.4053 0.104247 -0.075622 0.164527 0.983097
0.152346 -0.309753 0.079068 0.229668 -0.059171 0.970285
0.043709 -0.436227 -0.022002 -0.994797 -0.020093 0.075988
0.149904 -0.841731 0.169895 0.640076 0.660677 0.360109
-0.08815 -0.787609 0.019399 -0.634174 0.551463 0.505639
-0.125244 -0.745716 -0.02734 -0.956133 -0.064954 0.265078
0.057289 -0.682799 0.016548 -0.840559 0.137146 0.520244
0.15822 0.2432 -0.076237 0.840636 -0.052883 -0.537776
-0.014443 -0.108746 -0.097306 0.499572 -0.350324 -0.791186
0.108146 -0.142349 0.108037 -0.521463 -0.145734 0.839894
-0.365345 0.286564 0.000611 -0.232279 0.450935 0.856837
-0.12296 -0.488658 -0.058766 -0.795539 0.080439 -0.600512
0.098069 -0.546926 -0.097516 -0.565237 -0.102064 -0.817946
0.138838 0.409774 0.078169 0.533544 0.080017 0.841597
0.089018 -0.748245 0.02506 -0.060012 -0.62242 0.778922
-0.204934 0.416264 -0.094472 -0.167117 0.222917 -0.959388
-0.017764 -0.043162 0.132859 -0.026933 -0.213499 0.975637
-0.40854 0.176131 -0.026328 0.525047 -0.838356 -0.122923
0.618833 0.085408 0.052264 0.864144 0.502879 0.018439
0.112327 0.590307 -0.037537 0.390197 0.865915 0.304519
-0.024897 0.582806 -0.003261 -0.490721 0.594032 0.632391
-0.270449 0.413677 -0.037477 -0.745779 0.665636 0.009317
-0.291266 0.387951 -0.051927 -0.993539 0.008097 -0.091411
0.027817 -0.191356 0.044605 0.968355 -0.03004 0.242964
0.241136 0.406475 -0.016557 -0.018322 -0.52955 0.846169
0.018201 -0.776789 -0.059293 0.991916 -0.095832 -0.00084
0.01031 0.538144 0.046409 0.19249 0.747685 0.631801
0.204987 -0.24194 -0.016122 0.997516 -0.046677 -0.052007
0.232136 0.465726 -0.132112 0.157802 0.246241 -0.952849
-0.428199 0.238762 -0.026103 -0.730992 0.682101 0.005039
0.089925 0.613166 -0.026584 0.949323 0.24956 0.156017
0.172485 -0.046293 -0.098054 0.800984 -0.126059 -0.584669
0.01373 -0.788937 -0.046789 0.894102 -0.37085 0.250343
0.087984 -0.053565 0.123564 0.001724 -0.392773 0.918522
0.156255 -0.238813 -0.082345 0.499987 -0.129494 -0.856265
-0.240874 0.435318 0.007248 -0.735295 0.505686 0.450927
-0.142314 -0.153224 4.8e-05 -0.970549 -0.101215 -0.217199
-0.537988 0.079103 0.021506 0.622116 -0.516911 -0.584882
0.173292 -0.141591 0.093444 0.597488 -0.080458 0.797319
0.173435 0.464474 0.043186 0.576308 0.190771 0.793533
0.02608 -0.38612 -0.002332 0.994486 -0.065089 -0.0397
0.130724 0.074872 0.10503 0.212153 0.218311 0.94768
0.171935 -0.546879 -0.087166 0.680985 -0.033052 -0.73154
-0.110448 0.458445 -0.115423 -0.444739 0.07308 -0.892157
-0.119544 -0.684964 -0.006979 -0.983613 0.001325 0.174358
-0.013253 -0.538196 0.035916 0.556339 -0.18094 0.81028
0.194702 -0.06882 -0.057333 0.871675 -0.008659 -0.489088
0.164535 0.239522 -0.065116 0.846787 -0.000135 -0.53081
-0.243227 0.311592 -0.064656 0.708125 -0.578891 -0.39822
0.220776 0.504453 0.013155 0.225034 0.320789 0.912372
-0.004363 0.856724 0.016116 -0.51889 0.829921 0.202589
0.090849 -0.552042 -0.091225 -0.659869 -0.118571 -0.741785
-0.111438 0.27376 0.01126 -0.994509 0.020925 0.092089
0.039079 0.015335 0.142144 0.059444 0.176941 0.982313
0.115676 -0.869827 -0.060314 0.011166 -0.998688 0.048942
0.005034 -0.100241 -0.084576 0.68022 -0.42073 -0.590924
-0.104548 -0.271352 -0.055944 -0.809765 -0.014796 -0.586269
0.053773 -0.625667 -0.044382 -0.869422 -0.114129 -0.476144
0.107794 0.260276 -0.135778 0.340075 -0.091515 -0.932184
0.301779 0.371434 -0.022697 0.421452 -0.425709 0.779812
0.118661 -0.120993 0.114384 -0.014504 -0.065722 0.992659
-0.267078 0.301396 -0.084521 0.571607 -0.432647 -0.691489
0.186765 0.16159 -0.02707 0.86979 0.099599 -0.481256
-0.028277 0.238324 -0.127766 -0.129082 -0.129772 -0.982122
0.174728 -0.329642 0.072947 0.259515 -0.053908 0.954291
-0.121103 0.397397 0.046351 -0.911775 -0.284633 0.294767
0.006917 -0.429617 0.042669 0.798196 -0.156814 0.581569
0.01689 -0.783098 -0.072784 0.97047 -0.144215 -0.139008
-0.013087 -0.716963 0.017816 0.684768 -0.223444 0.693094
-0.084441 0.453699 0.074891 -0.52494 0.225961 0.818241
0.210681 -0.051632 0.031698 0.937296 0.069708 0.341307
-0.076961 -0.464406 -0.092244 -0.361768 0.136069 -0.922196
0.209664 -0.06751 -0.015921 0.952001 0.109358 -0.284623
0.104213 0.373848 -0.14532 0.121096 -0.037856 -0.99001
0.164751 -0.43358 0.070734 0.368986 -0.107596 0.917978
0.097296 0.380971 -0.145821 0.011821 -0.012958 -0.99887
0.017081 -0.086316 -0.09049 -0.060257 -0.700715 -0.691666
-0.038045 -0.205951 -0.09171 0.211101 -0.069936 -0.973706
0.210113 -0.097863 0.037393 0.93894 -0.021898 0.343172
-0.168977 0.430806 0.036543 -0.091204 -0.473428 0.871293
0.154604 -0.864777 0.131715 0.333371 -0.937038 0.06085
0.029904 -0.164345 0.049746 0.898319 -0.269722 0.341762
-0.089595 -0.44823 0.082257 -0.075057 -0.140071 0.985289
0.018994 -0.728666 -0.068076 0.930287 0.022187 -0.361007
0.128866 0.018607 -0.140507 0.517494 0.035228 -0.854823
-0.1242 0.383512 0.016535 -0.936455 -0.277008 0.213096
0.133735 -0.869794 0.055196 0.020396 -0.999401 -0.018794
0.052958 -0.695958 -0.017025 -0.977883 -0.103269 -0.165197
0.108423 -0.571664 0.035765 -0.339681 -0.141016 0.929756
0.058709 0.483179 0.074989 0.070559 0.448095 0.891025
0.029798 0.483377 -0.125104 -0.212537 0.132555 -0.967964
-0.058735 -0.771799 -0.135602 -0.255175 0.378643 -0.886642
0.049849 0.455796 -0.131796 -0.417141 0.078857 -0.902794
-0.046154 0.257675 0.103434 -0.613832 0.046559 0.786473
0.150949 -0.509884 -0.102652 0.41674 -0.015132 -0.907093
0.063276 -0.335212 0.051984 -0.728536 -0.194468 0.656775
-0.06392 -0.28129 -0.090249 -0.277349 -0.057593 -0.95628
0.37735 0.250401 -0.062976 -0.74553 -0.607738 0.273288
-0.081465 0.555744 0.017686 -0.050221 0.767295 0.639241
0.165003 -0.792008 -0.094313 0.762004 0.178363 -0.618228
0.129698 0.148989 -0.104618 0.503955 0.189033 -0.8409
0.124064 -0.238146 0.088448 0.084804 -0.155875 0.984045
0.094591 0.756951 0.038579 0.926867 -0.015757 0.370187
-0.380419 0.292413 -0.025379 -0.678829 0.708399 0.18483
-0.114281 0.370977 0.043294 -0.857267 -0.310712 0.405461
0.039405 -0.194732 0.028347 -0.660748 -0.208742 0.598734
0.11459 0.137554 0.107419 0.561647 0.026649 0.825591
0.092742 -0.713163 -0.081802 -0.747963 0.015415 -0.661732
0.204827 -0.2661 -0.016074 0.994489 -0.003005 -0.100261
0.01184 0.495042 0.073124 0.04407 0.517631 0.851584
0.180638 0.241007 -0.027701 0.960391 0.00726 -0.264868
-0.124991 -0.207767 0.083834 -0.850191 -0.044592 0.524162
-0.098101 -0.511674 -0.087661 -0.558018 0.11726 -0.82004
0.085185 0.557559 0.019158 0.008268 0.791734 0.593063
-0.107553 0.294855 -0.076696 -0.83688 -0.079472 -0.539509
-0.416747 0.250637 -0.020425 -0.749513 0.657994 0.065008
0.08553 -0.826235 -0.06062 -0.554372 -0.829709 -0.057649
-0.137643 -0.077616 0.052035 -0.973145 0.006606 0.228471
-0.068771 0.046756 -0.12676 -0.528618 0.294807 -0.792545
0.044706 -0.519024 -0.035885 -0.976905 -0.035274 -0.184927
0.178962 0.566806 -0.050554 0.273864 0.952231 0.028622
0.123752 -0.365835 -0.098288 0.363574 0.090238 -0.924084
-0.216711 0.415805 0.034834 -0.282747 -0.120149 0.945755
0.099195 -0.591089 -0.091596 -0.576484 -0.11387 -0.808732
-0.134351 -0.093201 -0.036617 -0.897094 -0.055999 -0.429623
-0.113483 0.185901 0.048984 -0.885064 -0.019642 0.462758
-0.439647 0.216474 -0.043871 -0.593162 0.311013 -0.740044
-0.133568 -0.463354 -0.039127 -0.896905 0.078299 -0.43377
-0.140995 -0.118053 0.042849 -0.947262 -0.007273 0.317566
-0.106925 -0.0625 -0.083523 -0.768491 -0.184244 -0.612755
0.135279 0.507151 -0.135999 0.116709 0.266508 -0.955298
0.116249 -0.820986 -0.117526 -0.214011 -0.10329 -0.963052
0.088966 0.569795 -0.108527 0.043139 0.639542 -0.76638
-0.008128 0.664463 -0.037675 -0.857202 -0.172505 -0.472681
0.18015 -0.551679 0.038755 0.634311 -0.179662 0.747303
-0.09187 -0.788519 -0.116689 -0.791027 0.130072 -0.597757
0.307242 0.443273 -0.039792 0.69516 0.380611 0.606052
0.519531 0.170551 -0.042648 0.275642 -0.371169 -0.879914
0.149947 -0.1007 0.108844 0.487794 -0.012872 0.87276
-0.071976 -0.855952 0.156869 -0.077674 -0.715187 0.671867
-0.419001 0.166488 -0.012355 0.596266 -0.799438 -0.031389
0.073657 -0.350552 0.056515 -0.574454 -0.32202 0.749371
0.057811 -0.199073 0.071461 -0.679138 -0.108736 0.725665
-0.10444 0.449189 -0.118625 -0.375653 -0.03747 -0.923613
0.329147 0.337946 -0.135841 -0.104694 -0.210953 -0.968565
-0.245669 0.44501 -0.038418 -0.760434 0.643373 -0.082364
-0.00929 0.674827 0.04851 -0.817875 -0.454286 0.329073
0.165393 -0.341507 -0.066229 0.680677 0.018682 -0.732121
0.59136 0.121303 0.020362 0.744753 0.66471 -0.051214
0.192358 0.156421 0.025606 0.872214 0.30207 0.37946
-0.014147 -0.678093 0.025133 0.190378 -0.0418 0.97299
0.231282 0.392188 -0.038015 -0.608134 -0.699281 0.373454
-0.14259 -0.058852 0.029819 -0.986291 0.049421 0.154393
0.094875 0.716765 0.025634 0.922203 -0.142278 0.257495
0.133212 -0.323086 -0.091276 0.509322 0.03157 -0.859034
-0.288949 0.393504 -0.064044 -0.900213 0.151071 -0.39104
0.13123 0.383134 0.084284 0.478795 0.057481 0.875869
0.095615 -0.01442 -0.153865 0.131272 -0.151711 -0.977301
0.156749 0.007125 0.107675 0.520913 -0.032808 0.8483
0.129939 -0.052821 0.11525 0.317169 -0.044783 0.946353
-0.450235 0.150038 -0.023539 0.337363 -0.825195 -0.449483
0.125168 -0.261633 -0.096193 0.372685 -0.070789 -0.924972
0.212404 0.42235 -0.005264 0.334293 -0.854714 0.373773
0.393078 0.293995 -0.128683 0.170279 0.100946 -0.972173
-0.000489 0.429251 -0.128362 0.119359 0.013881 -0.992679
-0.089552 0.333096 0.068783 -0.882214 -0.010321 0.469173
0.521165 0.148922 -0.022663 -0.709848 -0.699269 -0.076934
0.191647 -0.307691 -0.037691 0.784256 -0.052855 -0.617377
-0.109723 -0.244724 -0.04936 -0.838569 -0.023139 -0.543653
0.152964 -0.664065 0.028144 0.171104 -0.140474 0.97507
0.039315 -0.203617 0.023654 -0.975866 -0.098285 0.194846
-0.149316 0.532892 0.033826 -0.304713 0.690384 0.652839
-0.030643 0.76343 -0.078197 -0.815634 -0.244274 -0.51701
0.135553 0.185425 -0.096467 0.614434 0.02217 -0.786329
0.062311 0.474689 0.078844 0.099932 0.392213 0.913088
0.17291 0.189786 0.05155 0.799141 0.079952 0.595311
-0.128413 0.426404 -0.101661 -0.599465 -0.389551 -0.697991
0.270405 0.370098 -0.132391 -0.332287 -0.59481 -0.728699
-0.00209 0.676085 0.065981 -0.85298 -0.221573 0.455324
-0.091518 -0.362279 0.10079 -0.116586 -0.200582 0.969132
0.056106 -0.724767 0.025641 -0.919669 -0.069475 0.356836
-0.049218 0.540601 0.040527 -0.188548 0.634817 0.74872
-0.011698 0.566443 -0.103066 -0.085434 0.549972 -0.828364
0.066078 -0.138816 -0.10066 -0.611962 -0.20622 -0.763368
0.164895 -0.094209 0.100684 0.615971 0.036228 0.786853
0.016558 -0.760277 -0.035692 0.909813 -0.231864 0.316667
0.11524 -0.86643 0.004794 -0.147124 -0.98023 -0.092557
0.051434 0.231567 -0.127901 -0.181588 -0.13249 -0.973185
0.054535 0.5739 -0.103683 -0.045086 0.556116 -0.828369
0.44354 0.23503 -0.020448 -0.390232 0.109784 0.886345
-0.084591 0.130979 0.084143 -0.669862 0.024042 0.741965
0.114992 0.300287 -0.135166 0.439149 -0.051813 -0.893695
0.003075 -0.223312 0.097696 0.621638 -0.109163 0.773605
-0.397206 0.185957 -0.041537 0.389319 -0.870047 -0.300765
0.066635 0.861555 0.006066 0.461856 0.869068 0.125429
0.167647 0.282193 0.04928 0.752367 -0.044566 0.656314
0.157733 -0.219379 -0.08421 0.567078 -0.105826 -0.816601
-0.065363 -0.187029 -0.092567 -0.336576 -0.116784 -0.932864
-0.126025 0.046346 -0.048992 -0.914092 0.144791 -0.377307
0.444268 0.276526 -0.107222 0.727521 0.298834 -0.612397
0.202976 -0.573431 -0.027383 0.961362 -0.23338 -0.11062
-0.129894 -0.141886 0.074213 -0.88296 0.045751 0.466775
0.022497 -0.495593 -0.026085 0.863724 0.056637 -0.495678
-0.016086 -0.004532 -0.139799 -0.178963 -0.14126 -0.973061
-0.070129 -0.480857 0.074886 0.304367 -0.168655 0.937445
0.002752 0.533639 -0.118624 0.001325 0.331312 -0.941581
0.088643 -0.828114 0.021199 -0.940311 -0.338129 0.03076
-0.095247 -0.188333 -0.072421 -0.705639 -0.040807 -0.707356
0.132759 0.009337 -0.138725 0.548671 0.107239 -0.828383
0.084719 0.601958 -0.005483 0.76595 0.207484 0.603349
0.354779 0.330562 -0.045768 0.31529 0.250222 0.913548
0.022662 -0.172986 0.068494 0.931924 -0.154456 0.32597
0.083438 0.614718 -0.058969 0.537507 0.670411 -0.502589
0.205007 0.000526 -0.024382 0.969388 0.095924 -0.214542
0.152749 0.321994 0.063631 0.721648 0.002913 0.692009
0.186256 0.10239 -0.049109 0.836717 0.290733 -0.463627
0.162697 0.565745 -0.083255 0.332353 0.805912 -0.48557
-0.045859 0.322808 -0.126075 -0.331464 0.016472 -0.941388
0.151194 -0.693697 -0.083929 0.640532 -0.018544 -0.767345
0.029166 0.131721 -0.125604 -0.147301 0.440014 -0.885727
0.153877 -0.588008 -0.096609 0.430354 -0.119922 -0.892749
-0.138299 -0.495525 -0.015069 -0.983516 -0.174613 0.014994
-0.018321 0.611004 -0.018551 -0.910772 0.266811 0.297015
0.015472 0.804219 0.075886 -0.340022 0.395315 0.853189
-0.513167 0.129705 0.067698 -0.760166 0.6343 0.102856
0.021699 -0.300541 -0.02365 0.936041 -0.025379 -0.350664
0.13761 -0.012819 -0.138574 0.622943 0.054563 -0.779848
0.172394 0.39737 0.050518 0.676487 -0.054036 0.73403
0.042202 0.05564 -0.152389 -0.13606 0.21408 -0.967259
0.040568 -0.329231 0.007691 -0.939182 -0.087336 0.33056
-0.102868 0.256204 0.056453 -0.906515 0.08113 0.403962
-0.471826 0.145477 -0.03152 0.251221 -0.859522 -0.441959
-0.174018 0.382618 -0.081282 0.584965 -0.620914 -0.52096
-0.072774 -0.506771 0.070698 0.365537 -0.227252 0.902365
0.079891 -0.309257 -0.089751 -0.603046 -0.01241 -0.79736
0.46087 0.234229 -0.087931 0.579845 -0.364072 -0.728715
-0.053639 -0.630118 -0.104522 0.235069 0.052993 -0.969412
0.315877 0.438604 -0.04867 0.818736 0.32556 0.469479
-0.019217 0.035742 -0.145926 -0.170572 0.13094 -0.974656
0.167695 -0.220536 0.086047 0.365183 -0.255331 0.893344
-0.054831 0.217748 0.099571 -0.520758 0.097752 0.848035
0.124683 0.316573 0.091723 0.5519 0.080743 0.829865
0.074294 0.665206 0.026948 0.830033 -0.411285 0.366096
0.085313 0.245543 -0.137025 -0.037416 -0.128106 -0.990717
0.082248 0.003374 -0.157293 0.089245 -0.068315 -0.990647
0.020896 0.040154 -0.152807 -0.16754 0.19557 -0.966077
0.049612 0.401984 -0.134401 -0.358241 0.032585 -0.931293
-0.05493 0.193974 -0.10024 -0.526635 -0.234407 -0.816872
-0.019835 -0.248248 0.105258 0.305264 -0.177175 0.934243
0.193429 0.344481 -0.01839 0.980379 -0.171897 0.084614
-0.552045 0.05558 0.067187 0.819448 -0.557672 0.059888
-0.059534 -0.280958 0.107189 0.128749 -0.114454 0.984799
-0.183701 0.388166 0.019337 0.29266 -0.476637 0.827514
0.073706 -0.640044 -0.064652 -0.691903 -0.121221 -0.711552
0.055111 0.083291 -0.147331 -0.139252 0.314984 -0.938114
0.592025 0.057657 -0.005428 0.942039 -0.183454 -0.233904
0.165108 0.004225 -0.108857 0.821307 0.104191 -0.559541
-0.131808 -0.169992 0.072286 -0.824047 0.015682 0.564347
-0.282638 0.355221 0.006003 -0.53813 0.167627 0.82221
0.17613 -0.066303 0.088858 0.691685 0.040688 0.721003
0.083473 0.649049 -0.028849 0.969208 0.058701 -0.225732
-0.096808 -0.822827 0.032215 -0.859151 0.468024 0.187304
0.135809 -0.628873 -0.096582 0.182527 -0.114371 -0.973458
-0.041225 0.106109 -0.122235 -0.386488 0.318803 -0.862368
0.058725 0.533035 0.047464 0.026476 0.645951 0.759116
0.044322 -0.150985 0.058282 -0.863729 -0.111217 0.478339
0.057483 0.032893 -0.16005 -0.07364 0.078171 -0.993046
0.185231 0.552955 -0.0882 0.312687 0.751396 -0.580739
-0.122382 0.106553 0.04118 -0.934194 0.094971 0.342803
-0.427094 0.188313 0.021767 -0.048964 0.348303 0.934937
-0.106507 -0.260413 -0.053629 -0.822324 -0.025956 -0.568357
-0.021981 0.706028 0.038705 -0.962821 -0.194174 0.179064
0.173341 0.31161 0.042472 0.906019 0.049491 0.407677
0.142687 -0.466287 -0.102998 0.232319 0.102969 -0.964731
0.102448 -0.294788 0.081136 -0.185288 -0.122517 0.97367
-0.111572 0.526473 -0.093135 -0.384119 0.5666 -0.728768
0.250698 0.362834 -0.080833 -0.698836 -0.715229 -0.001262
0.024828 -0.537256 -0.017104 0.982184 -0.078288 -0.081397
0.187474 0.304892 -0.017708 0.942063 -0.322029 -0.093371
-0.053573 -0.580106 0.045611 0.378611 -0.29069 0.878042
0.093968 -0.789089 0.043991 -0.476269 0.339107 0.810735
-0.495306 0.142882 0.073758 -0.052006 0.659566 0.7002
0.202069 -0.000737 -0.034613 0.915935 0.118764 -0.376008
0.54339 0.176319 -0.026706 0.824431 -0.016387 -0.46159
-0.119171 -0.746128 -0.010115 -0.801764 0.201003 0.504538
-0.026777 -0.53763 -0.093689 0.445095 0.019133 -0.894739
0.238761 0.452755 -0.13394 0.00919 0.14794 -0.987683
-0.045031 -0.458488 0.072945 0.209484 -0.239716 0.947942
0.521705 0.150024 -0.032409 -0.672697 -0.609606 -0.300996
-0.12874 -0.62714 -0.030175 -0.996279 -0.041533 0.068774
0.119173 -0.362069 0.074774 -0.259131 -0.210336 0.941996
-0.297475 0.317573 -0.096828 -0.104429 0.131167 -0.983781
0.198726 0.147608 -0.005262 0.947106 0.220946 -0.202242
0.192077 0.085458 0.034659 0.949002 0.260099 0.170932
0.18306 0.212341 0.008042 0.999487 0.027265 0.015505
-0.062457 0.525135 0.049234 -0.145776 0.584931 0.797473
-0.098624 0.361419 0.062696 -0.687571 -0.246168 0.682265
-0.018814 -0.66126 0.025269 -0.073781 0.058274 0.994172
0.19339 0.370918 -0.083943 0.782789 -0.451645 -0.427457
0.553862 0.129343 0.046135 -0.569592 -0.024543 0.809701
0.133267 -0.852641 -0.117246 0.55613 -0.076085 -0.808772
0.003474 0.837028 0.049674 -0.682415 0.36652 0.630483
0.155474 -0.351884 0.076271 0.235621 -0.052576 0.970146
-0.112022 0.252306 0.018212 -0.991578 0.093109 0.080162
-0.126745 -0.679842 -0.070022 -0.961536 -0.036959 -0.270346
0.203571 -0.291946 -0.018069 0.940685 -0.046065 -0.324175
0.013229 -0.373047 -0.03934 0.750848 0.023752 -0.659749
-0.134055 -0.433474 -0.026449 -0.919873 0.168421 -0.347935
-0.128459 -0.350986 -0.001385 -0.999153 0.037326 -0.01186
0.115955 -0.308503 0.081132 -0.090033 -0.080239 0.992141
-0.084405 -0.836042 0.141662 -0.461568 0.804851 0.369895
0.297869 0.472524 -0.084687 0.716083 0.646319 -0.258803
-0.12803 -0.667559 -0.047616 -0.997768 -0.016026 0.061821
-0.12558 -0.253605 0.076884 -0.900536 -0.08541 0.421961
0.120488 0.370692 -0.140409 0.429036 -0.122744 -0.894705
0.189984 -0.36904 0.051484 0.912574 -0.043839 0.404344
-0.070808 0.031117 -0.130742 -0.551517 0.212955 -0.804576
-0.047394 0.014682 -0.136631 -0.259844 -0.281124 -0.921681
0.126817 -0.000389 -0.143595 0.408332 0.133951 -0.90115
-0.004356 0.608822 -0.069747 -0.433075 0.64842 -0.624928
0.200408 -0.54068 -0.046264 0.953014 -0.012051 -0.302468
-0.020408 -0.392787 -0.07057 0.618424 0.058184 -0.782585
-0.128652 -0.408943 -0.027704 -0.882899 0.053731 -0.462882
-0.021611 0.354664 0.106063 -0.185916 0.00412 0.979124
0.166971 0.161603 -0.06439 0.841609 0.018937 -0.538109
-0.091985 0.349272 0.066039 -0.770911 -0.162471 0.613346
-0.115849 -0.22827 0.095761 -0.691455 -0.043335 0.721078
0.109494 -0.84387 0.16885 -0.811388 0.1877 0.553279
-0.381982 0.196433 0.009002 0.581659 -0.538483 0.598017
-0.222728 0.331272 -0.013424 0.605028 -0.708556 0.353711
-0.033666 0.148216 0.117221 -0.474642 0.016062 0.879983
0.14106 -0.325099 0.080039 0.10015 -0.062952 0.992799
0.443205 0.198854 -0.063796 -0.519583 -0.847453 0.054828
0.187092 -0.103027 -0.069042 0.812597 -0.053892 -0.580096
-0.081389 -0.680654 -0.107306 -0.32432 0.077869 -0.940573
0.063623 0.131657 0.129071 0.151307 0.023719 0.987333
-0.028648 0.585835 -0.084552 -0.294243 0.741813 -0.601149
0.086269 -0.827947 -0.029545 -0.766569 -0.609726 -0.001973
0.132092 0.131917 -0.107583 0.561321 0.239457 -0.787624
-0.134581 -0.411583 -0.014745 -0.958384 0.083125 -0.269854
0.090223 -0.848593 0.128788 -0.917486 0.341662 0.180926
0.139381 -0.864545 0.159287 0.040019 -0.983142 0.176381
0.454839 0.280366 -0.089567 0.772626 0.543022 -0.293828
-0.124499 0.205006 0.014178 -0.901084 0.388825 0.178123
0.083837 -0.615194 0.018865 -0.729391 -0.235497 0.639933
-0.00484 0.801597 -0.107862 -0.470822 0.291062 -0.830198
0.611077 0.093885 0.025558 0.771675 0.633424 -0.055648
-0.184813 0.427197 0.035727 0.172443 -0.417968 0.889311
0.207775 -0.096474 -0.029282 0.933956 0.058581 -0.351971
-0.129246 -0.613766 -0.05597 -0.996896 -0.014893 -0.065309
0.139249 -0.031437 0.113221 0.353574 -0.024185 0.935045
-0.03413 -0.154795 -0.094551 0.365547 -0.192004 -0.907133
-0.048545 -0.591744 0.039061 0.481402 -0.291019 0.826746
-0.113136 -0.726973 -0.080135 -0.8209 -0.092936 -0.561683
0.052811 -0.520815 -0.005615 -0.832512 -0.0185 0.55111
0.042206 -0.096467 0.099661 0.466051 -0.550318 0.690171
0.136806 0.042366 -0.131708 0.641119 0.217574 -0.734005
-0.135239 -0.220512 0.054072 -0.988233 -0.052523 0.14111
-0.128279 -0.337218 0.008172 -0.99993 -0.004266 0.003438
0.086929 -0.842304 0.03662 -0.995624 0.08421 -0.001262
0.457399 0.274293 -0.054384 0.592236 0.71772 0.363624
0.080683 0.83809 -0.06378 0.679451 0.596784 -0.423728
0.554565 0.110212 0.04308 -0.84684 -0.336388 0.399207
0.372116 0.348826 -0.119833 0.648487 0.487528 -0.582994
-0.263786 0.355413 -0.097188 -0.053186 -0.008666 -0.996577
-0.068974 -0.258139 -0.089831 -0.386127 -0.016136 -0.920467
0.328243 0.40742 -0.044954 0.635995 0.4422 0.631217
-0.350293 0.318742 -0.030164 -0.671219 0.721374 0.167974
0.411458 0.218676 -0.098161 -0.590713 -0.80335 -0.066807
-0.033847 0.838627 -0.019883 -0.735166 0.676631 -0.025612
0.387677 0.342053 -0.090754 0.698286 0.709663 0.059406
0.287485 0.422575 -0.139474 0.16689 0.295419 -0.93488
0.106852 -0.305885 -0.099428 0.015045 0.016019 -0.994056
0.020251 -0.356049 -0.027385 0.915114 -0.017213 -0.401402
0.065543 -0.093245 -0.118554 -0.33268 -0.489901 -0.804472
0.577123 0.072 -0.016509 -0.730624 0.255659 -0.419443
0.010621 0.274532 -0.128667 0.129446 -0.035672 -0.990898
0.491226 0.236488 -0.067862 0.66565 0.735322 -0.117733
0.113008 -0.754425 -0.09632 -0.436281 -0.007431 -0.894155
-0.122484 -0.663596 -0.017865 -0.964962 -0.092085 0.242882
0.519529 0.176265 0.016108 -0.226474 0.49109 0.833339
0.077242 0.194977 -0.120437 -0.029942 -0.249486 -0.966806
-0.046545 -0.298179 0.102749 0.258437 -0.155609 0.952571
-0.200808 0.500466 0.014207 -0.746954 0.529282 0.400483
0.195908 0.00191 -0.052537 0.962506 0.098927 -0.244964
0.019201 -0.426685 -0.025966 0.970895 0.018489 -0.224488
0.042662 -0.165281 0.049933 -0.937 -0.120844 0.322389
-0.05069 -0.72928 0.023599 -0.430257 0.457213 0.7751
0.142386 -0.365168 0.077322 0.062938 -0.131733 0.987513
-0.094873 -0.833541 0.099206 -0.642465 0.756908 0.108562
0.055115 0.557172 -0.113281 -0.137871 0.455327 -0.878974
-0.020864 0.724596 0.051536 -0.868884 -0.087709 0.47999
0.642154 0.038406 0.036739 0.981216 0.192579 -0.009819
-0.105314 0.497752 -0.110373 -0.404849 0.28683 -0.86573
0.018751 -0.55792 -0.039884 0.914902 0.048241 -0.397884
0.204642 -0.312986 -0.010949 0.980048 -0.025358 -0.187573
-0.056436 0.407988 -0.126791 -0.226407 -0.090095 -0.969518
-0.024734 0.540798 0.047634 -0.174379 0.613574 0.764984
-0.124082 -0.586834 -0.072984 -0.779756 0.038861 -0.62414
-0.460461 0.164916 0.042413 0.167495 0.629202 0.755443
-0.142134 0.016221 0.015445 -0.990548 -0.115877 -0.015321
0.114817 0.517203 -0.134191 0.032365 0.417507 -0.904536
-0.102878 0.297876 0.050401 -0.893696 0.197866 0.394482
-0.095108 -0.784924 0.010732 -0.739467 0.21365 0.573045
0.4976 0.167444 -0.005264 -0.645253 -0.760473 0.061052
-0.044513 0.130209 0.111811 -0.473741 -0.032241 0.87957
0.214341 0.476742 -0.132675 0.124052 0.19262 -0.97311
0.165571 0.309316 -0.081759 0.714121 -0.253101 -0.607343
-0.432377 0.212433 -0.049296 -0.52057 0.10037 -0.847556
0.110957 -0.526511 0.039582 -0.520071 -0.017752 0.852238
-0.451996 0.186888 0.019161 -0.169094 0.600699 0.7806
0.135124 -0.706113 -0.093094 0.429323 0.029471 -0.902009
-0.113396 -0.279832 0.095218 -0.726831 -0.051373 0.6845
0.103721 0.483363 0.068063 0.225755 0.471476 0.851158
0.140707 -0.869159 -0.051234 0.085087 -0.993836 0.062134
-0.025289 -0.857404 0.030175 0.746921 -0.646432 -0.093184
0.335861 0.316139 -0.044291 -0.328736 -0.37002 0.854357
-0.036863 -0.459732 -0.091047 0.35057 0.121993 -0.927228
-0.006854 0.728269 0.067331 -0.561631 0.01022 0.825888
0.132307 0.450482 -0.145651 0.116621 -0.001472 -0.992771
0.129056 0.575268 -0.089599 0.362621 0.745587 -0.558203
0.055152 0.441769 0.089703 0.083709 0.192799 0.977652
0.203897 0.140669 0.002281 0.913854 0.376414 -0.068931
0.035175 0.303379 -0.127886 -0.138923 0.019837 -0.988518
0.160829 -0.3186 0.076318 0.251805 -0.041003 0.966828
-0.04503 0.238265 -0.122198 -0.541378 -0.15333 -0.826074
-0.206331 0.353756 0.00153 0.431187 -0.656154 0.617223
0.365264 0.302771 -0.041747 -0.028361 0.095207 0.969908
0.597415 0.113759 0.052636 0.735733 0.658189 0.140442
-0.09431 0.326105 -0.097304 -0.652571 -0.118734 -0.748266
-0.137969 -0.007315 -0.007309 -0.997199 0.058814 -0.042036
-0.40344 0.241903 -0.069316 -0.550518 -0.058923 -0.831827
0.025441 -0.083938 -0.096265 -0.436814 -0.659923 -0.602702
-0.008904 0.737719 0.065878 -0.58822 0.034536 0.802171
0.034613 -0.016282 0.135648 -0.053771 -0.331845 0.931185
0.0734 0.704862 -0.071741 0.600782 -0.551574 -0.574383
0.587669 0.063402 0.046042 0.772054 -0.330177 0.469522
0.057038 0.006475 0.141855 0.138682 0.041505 0.977808
0.047354 -0.105241 -0.10195 -0.462778 -0.490122 -0.73852
0.087371 0.082086 -0.146944 0.230136 0.320746 -0.916935
-0.310764 0.302134 0.005442 -0.111553 0.064201 0.991296
0.089519 -0.856653 0.13508 -0.925663 -0.106174 0.238833
-0.068554 -0.412313 -0.081533 -0.288545 0.149507 -0.942746
0.197639 -0.273177 -0.035757 0.880086 -0.155662 -0.446375
0.137796 -0.867962 0.023067 0.135842 -0.983727 -0.101139
0.192678 0.404286 -0.117221 0.493126 -0.480175 -0.721692
0.158418 -0.72078 0.001871 0.546945 -0.176092 0.808575
0.120211 -0.714101 0.022391 0.416781 -0.257891 0.865807
0.285769 0.380066 -0.142248 -0.142841 -0.296273 -0.937906
-0.006869 -0.696632 -0.086203 0.519432 0.266467 -0.811625
-0.199811 0.344484 -0.023579 0.638372 -0.747234 0.180427
0.013094 -0.383423 0.049377 0.856066 -0.131577 0.499366
0.620649 0.050275 0.037397 -0.835001 -0.543941 -0.05787
0.180011 0.13844 -0.040284 0.847901 0.091908 -0.517895
0.120149 -0.8693 0.11237 0.003088 -0.999678 0.021683
0.040452 -0.279459 -0.040673 -0.879745 0.010736 -0.473893
0.171983 -0.674413 -0.066377 0.683244 -0.20884 -0.699012
0.4248 0.20896 -0.075333 -0.502415 -0.859425 0.061698
-0.116945 0.079494 0.064816 -0.872041 0.290108 0.391405
-0.128274 -0.617936 -0.020297 -0.994183 -0.037469 0.097944
-0.082991 -0.692112 -0.108076 -0.49843 0.15425 -0.850726
0.301187 0.441288 -0.031859 0.75752 0.391847 0.489262
0.263773 0.357163 -0.046995 -0.619949 -0.662999 0.414339
0.160523 -0.863816 0.118249 0.261768 -0.963744 0.02939
0.080006 -0.042547 0.128397 0.045332 -0.272539 0.954847
0.189073 -0.711228 -0.040745 0.71272 -0.039703 -0.698994
-0.129164 -0.628975 -0.044244 -0.999004 -0.037387 0.010514
0.252714 0.44267 -0.136411 -0.049709 0.226239 -0.968926
-0.074571 -0.638228 -0.10647 -0.083825 0.079209 -0.991648
0.197231 -0.446758 0.013024 0.975705 -0.086426 0.198034
-0.407102 0.262485 -0.052696 -0.788003 0.558864 -0.249022
0.118113 0.589862 -0.049063 0.322636 0.941308 0.082639
0.184041 -0.008042 0.076046 0.737116 -0.05863 0.67219
-0.002367 -0.668813 0.02 0.686097 -0.118871 0.717036
0.141636 0.447864 -0.144253 0.153452 -0.0433 -0.986907
-0.006378 0.068111 -0.141307 -0.162293 0.229573 -0.959531
-0.289659 0.254197 -0.046824 0.668508 -0.74353 -0.007906
-0.074763 -0.57009 0.056829 0.420882 -0.168688 0.890923
0.203431 -0.409439 0.004035 0.939869 -0.213972 0.250896
-0.303354 0.244357 -0.022505 0.659236 -0.722076 0.207996
0.146602 -0.867431 0.031062 0.181917 -0.977362 -0.104541
0.095244 0.787897 -0.077095 0.891851 0.090675 -0.438964
-0.014546 -0.649149 0.024635 -0.04343 0.078968 0.989529
-0.103884 0.069489 0.089285 -0.487386 0.287359 0.822273
0.063777 -0.15487 -0.094573 -0.597061 -0.205439 -0.769461
0.15885 -0.104328 0.104327 0.487381 0.016206 0.869308
0.015031 -0.544859 -0.045663 0.841722 0.044196 -0.537918
0.090968 0.826568 -0.04578 0.898542 0.414023 -0.080022
-0.1361 -0.222712 0.015626 -0.997732 -0.035009 -0.057373
0.136135 -0.04201 0.113848 0.321994 -0.033849 0.945933
0.141169 0.318333 -0.115803 0.750891 -0.120328 -0.649165
0.178417 0.474276 -0.13663 0.115416 0.085472 -0.989249
-0.478457 0.151134 0.062307 0.220527 0.740547 0.618929
0.014683 0.80722 -0.113195 -0.183426 0.335973 -0.917177
0.0383 -0.363261 -0.026529 -0.951296 -0.05596 -0.227043
0.152574 0.227796 -0.082315 0.801468 -0.11861 -0.58588
0.081642 0.767785 -0.098512 0.759419 -0.04345 -0.612038
-0.068059 -0.807915 0.06124 -0.396257 0.469802 0.76729
0.003941 -0.781679 -0.020247 0.807131 -0.134305 0.570579
0.181712 0.229294 0.022541 0.991483 0.014142 0.125807
0.11486 -0.85469 -0.119133 -0.315506 -0.022466 -0.923348
0.480166 0.201952 0.002757 0.160713 0.623492 0.691607
0.412403 0.258822 -0.127 0.094893 -0.17696 -0.974511
0.156159 -0.836868 0.131873 0.643658 0.739701 0.195511
-0.083579 0.204933 -0.077539 -0.779972 -0.025703 -0.624265
-0.084159 -0.305181 0.106686 -0.025787 -0.067586 0.996611
-0.060367 0.563447 0.010878 -0.120429 0.791229 0.59843
-0.105778 -0.586729 0.041585 -0.93562 0.031209 0.350495
0.084899 -0.600008 0.023332 -0.744318 -0.094429 0.660661
0.083839 -0.851193 0.094127 -0.946396 0.313462 0.021791
0.625356 0.042644 0.044854 -0.827251 -0.560089 -0.031097
0.041195 0.65407 0.050654 0.134221 -0.871988 0.420998
-0.007391 0.52243 -0.121374 -0.020975 0.191527 -0.981238
-0.060341 0.23085 0.095289 -0.557539 0.093824 0.823507
-0.030156 0.804373 0.015635 -0.858301 0.204832 0.470374
0.073845 0.672841 0.060702 0.847416 -0.501476 0.147608
0.16983 -0.294034 0.075604 0.251877 -0.07965 0.964237
0.043916 0.752664 -0.117418 0.355801 -0.336708 -0.865786
-0.080853 0.317994 0.079008 -0.550973 -0.031804 0.833462
-0.000642 -0.142945 -0.072237 0.781651 -0.165766 -0.600524
0.083052 -0.801213 -0.083103 -0.869947 0.168375 -0.462243
-0.062 -0.306555 -0.088709 -0.260955 -0.069684 -0.962066
-0.058748 -0.855361 -0.134433 -0.11877 -0.604275 -0.760921
0.186499 0.357973 0.017263 0.90498 -0.149379 0.397522
0.042824 0.247928 -0.126976 -0.201386 -0.024374 -0.977547
-0.218408 0.369054 -0.094659 0.205934 -0.24793 -0.943072
0.198179 0.07008 0.03493 0.952187 0.232672 0.187377
-0.127054 -0.600942 -0.012004 -0.979287 0.034547 0.194373
-0.113966 -0.561954 0.024343 -0.886584 -0.117521 0.447229
-0.114543 -0.60594 0.021407 -0.90106 0.042945 0.428416
0.017146 -0.165257 0.087702 0.891693 -0.10626 0.433077
0.110983 0.061909 -0.142562 0.500986 0.193601 -0.842892
0.013903 0.643856 -0.059799 -0.384694 0.121578 -0.910384
0.18058 -0.793792 -0.056648 0.899388 -0.379558 -0.049168
-0.000361 0.185707 -0.11751 0.047034 -0.146393 -0.987505
-0.128345 -0.316791 1.5e-05 -0.999818 -0.008581 -0.0164
-0.015287 0.067777 0.1297 -0.252618 0.124435 0.958787
-0.045487 0.090431 0.115912 -0.471229 0.123058 0.873217
0.043823 -0.396573 -0.00442 -0.974585 -0.115303 0.178856
-0.045315 -0.862361 0.004747 0.136035 -0.986971 -0.068217
-0.138174 -0.037424 0.041399 -0.975237 0.106639 0.190176
-0.212267 0.344953 -0.072438 0.50224 -0.702697 -0.501462
0.190961 -0.489834 0.030524 0.959686 0.017557 0.280316
-0.093144 0.433511 -0.120155 -0.24939 -0.152624 -0.95621
0.084231 -0.550108 0.025105 -0.646357 0.022654 0.759036
-0.13861 -0.062006 0.046459 -0.967729 0.042516 0.248163
0.003502 0.859875 0.022546 -0.517116 0.809378 0.256888
-0.127731 -0.655289 -0.040957 -0.996567 -0.026369 0.076726
0.569242 0.150021 0.032109 0.731182 0.665794 0.103013
0.079142 -0.281895 -0.088995 -0.552852 0.039512 -0.832084
0.197568 0.046556 -0.043386 0.95079 0.097181 -0.290495
0.008769 -0.465865 -0.049737 0.821349 0.066438 -0.564749
0.019313 -0.363204 0.041505 0.918856 -0.149925 0.362132
0.054177 0.651504 -0.062794 0.448139 0.016218 -0.887553
0.1984 -0.378778 0.026438 0.953043 -0.025391 0.300506
-0.027184 0.490243 0.07484 -0.098416 0.446805 0.888421
0.068519 0.216702 0.12432 0.342404 0.09699 0.934502
0.102064 0.473152 0.073901 0.204417 0.402806 0.890285
0.159042 0.08839 0.083292 0.327915 0.28075 0.899731
-0.037999 0.812603 -0.0503 -0.958246 -0.21594 -0.170354
-0.044362 -0.019528 0.130393 -0.21152 -0.27217 0.91385
-0.033888 -0.493694 -0.094284 0.3981 0.107191 -0.905863
0.052477 0.590894 0.021821 0.376843 -0.001355 0.926215
0.201133 0.126344 -0.002059 0.934048 -0.243754 -0.194788
-0.547671 0.060464 0.049158 0.66131 -0.740459 0.007073
0.20622 -0.159318 -0.033228 0.983256 -0.007012 -0.170624
0.198112 0.460927 -0.134584 0.091022 -0.024283 -0.995232
0.08751 -0.514177 -0.092433 -0.612779 -0.031437 -0.788213
0.086295 -0.860285 -0.062217 -0.668726 -0.741698 0.043115
0.07048 -0.76502 0.012068 0.352356 0.137792 0.906027
0.134684 -0.751694 0.031258 -0.086227 -0.753048 0.634887
0.156212 -0.554778 0.045976 0.091085 -0.350893 0.931836
-0.017633 0.686698 0.039941 -0.890556 -0.348741 0.266654
0.033831 0.615266 0.027435 0.01878 -0.147675 0.987006
0.013117 0.334858 0.114224 -0.173867 0.188671 0.965045
0.10941 -0.86414 -0.016793 -0.37823 -0.922066 0.061803
0.156283 -0.845602 0.163527 0.812668 0.459866 0.345005
0.203261 0.028014 -0.02795 0.948725 0.091298 -0.298141
0.192334 -0.16115 -0.059755 0.720539 -0.021482 -0.69227
-0.006676 -0.035484 -0.133849 -0.026209 -0.330292 -0.943115
0.109194 -0.026839 0.124873 0.428666 -0.118566 0.895078
-0.121698 -0.766237 -0.047387 -0.974026 -0.220612 -0.020534
-0.20051 0.353429 -0.072894 0.528534 -0.690635 -0.490498
-0.050322 -0.416649 0.084171 0.234333 -0.227098 0.944438
0.030715 -0.266928 0.017905 0.988253 -0.046013 0.143753
0.163868 0.134768 0.068788 0.676485 0.15948 0.718273
0.170665 0.234577 -0.053392 0.883628 0.020151 -0.467683
-0.131563 -0.576334 -0.028737 -0.968538 -0.138301 0.204316
0.079719 0.787796 -0.099184 0.687536 0.079661 -0.721334
0.009035 -0.108063 0.114302 0.577349 -0.294933 0.760489
-0.131889 -0.226185 0.065601 -0.936314 -0.089622 0.33926
0.132405 0.290986 -0.122461 0.680945 -0.051799 -0.729667
0.254636 0.360757 -0.100865 -0.640014 -0.741684 -0.19378
0.155892 -0.781316 -0.097602 0.572725 0.387061 -0.722472
-0.052283 0.571147 -0.0879 -0.394807 0.631322 -0.666823
-0.051433 -0.648277 0.028351 0.296652 -0.164117 0.93962
0.195808 -0.315244 -0.03133 0.852116 -0.018166 -0.521892
-0.075111 -0.863793 0.093678 -0.043934 -0.998946 0.008777
-0.086098 -0.74961 -0.117193 -0.577848 -0.010815 -0.815322
-0.052052 -0.86111 -0.125271 0.046704 -0.963 -0.256177
-0.083953 -0.222786 -0.081722 -0.592901 -0.011792 -0.804176
0.198763 0.38142 -0.061008 0.999137 -0.040265 0.001293
-0.440286 0.151887 -0.00278 0.634927 -0.769233 0.013179
0.082982 -0.216357 0.087341 -0.407971 -0.137622 0.898579
-0.094315 0.385213 -0.109896 -0.420101 -0.222439 -0.879261
0.182191 0.178281 -0.030266 0.897424 0.137597 -0.417456
0.13194 -0.696771 -0.094129 0.20485 0.018659 -0.977748
0.112671 -0.502274 -0.10609 -0.265607 0.006648 -0.961388
0.110104 -0.276467 -0.099425 0.025291 -0.009251 -0.996999
0.059566 0.667445 -0.060574 0.621636 -0.164523 -0.761523
0.177408 -0.410612 0.066625 0.60494 -0.086875 0.78567
-0.045329 -0.19893 0.119987 0.076226 -0.141523 0.986816
-0.216664 0.463976 -0.061758 -0.6494 0.517431 -0.512204
0.009474 0.502566 -0.123223 0.064909 0.017149 -0.997258
0.279737 0.461315 -0.119505 0.412902 0.605173 -0.6799
0.056733 0.453097 0.08714 0.115145 0.326073 0.938073
0.047198 -0.362258 0.022468 -0.709576 -0.342365 0.594311
-0.12573 -0.287808 0.067173 -0.988859 -0.0424 0.132905
-0.082624 -0.352982 0.102866 0.064184 -0.144793 0.984403
-0.06981 -0.862854 -0.079515 -0.019159 -0.998926 0.040568
0.180173 -0.683957 -0.052951 0.713923 -0.236883 -0.657727
0.008335 0.23324 -0.12746 0.098895 0.002291 -0.994999
-0.023627 0.761162 -0.088823 -0.782227 -0.218371 -0.581077
-0.109447 -0.550696 -0.084686 -0.635394 0.128345 -0.760891
0.191174 0.406147 0.027175 0.949922 -0.104133 0.288004
0.043299 -0.382215 0.001328 -0.981717 -0.079667 0.168321
0.008249 0.63766 0.024426 -0.634986 -0.284907 0.716469
-0.124032 -0.670596 -0.025137 -0.951164 -0.102435 0.290971
-0.097186 -0.700984 0.019226 -0.306733 -0.433028 0.836474
-0.127169 0.071905 -0.033799 -0.962453 0.130012 -0.225291
0.056375 -0.717288 -0.014134 -0.93667 -0.181164 -0.298006
0.15346 -0.330198 -0.076183 0.631793 0.010768 -0.775054
-0.101811 -0.583687 -0.092223 -0.54403 0.051964 -0.837281
0.181927 -0.076576 -0.079711 0.820705 -0.03972 -0.569276
0.536205 0.159181 -0.030384 0.581929 -0.206856 -0.783295
-0.170603 0.371941 -0.009483 0.595477 -0.710148 0.370721
-0.127514 -0.477234 0.02619 -0.869775 -0.197272 0.45188
-0.128613 -0.633816 -0.061277 -0.99443 -0.024864 -0.09618
-0.021068 0.091908 0.126188 -0.384502 -0.141966 0.908371
0.106865 -0.003247 0.128218 0.317697 -0.215798 0.922936
0.163096 0.272591 0.054076 0.742548 0.021385 0.669353
0.087914 -0.833736 -0.020962 -0.955166 -0.20886 -0.002219
-0.164866 0.539053 0.008437 -0.631547 0.722558 0.275145
-0.123701 -0.406011 -0.036151 -0.813186 -0.019923 -0.580342
0.096066 0.318567 0.103772 0.259931 0.083759 0.959441
-0.061267 0.117481 0.100659 -0.542103 0.12392 0.829716
0.160529 -0.834594 0.077272 0.81219 0.580604 0.033684
0.162765 -0.848287 -0.028617 0.927511 -0.364669 0.052884
-0.113584 0.021129 0.091883 -0.80325 0.157402 0.573569
-0.084813 -0.728067 0.009121 -0.436681 -0.182402 0.846775
0.132921 -0.669852 0.030124 0.117184 -0.133023 0.984109
0.073993 0.362976 -0.143098 -0.262425 -0.01361 -0.96224
-0.309801 0.239177 -0.031544 0.548438 -0.835056 0.02937
0.122253 0.261408 0.097429 0.523871 0.056772 0.84956
0.205624 -0.113399 0.04841 0.921916 -0.024591 0.385675
0.147022 0.393258 -0.130549 0.498351 -0.24818 -0.829772
0.01902 0.814483 0.07285 -0.33062 0.452973 0.823287
-0.034571 -0.477068 0.064464 0.287408 -0.285209 0.913544
-0.12998 -0.272143 0.050432 -0.978151 -0.160742 0.126559
-0.02497 0.232584 0.113514 -0.340644 0.060351 0.938031
0.199549 -0.347318 -0.030118 0.87542 0.164547 -0.45401
0.041797 0.271035 0.125276 0.14797 0.171675 0.973007
0.034503 0.029351 -0.157246 -0.198376 0.032642 -0.965342
0.199915 -0.472997 -0.026706 0.998122 0.038012 -0.023155
-0.14282 -0.080815 0.03226 -0.984572 0.017665 0.169745
0.146549 -0.162636 -0.098776 0.539201 -0.09342 -0.836657
-0.023322 -0.415343 -0.07702 0.498309 0.225409 -0.836931
0.162306 -0.205871 -0.083212 0.593266 -0.130389 -0.79424
0.0508 0.633907 -0.06603 0.180691 0.254006 -0.944379
-0.215115 0.420037 -0.090971 -0.253814 0.311939 -0.914585
0.126322 -0.219997 -0.099838 0.228769 -0.110843 -0.966139
0.076609 -0.82281 -0.055071 -0.477161 -0.84694 -0.123953
0.156314 -0.831252 0.097896 0.631766 0.763626 0.126167
0.175101 0.301432 0.038196 0.949014 0.013599 0.314345
0.046224 -0.598881 -0.033534 -0.985628 -0.035188 -0.114923
-0.122325 -0.279948 0.079658 -0.944644 -0.034906 0.321521
0.067732 -0.259908 -0.078915 -0.746387 0.017813 -0.662497
-0.137663 -0.199992 0.033525 -0.997452 -0.03595 0.054915
-0.134822 -0.53683 -0.042689 -0.95019 0.001378 -0.277172
0.115258 0.549189 0.017374 0.372563 0.661051 0.649951
0.019962 -0.749708 -0.042179 0.971167 -0.20158 0.115657
-0.036994 -0.021126 -0.135014 -0.162095 -0.166734 -0.971903
0.157253 -0.858329 0.168881 0.726265 -0.384495 0.497933
0.006215 -0.082825 -0.096215 0.367249 -0.632314 -0.676317
0.131604 0.017756 0.11813 0.368887 0.22323 0.900979
-0.010077 0.653124 0.002605 -0.921393 -0.188397 0.305087
-0.009647 -0.814627 0.00696 0.952584 0.034686 0.275284
-0.092318 -0.484896 0.075955 -0.568423 -0.198923 0.795718
0.129039 -0.090732 0.113991 0.099624 -0.063744 0.992613
0.103673 0.543029 -0.124426 0.073428 0.520007 -0.850147
0.065104 -0.250613 0.070421 -0.708708 -0.108718 0.696689
0.032141 -0.138628 -0.06286 -0.858515 -0.345056 -0.378786
0.111473 -0.834131 0.16498 -0.52267 0.717378 0.433567
0.192773 -0.693752 -0.03811 0.783096 -0.115134 -0.606386
-0.033735 -0.776248 -0.13902 0.224185 0.476293 -0.843329
0.007919 0.342935 0.112865 -0.05814 0.039698 0.997067
0.15284 -0.451626 0.069274 -0.08698 -0.123105 0.981656
-0.080662 0.353308 -0.110872 -0.530789 -0.09487 -0.840922
-0.470102 0.132733 -0.00303 0.411464 -0.771375 -0.483323
-0.315127 0.253691 0.00347 0.321289 -0.272567 0.896773
-0.288298 0.395011 -0.025696 -0.782329 0.568584 0.221507
0.154074 -0.092006 0.106685 0.485229 0.002862 0.873919
0.141306 -0.089048 0.112314 0.259136 -0.028205 0.9633
-0.020015 0.271466 -0.130919 -0.054523 -0.050983 -0.996473
-0.073643 -0.517924 0.06783 0.4007 -0.258378 0.877724
0.025067 -0.083598 0.112287 0.290831 -0.326459 0.88641
-0.142928 -0.037177 0.008087 -0.988292 0.136281 0.013741
0.201028 -0.515419 -0.001203 0.935295 -0.007491 0.352952
-0.054994 0.14043 0.105443 -0.53052 0.066398 0.844916
-0.108343 0.458499 0.062913 -0.166721 0.038504 0.98414
0.176823 -0.773873 -0.063857 0.769082 0.50142 -0.392668
-0.110292 -0.624756 0.03234 -0.868623 -0.016739 0.494877
-0.260109 0.295224 -0.07131 0.60686 -0.61337 -0.497924
0.026342 -0.50879 -0.004585 0.965073 -0.059319 0.206949
0.111921 0.20981 -0.117746 0.533467 -0.373544 -0.758303
0.161829 -0.330695 -0.069337 0.650824 0.004421 -0.758829
0.088093 -0.863584 0.094362 -0.588652 -0.8069 -0.012287
0.021825 0.02805 -0.15476 -0.188363 -0.008692 -0.969142
-0.043519 0.556827 0.02527 -0.169436 0.763632 0.621278
-0.042316 -0.641358 -0.100792 0.436457 0.054065 -0.897371
0.021306 -0.224794 -0.039794 0.946776 -0.0153 -0.319176
0.064436 -0.46795 0.005216 -0.479782 0.057316 0.875369
0.382248 0.286059 -0.038541 0.04414 0.278441 0.93125
0.184566 0.313668 0.010451 0.939378 -0.083038 0.328625
0.089297 0.702331 0.04266 0.965566 -0.206357 0.144299
-0.066533 0.534261 -0.10662 -0.275116 0.450819 -0.848502
0.164236 -0.82413 -0.008893 0.797399 -0.599288 0.069136
-0.11178 0.234228 -0.047651 -0.93744 -0.154352 -0.302146
-0.114119 -0.410409 0.077318 -0.743593 -0.20672 0.635114
0.006875 -0.604297 -0.060356 0.735037 0.054385 -0.67556
0.003561 -0.701622 0.00156 0.851 -0.180648 0.492956
-0.098986 -0.863055 0.051152 -0.242476 -0.956747 -0.009374
0.171751 -0.599757 0.028582 0.515148 -0.40336 0.755092
-0.069644 0.098747 -0.109543 -0.569049 0.299664 -0.764524
-0.143856 -0.104485 0.027647 -0.995372 0.007321 0.090342
0.008458 -0.502624 0.026501 0.733564 -0.135334 0.66524
0.066158 0.559675 0.020217 0.213861 0.402477 0.879669
-0.092057 -0.373729 -0.07193 -0.543647 -0.032099 -0.838171
0.10354 -0.566808 -0.098171 -0.511148 -0.14704 -0.846135
-0.085196 -0.340833 -0.075972 -0.558514 0.029905 -0.828224
0.185465 -0.237466 -0.06265 0.699126 -0.117705 -0.705026
-0.064514 -0.155138 0.121 -0.112716 -0.050248 0.991577
-0.112064 0.264767 -0.033194 -0.999638 -0.019293 -0.014969
0.019138 0.269255 -0.127235 0.105623 -0.057137 -0.991562
0.06001 -0.447391 0.002696 -0.529073 -0.060361 0.843576
-0.137762 -0.204061 0.024584 -0.996076 -0.087132 -0.010023
-0.269898 0.405645 -0.006051 -0.722749 0.522175 0.451749
0.632778 0.038164 0.107831 0.1092 -0.238766 0.938053
0.194087 -0.542143 0.016455 0.929927 -0.063246 0.361637
0.035968 -0.197119 -0.037952 -0.677585 -0.281438 -0.624623
0.17337 0.533835 -0.113813 0.251907 0.597446 -0.760733
-0.009875 -0.639967 -0.077687 0.661974 0.038138 -0.748322
0.46704 0.188534 -0.038715 -0.482483 -0.869872 -0.060344
-0.038003 -0.76687 0.019913 0.428603 0.75914 0.479903
-0.060921 0.484914 -0.12785 -0.102165 0.201441 -0.973821
-0.125875 -0.308228 0.051491 -0.982733 -0.116061 0.140375
0.15444 0.561795 -0.094287 0.369604 0.704616 -0.605141
0.008231 -0.154501 0.103464 0.686703 -0.114659 0.713181
0.021993 -0.216033 0.062372 0.948435 -0.056236 0.311709
-0.024936 0.604267 -0.04038 -0.722996 0.690315 0.019413
0.005314 -0.691627 0.002428 0.827142 -0.233186 0.508563
-0.147663 0.547449 0.012425 -0.396968 0.814022 0.416227
0.337521 0.391049 -0.134666 0.569476 0.010265 -0.816245
-0.087532 -0.251831 -0.07747 -0.723571 -0.048963 -0.688402
0.162979 -0.247161 0.082398 0.243079 -0.108693 0.962523
0.139836 -0.860353 -0.108832 0.615011 -0.461828 -0.626672
0.046299 -0.192235 0.057436 -0.879107 -0.067368 0.464783
0.08838 -0.093258 -0.125572 -0.186614 -0.392685 -0.899648
-0.03876 0.473525 0.081245 -0.154225 0.357832 0.920115
0.156522 0.216019 0.067617 0.77764 0.081035 0.62345
0.105361 0.78025 -0.021313 0.999869 -4e-05 0.006775
-0.008815 -0.723477 -0.098002 0.584616 0.30102 -0.75245
0.201196 -0.186592 -0.047951 0.867297 0.026694 -0.495701
0.458848 0.19382 -0.05156 -0.144167 -0.966755 -0.142453
-0.070164 -0.749711 0.029181 -0.019693 -0.098839 0.988054
0.062852 -0.527295 -0.065883 -0.763815 -0.083017 -0.63996
0.040576 0.822798 -0.10437 0.09626 0.643025 -0.759037
0.142499 -0.869384 -0.078175 0.186043 -0.97188 -0.024433
0.605658 0.100892 0.039835 0.835292 0.547533 0.003513
0.020991 0.476823 0.082298 0.058218 0.411982 0.909038
0.198925 -0.630879 -0.037444 0.999787 -0.011239 -0.01519
0.171596 0.515759 0.025731 0.410688 0.437566 0.799334
0.165297 -0.501067 -0.094867 0.605283 -0.010402 -0.793785
-0.140552 0.399933 -0.045089 0.499695 -0.859348 -0.086844
-0.261101 0.395142 -0.087438 -0.361145 0.493152 -0.789558
0.147618 -0.841452 -0.103733 0.672975 -0.124015 -0.725066
-0.136805 -0.464934 -0.028273 -0.970284 0.060423 -0.231226
0.160518 0.545919 -0.108372 0.282464 0.648594 -0.706007
-0.015238 -0.28753 -0.078177 0.680806 -0.119351 -0.722614
0.199159 -0.589569 -0.046856 0.985032 -0.017283 -0.171398
0.088201 0.064477 -0.151494 0.243882 0.201537 -0.937085
0.149009 -0.110401 0.109179 0.422743 -0.016616 0.904958
0.070833 -0.320436 0.064505 -0.560834 -0.148194 0.813379
-0.301074 0.340922 0.000647 -0.411469 0.366672 0.83165
-0.006283 -0.553017 0.028142 0.602535 -0.153497 0.780141
0.205701 -0.373481 -0.01402 0.997726 0.01078 -0.055134
0.092012 0.707312 0.029013 0.963475 -0.239416 0.092577
-0.168459 0.472923 -0.087453 -0.385841 0.236435 -0.891272
0.623176 0.07603 0.051844 0.855236 0.517364 0.020974
0.214415 -0.089255 0.002811 0.998534 0.017553 -0.040218
0.199556 -0.089044 0.062744 0.876891 -0.019222 0.479503
0.00891 -0.223514 -0.061019 0.765724 -0.028679 -0.641193
0.051726 -0.183863 -0.074528 -0.818563 -0.180159 -0.543849
0.175967 -0.126597 -0.080001 0.751578 -0.131762 -0.645603
0.244294 0.531537 -0.037311 0.704342 0.679732 0.187267
-0.036233 0.512699 0.062522 -0.160202 0.531349 0.831779
-0.024761 -0.849182 -0.007991 0.749797 -0.641799 -0.127324
0.087539 0.081324 0.121384 0.484332 0.0269 0.873492
0.186431 0.452932 -0.135752 0.146803 -0.052993 -0.9877
0.127966 -0.622255 -0.098063 0.00773 -0.118157 -0.989921
0.302484 0.320615 -0.069246 -0.655125 -0.700333 0.265036
-0.091771 -0.417294 0.088909 -0.081484 -0.243909 0.964294
0.074038 -0.318908 -0.084912 -0.637858 -0.027693 -0.768428
0.075548 0.087325 -0.14684 0.066607 0.337239 -0.937661
0.049935 0.756025 0.079679 0.785558 0.156416 0.596175
0.388358 0.338558 -0.109357 0.712372 0.649094 -0.265471
-0.106484 -0.491608 0.054681 -0.775866 -0.317545 0.544969
0.262919 0.51237 -0.076629 0.676506 0.696313 -0.231804
-0.098288 0.261666 0.062906 -0.758915 0.031767 0.648846
-0.071023 -0.678321 -0.110034 -0.164399 0.121291 -0.976543
0.155314 -0.398788 0.074531 -0.003572 -0.068594 0.996516
-0.004506 -0.054788 -0.122874 0.082602 -0.517994 -0.850967
-0.04201 -0.306659 0.099703 0.276382 -0.115386 0.952772
0.152577 0.321919 -0.103727 0.746635 -0.204872 -0.631335
-0.03564 -0.417598 -0.082516 0.29679 0.251579 -0.919442
0.130132 -0.864897 -0.111382 0.360245 -0.677969 -0.627026
-0.057726 -0.339431 -0.088184 -0.163403 -0.044792 -0.980814
0.286485 0.489107 -0.073288 0.703184 0.680359 -0.182796
0.174641 -0.31602 0.073509 0.244976 -0.021083 0.960266
-0.121659 0.142933 0.032202 -0.949171 0.060562 0.306593
-0.054488 -0.223563 -0.092584 -0.046632 0.011388 -0.998489
-0.095598 -0.742428 -0.107588 -0.749116 0.090388 -0.655263
-0.165508 0.458724 -0.091382 -0.285755 0.151628 -0.945156
0.152581 0.51433 0.033197 0.220167 0.743879 0.593787
-0.136473 -0.119287 -0.026188 -0.927245 -0.074737 -0.365213
0.112428 -0.825947 0.132184 -0.234795 0.965408 0.045377
0.188579 -0.199632 0.076115 0.830807 -0.10942 0.531388
-0.102485 0.250927 -0.075721 -0.793711 -0.251417 -0.550196
0.01355 -0.282726 0.076321 0.804681 -0.090016 0.585938
-0.108545 -0.44961 0.071842 -0.759773 -0.140335 0.634429
