0.020651 -0.422856 0.010169 0.991257 0.019401 0.120882
0.077242 0.194977 -0.120437 -0.029942 -0.249486 -0.966806
-0.035347 -0.515002 -0.096589 0.333193 0.050823 -0.938711
-0.51052 0.130474 0.078536 -0.769021 0.597213 0.176677
-0.047152 0.268274 0.102006 -0.627375 0.054539 0.775818
0.040621 0.261593 0.126635 0.103563 0.092288 0.988879
0.0259 0.279447 0.124969 -0.007179 0.192803 0.980323
0.069274 0.334231 0.110784 0.317731 0.17866 0.929741
0.032002 0.658853 0.077038 -0.008532 -0.981867 0.186135
-0.09162 -0.759955 -0.110938 -0.691303 -0.028132 -0.717506
0.197269 0.03715 -0.047516 0.952356 0.062928 -0.296462
-0.059015 -0.657192 -0.10743 0.148262 0.096139 -0.981673
0.182697 -0.473409 0.053117 0.875865 -0.107694 0.468195
0.093102 0.727418 0.030066 0.951097 -0.057102 0.297269
0.060721 0.072938 -0.151087 -0.083773 0.240639 -0.965844
-0.418938 0.166194 0.003819 0.674087 -0.73834 0.005229
-0.044771 -0.454442 -0.092754 0.211483 0.149896 -0.963419
-0.117285 0.333437 0.002191 -0.970099 -0.164204 0.17786
-0.12908 -0.49274 -0.049953 -0.849912 0.070577 -0.521835
0.0243 -0.063183 -0.113811 -0.26835 -0.620977 -0.730894
0.183395 0.201623 0.003036 0.995385 0.070186 0.001508
0.169328 -0.75313 -0.058064 0.857023 0.176599 -0.471772
-0.143505 -0.158016 0.017844 -0.997103 -0.064535 0.017234
0.091402 -0.578374 0.028099 -0.409331 -0.094934 0.903592
-0.093609 -0.236066 0.109401 -0.340385 -0.038322 0.939158
0.021897 0.646448 0.038198 -0.426709 -0.480855 0.760706
0.119897 -0.606816 0.033682 -0.17556 0.125823 0.967551
-0.188597 0.398943 0.02532 0.219774 -0.319082 0.921774
0.196987 -0.175344 0.057599 0.960072 -0.050423 0.273181
-0.125043 -0.169282 0.084098 -0.820964 0.003508 0.570828
0.034578 -0.307257 -0.016711 -0.993538 -0.0618 -0.087466
0.092678 0.517315 -0.133228 -0.104942 0.393243 -0.911609
0.052477 0.590894 0.021821 0.376843 -0.001355 0.926215
-0.001789 -0.70672 -0.086435 0.531376 0.275107 -0.800726
-0.264305 0.420018 -0.0252 -0.76708 0.632191 0.095793
-0.175381 0.523236 0.021511 -0.648927 0.600471 0.403511
0.095845 -0.322752 -0.098108 -0.304522 0.010749 -0.947878
-0.033065 -0.36188 -0.081036 0.488631 -0.139586 -0.857478
0.092128 -0.105808 0.101362 -0.511369 -0.167797 0.842357
-0.030849 -0.693111 0.022463 -0.499065 0.039509 0.864403
0.063707 -0.739497 -0.022761 -0.860483 0.011105 -0.505434
-0.426288 0.165886 -0.038496 0.528264 -0.79295 -0.301751
-0.045696 -0.159549 0.122804 -0.055525 0.008415 0.998234
0.074799 -0.72704 -0.045568 -0.903954 -0.130545 -0.406294
-0.035447 -0.334072 -0.085927 0.480231 -0.083281 -0.872813
0.166487 -0.863168 0.101955 0.219874 -0.965476 0.020195
0.026855 0.381302 0.106211 0.056747 0.181229 0.981408
-0.284252 0.38148 -0.07582 -0.878954 0.190611 -0.429851
-0.172952 0.420495 0.031883 -0.005368 -0.387202 0.921534
-0.127765 -0.717318 -0.044801 -0.996918 0.003795 0.049726
-0.007496 0.854205 -0.041737 -0.492041 0.844725 -0.202759
0.192641 0.070872 0.049911 0.863043 0.26363 0.426289
-0.030156 0.804373 0.015635 -0.858301 0.204832 0.470374
0.091072 0.492369 -0.138051 -0.169235 0.256503 -0.950341
0.149947 -0.1007 0.108844 0.487794 -0.012872 0.87276
-0.104274 0.035493 -0.093993 -0.817335 0.175339 -0.547361
0.083625 -0.40645 0.042654 -0.665513 -0.319839 0.673475
0.04423 -0.533546 -0.030732 -0.995262 -0.011927 -0.082385
0.081195 -0.69362 -0.067933 -0.831609 -0.042412 -0.553386
0.296271 0.344173 -0.126158 -0.522598 -0.450193 -0.723104
-0.136286 0.510091 -0.091474 -0.423054 0.398045 -0.812595
-0.103423 -0.002036 -0.098774 -0.816075 0.000134 -0.575363
0.308288 0.321539 -0.060071 -0.546982 -0.659123 0.513069
0.110534 -0.148413 -0.112368 0.043525 -0.24171 -0.968896
0.162697 0.565745 -0.083255 0.332353 0.805912 -0.48557
-0.092516 0.159401 -0.072835 -0.733983 0.181159 -0.636847
0.186061 0.524472 0.013344 0.27342 0.542127 0.794138
-0.075423 -0.062386 -0.111047 -0.268039 -0.219617 -0.934182
0.297347 0.423424 -0.021154 0.507972 0.23659 0.827309
0.173069 0.43255 -0.135453 0.178545 -0.220612 -0.957826
0.1332 0.268754 -0.11968 0.706561 -0.098861 -0.699184
0.181211 0.443528 0.042562 0.499643 0.121747 0.856859
0.056992 0.690474 0.084151 0.49817 -0.001463 0.861454
-0.094538 0.570204 -0.011989 -0.383315 0.797567 0.459575
0.00356 -0.821783 -0.091452 0.91698 -0.354069 -0.164093
0.017206 -0.373186 0.043519 0.88045 -0.115043 0.443856
0.075061 0.181304 0.123712 0.467644 0.035395 0.880403
0.295698 0.412419 -0.141884 0.077168 0.296363 -0.948076
-0.207153 0.391191 0.026989 0.147925 -0.433098 0.886873
-0.075035 -0.359308 0.100407 0.165671 -0.19731 0.966105
-0.086396 -0.543025 0.06695 -0.057733 -0.195331 0.973456
-0.388889 0.187631 -0.002014 0.666034 -0.738751 0.090689
-0.056929 -0.838292 0.151701 0.559575 0.532347 0.610622
-0.039694 -0.70195 0.018212 -0.404379 0.130391 0.896673
0.02491 -0.386036 -0.011959 0.972165 -0.047525 -0.214071
0.085557 -0.72039 -0.072394 -0.864198 -0.10013 -0.489319
0.016111 -0.044394 -0.128428 0.050758 -0.549419 -0.832668
0.20653 -0.001725 0.033079 0.986288 0.050729 0.141228
-0.034283 -0.639106 0.024704 0.205934 -0.056883 0.97515
0.089769 0.834432 -0.028788 0.935569 0.352026 -0.016228
0.143983 -0.150709 -0.102012 0.515895 -0.178219 -0.837053
0.153995 0.298777 0.063129 0.75148 0.021701 0.65933
0.244408 0.527103 -0.026941 0.671731 0.648615 0.352828
0.19266 0.339087 -0.026334 0.973538 -0.222445 -0.000303
-0.012858 0.187788 -0.116769 -0.283748 -0.237298 -0.928602
-0.058843 -0.757618 0.019406 0.247536 0.122648 0.939685
0.529715 0.171576 -0.038686 0.425409 -0.326673 -0.84317
-0.131804 0.019434 -0.041774 -0.897866 0.047354 -0.431859
0.081327 -0.132563 0.091022 -0.569794 -0.005479 0.821349
-0.255489 0.414471 0.005812 -0.663762 0.51421 0.542059
0.074765 0.780755 -0.104105 0.628091 0.030274 -0.775304
0.093859 0.467924 -0.144573 -0.119487 0.090649 -0.988619
0.620834 0.049358 0.070828 -0.815481 -0.574335 0.000689
0.145616 -0.747177 0.028766 0.24627 0.78287 0.569065
0.464899 0.251175 -0.089597 0.782667 -0.062195 -0.584043
0.037395 0.394384 0.102987 0.09616 0.403896 0.853609
-0.10337 -0.827957 -0.004657 -0.97989 0.189362 0.047151
0.082731 -0.529355 -0.086899 -0.693581 -0.073118 -0.716189
-0.402958 0.190527 -0.053063 0.250679 -0.726141 -0.629777
-0.082358 -0.863482 0.05518 -0.036709 -0.999247 -0.001984
0.337843 0.361478 -0.136908 0.280504 0.056796 -0.945767
0.053466 -0.039497 0.130373 0.053537 -0.20125 0.976638
-0.469578 0.126464 0.01724 0.738216 -0.673043 0.018006
0.016392 0.039257 0.138223 0.063376 0.110397 0.991735
0.069211 0.730348 0.07372 0.518027 0.193166 0.8289
0.022838 -0.718142 -0.055552 0.972654 -0.023894 -0.224976
0.104805 0.788397 -0.045207 0.993156 0.055023 -0.095722
0.156749 0.007125 0.107675 0.520913 -0.032808 0.8483
0.143851 -0.549874 0.048056 -0.10387 -0.208523 0.968441
0.017153 -0.264617 -0.04348 0.870896 -0.085559 -0.47815
-0.246113 0.437455 -0.006955 -0.811576 0.493464 0.311918
0.138616 0.115931 -0.106564 0.663304 0.212441 -0.717318
-0.109241 -0.037988 0.096262 -0.723658 0.052852 0.688007
0.132252 0.410809 -0.14203 0.330628 -0.166499 -0.926173
-0.102229 -0.25691 0.106433 -0.44299 -0.020457 0.893615
0.022671 -0.146295 -0.032847 0.740523 -0.234989 -0.489601
0.123054 -0.471185 0.052891 -0.576481 -0.101452 0.810695
0.19385 0.056863 -0.049944 0.891318 0.127868 -0.430021
0.05238 0.864348 -0.036119 0.168096 0.969405 -0.166427
-0.136175 -0.429834 0.016928 -0.986504 -0.012746 0.161321
0.089199 0.429125 0.088862 0.094604 0.182612 0.978552
0.098433 0.766183 0.01924 0.982829 0.014781 0.180769
0.206894 0.007023 -0.004235 0.996531 0.031937 -0.05945
0.171474 -0.294767 -0.061635 0.675936 -0.108298 -0.72875
-0.118936 0.378084 -0.086815 -0.85297 -0.209041 -0.474155
0.119367 0.426522 0.083352 0.257973 0.177477 0.949019
-0.119653 -0.372054 0.076257 -0.938603 -0.01786 0.339778
-0.120051 0.563684 -0.007149 -0.393944 0.871954 0.2612
0.014738 -0.479331 -0.041468 0.824501 0.046093 -0.563221
0.11291 -0.413044 -0.102253 -0.121425 0.040036 -0.987674
0.027151 -0.587909 -0.022396 0.996399 0.041423 -0.044884
0.132004 0.473502 0.065916 0.258777 0.429557 0.863439
-0.039891 0.034179 -0.142614 -0.285037 0.164916 -0.941375
0.188669 0.165717 0.027851 0.92609 0.212073 0.30588
0.113769 -0.111173 0.113456 -0.266293 -0.017086 0.937783
0.16793 0.572627 -0.050707 0.382118 0.894588 0.080621
0.023803 -0.036111 -0.133003 -0.098384 -0.479077 -0.871087
0.026367 -0.341726 -0.012432 0.967245 -0.061433 -0.228841
0.155376 -0.711028 0.007616 0.462803 -0.445055 0.765557
-0.128279 -0.337218 0.008172 -0.99993 -0.004266 0.003438
0.085814 -0.587655 -0.081729 -0.659283 -0.113793 -0.743151
-0.567894 0.038771 -0.010564 0.46861 0.440981 -0.528513
-0.065943 -0.82818 0.13278 -0.071389 0.983855 0.146606
0.08627 -0.486967 0.023572 -0.555596 0.055267 0.826844
0.074603 0.732459 -0.092481 0.632445 -0.39963 -0.660089
0.296813 0.478635 -0.067497 0.740297 0.662946 0.013667
0.134841 0.549647 0.008236 0.217623 0.724066 0.654181
-0.038207 0.591487 -0.060476 -0.435217 0.873933 -0.17235
-0.480074 0.130503 -0.008291 0.311481 -0.790769 -0.521938
0.044886 0.863777 -0.044641 0.07376 0.978955 -0.185769
0.054227 -0.606986 -0.010051 -0.823499 -0.004084 0.564288
-0.095232 -0.5017 0.067513 -0.866771 -0.158005 0.471512
0.120149 -0.8693 0.11237 0.003088 -0.999678 0.021683
0.401304 0.244969 -0.036993 -0.423426 -0.336415 0.828322
0.195525 -0.495788 0.015546 0.937457 0.05652 0.342406
-0.467172 0.134532 0.041834 0.73277 -0.612558 0.275595
0.111377 -0.295362 -0.099111 0.119768 -0.006221 -0.988744
0.10489 0.471649 -0.145134 -0.058354 0.106489 -0.992391
0.618528 0.085861 0.028303 0.869602 0.490936 -0.046759
-0.001806 0.350024 0.112491 -0.073428 0.060704 0.99395
0.176807 0.250404 -0.037954 0.93133 0.005128 -0.364118
0.187917 -0.27465 -0.04982 0.756797 -0.210788 -0.618619
0.227688 0.470613 0.015502 0.773149 0.019479 0.633145
-0.051773 -0.380656 -0.084144 0.118669 -0.14851 -0.977724
0.212982 0.42223 -0.122669 -0.225589 -0.685038 -0.668221
-0.044669 -0.859805 -0.049604 0.208416 -0.973391 0.074544
-0.003522 0.229612 -0.128313 0.033489 -0.057365 -0.995995
0.071433 -0.047664 0.126795 0.046685 -0.404309 0.912633
0.019608 -0.168392 0.078905 0.943568 -0.107895 0.308333
0.517967 0.179338 -0.047062 0.412032 -0.418005 -0.808195
0.017297 -0.134323 -0.049491 0.811851 -0.249086 -0.522864
0.106272 -0.734403 -0.094501 -0.462811 -0.029812 -0.884893
0.125168 -0.261633 -0.096193 0.372685 -0.070789 -0.924972
-0.124269 -0.728708 -0.065703 -0.867284 -0.037041 -0.486891
-0.084307 -0.682407 0.029032 0.137219 -0.367962 0.914809
-0.045521 0.452804 0.087527 -0.193665 0.318442 0.926899
0.008323 -0.583301 -0.057522 0.782704 0.01566 -0.622062
0.099146 -0.275161 -0.09815 -0.245781 0.031214 -0.96635
0.186718 -0.279937 0.068776 0.700122 0.016988 0.708403
0.047198 -0.362258 0.022468 -0.709576 -0.342365 0.594311
-0.124657 -0.048942 -0.060243 -0.85472 -0.101498 -0.508838
-0.0786 -0.861797 -0.028556 -0.065825 -0.995656 -0.045674
0.11122 -0.742981 -0.096253 -0.404313 -0.062517 -0.907761
0.326725 0.381096 -0.043807 0.809187 -0.048124 0.582392
0.630579 0.034271 0.049489 -0.922356 -0.34615 -0.022913
0.044198 0.448188 0.089453 0.113012 0.190281 0.974186
-0.061708 -0.376713 -0.084412 -0.15682 -0.125398 -0.977515
-0.548536 0.087073 0.057219 -0.851924 0.522061 0.025837
-0.054053 -0.478083 0.070265 0.35309 -0.295193 0.887707
0.159114 0.470954 0.053271 0.600589 0.246275 0.758046
0.011401 -0.241265 0.086606 0.813057 -0.073659 0.575876
0.146414 0.30097 0.07183 0.777545 0.041963 0.626947
-0.086125 -0.544966 -0.098121 -0.35159 0.086356 -0.931826
-0.4818 0.112912 0.028302 0.834287 -0.543549 0.002107
-0.070572 0.125973 -0.099705 -0.541613 0.198087 -0.816484
0.00304 -0.828255 -0.058027 0.84886 -0.510748 0.03142
-0.076175 0.445755 -0.127168 -0.245457 -0.106123 -0.962751
-0.025337 0.285623 0.112741 -0.296885 0.009933 0.952476
0.204603 -0.19497 0.029388 0.967319 -0.032596 0.246784
0.218899 0.414499 -0.022263 -0.456785 -0.729634 0.50131
0.175245 0.219374 -0.043346 0.927865 -0.009583 -0.37216
0.107206 -0.861564 -0.114768 -0.405507 -0.22478 -0.851683
0.124683 0.316573 0.091723 0.5519 0.080743 0.829865
0.051879 0.802176 -0.114311 0.276503 0.285333 -0.915255
0.066576 0.012147 0.139158 0.179896 0.137611 0.972392
0.054177 0.651504 -0.062794 0.448139 0.016218 -0.887553
0.054137 0.793225 0.081312 0.287389 0.252717 0.92164
-0.151298 0.390723 -0.053552 0.719973 -0.662146 -0.207331
-0.018677 -0.257546 -0.08422 0.591098 -0.026676 -0.806018
0.152217 -0.332295 0.077894 0.240139 -0.052761 0.969287
0.163376 -0.837487 0.019114 0.9098 0.414219 -0.000963
-0.072147 -0.193896 0.116374 -0.319647 -0.06236 0.944033
-0.160983 0.480838 0.055034 -0.244082 0.108333 0.962233
0.18822 0.36221 -0.083956 0.746044 -0.473963 -0.466934
0.029004 0.867082 0.004076 -0.382421 0.890275 0.239843
0.249282 0.452229 -0.133631 0.045678 0.290205 -0.954128
0.024782 0.744108 -0.11494 -0.096576 -0.440606 -0.890664
0.037485 -0.244783 -0.035059 -0.731007 -0.077284 -0.673332
-0.06644 -0.113552 -0.10335 -0.298063 -0.151734 -0.940507
-0.047216 -0.558977 -0.101419 0.323245 0.000436 -0.94565
-0.129377 -0.618519 -0.046427 -0.999819 -0.017896 0.000207
0.080827 -0.280558 0.076168 -0.475983 -0.181592 0.859721
0.03033 -0.142832 -0.053842 -0.897663 -0.329135 -0.288103
-0.105058 -0.838419 0.067923 -0.709533 0.698556 0.091266
0.177152 0.414078 -0.127846 0.204515 -0.377135 -0.903095
0.199721 -0.231124 0.044662 0.947819 0.03567 0.316455
0.153895 0.249069 -0.084074 0.861855 -0.074752 -0.499848
-0.114159 -0.412843 -0.047765 -0.784789 0.070356 -0.613922
-0.080595 0.369703 0.082925 -0.720695 -0.048105 0.688987
-0.002465 -0.77839 -0.113921 0.836734 0.286045 -0.465986
-0.073628 0.371983 -0.117157 -0.449675 -0.117479 -0.884892
0.206617 0.484376 -0.132163 0.17156 0.208465 -0.962741
-0.216843 0.479338 -0.044797 -0.661169 0.588467 -0.460625
-0.215097 0.44046 0.03368 -0.624907 0.212909 0.746377
0.194472 0.394294 0.007836 0.965393 -0.106721 0.23617
0.017433 -0.719423 -0.071151 0.883645 0.058245 -0.457121
0.043525 0.807227 -0.114053 0.141935 0.381278 -0.90763
0.157551 -0.864544 0.096394 0.285235 -0.955725 0.011864
0.076719 -0.508696 -0.082561 -0.699429 -0.029788 -0.714003
0.030715 -0.266928 0.017905 0.988253 -0.046013 0.143753
-0.315405 0.2971 -0.095592 -0.076086 -0.084678 -0.992276
0.197751 -0.367178 0.03067 0.952013 -0.076178 0.296172
-0.240585 0.36201 0.01749 0.11879 -0.226574 0.965877
0.165015 0.510728 -0.128872 0.139772 0.350379 -0.924411
-0.045283 0.405285 0.099345 -0.274799 0.198509 0.939279
-0.104196 0.560735 -0.060355 -0.462209 0.745553 -0.47933
-0.095308 0.024816 -0.108454 -0.756763 0.137821 -0.637845
0.053166 -0.231975 -0.063466 -0.78051 -0.153596 -0.605472
-0.08057 -0.568105 -0.101425 -0.246737 0.047587 -0.967269
-0.063726 0.078798 -0.119663 -0.483084 0.267981 -0.832933
-0.039727 0.765021 -0.031491 -0.997342 -0.061997 -0.016306
-0.13479 0.01564 -0.032742 -0.965427 -0.00373 -0.25048
0.478453 0.210151 -0.069503 0.230129 -0.524965 -0.813063
0.139323 -0.844321 -0.110484 0.511518 0.029267 -0.856983
-0.128328 0.118139 0.020485 -0.972992 0.073414 0.213974
0.048157 0.528349 0.05115 0.079715 0.546491 0.833029
-0.274692 0.346884 -0.096356 -0.189965 0.063398 -0.975764
0.166612 -0.858588 0.147456 0.910436 -0.265788 0.243458
0.184024 0.289108 -0.004782 0.99116 -0.127976 0.014482
0.192824 0.079013 0.042622 0.908126 0.309146 0.272761
-0.094716 -0.824856 0.046235 -0.779782 0.606044 0.152398
-0.031812 0.793051 0.016567 -0.899108 0.117161 0.420102
0.155413 0.483576 0.051011 0.454108 0.40244 0.792969
-0.352304 0.256218 -0.083883 0.101521 -0.298314 -0.948561
0.193183 -0.32779 0.050315 0.916633 -0.082519 0.39099
-0.442571 0.20307 -0.043649 -0.602866 0.106374 -0.790657
-0.124629 0.367966 -0.046409 -0.936707 -0.349896 -0.00253
-0.06309 -0.268651 -0.091039 -0.273214 -0.034834 -0.960228
-0.002873 -0.540865 0.027709 0.647428 -0.15592 0.744562
0.058382 -0.178066 0.074531 -0.648409 -0.058301 0.758359
-0.00669 -0.812877 -0.127306 0.80662 -0.282142 -0.515662
-0.083621 0.172398 -0.07831 -0.622151 0.071221 -0.779395
0.075053 0.345046 0.106526 0.270369 0.145752 0.949957
-0.136925 -0.419414 -0.006856 -0.987896 0.081354 -0.125016
0.066311 0.853385 0.031568 0.519651 0.665352 0.535584
0.076764 0.655234 -0.043043 0.788633 0.088305 -0.607637
0.0771 0.384171 -0.14386 -0.201005 0.013546 -0.978548
0.140059 0.405255 -0.137271 0.380212 -0.180047 -0.907134
-0.112283 0.255652 -0.007752 -0.998966 0.037016 -0.002027
0.435257 0.274296 -0.117625 0.576309 0.197188 -0.790249
0.002066 -0.585726 -0.064782 0.743746 -0.000475 -0.668394
-0.077009 -0.647639 -0.106967 -0.123538 0.063732 -0.989347
0.028656 -0.005804 -0.146423 -0.170153 -0.21343 -0.958532
-0.120516 0.347506 -0.018462 -0.996819 -0.071787 0.026955
0.026717 0.859559 -0.060307 -0.091852 0.875127 -0.470163
0.04346 -0.283821 0.030485 -0.986469 -0.01767 0.161774
-0.08193 -0.863353 0.026991 -0.037977 -0.999269 -0.003383
-0.005197 0.671907 -0.044914 -0.769491 -0.269179 -0.578473
0.214383 -0.109195 0.01345 0.998441 -0.010499 0.049132
0.008349 0.403768 -0.128231 0.032793 0.011353 -0.999364
-0.052626 0.175666 -0.097265 -0.488494 -0.196185 -0.844687
0.160361 0.169622 -0.072786 0.763166 0.067264 -0.64224
-0.060367 0.563447 0.010878 -0.120429 0.791229 0.59843
0.001187 -0.683074 0.012417 0.772937 -0.193211 0.600308
0.072372 -0.622442 0.002117 -0.624083 -0.128169 0.761498
0.077275 0.72548 0.06814 0.686439 0.10071 0.719715
0.240576 0.499363 0.001249 0.651174 0.280998 0.702218
0.133547 -0.403043 0.070328 -0.287111 -0.212669 0.933925
0.104038 -0.832618 0.147978 -0.766194 0.594545 0.179613
0.035343 -0.319041 -0.021568 -0.992146 -0.016567 -0.119747
-0.014835 0.681438 -0.024184 -0.814798 -0.48208 -0.315938
0.018569 0.761411 0.077193 -0.745513 -0.059942 0.624469
0.205365 -0.272046 -0.007234 0.999351 0.017208 -0.03036
-0.533298 0.068855 0.043087 0.454833 -0.858888 -0.185983
0.201214 -0.187759 0.039381 0.950162 -0.013272 0.311424
-0.084441 0.453699 0.074891 -0.52494 0.225961 0.818241
-0.482828 0.170292 -0.012325 -0.722811 0.680828 -0.105288
-0.093157 0.488041 0.061785 -0.176608 0.351318 0.917843
0.131801 0.121274 -0.110858 0.517145 0.27188 -0.808761
0.075374 -0.655588 0.018592 -0.61168 0.31995 0.723089
0.143181 -0.480779 0.062793 -0.391811 -0.147403 0.906159
-0.106733 -0.270236 0.102248 -0.631316 -0.040943 0.768211
-0.098986 -0.863055 0.051152 -0.242476 -0.956747 -0.009374
0.121788 -0.165486 -0.108244 0.203623 -0.151805 -0.965383
-0.060723 0.127572 0.102054 -0.566937 -0.117458 0.81446
0.192989 -0.231253 0.061901 0.898806 -0.022084 0.435614
0.179214 -0.593691 0.026114 0.555434 -0.330273 0.762931
0.184383 -0.779794 -0.029586 0.970274 -0.234403 -0.003338
-0.106598 0.565697 -0.047584 -0.361473 0.890546 -0.275168
-0.178475 0.507247 -0.065036 -0.609865 0.476489 -0.632712
0.555107 0.100666 -0.027023 -0.051698 -0.380338 -0.7433
-0.07116 -0.428044 0.085474 0.141697 -0.253005 0.955789
0.141201 -0.107443 -0.115537 0.48483 -0.211133 -0.848181
0.183311 -0.784281 -0.038997 0.973212 -0.219445 -0.022563
0.109989 0.244826 0.104716 0.390413 0.057794 0.917204
-0.083185 -0.09675 -0.096752 -0.544399 -0.177173 -0.81822
0.602881 0.10508 0.023467 0.898925 0.409387 -0.102156
0.075926 -0.691517 -0.059707 -0.843758 -0.08159 -0.529821
-0.101445 0.141551 -0.068713 -0.756464 0.199345 -0.622174
0.164028 0.551726 -0.100462 0.31106 0.718079 -0.621861
0.19773 -0.581135 0.005813 0.963024 -0.022055 0.264966
0.024313 0.674335 0.093355 -0.272051 0.413441 0.86218
0.055686 0.812917 -0.108678 0.274983 0.482382 -0.830143
0.213198 -0.088549 -0.009892 0.982438 0.044099 -0.17018
0.193307 -0.277024 0.058457 0.86616 -0.055266 0.492809
-0.401081 0.253368 -0.070549 -0.680352 0.120934 -0.714309
-0.119344 0.135941 -0.039584 -0.862089 0.12558 -0.488448
0.063671 0.343102 -0.138745 -0.399334 -0.018424 -0.916205
0.169736 -0.003065 -0.103187 0.812139 0.11321 -0.571932
0.065627 -0.014035 -0.153583 -0.173879 -0.251899 -0.950409
0.103201 0.238827 -0.134378 0.325733 -0.233016 -0.910436
-0.367172 0.280115 -0.084372 -0.346155 0.325645 -0.879627
0.194539 -0.458241 -0.057514 0.846065 0.080041 -0.526419
0.056788 0.107627 0.13267 0.303805 0.169079 0.927585
0.630981 0.037246 0.023975 -0.94364 -0.293003 -0.12272
0.20331 -0.09628 -0.040536 0.881911 0.058199 -0.467166
0.051092 0.50473 0.064359 0.062061 0.478784 0.875322
-0.003732 -0.471318 -0.06603 0.754521 0.103117 -0.647247
0.4976 0.167444 -0.005264 -0.645253 -0.760473 0.061052
0.544448 0.138851 -0.022261 0.237225 -0.229844 -0.841487
-0.024291 -0.857111 0.050071 0.847864 -0.49106 0.024418
0.21864 0.534678 -0.006895 0.363605 0.674192 0.642305
0.149337 -0.860422 0.173924 0.299164 -0.763237 0.473227
-0.119976 -0.67686 -0.082125 -0.796782 -0.062659 -0.598075
-0.297708 0.252438 -0.015671 0.697483 -0.661546 0.275237
-0.040985 0.182619 0.109864 -0.555607 0.088195 0.826369
-0.101627 -0.782717 0.003888 -0.641596 0.193911 0.739975
-0.083001 -0.820608 0.067298 -0.381827 0.867806 0.29706
0.003314 -0.828027 -0.070982 0.832573 -0.553421 -0.016061
0.301187 0.441288 -0.031859 0.75752 0.391847 0.489262
-0.11923 -0.793778 -0.054994 -0.955757 -0.256914 -0.06216
0.064065 -0.046016 -0.140204 -0.293671 -0.413928 -0.861525
-0.084612 -0.156069 -0.087052 -0.616298 -0.176363 -0.766527
-0.425458 0.16395 0.024953 0.522039 -0.79486 0.295983
0.101361 0.116883 -0.128806 0.315825 0.370033 -0.873227
-0.026777 -0.440385 0.072822 0.342301 -0.171743 0.918452
-0.505138 0.087904 0.050756 0.660358 -0.738534 -0.053814
-0.049218 -0.220928 0.115925 0.082402 -0.225512 0.969318
0.094386 -0.719297 0.035544 0.250096 -0.070267 0.962375
-0.118654 -0.388107 0.077997 -0.911992 -0.066229 0.402898
0.141359 0.279767 0.079733 0.742948 0.047948 0.667447
0.074617 0.501303 0.064567 0.110116 0.476293 0.870748
0.52252 0.214984 -0.038457 0.519883 0.782047 0.34174
0.017678 0.349007 0.113313 -0.0538 0.10134 0.992583
0.055766 -0.594483 -0.006396 -0.781583 -0.13364 0.607063
0.134844 0.49185 0.053704 0.280939 0.553039 0.784219
0.048866 -0.208688 -0.06258 -0.849615 -0.119589 -0.513439
0.198638 -0.498694 0.006348 0.962712 0.046804 0.264902
-0.007624 -0.828803 -0.11231 0.537073 -0.782491 -0.244865
-0.020894 0.716492 -0.05361 -0.905468 -0.355227 -0.229147
0.182893 0.242717 -0.008162 0.999582 -0.012815 -0.022171
0.454425 0.239659 -0.019743 -0.121768 0.46022 0.876034
-0.194825 0.347694 -0.031607 0.593841 -0.803581 0.031954
-0.130933 0.54801 -0.060301 -0.357775 0.779828 -0.509409
0.115381 -0.870374 -0.091646 0.017745 -0.999551 -0.0173
-0.068174 -0.782273 -0.136766 -0.430313 0.355903 -0.826729
0.331393 0.389769 -0.051194 0.891583 -0.238912 0.370247
0.122044 -0.294529 -0.096195 0.368161 -0.018702 -0.92637
0.175667 -0.574743 -0.0823 0.677937 -0.051866 -0.730754
0.026342 -0.50879 -0.004585 0.965073 -0.059319 0.206949
0.130444 -0.83453 0.173685 0.102553 0.810163 0.538652
-0.288826 0.372435 -0.010144 -0.792219 0.450759 0.409122
0.082758 0.351404 0.103883 0.270565 0.137327 0.95206
0.131849 -0.376047 -0.095939 0.471545 0.110117 -0.873189
0.158316 -0.370593 -0.076328 0.597353 0.196345 -0.776982
0.602782 0.078308 0.005336 0.408092 -0.335459 -0.834305
-0.037832 0.404944 -0.129316 -0.078536 -0.029723 -0.996223
-0.099894 -0.070959 -0.088948 -0.70121 -0.233646 -0.673291
0.014865 -0.348809 -0.037916 0.783774 -0.038736 -0.61675
-0.203904 0.504206 -0.018562 -0.749349 0.660942 -0.007909
-0.077772 -0.264544 0.110702 -0.037958 -0.091028 0.995033
0.635473 0.047775 0.085348 0.917013 0.366717 0.15461
-0.052986 -0.449153 -0.093015 0.063047 0.201093 -0.975356
0.07227 -0.205465 -0.088313 -0.515367 -0.220848 -0.825616
0.0818 0.849488 -0.019676 0.845713 0.532678 -0.010022
-0.070574 -0.637866 0.038085 0.390418 -0.248066 0.886382
0.037305 -0.358523 -0.017533 -0.992873 -0.089098 0.016635
0.079733 0.373089 0.100561 0.283 0.19041 0.939707
0.181891 -0.656375 -0.064055 0.635271 -0.266604 -0.724386
-0.056606 0.167017 -0.093917 -0.398297 0.032919 -0.908537
-0.077686 -0.531136 0.06606 0.394957 -0.203432 0.895863
0.567434 0.141184 -0.006876 0.633084 0.179168 -0.735963
-0.105306 0.431863 0.064166 -0.300782 0.045944 0.94588
0.205794 -0.355094 -0.005415 0.998652 -0.006752 -0.003499
-0.000361 0.185707 -0.11751 0.047034 -0.146393 -0.987505
-0.071227 -0.453559 0.080354 0.163313 -0.164652 0.97258
0.190067 -0.004704 -0.068127 0.892664 0.087708 -0.439343
0.0987 0.447967 0.083025 0.144361 0.228611 0.962621
-0.021293 -0.841462 -0.01421 0.940475 -0.327524 -0.010167
0.423138 0.211839 -0.102999 -0.630933 -0.635819 -0.413028
-0.207571 0.492553 -0.043156 -0.711676 0.559365 -0.421825
0.350302 0.410051 -0.096447 0.744673 0.666413 0.003755
-0.094978 0.184203 -0.066284 -0.728594 0.112823 -0.675231
0.173341 0.31161 0.042472 0.906019 0.049491 0.407677
0.065174 -0.359889 -0.072137 -0.779063 -0.070178 -0.622967
0.076324 0.761347 0.063098 0.704222 0.034819 0.688453
-0.029929 0.251758 -0.128786 -0.126465 -0.063864 -0.989694
-0.113647 0.467524 0.061877 -0.079209 0.009604 0.996792
0.215102 0.405243 -0.090222 -0.928297 -0.367291 -0.037838
0.329147 0.337946 -0.135841 -0.104694 -0.210953 -0.968565
0.199769 -0.579402 -0.043632 0.986109 -0.032581 -0.160824
0.084623 0.012888 0.134227 0.301003 0.248481 0.915731
0.147865 -0.500736 -0.104051 0.339871 0.015868 -0.940093
0.071082 0.677889 0.072829 0.816711 -0.134333 0.516437
0.066152 0.098722 0.130778 0.192534 -0.031903 0.973751
0.067462 0.861281 -0.029529 0.450448 0.867181 -0.137915
0.196584 -0.72458 -0.026868 0.978547 -0.072184 -0.17062
0.093634 0.708484 0.008902 0.704842 -0.698439 0.065613
-0.125581 -0.3187 -0.024361 -0.952224 0.017703 -0.296628
0.348413 0.407849 -0.117358 0.767425 0.444449 -0.449477
0.129698 0.148989 -0.104618 0.503955 0.189033 -0.8409
0.154007 -0.480022 -0.099927 0.441291 0.087803 -0.892994
0.15827 -0.69432 0.017688 0.302268 -0.472047 0.826693
-0.015475 -0.694924 0.025133 0.357213 -0.026095 0.932972
0.104579 0.359977 0.096493 0.28645 0.09015 0.95176
0.075696 0.29848 0.113237 0.367022 0.142473 0.918512
-0.002772 0.486274 -0.126743 0.157583 0.120729 -0.978828
-0.054336 -0.152413 0.122028 -0.088471 -0.021919 0.994848
-0.007029 0.132919 0.128706 -0.243455 -0.001267 0.969435
0.083837 -0.615194 0.018865 -0.729391 -0.235497 0.639933
-0.059768 -0.178259 0.121252 -0.249923 -0.021645 0.962786
-0.100035 -0.641919 0.043084 -0.379913 -0.26441 0.868244
0.149659 -0.828762 0.105558 0.423569 0.885051 0.168555
0.080683 0.83809 -0.06378 0.679451 0.596784 -0.423728
0.164037 0.536263 -0.115144 0.239406 0.59473 -0.76742
-0.024797 0.065001 0.127749 -0.284451 0.149038 0.945595
-0.054625 0.336636 0.098417 -0.409666 -0.12448 0.903392
-0.033888 -0.493694 -0.094284 0.3981 0.107191 -0.905863
-0.118712 -0.273675 0.088748 -0.861803 -0.046174 0.497569
0.113277 -0.253097 -0.099529 0.028468 -0.006557 -0.993649
0.056134 -0.281393 0.055047 -0.751396 -0.139817 0.644855
0.031857 0.847293 0.054565 -0.039188 0.703255 0.708648
-0.072462 0.532226 0.042321 -0.086921 0.612407 0.785442
-0.4798 0.117111 0.019163 0.708244 -0.679805 -0.142828
-0.128197 -0.643927 -0.043077 -0.996766 -0.053571 0.050284
-0.025146 0.558939 -0.106054 -0.135755 0.498436 -0.855559
0.458043 0.241724 -0.093828 0.60329 -0.254047 -0.752066
-0.068933 0.00908 -0.129513 -0.400206 -0.089797 -0.906644
-0.128382 0.440219 -0.106211 -0.496937 -0.15764 -0.850585
0.007155 -0.555985 0.014002 0.685176 -0.144327 0.712752
0.145422 -0.572319 -0.10246 0.297198 -0.098351 -0.949071
-0.121698 -0.766237 -0.047387 -0.974026 -0.220612 -0.020534
0.115258 0.549189 0.017374 0.372563 0.661051 0.649951
-0.080791 -0.861423 -0.105329 -0.18155 -0.973861 -0.110433
0.066271 -0.272402 -0.077542 -0.779259 0.014118 -0.626468
-0.091293 0.276709 -0.094918 -0.692296 -0.071913 -0.717847
-0.138493 -0.460408 -0.002078 -0.991166 -0.034846 0.116739
0.023389 0.830036 -0.098532 -0.082613 0.700272 -0.708609
-0.154407 0.525308 0.038365 -0.261067 0.438865 0.841644
0.037052 -0.32548 -0.031121 -0.964007 -0.02143 -0.2645
0.146212 -0.770373 -0.098973 0.488226 0.303282 -0.814052
-0.024847 0.706484 -0.019524 -0.676645 -0.667564 -0.147126
-0.1138 -0.142273 -0.058536 -0.762357 -0.170206 -0.623535
-0.106018 0.481394 0.061767 -0.0875 0.155787 0.981371
0.044271 -0.438535 -0.038775 -0.978035 9.9e-05 -0.205449
-0.114435 -0.560289 -0.081629 -0.674866 0.09046 -0.730337
0.011012 0.125725 -0.125791 -0.111461 0.43629 -0.892395
0.464921 0.223688 -0.080091 0.484838 -0.333684 -0.803593
-0.461662 0.17143 -0.041411 -0.560683 0.431702 -0.706402
-0.053869 -0.833776 0.142906 0.557709 0.691107 0.428507
0.120374 -0.199716 0.096301 0.051126 -0.186516 0.980401
0.089759 0.713164 0.048948 0.962038 -0.07143 0.246107
-0.062 -0.306555 -0.088709 -0.260955 -0.069684 -0.962066
0.076162 -0.144992 -0.105456 -0.433169 -0.201883 -0.877918
-0.346815 0.223223 -0.061176 0.460878 -0.720507 -0.505736
0.077794 0.82407 -0.085155 0.640486 0.533483 -0.551725
0.578174 0.137074 0.029196 0.746176 0.664736 0.02984
0.017239 -0.496234 0.016463 0.859384 -0.094054 0.498725
0.142861 -0.456452 -0.101676 0.334015 0.138053 -0.932288
-0.038708 -0.057243 0.129694 -0.096313 -0.072687 0.992556
0.172931 -0.326673 -0.058483 0.729462 0.003974 -0.683873
0.004767 0.2111 -0.126303 0.051672 -0.23595 -0.969767
0.086665 -0.644484 0.022163 -0.585198 0.435515 0.681096
0.162988 0.261747 0.05495 0.741651 0.064328 0.667587
-0.102088 0.057999 -0.08908 -0.783202 0.143188 -0.603676
-0.057332 0.24893 0.095362 -0.557232 0.089644 0.825166
0.117265 0.398226 -0.144269 0.188178 -0.064928 -0.979869
0.216965 0.550068 -0.072195 0.347732 0.898602 -0.260792
-0.151689 0.410644 0.028318 0.101502 -0.757079 0.631618
-0.095555 0.55379 -0.077322 -0.404672 0.687302 -0.603131
-0.128095 -0.208258 -0.018472 -0.907679 -0.100161 -0.406732
0.04058 0.831686 -0.096866 0.070088 0.706389 -0.697332
0.187562 0.339892 -0.062085 0.827071 -0.384529 -0.409231
-0.014534 -0.130347 -0.089799 0.605021 -0.231683 -0.761525
-0.05506 -0.694305 -0.114148 0.130425 0.267005 -0.953686
-0.144195 -0.138819 0.011632 -0.999158 -0.025296 -0.022284
-0.065452 0.161187 0.097176 -0.490274 0.026122 0.869306
0.128633 0.305604 -0.126417 0.600055 -0.050926 -0.798083
-0.516892 0.108515 0.0169 -0.42315 -0.453694 -0.761824
-0.030624 0.132336 -0.114963 -0.278269 0.474815 -0.834806
0.201471 -0.276468 0.039017 0.952031 -0.05374 0.301169
-0.051433 -0.648277 0.028351 0.296652 -0.164117 0.93962
0.125105 0.583664 -0.035898 0.379799 0.835045 0.388745
0.206102 0.445987 -0.132541 0.058446 -0.173591 -0.980887
0.567673 0.088194 -0.018985 0.074606 -0.212035 -0.917504
-0.073187 -0.723629 -0.120932 -0.327305 0.230487 -0.910586
0.204784 -0.017691 0.045463 0.90722 0.102507 0.402371
0.100209 0.71751 -0.01144 0.945671 -0.286041 -0.060172
0.037853 0.722848 -0.104028 0.0925 -0.699577 -0.660079
0.065047 -0.696747 -0.042027 -0.790184 -0.2003 -0.578711
0.169852 0.106126 -0.073247 0.7895 0.26341 -0.553857
0.071743 -0.697723 -0.051599 -0.841636 -0.148669 -0.51789
0.080914 0.675803 0.024078 0.876816 -0.409509 0.223726
-0.097679 0.195003 -0.060874 -0.776097 0.113769 -0.619959
-0.013267 -0.806639 0.019389 0.941045 0.207401 0.258147
0.115696 0.341688 -0.138315 0.424731 -0.120752 -0.897185
0.046389 0.174469 -0.117696 -0.107284 0.272918 -0.954724
0.48125 0.201416 -0.061582 -0.061163 -0.590837 -0.799257
0.201389 -0.335538 -0.022099 0.88983 0.109973 -0.441694
0.074501 -0.454575 0.011778 -0.672549 -0.054021 0.732816
-0.2201 0.350084 0.004679 0.351155 -0.538332 0.763854
0.024758 -0.353006 -0.016144 0.952888 -0.042448 -0.298883
0.05931 0.449774 -0.13601 -0.30503 0.035362 -0.950678
-0.109692 -0.004119 0.098201 -0.766375 -0.184606 0.611702
-0.062457 0.525135 0.049234 -0.145776 0.584931 0.797473
0.165026 0.497141 -0.133522 0.16082 0.295526 -0.941004
0.182465 -0.33626 0.06859 0.793375 -0.058433 0.604828
0.078774 0.047511 -0.157274 0.133572 0.292193 -0.945472
0.078559 -0.005079 0.136167 0.214188 -0.266171 0.932814
-0.090682 -0.106431 0.112995 -0.364782 0.03958 0.929977
-0.141909 -0.165705 0.030205 -0.974435 -0.13506 0.170888
0.206196 0.041976 -0.003556 0.995274 0.067815 -0.056722
0.194998 -0.553287 -0.060041 0.834381 -0.013287 -0.55097
0.061409 0.863144 0.014542 0.345132 0.927768 0.133293
-0.020015 0.271466 -0.130919 -0.054523 -0.050983 -0.996473
-0.114308 -0.218635 -0.042351 -0.881141 -0.051658 -0.469899
0.051516 0.063879 0.131446 0.135775 0.112956 0.982575
-0.079902 -0.55842 0.0612 0.440788 -0.175386 0.879474
0.203551 0.557038 -0.03027 0.362466 0.873889 0.297028
-0.24528 0.303553 -0.048345 0.779054 -0.616491 -0.108399
0.366953 0.292866 -0.040249 -0.276237 -0.03815 0.946878
0.130584 0.24189 -0.115816 0.692955 -0.202696 -0.690909
0.071868 0.420493 0.091902 0.157428 0.252702 0.954353
0.103371 -0.385516 -0.100341 -0.296381 -0.048284 -0.948678
-0.120845 0.348125 -0.045268 -0.997721 -0.061232 0.000178
0.064746 0.861076 -0.039109 0.441953 0.868263 -0.188841
0.199251 -0.590938 -0.00249 0.985599 -0.02805 0.166644
-0.048196 -0.76334 0.021302 0.218247 0.668007 0.705903
0.109248 -0.816479 0.074672 -0.18919 0.896222 0.394937
-0.127752 -0.368806 0.029225 -0.996423 -0.012209 0.082087
0.193796 0.161783 0.007356 0.856848 0.501204 0.045297
0.023859 -0.593012 -0.003718 0.877897 0.045975 0.467561
0.317858 0.308582 -0.108802 -0.591191 -0.687825 -0.415679
0.160761 0.260466 -0.072544 0.891627 -0.058823 -0.448383
-0.120749 -0.533795 -0.069553 -0.789591 0.109417 -0.603743
-0.0992 -0.475544 0.073511 -0.608951 -0.270951 0.734263
-0.011135 -0.79576 0.003453 0.938134 0.129756 0.316551
-0.105871 0.280091 0.044266 -0.98304 -0.004485 0.180219
0.05017 0.565997 -0.107876 -0.106495 0.485006 -0.866575
-0.120435 0.338364 -0.0554 -0.998171 -0.039925 -0.042468
0.145458 0.092894 0.089778 0.658958 0.238845 0.706897
0.169167 0.192387 -0.056771 0.879544 0.045099 -0.473221
0.077095 -0.481741 0.015734 -0.658601 0.077073 0.748263
-0.262981 0.41869 -0.059066 -0.684806 0.674494 -0.263335
0.017817 0.568449 -0.103935 -0.064723 0.439211 -0.895251
-0.066024 -0.663902 0.029472 0.293937 -0.255678 0.920713
-0.222084 0.388787 -0.09619 -0.021536 0.054848 -0.997649
-0.033837 -0.381933 0.087612 0.27105 -0.18407 0.942885
0.101424 0.2181 -0.128035 0.326929 -0.364562 -0.870626
0.241136 0.406475 -0.016557 -0.018322 -0.52955 0.846169
0.10766 -0.340281 0.075989 -0.266107 -0.174759 0.94726
-0.074321 -0.540453 0.062651 0.406954 -0.215232 0.887516
0.13242 0.52742 0.02971 0.255498 0.634123 0.729655
0.041485 -0.305161 -0.041602 -0.871572 -0.018909 -0.489496
0.039275 -0.073079 0.117302 -0.001539 -0.535079 0.843851
0.158693 -0.697745 -0.077195 0.69859 -0.026132 -0.714485
0.191369 0.095697 0.032232 0.990063 0.016052 0.122809
-0.485935 0.109418 0.049127 0.877693 -0.432768 0.184335
0.201325 -0.305917 -0.021151 0.895748 -0.041339 -0.441451
0.083655 0.752468 -0.093137 0.682216 -0.237526 -0.689903
0.354779 0.330562 -0.045768 0.31529 0.250222 0.913548
0.130462 0.455756 0.07353 0.29054 0.308579 0.90371
0.187273 -0.589646 0.021691 0.628398 -0.181353 0.752886
0.026539 -0.288835 0.043419 0.979047 -0.005477 0.189207
-0.129933 -0.266309 -0.004166 -0.979901 -0.090178 -0.174282
0.160622 -0.844451 -0.075919 0.977399 -0.032001 -0.205425
-0.085123 -0.416304 -0.07434 -0.504166 0.185993 -0.837901
-0.35558 0.24363 0.009463 0.063173 0.038681 0.996906
0.185567 0.565798 -0.040913 0.319193 0.931489 0.153784
0.132092 0.131917 -0.107583 0.561321 0.239457 -0.787624
-0.119813 0.312754 -0.031483 -0.996402 -0.083221 0.013422
0.027949 -0.301363 0.029046 0.994706 -0.00723 0.102479
-0.027653 -0.718005 0.027303 0.082372 -0.104803 0.959313
0.177408 -0.410612 0.066625 0.60494 -0.086875 0.78567
-0.090479 -0.522342 -0.093483 -0.511948 0.109602 -0.851963
-0.027321 0.770006 -0.086093 -0.84297 -0.114377 -0.52375
0.174386 -0.142521 -0.079019 0.702444 -0.097888 -0.704823
-0.036626 0.4442 0.090944 -0.172844 0.251942 0.950607
0.069369 0.594625 -0.086901 0.130811 0.689369 -0.712238
-0.067444 -0.863468 0.125498 -0.003986 -0.999068 0.038397
0.140494 -0.135152 0.108874 0.29463 -0.202373 0.932308
0.012813 0.863451 0.005532 -0.08452 0.996039 0.023342
0.051346 -0.388125 0.017275 -0.692802 -0.35201 0.627344
-0.023353 0.740928 0.048536 -0.824803 0.031166 0.563557
0.09377 0.308748 0.105095 0.205447 0.08691 0.97471
-0.200873 0.463823 -0.075115 -0.549126 0.445918 -0.703467
0.120868 0.460794 0.074137 0.21527 0.338173 0.915834
0.501465 0.216314 -0.009313 0.313104 0.560303 0.742111
0.020539 -0.211498 -0.041958 0.930152 -0.009889 -0.361412
0.297648 0.328972 -0.06006 -0.509197 -0.702323 0.497196
0.156496 -0.652362 0.028495 0.197483 -0.009389 0.978304
-0.053909 -0.639305 0.030899 0.366695 -0.187108 0.910959
-0.115428 0.395196 -0.097785 -0.689212 -0.248479 -0.6781
-0.087486 0.31626 -0.101875 -0.63769 -0.069394 -0.766949
-0.053925 -0.863128 0.126929 0.116386 -0.984905 0.09552
0.121553 -0.468095 -0.106037 -0.04662 0.08272 -0.993011
-0.026435 0.110822 -0.125403 -0.243661 0.350909 -0.903502
0.078166 -0.804879 -0.075058 -0.884121 0.103012 -0.455622
-0.1054 -0.83552 0.013217 -0.853755 0.515393 0.030616
-0.120571 -0.544536 0.016772 -0.88109 -0.10453 0.460996
-0.012576 0.687704 -0.038967 -0.887475 -0.32933 -0.317643
0.063853 0.356064 -0.139063 -0.392695 -0.02071 -0.918902
0.111759 -0.399008 0.063918 -0.428314 -0.172147 0.884727
0.073968 -0.660397 -0.061492 -0.744898 -0.11111 -0.657604
0.035837 0.458048 -0.127757 -0.135373 0.042473 -0.989425
0.03454 0.672111 0.094611 0.036623 0.17041 0.976299
-0.162351 0.437181 0.042114 -0.303492 -0.533505 0.784705
-0.046229 -0.415402 -0.084537 0.145065 0.268733 -0.951371
-0.031241 0.305182 0.109492 -0.548632 0.117338 0.825216
0.061094 -0.507704 0.004798 -0.671986 0.001185 0.739943
0.095445 -0.129874 0.100237 -0.558427 -0.036708 0.828712
0.288121 0.475551 -0.034051 0.759683 0.445881 0.468314
0.201534 0.402473 -0.03243 0.959728 -0.273818 0.022744
0.01594 0.074342 0.136362 0.202724 0.058439 0.977369
0.145172 0.265841 -0.102164 0.826093 -0.112889 -0.552031
0.205768 -0.299256 0.009408 0.999247 0.005861 0.028963
0.18601 0.328935 0.011289 0.923621 -0.121871 0.36273
0.008458 -0.502624 0.026501 0.733564 -0.135334 0.66524
-0.130602 -0.393539 0.028212 -0.954623 0.216226 0.196219
0.113662 -0.868238 0.021111 -0.076862 -0.990133 -0.11178
0.110914 0.551535 -0.118557 0.167129 0.568285 -0.802282
-0.050813 -0.468324 0.071786 0.26378 -0.233929 0.934507
0.111916 0.266839 0.102655 0.413699 0.050746 0.907255
-0.170059 0.533756 -0.042299 -0.616725 0.716057 -0.321157
0.080346 0.417607 -0.143355 -0.221017 0.037626 -0.973668
0.196531 -0.387132 -0.045984 0.899055 0.00259 -0.43694
0.172653 0.026087 0.093162 0.626244 0.15184 0.763334
-0.143437 -0.048333 0.006702 -0.999499 0.024978 -0.002214
0.072706 -0.173637 0.084994 -0.535603 -0.043395 0.843262
0.2054 -0.24822 0.00311 0.999827 0.00109 0.002517
-0.515116 0.123292 0.083722 -0.380425 0.64089 0.534228
-0.104401 -0.708145 -0.094208 -0.71911 -0.009487 -0.693586
0.00902 -0.099085 0.117767 0.5461 -0.23522 0.799677
0.097618 0.813452 -0.033054 0.952213 0.299886 -0.01947
0.555011 0.103424 0.03623 -0.844597 -0.438493 0.301747
0.041794 0.407921 -0.130822 -0.312019 0.038994 -0.945876
-0.093144 0.433511 -0.120155 -0.24939 -0.152624 -0.95621
-0.070164 -0.749711 0.029181 -0.019693 -0.098839 0.988054
0.078762 -0.326876 -0.088376 -0.628628 -0.023696 -0.777171
0.119642 0.582637 -0.084868 0.337414 0.824599 -0.453015
0.069637 0.472558 -0.136988 -0.270845 0.123989 -0.954253
-0.041219 -0.419929 0.081463 0.237244 -0.188196 0.95275
0.10606 -0.636204 0.033221 -0.470609 0.057867 0.869753
-0.098104 -0.861275 0.008675 -0.332213 -0.922745 -0.086238
0.176438 -0.219262 -0.071176 0.605917 -0.001009 -0.795263
0.156294 0.261183 -0.081588 0.861301 -0.085109 -0.500523
0.191011 0.381828 0.017313 0.940745 -0.14922 0.299253
-0.045996 0.188029 -0.103978 -0.456095 -0.241777 -0.855994
-0.090767 -0.406094 -0.06978 -0.573365 -0.018746 -0.819031
0.249449 0.492239 -0.002806 0.591439 0.219841 0.77572
0.008014 0.206002 0.129019 -0.074472 0.066142 0.994979
-0.051045 0.010978 0.129095 -0.254908 0.21717 0.940707
-0.016025 0.698887 -0.045306 -0.784405 -0.48948 -0.375961
0.133436 0.311578 0.086523 0.67338 0.058596 0.733261
-0.282058 0.3949 -0.07279 -0.633227 0.499208 -0.550782
0.028007 0.79374 -0.119002 -0.09 0.247091 -0.961936
0.050146 -0.34678 -0.053563 -0.837127 -0.070481 -0.541866
0.106865 -0.003247 0.128218 0.317697 -0.215798 0.922936
0.329036 0.437902 -0.081517 0.794773 0.590356 0.110691
0.175412 0.415372 0.048933 0.593998 0.00252 0.803283
0.277034 0.338939 -0.089082 -0.62714 -0.767013 -0.119777
-0.192107 0.505376 0.022361 -0.653481 0.596555 0.465055
-0.032987 0.833224 -0.049539 -0.719919 0.622978 -0.291588
0.01168 -0.721474 -0.078752 0.738626 0.10697 -0.665254
0.115529 0.28042 -0.133877 0.476909 -0.04345 -0.874472
-0.112769 -0.689758 -0.087497 -0.658583 -0.10934 -0.74381
-0.192673 0.491952 -0.062543 -0.607438 0.508246 -0.61046
-0.187012 0.357035 -0.013634 0.523351 -0.778975 0.338778
0.066974 0.186199 -0.118694 -0.109434 -0.03739 -0.989221
0.465312 0.236595 -0.016706 -0.198618 0.489662 0.841101
-0.142314 -0.153224 4.8e-05 -0.970549 -0.101215 -0.217199
0.121765 0.118777 -0.117059 0.511131 0.335857 -0.790775
0.057831 -0.001282 -0.154247 -0.201297 -0.11582 -0.972195
0.190215 0.1757 0.004032 0.980578 0.189835 -0.002858
-0.070427 -0.863618 0.115511 -0.01874 -0.999689 0.015968
-0.105607 -0.41087 -0.058029 -0.688144 0.051805 -0.719662
0.279737 0.461315 -0.119505 0.412902 0.605173 -0.6799
0.199585 0.393188 -0.086612 0.956447 -0.271901 -0.08888
0.009035 -0.108063 0.114302 0.577349 -0.294933 0.760489
-0.013286 0.673884 0.018072 -0.803295 -0.584089 0.059738
0.190222 0.170556 -0.011288 0.962567 0.209458 -0.147897
0.175163 -0.400439 -0.07099 0.652088 0.099799 -0.751043
0.026726 -0.669983 -0.030686 0.990536 -0.070366 0.102309
-0.130216 0.061642 0.033247 -0.921913 0.33128 0.198374
0.002498 0.862155 0.005396 -0.346895 0.920907 0.071467
-0.007344 0.030307 0.137313 -0.158911 0.158321 0.974504
-0.120231 -0.441478 -0.051958 -0.75324 0.24799 -0.608444
0.093125 -0.023976 -0.152535 0.062748 -0.24648 -0.966416
0.557007 0.095042 -0.011205 -0.732316 -0.670177 -0.096188
0.30297 0.467608 -0.069241 0.80202 0.592216 0.023865
-0.063203 -0.799862 0.05312 -0.175243 0.821198 0.530506
0.314002 0.315619 -0.114785 -0.55941 -0.666439 -0.489311
0.043211 0.372567 0.106927 0.103089 0.247954 0.958686
0.008889 0.833561 -0.091082 -0.260551 0.730914 -0.629931
0.057818 -0.228584 0.067186 -0.702448 -0.133977 0.698447
-0.126144 -0.324246 0.039144 -0.992542 -0.031696 0.116957
0.00897 0.684933 0.081383 -0.63466 0.022662 0.767883
-0.236955 0.377311 -0.097219 0.041169 0.067592 -0.99603
0.042751 -0.261558 0.027349 -0.991479 -0.018016 0.128443
0.1228 -0.677661 0.030521 0.115599 -0.07931 0.989173
0.001131 -0.571424 -0.066215 0.764211 -0.027577 -0.644305
-0.113736 -0.671999 -0.088871 -0.653384 -0.042864 -0.751735
0.360588 0.347423 -0.056872 0.584863 0.493449 0.640078
-0.064313 0.157654 -0.092899 -0.345849 0.246879 -0.901996
0.019962 -0.749708 -0.042179 0.971167 -0.20158 0.115657
-0.071023 -0.678321 -0.110034 -0.164399 0.121291 -0.976543
0.133735 -0.869794 0.055196 0.020396 -0.999401 -0.018794
-0.020552 -0.323021 -0.077447 0.683037 -0.09567 -0.724016
0.021317 -0.420758 -0.000958 0.997589 0.021631 0.013407
-0.08011 -0.777353 -0.125939 -0.599466 0.256406 -0.755857
-0.087968 0.061281 -0.103978 -0.713477 0.14314 -0.68535
0.180779 0.329196 -0.066957 0.830903 -0.354141 -0.427145
-0.140009 -0.108433 0.046008 -0.945343 0.001551 0.325917
-0.508613 0.135489 0.004708 -0.921754 0.312291 -0.182153
0.122375 -0.064849 -0.134537 0.237639 -0.28489 -0.927916
-0.527395 0.114143 0.051822 -0.816392 0.576996 0.002129
-0.094301 0.496268 -0.115017 -0.353172 0.303454 -0.884312
0.167489 0.507835 0.031965 0.489165 0.439478 0.74854
-0.017154 0.82674 0.026124 -0.755558 0.383687 0.526267
-0.082458 0.431372 0.080216 -0.586402 0.128621 0.799272
-0.138947 -0.461989 -0.016166 -0.993166 0.04256 -0.104151
0.01355 -0.282726 0.076321 0.804681 -0.090016 0.585938
-0.041087 -0.340146 0.0964 0.257527 -0.100256 0.960748
-0.037084 -0.610817 0.02936 0.338063 -0.111124 0.933484
0.561299 0.093315 0.038292 -0.829007 -0.514272 0.213675
-0.095199 0.127532 0.0749 -0.670396 0.049497 0.74013
0.197361 -0.202494 0.050963 0.945559 -0.046818 0.321027
0.1371 0.09071 0.098194 0.58074 0.161066 0.794508
0.093894 -0.779964 0.039058 -0.152368 0.859918 0.487078
-0.363836 0.210274 -0.056993 0.457828 -0.735623 -0.495186
-0.117251 -0.288398 0.089993 -0.813666 -0.048669 0.578778
0.627479 0.06482 0.080868 0.861041 0.490175 0.114901
-0.11526 -0.777022 -0.014273 -0.869037 -0.041652 0.490772
0.184706 -0.426064 0.056559 0.823682 -0.038736 0.564487
-0.066685 -0.835434 0.154846 0.215736 0.819775 0.506838
0.140549 0.499712 0.046765 0.356638 0.525082 0.772473
-0.085044 -0.35211 -0.076392 -0.523154 0.010785 -0.851907
0.196017 0.388311 -0.00092 0.967846 -0.120215 0.219146
0.200605 0.53395 0.001605 0.253395 0.63743 0.727264
0.086334 -0.708065 -0.074948 -0.799976 -0.02624 -0.59689
-0.011691 0.433143 -0.129449 0.079289 -0.011827 -0.996654
0.126209 0.065838 0.106369 0.077739 0.203487 0.973826
0.478614 0.21995 -0.073539 0.264479 -0.295877 -0.916122
0.216553 0.552505 -0.045831 0.52902 0.832968 0.07783
0.040715 0.468444 0.083441 0.135682 0.346437 0.928043
0.189861 -0.546987 0.02589 0.883259 -0.060693 0.458368
-0.081185 -0.826807 0.098573 -0.235821 0.961079 0.116881
0.023355 -0.554046 -0.025443 0.90089 0.163549 -0.400135
-0.127458 0.377869 -0.046167 -0.982656 -0.172867 -0.001507
0.009369 0.186692 -0.116971 0.139442 -0.133335 -0.980208
-0.10781 -0.248213 0.102329 -0.607432 -0.023257 0.78903
-0.129221 -0.615621 -0.034399 -0.998837 -0.029145 0.03522
-0.005027 0.148238 -0.112422 -0.191581 0.278571 -0.939487
0.177505 -0.05187 -0.089192 0.814267 -0.108065 -0.569972
0.002498 -0.047365 -0.127323 0.044378 -0.554169 -0.830922
0.172362 -0.741388 0.004278 0.332377 0.741261 0.5806
0.004126 0.415474 -0.12833 0.062523 0.024505 -0.997544
-0.111598 -0.766358 -0.010065 -0.699641 0.017778 0.628952
-0.02574 -0.55829 0.03802 0.433753 -0.235108 0.86952
0.026243 0.08767 -0.141789 -0.162282 0.246869 -0.955252
-0.13567 -0.472659 -0.03409 -0.943787 0.045858 -0.319608
-0.131818 -0.267913 0.041877 -0.976441 -0.182431 0.099226
-0.093342 -0.094403 -0.089069 -0.67511 -0.137986 -0.723633
0.086269 -0.827947 -0.029545 -0.766569 -0.609726 -0.001973
0.577123 0.072 -0.016509 -0.730624 0.255659 -0.419443
-0.130106 -0.589841 -0.029676 -0.985969 -0.097114 0.129951
-0.004963 0.689671 0.063474 -0.784343 -0.222115 0.571996
0.177238 -0.488933 -0.083533 0.706909 0.020928 -0.706745
-0.069855 0.380375 0.092757 -0.565483 -0.030375 0.82229
0.174651 -0.054203 0.089752 0.686771 0.022572 0.72652
-0.001219 -0.529272 0.028609 0.651904 -0.15459 0.742051
-0.020987 0.174034 0.122611 -0.449152 0.008766 0.89295
0.192365 0.110178 -0.029469 0.921045 0.1188 -0.362237
0.205478 -0.227499 0.01788 0.995705 -0.044748 0.074839
0.32795 0.313616 -0.051295 -0.517061 -0.575238 0.633185
0.590984 0.122108 0.035866 0.727253 0.685714 0.010974
0.190483 0.33831 0.000263 0.977225 -0.093188 0.187781
-0.027582 -0.180188 -0.089202 0.414255 -0.019617 -0.908463
0.156122 0.445456 -0.141429 0.237041 -0.135164 -0.961909
0.045321 -0.032669 0.131881 0.185881 -0.161242 0.967564
0.026811 -0.359582 -0.00284 0.99576 -0.028308 -0.07352
0.079379 -0.738479 -0.053467 -0.904107 -0.010854 -0.425936
0.158006 -0.831775 -0.094247 0.879081 -0.331847 -0.325254
-0.42269 0.172072 -0.046019 0.482247 -0.720365 -0.495899
-0.035704 -0.785466 -0.144988 0.148016 0.467484 -0.864349
0.108022 0.086477 -0.137483 0.457388 0.261092 -0.848716
0.012984 -0.173147 -0.052012 0.826853 0.05512 -0.559658
0.054787 0.192297 0.128527 0.098585 0.013564 0.994979
0.30113 0.320009 -0.088369 -0.700898 -0.713008 -0.00617
-0.026501 -0.774544 0.020867 0.660775 0.644286 0.379728
0.167 0.04662 -0.100175 0.776523 0.22769 -0.587251
0.10332 -0.86737 -0.038531 -0.242636 -0.949111 0.186826
0.624563 0.05569 0.108053 0.09654 0.292622 0.917644
-0.154701 0.547533 -0.035318 -0.506775 0.786297 -0.337674
-0.06585 -0.716183 -0.120704 -0.152322 0.278059 -0.943151
-0.024542 -0.613974 0.02483 0.220084 -0.173277 0.958247
-0.003653 -0.720929 0.006126 0.779756 -0.12337 0.612867
0.194815 -0.137225 -0.058231 0.76594 -0.028523 -0.642051
-0.12887 -0.259869 0.065612 -0.955924 -0.124466 0.261574
0.005127 0.394141 0.104844 0.047245 0.145917 0.987541
0.054472 -0.236644 0.061877 -0.7642 -0.164167 0.62366
0.213316 -0.068016 -0.001158 0.98667 0.06054 -0.141686
-0.183757 0.522573 0.006975 -0.702615 0.681471 0.203335
