-0.291399 0.379803 -0.045708 -0.957278 0.207067 -0.010096
-0.026935 0.25253 0.112452 -0.277288 0.011763 0.960681
-0.192924 0.349428 -0.045165 0.627208 -0.772753 -0.087418
-0.270171 0.368225 0.013942 -0.578837 0.057118 0.810511
0.26917 0.362359 -0.122867 -0.376437 -0.739094 -0.553032
-0.028084 0.593921 -0.020066 -0.647224 0.651682 0.393415
-0.130235 0.117465 0.011095 -0.987465 0.087098 0.12327
0.555011 0.103424 0.03623 -0.844597 -0.438493 0.301747
-0.335485 0.307903 -0.08954 -0.354075 0.331093 -0.869834
-0.025435 -0.297149 0.096222 0.304212 -0.138037 0.942289
0.032415 -0.016401 -0.143992 -0.189853 -0.335548 -0.921998
-0.016464 -0.423379 0.070963 0.554337 -0.210474 0.803559
-0.064598 -0.500054 0.068473 0.4102 -0.200609 0.889043
-0.130919 -0.386487 0.006172 -0.886085 0.426502 0.012409
-0.115969 0.170787 -0.035152 -0.862778 0.080076 -0.49673
-0.053925 -0.863128 0.126929 0.116386 -0.984905 0.09552
0.135464 -0.008349 0.114307 0.413341 -0.200896 0.885195
0.076679 -0.569631 -0.075529 -0.698423 -0.136661 -0.702347
-0.089654 0.520145 0.049016 -0.034146 0.49771 0.865218
-0.003575 0.169608 -0.115158 -0.145353 -0.161434 -0.970678
0.067462 0.861281 -0.029529 0.450448 0.867181 -0.137915
0.199604 0.049137 -0.034252 0.9686 0.081713 -0.234142
0.165026 0.497141 -0.133522 0.16082 0.295526 -0.941004
0.106852 -0.305885 -0.099428 0.015045 0.016019 -0.994056
-0.111972 0.384548 0.055815 -0.740843 -0.295086 0.601902
0.205519 -0.384259 -1.1e-05 0.996188 0.009109 0.086494
0.096294 -0.316829 0.075479 -0.33243 -0.116499 0.935675
0.082226 -0.022448 0.130507 0.112737 -0.087205 0.988633
0.191852 0.501197 -0.129534 0.080243 0.327224 -0.939963
-0.068045 -0.534963 -0.101785 -0.129226 0.070622 -0.986632
0.198848 -0.636864 -0.026393 0.9994 -0.014777 0.024393
0.043515 -0.404488 -0.011668 -0.989934 -0.07092 0.109865
0.201106 0.071103 -0.009809 0.980574 0.190627 -0.036029
-0.128026 0.182541 0.015444 -0.991913 0.046513 0.111881
0.221495 0.404937 -0.115603 -0.688911 -0.510907 -0.508416
0.478453 0.210151 -0.069503 0.230129 -0.524965 -0.813063
0.101062 0.043113 0.121669 0.348752 0.208601 0.912509
0.066825 -0.379486 -0.072417 -0.740503 -0.052718 -0.66903
-0.065262 -0.574631 -0.103491 -0.014275 0.02205 -0.998761
-0.120793 -0.380307 0.071092 -0.972169 -0.031926 0.226382
-0.395413 0.273259 -0.015508 -0.649602 0.691901 0.314934
0.620899 0.078388 0.064079 0.869724 0.4906 0.050229
0.623788 0.046015 0.090504 -0.867505 -0.492269 0.057289
0.097914 -0.857404 -0.10897 -0.761842 -0.053561 -0.637556
0.164842 -0.842414 0.116827 0.773466 0.627381 0.073846
-0.109725 -0.853761 0.080305 -0.827069 -0.516556 0.094829
0.252714 0.44267 -0.136411 -0.049709 0.226239 -0.968926
-0.075643 0.194034 -0.085526 -0.691417 -0.082723 -0.717035
0.021231 -0.731976 -0.0358 0.970619 -0.059892 0.231251
0.104047 0.42796 0.087184 0.217675 0.242524 0.944385
0.633188 0.023 0.058562 -0.409104 -0.905143 0.004873
-0.107666 0.307551 -0.078614 -0.810751 -0.118455 -0.572849
-0.273735 0.308976 -0.092698 0.398039 -0.267693 -0.87235
0.152887 0.494874 -0.136139 0.154501 0.268319 -0.950276
0.019811 -0.175757 -0.04002 0.928614 0.057696 -0.362195
0.057731 -0.6768 -0.035615 -0.856951 -0.124702 -0.500058
0.025412 -0.379704 0.015826 0.980915 -0.08308 0.171706
0.137501 -0.48282 -0.106033 0.211917 0.069135 -0.971907
0.207653 -0.144689 -0.031072 0.969488 -0.084807 -0.225805
-0.021699 -0.145709 -0.090498 0.528092 -0.224359 -0.817381
-0.009526 -0.748303 -0.005388 0.282338 -0.748296 0.597813
0.136119 -0.648832 0.032677 0.173633 0.006913 0.983285
0.064302 -0.346782 -0.072695 -0.77453 -0.075684 -0.627796
0.091289 -0.650832 0.028561 -0.488744 0.29595 0.820454
-0.12413 -0.39371 0.056191 -0.957015 0.09309 0.269051
-0.029979 0.711872 0.009059 -0.937331 -0.323001 0.037727
0.190289 0.150949 -0.022205 0.834952 0.07107 -0.537526
-0.045602 -0.478486 -0.095677 0.173257 0.10765 -0.977838
-0.132467 -0.151375 0.069887 -0.87221 0.039702 0.486772
-0.093609 -0.236066 0.109401 -0.340385 -0.038322 0.939158
0.155465 0.137371 -0.081943 0.768829 0.12313 -0.627366
0.038695 0.858344 -0.063319 0.062936 0.844897 -0.530598
-0.543454 0.094306 0.052015 -0.718427 0.694268 -0.023752
-0.166481 0.509296 0.043477 -0.468319 0.454351 0.755232
-0.112 0.436007 -0.113693 -0.416912 -0.166515 -0.892879
-0.026557 -0.370016 0.08774 0.322734 -0.158514 0.930673
0.094554 0.481915 0.071119 0.198592 0.475482 0.854662
0.181927 -0.076576 -0.079711 0.820705 -0.03972 -0.569276
0.190015 0.349842 -0.066073 0.866651 -0.384136 -0.314849
0.05856 -0.287608 -0.067571 -0.81529 0.002413 -0.578961
-0.017078 0.589715 -0.084669 -0.248233 0.689098 -0.675682
0.500572 0.179425 -0.051033 0.032065 -0.459641 -0.886777
0.211535 0.412928 -0.051608 -0.458375 -0.797533 0.107016
-0.125221 0.155569 -0.017792 -0.922452 0.054602 -0.37823
-0.073278 0.232343 -0.098853 -0.672976 -0.289862 -0.679356
-0.018185 0.441284 -0.130177 0.086406 -0.029406 -0.995577
0.008729 0.863424 -0.005717 -0.091646 0.995629 0.008434
0.320022 0.447686 -0.069642 0.743009 0.641738 0.177656
0.026778 -0.579786 -0.01528 0.990837 0.032118 0.124341
-0.061861 0.583268 -0.040134 -0.429435 0.894858 0.031497
0.045976 -0.558455 -0.037352 -0.928416 -0.025614 -0.347945
-0.085391 0.327511 -0.10464 -0.591559 -0.088423 -0.800545
0.185242 -0.774266 -0.012763 0.935505 -0.33765 0.097196
0.168734 -0.064643 -0.100046 0.780216 -0.08055 -0.62028
0.103809 -0.329101 -0.100169 -0.089361 0.018237 -0.989263
0.003239 -0.785456 -0.10689 0.87018 0.198581 -0.444107
0.154083 -0.514567 0.058979 -0.016347 -0.251662 0.963225
0.061316 0.684776 -0.066073 0.548163 -0.415586 -0.719918
0.231282 0.392188 -0.038015 -0.608134 -0.699281 0.373454
-0.059532 0.348293 -0.121048 -0.391141 -0.032677 -0.919367
-0.125542 0.472994 -0.106097 -0.432684 0.135582 -0.890764
-0.089909 -0.000821 0.11633 -0.552897 0.109174 0.815949
-0.056002 -0.103367 -0.108147 -0.154804 -0.20449 -0.965567
-0.570223 0.02744 0.030441 -0.10945 -0.977029 0.08753
-0.07098 -0.24513 0.112397 -0.053482 -0.068943 0.996024
0.126554 -0.580144 0.039424 -0.217462 -0.234326 0.947118
0.019732 0.509139 0.065125 0.092515 0.497087 0.861453
-0.078598 -0.132532 -0.094951 -0.552077 -0.097666 -0.827694
-0.062614 0.28782 -0.118253 -0.452918 -0.048144 -0.889987
0.050788 0.148122 -0.120927 -0.130298 0.266694 -0.953937
0.020835 -0.65783 -0.006869 0.871304 -0.188496 0.452473
-0.102154 0.161231 -0.062358 -0.915896 0.109172 -0.353917
-0.091393 0.044952 -0.105663 -0.705684 0.243771 -0.665105
-0.121627 -0.236033 -0.028017 -0.879772 -0.024415 -0.47433
-0.112367 0.276159 -0.012896 -0.99894 -0.030122 0.026032
-0.110739 -0.813345 -0.056853 -0.811079 -0.574673 -0.009925
0.205325 -0.242961 -0.005887 0.999473 -0.021941 -0.020828
0.052212 -0.694877 -0.002797 -0.998639 -0.01665 0.028608
0.128615 -0.556636 -0.107355 -0.01284 -0.09294 -0.989431
0.198646 0.081583 -0.000313 0.973386 0.222651 0.049197
0.013299 0.672246 0.086138 -0.654293 -0.062662 0.751901
0.346471 0.306099 -0.127978 -0.296667 -0.428191 -0.844414
0.091747 0.32733 0.104165 0.259324 0.091927 0.961241
-0.107502 -0.090981 0.10126 -0.680789 0.081015 0.727631
0.033088 -0.290875 -0.016003 -0.984544 -0.133281 -0.108451
-0.012525 0.633206 -0.020301 -0.981162 0.159609 0.065075
0.486077 0.195888 0.007986 0.558435 0.671347 0.43537
0.059094 0.34059 0.111961 0.211915 0.180894 0.959091
-0.294626 0.365387 -0.015017 -0.769088 0.558887 0.292124
0.082345 0.677141 -0.03064 0.976697 -0.116686 -0.168576
0.022553 -0.435797 0.007933 0.963984 0.149216 0.215205
-0.118402 -0.534225 0.023484 -0.855093 -0.098735 0.508778
0.067984 0.145251 0.128088 0.238096 0.034701 0.967858
-0.059749 -0.601258 -0.10368 0.113059 0.034968 -0.991702
0.100245 -0.577005 0.032021 -0.387601 -0.151759 0.908678
0.004664 -0.074564 -0.104805 0.329075 -0.629811 -0.697354
0.199194 0.389878 -0.052353 0.993627 -0.109211 0.01721
0.19171 -0.477827 0.026323 0.966628 -0.008511 0.255488
0.019464 -0.646459 -0.055308 0.667854 0.171368 -0.723939
0.165108 0.004225 -0.108857 0.821307 0.104191 -0.559541
0.160879 -0.831665 0.04013 0.92885 0.358277 0.042494
-0.527395 0.114143 0.051822 -0.816392 0.576996 0.002129
-0.112416 -0.126493 0.099486 -0.692277 0.041219 0.719895
0.186833 -0.101279 0.080526 0.721907 0.011671 0.691879
-0.128026 0.139273 0.009823 -0.992333 0.049339 0.104427
-0.010837 0.403816 0.104858 0.01663 0.122867 0.991561
0.166318 0.013443 -0.105806 0.709804 0.014704 -0.676136
-0.108343 0.458499 0.062913 -0.166721 0.038504 0.98414
-0.080791 -0.861423 -0.105329 -0.18155 -0.973861 -0.110433
0.187142 0.547222 -0.005348 0.235725 0.707058 0.666236
-0.113737 0.141001 -0.047397 -0.887879 0.134142 -0.439826
-0.008124 0.442852 -0.129362 0.10155 -0.006782 -0.994772
-0.043695 0.576698 -0.087572 -0.394284 0.661283 -0.635537
-0.076842 0.240402 0.083898 -0.617625 0.055242 0.784425
0.183026 -0.768857 0.00735 0.898125 -0.184585 0.384492
-0.026073 0.407748 -0.129751 -0.007648 -0.014163 -0.999703
0.252516 0.495789 -0.108781 0.497444 0.570127 -0.653496
-0.020731 0.750836 0.050592 -0.799813 0.145976 0.580819
-0.029301 -0.668198 0.024088 -0.206486 -0.022208 0.972996
0.064235 -0.345166 0.049997 -0.694278 -0.241991 0.675452
-0.075924 0.220054 -0.090276 -0.754871 -0.236495 -0.610973
-0.116622 0.338582 -0.074727 -0.878083 -0.207602 -0.427669
-0.063491 -0.681987 0.022232 0.239718 -0.359928 0.90134
0.313857 0.364004 -0.034028 0.363767 -0.244914 0.882142
-0.008859 0.007626 -0.143172 -0.169995 -0.193267 -0.966006
0.185615 0.303917 -0.028772 0.926533 -0.316343 -0.195937
-0.001794 0.762915 0.068808 -0.361183 -0.220658 0.883096
0.207038 0.022099 0.016066 0.999392 0.030886 0.01411
0.104934 -0.516933 0.036052 -0.547772 0.014641 0.833925
0.017602 -0.636831 -0.054771 0.68257 0.148752 -0.715282
0.027729 0.009219 0.142885 -0.010918 0.128347 0.991617
-0.024292 -0.834288 0.040916 0.975483 0.089622 0.082832
0.001036 -0.83009 -0.080233 0.582817 -0.757178 -0.052895
0.007845 0.82041 0.063834 -0.495281 0.464799 0.733628
0.290134 0.33063 -0.078228 -0.614164 -0.784536 0.058994
-0.102454 -0.168266 0.109441 -0.650553 -0.020315 0.757743
-0.03339 0.497612 0.070271 -0.150801 0.491479 0.857655
0.277891 0.494059 -0.041098 0.73411 0.591054 0.330227
-0.034509 -0.852206 -0.131614 0.525631 -0.515642 -0.649101
0.035212 0.230806 -0.125855 -0.045067 -0.048385 -0.99548
-0.118411 -0.596619 -0.080103 -0.687459 0.043556 -0.723476
0.105421 -0.43917 0.04562 -0.613838 -0.382867 0.690285
0.205945 0.024878 -0.016043 0.991 0.03763 -0.123226
-0.134253 -0.4284 0.026609 -0.96544 -0.02366 0.252951
-0.03652 -0.855242 -0.026867 0.548526 -0.827816 -0.086247
0.088403 0.188366 0.118012 0.449381 0.024734 0.891399
-0.128046 -0.37382 -0.020399 -0.994374 0.015008 -0.097577
0.08144 0.730642 -0.083862 0.686398 -0.418906 -0.593565
-0.128301 -0.027539 0.070026 -0.870327 0.097521 0.482434
-0.024761 -0.849182 -0.007991 0.749797 -0.641799 -0.127324
0.063574 -0.696002 0.029398 -0.569491 0.289345 0.7594
0.007915 -0.722654 -0.009501 0.791664 0.001039 0.610764
-0.339242 0.3201 -0.010057 -0.600223 0.52408 0.597216
0.187147 0.032154 0.075579 0.802494 0.205291 0.56009
-0.089507 -0.828816 0.091637 -0.553859 0.823882 0.114079
-0.061263 -0.440269 -0.090411 -0.092363 0.258438 -0.960835
-0.183168 0.361724 -0.061775 0.628512 -0.720534 -0.292285
0.067637 0.002604 0.140004 0.211073 -0.077043 0.967522
-0.536623 0.066672 0.05509 0.365146 -0.928537 0.02393
-0.113109 -0.792955 -0.080377 -0.93842 -0.102791 -0.318291
0.214081 -0.1048 -0.00813 0.995052 0.03117 -0.090082
0.135375 -0.373688 0.07595 -0.093724 -0.163048 0.979535
-0.120833 0.533253 0.039657 -0.061236 0.631897 0.772189
-0.114618 -0.656458 -0.088684 -0.659367 0.004448 -0.748828
-0.072587 0.106883 -0.104176 -0.555836 0.283972 -0.780685
0.163007 -0.836943 -0.029092 0.985325 0.168312 0.012644
0.200521 -0.341803 0.03052 0.932927 -0.09331 0.346986
-0.396009 0.264505 -0.001959 -0.489431 0.669239 0.554837
0.161491 -0.287815 -0.070575 0.580381 -0.096443 -0.808253
0.082717 0.813851 0.039684 0.866938 0.324568 0.374857
-0.080688 -0.056411 0.117434 -0.565469 -0.014379 0.823684
0.189948 0.560586 -0.069465 0.395789 0.845547 -0.32667
0.103473 0.516217 -0.134639 -0.037984 0.353261 -0.93298
0.21024 -0.127473 -0.026226 0.915483 -0.047572 -0.396372
0.264826 0.408613 -0.013791 -0.074483 -0.241055 0.966728
-0.110346 0.121549 -0.058667 -0.850355 0.070229 -0.518524
-0.007919 -0.380753 0.07676 0.588752 -0.22559 0.775575
-0.07854 0.225676 0.083967 -0.595825 0.118869 0.794187
-0.113841 -0.440464 -0.059221 -0.725615 0.249435 -0.640408
0.075403 -0.5841 0.01561 -0.702677 -0.089873 0.705559
0.132169 0.539651 -0.121549 0.176901 0.476272 -0.86107
-0.082982 -0.508846 -0.095506 -0.341294 0.091552 -0.932187
-0.076454 0.287864 -0.108904 -0.638375 -0.05169 -0.767886
0.086115 -0.857901 0.124902 -0.914283 0.289765 0.281155
0.195738 -0.518097 -0.058883 0.865638 0.028756 -0.494766
-0.002333 -0.056645 0.1287 0.132212 -0.158414 0.978019
-0.023423 -0.567859 0.034672 0.406295 -0.223378 0.885957
0.040692 0.545759 -0.116262 -0.179124 0.42551 -0.885625
0.131352 -0.129681 0.11127 0.133265 -0.089012 0.986712
0.214256 -0.124516 0.004886 0.997735 -0.057223 0.022101
0.098501 -0.83849 0.142 -0.864959 0.445605 0.21369
0.12849 -0.031721 0.117214 0.410682 -0.057293 0.909957
0.191378 0.012062 0.074838 0.84699 -0.016305 0.512176
0.183798 0.032104 -0.077417 0.88035 0.046469 -0.471476
-0.121114 0.194351 0.032313 -0.92675 0.098595 0.359315
0.475573 0.224759 -0.00637 -0.294084 0.316719 0.874571
0.062911 -0.307559 -0.073358 -0.787403 -0.009148 -0.616305
0.000567 -0.13285 -0.073211 0.793951 -0.172734 -0.582893
0.025467 -0.614768 -0.007091 0.946887 -0.013563 0.313612
0.034946 0.86248 -0.053671 0.000535 0.959688 -0.277254
-0.129548 0.039878 0.057023 -0.886889 0.230381 0.399491
-0.185477 0.378386 0.01347 0.423996 -0.577922 0.696525
0.12109 -0.825784 0.146592 -0.021325 0.990769 0.093694
0.205425 -0.171784 0.02743 0.976154 -0.036806 0.207659
-0.171529 0.365123 -0.024018 0.665782 -0.731152 0.142942
0.162549 0.334341 -0.097871 0.701037 -0.3143 -0.63964
-0.075738 -0.659732 -0.107608 -0.133254 0.036146 -0.988157
-0.048259 -0.862837 -0.083082 0.044824 -0.997185 0.054484
0.169978 -0.441684 0.067258 0.378334 -0.0956 0.917511
0.043311 -0.40771 -0.029107 -0.998568 -0.030087 -0.035415
0.083021 0.13169 -0.127437 0.152621 0.323452 -0.933152
-0.518739 0.111537 0.091455 0.020514 0.173048 0.856934
0.083274 -0.824261 -0.071547 -0.57946 -0.804097 -0.115957
-0.035129 0.801236 -0.064915 -0.987596 -0.004116 -0.147566
0.103825 -0.837522 -0.112303 -0.52414 -0.042841 -0.849979
0.126809 -0.84483 -0.117132 0.338345 0.14072 -0.923374
0.017206 -0.373186 0.043519 0.88045 -0.115043 0.443856
0.043449 -0.0216 0.134692 0.077497 -0.220281 0.967699
0.020411 -0.32219 -0.028611 0.920923 -0.002172 -0.389502
-0.036463 -0.859062 -0.068718 0.560532 -0.805027 0.191219
0.12751 -0.285652 -0.093784 0.401261 -0.026096 -0.915258
-0.068242 -0.097443 0.121269 -0.250106 -0.001776 0.968209
-0.037632 -0.240991 -0.091642 0.195435 0.044775 -0.978894
0.198205 -0.006712 0.057048 0.877291 -0.067104 0.464782
0.100768 -0.527975 -0.101257 -0.527052 -0.037537 -0.84883
-0.183638 0.458008 0.044933 -0.119678 -0.042035 0.988522
0.573225 0.141225 0.037478 0.800627 0.581675 0.137815
0.115885 0.100298 -0.128924 0.508951 0.286701 -0.811001
0.500783 0.228105 -0.036849 0.662422 0.745834 0.060208
-0.081154 -0.232109 -0.083199 -0.576691 -0.034157 -0.815363
0.077023 -0.155098 -0.10376 -0.429789 -0.210171 -0.877919
0.100412 -0.518132 -0.101283 -0.542605 -0.018504 -0.839573
0.202612 -0.419536 -0.015657 0.980805 -0.162047 -0.105714
0.032786 0.113298 -0.134772 -0.121775 0.403043 -0.9055
0.109989 0.244826 0.104716 0.390413 0.057794 0.917204
0.177701 0.126488 -0.04958 0.852457 0.232215 -0.465637
0.030347 0.350901 -0.127622 -0.135092 -0.051721 -0.988952
-0.033834 -0.467174 0.06692 0.262333 -0.276344 0.924188
-0.095796 -0.249424 0.10828 -0.296952 -0.020003 0.951613
-0.076704 0.284344 0.081138 -0.52662 0.003527 0.8423
0.025467 -0.020526 0.132002 -0.23314 -0.484362 0.814817
-0.128345 -0.316791 1.5e-05 -0.999818 -0.008581 -0.0164
0.076607 0.54707 0.033489 -0.232193 0.739411 0.626419
0.087371 0.082086 -0.146944 0.230136 0.320746 -0.916935
-0.249681 0.324835 -0.083664 0.59125 -0.49427 -0.636635
0.025817 -0.617579 -0.039936 0.934863 0.083492 -0.332206
-0.122771 -0.093692 0.0832 -0.80807 0.034664 0.587433
0.154772 -0.374288 0.075292 0.131818 0.004211 0.990322
0.292282 0.413571 -0.016044 0.472875 0.11558 0.872887
-0.055993 0.40355 0.096892 -0.247474 0.129257 0.959542
0.112876 -0.711504 -0.095331 -0.227293 0.099385 -0.961704
-0.084591 0.130979 0.084143 -0.669862 0.024042 0.741965
0.198389 0.368137 -0.05655 0.996254 -0.073656 -0.029232
0.356096 0.317682 -0.133558 0.000779 -0.143834 -0.988291
0.158631 -0.042357 -0.11698 0.701747 -0.168118 -0.690608
-0.269059 0.284537 -0.071897 0.667503 -0.565839 -0.481203
0.40741 0.252534 -0.033281 -0.257046 -0.012413 0.956343
-0.128848 0.558482 -0.000976 -0.220122 0.953867 0.196498
-0.037056 -0.007746 0.142621 -0.278431 -0.087582 0.952014
-0.033642 0.735674 -0.0028 -0.931619 -0.208921 0.291371
0.069905 0.595605 0.012389 0.625856 0.007995 0.779631
-0.071748 -0.314505 -0.084787 -0.452701 -0.041766 -0.888904
0.063276 -0.335212 0.051984 -0.728536 -0.194468 0.656775
0.206089 -0.222962 0.009129 0.998232 -0.042462 0.039641
0.128165 -0.247163 0.086632 0.111664 -0.153732 0.981534
-0.020569 0.018537 0.136794 -0.183299 0.130928 0.97412
0.008652 -0.762311 -0.02447 0.696228 -0.248533 0.668393
-0.049207 -0.6033 -0.101746 0.318868 0.032084 -0.946516
0.001255 -0.792323 -0.020439 0.876257 -0.170063 0.446241
0.039983 0.735761 0.105803 0.418256 0.124026 0.839287
-0.358171 0.272612 0.005709 0.02014 0.232696 0.971943
0.089794 -0.52744 0.027876 -0.548479 0.039895 0.834022
-0.125731 0.403776 0.040063 -0.811618 -0.49575 0.297298
0.078582 0.466102 0.080749 0.106273 0.342279 0.931188
-0.353413 0.284334 -0.088237 -0.276965 0.111628 -0.949637
0.062674 -0.727588 0.03574 -0.358452 -0.053479 0.928691
0.024053 -0.693895 -0.029964 0.917365 -0.160746 0.360419
0.049021 0.476009 -0.129355 -0.258598 0.084404 -0.959485
0.010531 -0.527283 0.01788 0.703992 -0.170323 0.689182
0.142517 -0.869061 0.04457 0.155754 -0.980809 -0.043612
0.186412 -0.767125 -0.032284 0.943847 -0.078205 -0.281234
0.198512 -0.351537 0.032603 0.934924 -0.108073 0.336404
0.156165 -0.571434 -0.09723 0.490271 -0.072411 -0.868464
-0.290161 0.347453 0.003608 -0.442342 0.236203 0.860361
0.543685 0.122715 0.001014 -0.855515 -0.505609 -0.008241
0.564528 0.154372 -0.005705 0.849947 0.443712 -0.269119
-0.129639 0.517299 0.04957 -0.099497 0.474258 0.872944
-0.564025 0.054558 0.060721 -0.982386 0.166172 0.073096
0.109877 0.169844 0.108769 0.543182 0.058469 0.836379
-0.223497 0.476273 -0.027036 -0.850436 0.518803 -0.060108
-0.072511 -0.509589 -0.098222 -0.189326 0.083753 -0.977786
0.142687 -0.466287 -0.102998 0.232319 0.102969 -0.964731
-0.046998 0.197528 -0.106501 -0.51555 -0.303356 -0.800404
-0.047977 0.306512 0.098284 -0.404582 0.023934 0.913336
-0.019832 0.341037 0.107817 -0.430694 0.127924 0.888258
-0.112787 0.173204 0.050231 -0.854047 -0.004788 0.518345
0.095362 -0.374123 -0.097164 -0.4368 -0.060099 -0.893439
-0.059875 0.045344 0.115827 -0.39262 0.214763 0.890352
-0.235952 0.31601 -0.022345 0.72288 -0.665827 0.17743
0.138502 0.363262 -0.129152 0.587942 -0.205189 -0.781716
-0.135077 0.422985 -0.093244 -0.386428 -0.603065 -0.676532
-0.257447 0.427133 -0.017932 -0.751627 0.624967 0.210845
0.132871 0.582305 -0.072328 0.323512 0.912106 -0.246089
0.088059 -0.328627 -0.094929 -0.445621 -0.004631 -0.893594
-0.122166 0.398489 -0.090863 -0.799322 -0.257881 -0.539011
0.196935 -0.640289 -0.050514 0.925075 -0.079075 -0.345282
-0.110269 -0.739572 -0.00914 -0.33523 0.314938 0.87692
-0.128153 -0.624594 -0.06549 -0.975868 0.003149 -0.196469
0.582293 0.12972 0.050868 0.708805 0.699691 0.082819
0.166698 -0.847704 0.014223 0.972463 0.097135 -0.127874
0.022772 0.577485 0.026686 -0.122364 0.040289 0.991053
0.054277 -0.728162 0.014827 -0.983539 -0.153348 0.079231
-0.143636 -0.123111 0.029742 -0.993873 0.004277 0.107224
-0.371685 0.303057 -0.046736 -0.688433 0.725076 -0.011166
0.232385 0.436013 0.006558 0.544483 -0.346041 0.745834
0.265156 0.460582 -0.126832 0.27461 0.515354 -0.811029
0.050889 0.351132 0.111846 0.174261 0.189902 0.96516
-0.081166 -0.857638 0.150648 -0.37993 -0.681944 0.542709
0.195742 -0.477583 -0.057385 0.876685 0.032407 -0.473514
0.630579 0.034271 0.049489 -0.922356 -0.34615 -0.022913
0.134616 -0.305906 -0.089576 0.536879 0.006905 -0.842594
0.126043 0.201475 -0.104756 0.558481 -0.20588 -0.801815
0.166925 0.57154 -0.039428 0.469654 0.814945 0.305842
-0.101811 -0.583687 -0.092223 -0.54403 0.051964 -0.837281
0.200398 -0.396616 0.018412 0.944764 -0.049628 0.323096
-0.076284 -0.184911 -0.08788 -0.52054 -0.097952 -0.845042
0.109144 -0.354709 0.073464 -0.317027 -0.226394 0.919828
-0.058694 0.499903 0.064525 -0.152517 0.411383 0.89835
0.095567 -0.6331 -0.084765 -0.618192 -0.035152 -0.785134
0.053218 -0.71753 0.009077 -0.997608 -0.046503 0.042978
-0.147266 0.392699 -0.044854 0.717496 -0.676229 -0.164629
0.217526 0.404326 -0.043858 -0.817369 -0.539738 0.194075
-0.093249 -0.046822 0.110019 -0.601623 -0.035707 0.797615
0.154159 -0.823838 0.062409 0.670932 0.72003 0.169118
0.586258 0.047146 0.031538 0.570563 -0.788359 0.167661
-0.021535 0.817115 0.023775 -0.866823 0.261246 0.423136
-0.176824 0.526445 -0.045009 -0.599552 0.705224 -0.373569
0.011562 -0.457066 0.031445 0.801295 -0.060591 0.595057
-0.137478 0.019118 -0.0184 -0.984664 -0.005525 -0.168635
0.196987 -0.175344 0.057599 0.960072 -0.050423 0.273181
-0.123426 -0.426314 0.055434 -0.878589 -0.14474 0.454376
0.103772 -0.05051 0.123241 0.201197 -0.234758 0.946528
-0.488095 0.103885 0.038953 0.85183 -0.520537 -0.02869
0.012943 -0.599507 -0.053016 0.752232 0.072826 -0.654593
-0.493414 0.137855 -0.023795 -0.321167 -0.585746 -0.66001
0.063853 -0.175059 -0.090123 -0.655962 -0.158064 -0.737538
-0.040136 -0.252596 -0.092733 0.173265 0.03979 -0.982909
-0.092188 0.236354 0.072342 -0.636982 0.141177 0.757166
0.450436 0.28285 -0.059293 0.58073 0.727806 0.336995
0.180542 0.023738 -0.084037 0.817089 0.012289 -0.572899
-0.121902 0.358637 -0.049588 -0.980917 -0.189921 -0.0167
0.036857 0.440613 0.091544 0.159497 0.184007 0.968588
0.079789 -0.358367 0.057437 -0.50789 -0.328182 0.796294
-0.129821 -0.604912 -0.047131 -0.998818 -0.043611 -0.016881
-0.028404 0.770053 0.030364 -0.914485 0.046567 0.397003
-0.118102 -0.614934 0.015974 -0.901062 0.08182 0.425458
-0.110568 -0.812054 -0.03642 -0.849472 -0.513598 0.115807
0.007352 0.020121 0.141367 -0.095566 0.166525 0.98097
0.18175 -0.789071 -0.027217 0.934112 -0.347666 0.075034
0.189638 0.172786 0.019216 0.964509 0.187118 0.171991
0.012984 -0.173147 -0.052012 0.826853 0.05512 -0.559658
0.164615 -0.469265 -0.093222 0.563639 0.146502 -0.811776
-0.028196 -0.85488 -0.122862 0.699959 -0.442849 -0.472361
0.12989 0.103092 0.101116 0.521359 0.108737 0.845898
-0.129172 -0.280656 0.042838 -0.988024 -0.139606 0.0602
-0.121283 -0.28613 -0.029481 -0.830399 0.031672 -0.554689
0.249714 0.392097 -0.132624 -0.439791 -0.279041 -0.852977
-0.183701 0.388166 0.019337 0.29266 -0.476637 0.827514
-0.136093 -0.149561 0.06095 -0.960632 0.010432 0.276191
-0.417636 0.250061 -0.032665 -0.769199 0.638699 -0.004774
-0.374308 0.195071 -0.029589 0.623393 -0.77625 -0.040727
0.098572 -0.626027 0.029771 -0.662092 -0.254514 0.700706
0.16341 -0.117275 0.1026 0.504483 -0.028971 0.862201
-0.134621 0.402237 -0.059319 -0.161454 -0.919304 -0.187908
0.097798 -0.370247 0.063504 -0.462952 -0.27331 0.842523
-0.14061 -0.147497 0.043139 -0.950555 -0.044844 0.307154
0.190684 -0.128471 -0.063242 0.752905 -0.01706 -0.657531
0.083625 -0.40645 0.042654 -0.665513 -0.319839 0.673475
0.144968 -0.869063 -0.061861 0.237124 -0.958709 0.022947
0.204937 -0.256725 -0.012658 0.99833 0.003109 -0.056081
0.054375 -0.470341 -0.058848 -0.772619 0.034737 -0.633113
0.086145 -0.289535 0.076886 -0.390437 -0.215584 0.89491
-0.107811 -0.3218 -0.053385 -0.785118 0.052111 -0.616889
0.324786 0.374041 -0.140775 0.215506 -0.059449 -0.971648
-0.056446 -0.672157 0.024114 0.209106 -0.323142 0.922513
0.031346 0.835225 -0.093868 -0.036224 0.683732 -0.728606
0.212011 0.554446 -0.037187 0.582024 0.747509 0.300483
0.117265 0.398226 -0.144269 0.188178 -0.064928 -0.979869
0.039117 -0.223298 0.014391 -0.278315 -0.28535 0.895902
0.149809 -0.723625 -0.08516 0.701928 0.039511 -0.710744
0.198845 -0.447032 0.002858 0.990137 -0.042637 0.12694
0.112428 -0.825947 0.132184 -0.234795 0.965408 0.045377
0.149968 0.44119 0.067764 0.601079 0.14409 0.784016
0.239572 0.459791 0.003353 0.537515 -0.033971 0.827201
-0.176497 0.461805 -0.087386 -0.308988 0.272243 -0.91007
0.194342 0.102718 0.011119 0.937768 -0.296158 0.161213
-0.315306 0.240024 -0.060148 0.425723 -0.834058 -0.335051
0.207188 -0.157506 0.016663 0.995591 -0.068123 0.05532
0.174376 0.099604 0.068172 0.726645 0.24659 0.640999
0.193461 0.360317 -0.007549 0.980821 -0.099942 0.166904
0.08593 0.049699 0.125919 0.435049 0.175384 0.882231
-0.117981 0.513544 -0.098248 -0.420988 0.431474 -0.793517
-0.113569 0.061404 -0.069745 -0.866822 0.075213 -0.492058
0.146097 -0.355088 0.078075 0.153809 -0.105128 0.981342
-0.0691 -0.020982 0.1229 -0.375346 -0.100478 0.904043
0.148364 -0.403376 -0.089932 0.527134 0.097428 -0.843615
0.181628 0.295685 -0.036633 0.936546 -0.21894 -0.270213
0.395272 0.330377 -0.1101 0.598725 0.62032 -0.500628
-0.126667 -0.532589 0.008771 -0.892089 -0.126361 0.430179
-0.087367 -0.168613 0.114584 -0.273633 -0.055922 0.95986
-0.086884 -0.694169 0.024519 0.040074 -0.415511 0.905395
0.019728 -0.242751 0.068658 0.958701 -0.022437 0.282739
-0.262981 0.41869 -0.059066 -0.684806 0.674494 -0.263335
0.145042 0.507987 -0.134079 0.210585 0.368546 -0.903083
0.164652 -0.863458 0.086293 0.146352 -0.986176 0.000524
-0.131628 0.415998 -0.086737 -0.635117 -0.599784 -0.426345
0.474308 0.186637 -0.049622 -0.512769 -0.645085 -0.499563
0.020329 0.751964 0.083784 -0.870981 0.211095 0.433218
-0.059683 0.150196 -0.096791 -0.319112 0.28548 -0.903481
-0.068194 -0.725871 0.014097 -0.324213 0.371339 0.867876
0.076637 0.171548 -0.119019 0.136885 0.119042 -0.982369
-0.054108 0.558773 0.018675 -0.190923 0.778828 0.597332
0.620649 0.050275 0.037397 -0.835001 -0.543941 -0.05787
0.405464 0.324221 -0.082508 0.675468 0.728602 0.096601
0.000192 0.295009 -0.130046 0.145182 0.0414 -0.9884
-0.050621 -0.863964 0.036234 0.008918 -0.999752 -0.017176
0.203004 -0.232705 -0.039839 0.939616 -0.145597 -0.305115
-0.016833 -0.095891 0.126653 0.13277 -0.128498 0.98265
-0.105644 0.311779 0.037268 -0.932406 0.075801 0.350475
0.16983 -0.294034 0.075604 0.251877 -0.07965 0.964237
-0.020496 0.333509 -0.129191 -0.032756 0.04575 -0.998131
-0.1294 0.033431 -0.044321 -0.936586 0.117408 -0.329216
0.094875 0.716765 0.025634 0.922203 -0.142278 0.257495
-0.3429 0.305917 -0.004149 -0.356033 0.392661 0.846851
0.469406 0.205011 -0.064267 0.152395 -0.718729 -0.677652
-0.030624 0.132336 -0.114963 -0.278269 0.474815 -0.834806
-0.010417 0.611395 -0.00029 -0.882116 0.08834 0.460427
-0.129654 -0.523628 0.0042 -0.896421 -0.143948 0.416572
-0.055108 0.346329 0.09927 -0.471478 -0.100348 0.874188
0.372651 0.355953 -0.110308 0.698281 0.671823 -0.234428
0.173699 0.482532 0.037359 0.59022 0.277906 0.754168
0.062379 0.483035 -0.133138 -0.491402 0.325554 -0.799725
0.133419 -0.716889 -0.094761 0.374745 0.113592 -0.916501
0.16114 -0.536257 0.051999 0.192484 -0.283372 0.934493
-0.116636 0.356252 0.023283 -0.938185 -0.20414 0.278665
-0.09256 -0.259583 -0.071106 -0.729581 -0.054275 -0.681558
0.073224 -0.195781 0.084564 -0.555719 -0.063859 0.82863
0.328243 0.40742 -0.044954 0.635995 0.4422 0.631217
0.193884 0.045861 -0.053291 0.910351 0.131753 -0.3918
0.092561 -0.033759 -0.149064 0.047994 -0.351059 -0.934738
-0.043274 0.177408 -0.102645 -0.468587 -0.278295 -0.834053
0.14625 -0.864066 -0.01809 0.312705 -0.941494 0.055614
-0.08878 0.100963 -0.092412 -0.711004 0.216062 -0.667621
0.16471 -0.074741 -0.103557 0.717842 -0.099072 -0.687914
-0.550583 0.06289 0.016098 0.857011 -0.412228 -0.302917
0.122459 -0.315693 0.080965 -0.05683 -0.067622 0.995394
-0.040431 -0.515364 0.054862 0.409776 -0.284203 0.866329
0.049586 0.835889 -0.091191 0.20797 0.676627 -0.704301
0.161544 0.481958 -0.137784 0.17403 0.192785 -0.964369
0.127966 -0.622255 -0.098063 0.00773 -0.118157 -0.989921
0.195407 0.020875 -0.05316 0.921244 -0.030734 -0.386711
-0.032896 -0.617756 -0.095137 0.475306 0.016206 -0.879182
-0.199412 0.472756 -0.070813 -0.594034 0.437737 -0.673208
-0.152028 0.453279 -0.095756 -0.284696 0.029444 -0.956853
0.602698 0.070154 0.075549 -0.736934 -0.585415 0.283218
0.048437 0.23221 0.127483 0.106146 0.067644 0.990877
0.042926 0.663944 0.091283 0.211344 -0.655477 0.710136
-0.496401 0.154262 -0.003396 -0.778545 0.625418 -0.047935
-0.13567 -0.472659 -0.03409 -0.943787 0.045858 -0.319608
0.014595 -0.400835 0.039709 0.871076 -0.206303 0.445595
-0.048545 -0.591744 0.039061 0.481402 -0.291019 0.826746
0.159549 -0.835571 -0.085176 0.966756 -0.15462 -0.193224
0.231937 0.492259 -0.123512 0.364763 0.42695 -0.827353
0.10332 -0.86737 -0.038531 -0.242636 -0.949111 0.186826
0.181526 0.36079 -0.090822 0.677934 -0.467632 -0.565502
0.208499 -0.003138 0.003656 0.968891 0.2263 -0.075216
0.119673 0.120276 0.104492 0.491568 0.036458 0.869373
-0.270776 0.408597 -0.065535 -0.617936 0.687793 -0.374293
0.001195 0.305062 -0.129318 0.143236 0.053158 -0.988173
0.225187 0.395285 -0.110376 -0.744371 -0.542393 -0.386266
-0.264305 0.420018 -0.0252 -0.76708 0.632191 0.095793
0.053504 -0.064987 0.11926 0.041685 -0.459316 0.884904
0.005164 0.82423 -0.098962 -0.351773 0.624 -0.693308
0.399033 0.227329 -0.079092 -0.608529 -0.782813 0.120044
0.075261 -0.357382 -0.083295 -0.660805 -0.071997 -0.745255
0.425421 0.235279 -0.113189 0.295052 -0.453369 -0.838229
0.154453 0.448845 0.062833 0.627846 0.153817 0.760854
0.153362 -0.615264 -0.092205 0.477093 -0.164124 -0.863364
-0.03564 -0.417598 -0.082516 0.29679 0.251579 -0.919442
-0.02203 -0.848132 -0.094879 0.984622 -0.127215 0.032227
0.574912 0.069783 0.007358 -0.866243 -0.496415 0.011525
0.002201 -0.179493 -0.066808 0.745211 0.042859 -0.665093
-0.012164 -0.378149 -0.062784 0.699327 -0.013328 -0.713834
0.264706 0.419531 -0.140863 -0.084704 0.038978 -0.994451
-0.308936 0.31293 0.004815 -0.159199 0.089039 0.982931
0.21388 -0.103241 0.021817 0.990903 -0.018895 0.127453
-0.130106 -0.589841 -0.029676 -0.985969 -0.097114 0.129951
0.009474 0.502566 -0.123223 0.064909 0.017149 -0.997258
0.062222 -0.796757 -0.002091 -0.850279 -0.485471 0.182471
-0.031594 -0.850699 -0.047737 0.589551 -0.80331 0.051796
-0.036227 -0.750885 0.004736 0.554644 -0.210042 0.785045
0.132984 0.199666 0.094802 0.552231 0.057682 0.829939
-0.002873 -0.540865 0.027709 0.647428 -0.15592 0.744562
-0.10846 -0.391657 0.08855 -0.62017 -0.167383 0.758887
0.010741 -0.513429 -0.049864 0.841075 0.049184 -0.536892
0.015257 -0.069824 -0.106982 0.012963 -0.690587 -0.721606
-0.11395 0.304034 -0.062287 -0.954707 -0.153053 -0.253848
-0.13555 -0.197772 -0.00142 -0.97246 -0.085059 -0.21167
0.155206 0.558987 -0.008892 0.163964 0.756904 0.63255
0.585201 0.047343 -0.00289 -0.838934 -0.543703 -0.012342
-0.120173 0.48309 -0.10676 -0.436955 0.18589 -0.878691
0.089425 0.756729 -0.086759 0.818485 -0.144818 -0.552321
0.172485 -0.046293 -0.098054 0.800984 -0.126059 -0.584669
-0.095232 -0.5017 0.067513 -0.866771 -0.158005 0.471512
0.06682 -0.077908 0.110179 0.021255 -0.629861 0.775545
-0.130216 0.061642 0.033247 -0.921913 0.33128 0.198374
0.346891 0.350928 -0.135621 0.247828 0.093591 -0.957677
0.057818 -0.228584 0.067186 -0.702448 -0.133977 0.698447
0.133802 0.251732 0.089668 0.663747 0.041743 0.746169
0.170891 0.569563 -0.063767 0.533193 0.812815 -0.212254
0.070916 -0.731023 -0.035888 -0.87318 -0.105259 -0.468627
-0.122406 -0.26806 0.081136 -0.921152 -0.075485 0.379187
-0.128277 -0.428828 0.043726 -0.925277 -0.082225 0.369575
0.044077 0.03113 0.13737 0.066763 0.282073 0.957014
0.012965 0.727764 0.080475 -0.799962 0.150414 0.580393
0.610708 0.08579 0.007559 0.300013 0.226141 -0.919392
0.007288 -0.783817 -0.097585 0.874216 0.164548 -0.454253
-0.005076 -0.341648 -0.060265 0.713165 -0.067265 -0.697625
-0.116114 0.138241 0.047152 -0.882496 0.054877 0.466778
-0.282467 0.263881 -0.028458 0.686356 -0.663708 0.289724
-0.037775 0.125328 -0.11621 -0.343167 0.425284 -0.836512
-0.451996 0.186888 0.019161 -0.169094 0.600699 0.7806
-0.125005 0.098585 0.035511 -0.934869 -0.001253 0.354174
0.102364 0.75654 0.001538 0.931475 0.030818 0.35357
0.007195 0.474544 -0.126151 0.126887 0.08503 -0.988088
0.157227 0.075062 0.08807 0.225264 0.296358 0.925288
-0.130375 -0.190188 0.074637 -0.893998 -0.033296 0.44651
0.048402 -0.376334 0.019146 -0.79247 -0.191755 0.571117
-0.112064 0.264767 -0.033194 -0.999638 -0.019293 -0.014969
-0.120949 -0.652423 0.00206 -0.981094 -0.123951 0.145512
0.053553 -0.256159 -0.060318 -0.808036 -0.016025 -0.587902
0.131873 0.062833 -0.129412 0.595361 0.174274 -0.783793
0.043299 -0.382215 0.001328 -0.981717 -0.079667 0.168321
0.276034 0.435493 -0.137553 0.162371 0.328562 -0.925432
-0.120478 -0.012791 0.079923 -0.804918 -0.057735 0.579998
-0.018474 0.616563 -0.039813 -0.867667 0.427805 -0.240172
0.171706 0.290507 -0.059621 0.852426 -0.254571 -0.456251
0.174487 -0.857577 0.106998 0.942265 -0.082942 0.079736
0.010764 0.485699 -0.124405 0.134394 0.14424 -0.977935
0.014353 -0.281268 -0.045133 0.819299 -0.102983 -0.561574
-0.152898 0.383354 -0.025271 0.745672 -0.664597 0.028976
-0.21228 0.339373 -0.062208 0.544407 -0.775233 -0.318803
-0.094902 0.315094 -0.095083 -0.680282 -0.110524 -0.724333
0.195101 -0.729583 -0.00712 0.54722 0.089789 0.821355
0.199376 0.070858 0.024256 0.97135 0.209609 0.105907
-0.105708 -0.346793 -0.058436 -0.753999 0.086537 -0.650984
-0.085872 -0.766003 -0.117007 -0.708502 0.18703 -0.676904
-0.079479 0.57523 -0.053232 -0.42351 0.868881 -0.23499
-0.047215 -0.097385 0.126451 -0.196598 -0.050877 0.979014
0.026991 0.317373 0.120462 -0.002583 0.119605 0.991511
-0.034541 -0.263381 0.10589 0.178009 -0.18132 0.967159
0.04924 0.16821 0.129609 0.097124 0.046994 0.994133
0.642296 0.036202 0.025636 0.98453 0.165261 -0.017427
0.574529 0.117958 0.058827 -0.345254 0.299066 0.88137
-0.478457 0.151134 0.062307 0.220527 0.740547 0.618929
0.039444 -0.25519 0.009968 -0.383115 -0.037466 0.836024
-0.137333 -0.171822 0.049248 -0.990528 -0.048485 0.126409
-0.214636 0.368734 0.01449 0.171021 -0.479707 0.859591
-0.537754 0.089011 0.020989 0.169989 0.431847 -0.726845
0.468831 0.186983 -0.02598 -0.524616 -0.851077 0.000803
-0.027339 0.352999 -0.128666 -0.0361 -0.01085 -0.99919
0.110534 -0.148413 -0.112368 0.043525 -0.24171 -0.968896
0.054728 -0.712602 0.021777 -0.95163 0.10305 0.287054
0.20638 -0.210564 -0.026371 0.996723 -0.033234 -0.070165
-0.009807 -0.141833 -0.082415 0.654297 -0.196414 -0.729384
0.229312 0.414311 -0.012933 -0.243456 -0.661362 0.683955
-0.135406 0.412217 -0.078033 -0.184049 -0.82584 -0.381119
-0.084621 -0.810111 0.04363 -0.650234 0.579342 0.485382
0.096693 -0.868006 0.083472 -0.404918 -0.903642 -0.017372
-0.099894 -0.070959 -0.088948 -0.70121 -0.233646 -0.673291
0.028168 -0.101082 0.104238 0.416537 -0.411069 0.806788
0.003502 0.859875 0.022546 -0.517116 0.809378 0.256888
-0.11981 0.22356 -0.013886 -0.990015 0.113334 -0.069557
0.09421 -0.70888 0.035894 0.160747 -0.029435 0.985446
0.161935 0.493019 0.04254 0.453016 0.391813 0.795738
0.0892 0.688605 0.003715 0.982088 -0.16859 0.066516
0.198644 -0.671849 -0.02585 0.994306 -0.021511 -0.043897
0.022209 -0.728711 -0.057409 0.975388 -0.009101 -0.210124
0.012159 0.457755 -0.126757 0.065919 0.042487 -0.996491
-0.012874 0.482506 -0.128171 0.083292 0.09096 -0.99217
0.20194 0.026968 0.050087 0.924962 0.107655 0.363254
0.158316 -0.370593 -0.076328 0.597353 0.196345 -0.776982
-0.079888 0.516952 0.05162 -0.11856 0.504461 0.854461
0.00693 0.383505 -0.128265 0.046362 -0.017339 -0.998745
0.041777 0.629871 -0.068017 0.032298 0.331934 -0.937887
-0.23241 0.396838 -0.09445 -0.084722 0.190439 -0.977735
-0.047232 -0.818113 0.077243 0.102988 0.927607 0.356207
0.519709 0.156398 0.020481 -0.491706 -0.372153 0.760029
0.048132 0.716105 0.091302 0.577934 -0.127985 0.799263
0.135087 -0.723231 0.014886 0.427185 0.022427 0.898768
0.003565 0.076998 0.135884 -0.278559 0.069189 0.94491
-0.128931 0.075525 0.012976 -0.985155 0.134136 0.039965
0.206082 -0.183979 -0.033559 0.982646 -0.004847 -0.174172
0.027173 0.58427 -0.095817 -0.073293 0.534212 -0.841833
-0.001431 0.70195 -0.072596 -0.637215 -0.5322 -0.557024
-0.039504 0.264408 0.107692 -0.503704 0.060409 0.86101
0.080878 -0.367577 0.054194 -0.547662 -0.305598 0.778811
-0.011242 0.122005 0.127171 -0.343827 0.043905 0.931015
0.20584 -0.382968 -0.01023 0.999073 0.010105 -0.012481
0.200192 -0.59611 -0.012016 0.992084 -0.08126 0.092127
-0.095513 -0.704866 -0.101986 -0.630678 0.088451 -0.770367
0.027942 -0.274534 0.032824 0.990368 -0.035449 0.133268
0.007581 0.140575 -0.11839 -0.092914 0.409873 -0.907384
0.205291 -0.192202 -0.038882 0.96991 0.004058 -0.242123
0.109536 -0.104652 -0.123652 0.024966 -0.312455 -0.948183
0.155139 -0.145115 -0.095544 0.479127 -0.153704 -0.847266
-0.076086 0.555389 -0.088021 -0.4203 0.614172 -0.667598
-0.084219 0.250031 0.077602 -0.6582 0.045548 0.751202
0.566777 0.088622 0.047652 -0.855124 -0.43576 0.262627
0.203881 -0.398765 0.00858 0.955127 -0.080757 0.279414
0.119219 0.385436 0.089206 0.333259 0.072197 0.938471
0.336722 0.403223 -0.052633 0.740318 0.128949 0.591608
-0.031409 0.459346 -0.131481 0.087207 0.047176 -0.994723
0.018267 -0.568591 -0.041929 0.862133 0.075722 -0.491769
-0.213011 0.347029 -0.001227 0.460254 -0.645131 0.603501
-0.025145 0.170517 -0.108136 -0.258319 -0.208607 -0.93775
-0.093536 -0.244699 -0.071275 -0.739318 -0.054176 -0.671048
0.099299 -0.683893 0.035398 0.074823 0.055674 0.993434
0.145195 0.325499 0.071915 0.772649 0.00327 0.634185
-0.126443 0.398045 0.028272 -0.921388 -0.329888 0.194425
-0.111696 0.354277 -0.087644 -0.741493 -0.207137 -0.637508
-0.1341 -0.139745 0.065732 -0.90119 0.03083 0.419245
0.009719 -0.792942 -0.094235 0.950802 -0.023118 -0.297042
-0.006706 -0.274995 0.093027 0.435369 -0.201443 0.877205
-0.1352 0.495962 0.05812 -0.158589 0.297848 0.939508
-0.053111 0.238253 0.099175 -0.577661 0.059291 0.813397
0.044117 0.210071 0.12885 0.041905 0.03983 0.998249
0.415543 0.220251 -0.110383 -0.046387 -0.593238 -0.777951
0.006296 0.852734 0.039962 -0.474863 0.680441 0.550831
0.170087 0.180225 -0.056519 0.867351 0.071573 -0.492401
0.065153 -0.798754 -0.039932 -0.950169 -0.136734 -0.269183
0.612868 0.059574 0.05429 -0.756854 -0.647525 -0.066421
0.157039 -0.017342 0.103299 0.560718 0.09629 0.821166
0.601834 0.105646 0.062455 0.752405 0.603703 0.25554
-0.137656 -0.479342 0.000252 -0.963658 -0.047791 0.259105
0.370453 0.358862 -0.088881 0.699027 0.697026 0.143024
0.038113 -0.003777 -0.149096 -0.260592 -0.220915 -0.935756
-0.264203 0.304748 -0.000219 0.482982 -0.527232 0.698946
0.078331 0.771151 0.06228 0.679686 -0.286676 0.671333
0.421375 0.274035 -0.12524 0.370131 0.122608 -0.920276
0.087765 0.609055 -0.013636 0.872483 0.212344 0.423624
0.147454 -0.015519 0.108982 0.538712 0.103011 0.835647
-0.112051 -0.614284 -0.086957 -0.61959 0.09368 -0.779187
0.167157 0.329697 -0.08972 0.746913 -0.33097 -0.575046
0.175328 -0.071285 -0.0897 0.812629 -0.073958 -0.577823
0.083646 0.804206 0.045699 0.878058 0.265075 0.393988
0.025741 0.865174 -0.033402 -0.16779 0.968484 -0.180128
0.295507 0.38368 -0.018307 0.184716 -0.123431 0.966911
0.027104 -0.662307 -0.039734 0.996832 0.004299 -0.057393
0.141334 -0.236717 0.086764 0.110181 -0.223288 0.968287
-0.122171 -0.6885 -0.026211 -0.969659 -0.093827 0.205423
-0.031688 0.750031 -0.064317 -0.885241 -0.360492 -0.293704
-0.005138 0.54657 0.039382 0.32101 0.745111 0.580379
-0.13916 0.552828 -0.041231 -0.466571 0.811118 -0.34937
0.018585 0.183305 -0.115326 0.113812 0.02091 -0.99102
-0.026777 -0.53763 -0.093689 0.445095 0.019133 -0.894739
0.069611 0.758948 -0.106727 0.531112 -0.164443 -0.830262
0.085322 0.630832 -0.034673 0.882429 0.362761 -0.283785
0.355057 0.341003 -0.049531 0.428405 0.334167 0.837784
0.106843 0.126208 -0.122304 0.40017 0.33595 -0.850934
0.198119 0.361722 -0.04887 0.989983 -0.130112 -0.029321
0.626014 0.041555 0.055647 -0.828182 -0.559497 -0.031779
0.156489 0.194522 -0.07483 0.761222 0.034066 -0.647533
0.096987 0.75706 -0.072798 0.941508 -0.106538 -0.301899
0.008732 -0.644024 0.014644 0.688278 -0.126726 0.712289
-0.086081 -0.643045 -0.105181 -0.27068 0.05922 -0.960299
0.125026 0.262584 -0.12574 0.633314 -0.12155 -0.763825
0.193222 -0.385139 0.041174 0.945144 -0.03001 0.324842
0.045122 -0.119025 0.071233 0.604852 -0.540639 0.578362
0.189166 -0.117986 -0.065324 0.776005 -0.023951 -0.63004
0.137796 -0.867962 0.023067 0.135842 -0.983727 -0.101139
-0.015823 -0.455021 -0.076518 0.715357 0.088233 -0.692899
-0.129095 -0.283958 0.002675 -0.995954 -0.065141 -0.054528
0.136135 -0.04201 0.113848 0.321994 -0.033849 0.945933
-0.109329 -0.854396 0.018437 -0.722344 -0.687753 -0.071147
-0.044118 0.139997 0.112156 -0.484085 0.014402 0.873757
-0.129185 0.074394 -0.007432 -0.981981 0.157894 -0.022854
0.193222 -0.341308 -0.037578 0.752471 0.183232 -0.628313
0.134477 -0.680648 0.028618 0.145512 -0.143911 0.978075
0.041116 0.658688 0.072245 0.132877 -0.97552 0.174793
0.642495 0.033127 0.065218 0.980783 0.178728 0.068276
-0.287503 0.297021 0.00412 0.198777 -0.290523 0.93352
0.125946 -0.835294 -0.117909 0.188236 0.013325 -0.980931
0.145591 0.370184 0.074853 0.640645 -0.030984 0.766873
-0.004636 -0.24317 -0.073786 0.685088 -0.057225 -0.724494
0.060479 0.864418 -0.006705 0.375081 0.920311 0.058755
-0.142814 0.42929 0.05046 -0.638119 -0.350895 0.682093
0.174652 0.178265 -0.048039 0.928647 0.057317 -0.361419
-0.082654 0.035521 -0.118181 -0.67276 0.254038 -0.694727
0.18393 -0.004505 -0.079123 0.886485 0.07157 -0.456295
0.148108 -0.505124 0.060669 -0.211268 -0.170311 0.961805
0.140095 0.479177 0.059907 0.306932 0.458934 0.831861
-0.505371 0.141172 0.064322 -0.654138 0.702878 0.25289
-0.128141 0.385551 -0.034572 -0.996618 -0.079362 -0.001882
0.198159 0.381679 -0.027946 0.997305 -0.057728 0.039368
-0.106941 -0.550969 0.040313 -0.850743 -0.093106 0.516551
-0.123104 -0.034993 0.07894 -0.781917 0.099364 0.615064
-0.070533 -0.864088 0.060756 -0.030378 -0.999516 -0.005426
0.163027 -0.735348 -0.070055 0.799676 -0.090652 -0.592005
0.154599 0.101945 -0.095255 0.783671 0.259017 -0.560545
0.38608 0.325454 -0.122526 0.540334 0.406208 -0.736052
0.077551 -0.0829 0.104779 -0.114302 -0.760511 0.636826
0.177632 0.181334 -0.039116 0.926378 0.068286 -0.370087
0.00358 -0.583586 0.014301 0.68803 -0.033817 0.723548
0.198726 0.147608 -0.005262 0.947106 0.220946 -0.202242
0.135988 -0.146672 -0.107271 0.402489 -0.220653 -0.886041
0.030646 -0.239813 0.026597 0.953786 -0.021688 0.292954
0.137834 -0.869715 0.095388 0.033559 -0.999046 0.01461
0.1228 -0.677661 0.030521 0.115599 -0.07931 0.989173
0.10469 -0.375518 -0.100843 -0.215913 -0.014605 -0.969431
-0.248686 0.302025 -0.0589 0.749418 -0.606776 -0.261999
0.366953 0.292866 -0.040249 -0.276237 -0.03815 0.946878
0.61299 0.092285 0.035052 0.769469 0.637869 -0.017396
0.207716 0.525272 0.006151 0.287115 0.566869 0.770969
-0.125827 -0.453943 0.041879 -0.868951 -0.201499 0.448233
-0.135921 0.458313 -0.102601 -0.463895 0.047903 -0.88396
-0.036197 0.470697 -0.130873 0.028584 0.114576 -0.992761
-0.125663 0.370983 -0.036348 -0.947904 -0.310962 -8.1e-05
-0.106551 -0.851081 0.103574 -0.966179 0.053399 0.215766
0.070066 -0.263467 0.073661 -0.606104 -0.119147 0.785584
-0.128777 -0.294278 0.017447 -0.998999 -0.038389 0.008875
0.05392 -0.369217 0.028362 -0.725593 -0.276432 0.628608
-0.149316 0.532892 0.033826 -0.304713 0.690384 0.652839
0.142184 0.438433 0.072822 0.436839 0.135284 0.888043
0.093467 -0.225557 0.089153 -0.189094 -0.126756 0.972803
-0.100683 -0.529822 0.053226 -0.85004 -0.024612 0.525362
0.144071 -0.715635 0.011562 0.399689 -0.240855 0.873367
-0.01556 0.23004 0.118577 -0.458595 0.115348 0.881095
0.597598 0.069365 0.046635 -0.300938 -0.920346 0.170072
-0.077686 -0.531136 0.06606 0.394957 -0.203432 0.895863
-0.191977 0.504118 -0.051832 -0.680842 0.536794 -0.495176
-0.058748 -0.855361 -0.134433 -0.11877 -0.604275 -0.760921
0.053479 -0.561466 -0.005014 -0.828815 -0.009827 0.55755
0.104361 0.759917 -0.039481 0.995272 -0.056201 -0.076051
0.194222 -0.423052 0.033192 0.959124 -0.064018 0.275578
0.065032 0.458596 -0.137132 -0.294559 0.075294 -0.952169
0.079601 -0.792459 -0.07322 -0.841597 0.22424 -0.489729
-0.128095 -0.208258 -0.018472 -0.907679 -0.100161 -0.406732
0.198654 0.385663 -0.039395 0.997155 -0.065056 0.022226
-0.002895 0.595147 -0.083973 -0.206321 0.62199 -0.749609
0.261714 0.515136 -0.044062 0.73 0.672294 0.097955
0.064907 -0.536898 -0.067332 -0.765906 -0.060723 -0.639989
-0.51885 0.119226 0.016598 -0.870799 0.150687 -0.37273
-0.126166 -0.574481 -0.005665 -0.945682 -0.091032 0.307488
-0.127755 -0.30218 0.035062 -0.995928 -0.058842 0.065556
-0.548325 0.086569 0.068217 -0.876133 0.474538 0.071696
0.055495 -0.271341 0.056489 -0.730403 -0.125126 0.671322
-0.142134 0.016221 0.015445 -0.990548 -0.115877 -0.015321
0.144682 -0.825866 0.097062 0.293647 0.94107 0.150767
-0.051707 0.581807 -0.016561 -0.204441 0.912765 0.351034
-0.050577 -0.706358 0.014127 -0.285125 0.034803 0.953983
0.482521 0.246936 -0.058708 0.75577 0.652068 -0.039558
0.537876 0.13035 -0.000267 -0.751517 -0.659485 -0.003121
-0.419001 0.166488 -0.012355 0.596266 -0.799438 -0.031389
0.105926 -0.256215 0.086499 -0.057772 -0.177979 0.979082
-0.098156 -0.111084 -0.081634 -0.664473 -0.111138 -0.737363
0.087276 0.838082 0.002866 0.838635 0.521006 0.090335
0.458848 0.19382 -0.05156 -0.144167 -0.966755 -0.142453
-0.006869 -0.696632 -0.086203 0.519432 0.266467 -0.811625
-0.002535 -0.181786 0.107455 0.610779 -0.077066 0.787985
0.131884 0.152933 0.097042 0.548847 0.026188 0.835422
-0.125308 -0.344921 0.047458 -0.990218 0.052007 0.128615
-0.225272 0.469956 -0.002318 -0.828716 0.479833 0.273915
-0.102933 -0.838362 -0.056979 -0.918769 -0.350638 -0.092002
0.095198 0.263731 -0.138467 0.078996 -0.071963 -0.993023
0.081512 -0.271177 0.078512 -0.448076 -0.170899 0.874887
-0.026722 0.779417 0.032132 -0.895553 0.100097 0.428395
0.11532 -0.034304 0.12176 0.325047 -0.073047 0.942241
-0.471826 0.145477 -0.03152 0.251221 -0.859522 -0.441959
0.081362 0.71419 -0.070717 0.716699 -0.497855 -0.487838
0.09479 0.74556 0.034235 0.931567 -0.12824 0.331394
-0.046167 -0.582224 -0.100693 0.338221 -0.018398 -0.940849
0.032997 0.413072 -0.128908 -0.133278 0.031317 -0.988791
0.210681 -0.051632 0.031698 0.937296 0.069708 0.341307
0.145866 -0.323722 -0.08204 0.581172 0.023562 -0.811849
-0.088227 -0.56599 0.062038 -0.248692 -0.153055 0.912728
-0.047906 0.337833 -0.125397 -0.317664 -0.016376 -0.947871
0.002215 -0.47357 0.040029 0.709769 -0.145596 0.688931
0.073854 -0.395047 -0.078357 -0.674152 -0.042273 -0.73734
0.194754 -0.159831 0.065473 0.908295 -0.036372 0.413268
-0.026954 -0.624619 0.023811 0.419297 -0.1234 0.898842
-0.004014 -0.202436 -0.073272 0.644246 0.027091 -0.763327
0.071959 -0.107494 -0.113734 -0.367374 -0.361587 -0.856124
-0.154484 0.386235 -0.006643 0.636002 -0.693045 0.335017
-0.089552 0.333096 0.068783 -0.882214 -0.010321 0.469173
0.093125 -0.023976 -0.152535 0.062748 -0.24648 -0.966416
0.301568 0.326708 -0.114906 -0.604211 -0.641996 -0.462283
0.075853 -0.746191 -0.047286 -0.898216 0.075982 -0.431055
-0.000482 0.274349 -0.130098 0.134136 -0.037243 -0.990095
0.146914 -0.524536 -0.104138 0.367073 -0.009885 -0.929336
0.104048 -0.464299 -0.102372 -0.331455 0.047772 -0.939476
0.18272 0.113224 -0.048207 0.840229 0.300339 -0.450194
-0.273804 0.355419 0.0114 -0.469286 -0.051819 0.875406
-0.006805 0.804452 0.061911 -0.606449 0.437629 0.657509
-0.129783 0.068623 0.020029 -0.948415 0.287257 0.096149
0.095 -0.534535 -0.096539 -0.585179 -0.065189 -0.808039
0.045095 0.306488 -0.130045 -0.323286 0.002057 -0.943288
-0.012432 -0.389816 0.07671 0.569101 -0.218962 0.792533
-0.111946 0.280002 0.00361 -0.998009 -0.030885 0.04946
0.091168 0.80711 -0.078417 0.87499 0.238993 -0.417001
0.109653 -0.690769 0.032933 0.34697 -0.063912 0.934135
0.058973 0.834553 -0.088799 0.326317 0.694382 -0.6362
0.110104 -0.276467 -0.099425 0.025291 -0.009251 -0.996999
