0.06595 -0.760041 -0.032845 -0.864723 0.202381 -0.457675
0.428274 0.293354 -0.054046 0.415356 0.695784 0.583784
0.099085 0.71296 0.000216 0.831888 -0.504596 0.002384
0.108869 -0.203655 -0.103005 -0.143436 -0.176801 -0.973073
0.19236 -0.658059 -0.052027 0.783477 -0.272357 -0.55483
0.365457 0.346494 -0.127936 0.561978 0.361233 -0.741768
0.166863 -0.063543 0.096866 0.630746 0.035453 0.774335
0.11459 0.137554 0.107419 0.561647 0.026649 0.825591
-0.24528 0.303553 -0.048345 0.779054 -0.616491 -0.108399
-0.019837 -0.371386 -0.070644 0.668211 -0.081716 -0.738779
0.082226 -0.022448 0.130507 0.112737 -0.087205 0.988633
0.027197 -0.223758 0.046293 0.974138 -0.027233 0.224151
0.506629 0.181618 0.011077 -0.076805 0.34734 0.868598
-0.128756 0.397252 -0.036497 -0.926162 -0.354195 -0.004036
-0.136742 -0.181897 0.051163 -0.994979 -0.045863 0.087697
0.150949 -0.509884 -0.102652 0.41674 -0.015132 -0.907093
0.175744 -0.805094 -0.062593 0.961119 -0.269689 -0.05066
0.197995 0.512317 0.016991 0.296768 0.393011 0.865722
-0.057507 0.062966 -0.127452 -0.366863 0.23724 -0.896777
0.197568 0.046556 -0.043386 0.95079 0.097181 -0.290495
0.027124 0.549675 0.031479 0.038169 0.572107 0.81875
0.25806 0.476155 -0.004296 0.450254 0.197221 0.869242
0.031782 0.622394 -0.070567 -0.122591 0.5023 -0.855138
0.192132 -0.356635 -0.044642 0.690038 0.267726 -0.667351
0.334377 0.373625 -0.050712 0.688244 0.364613 0.620502
0.127285 0.39594 0.084959 0.427837 0.103187 0.897286
0.081737 0.637997 -0.002887 0.963116 -0.061233 0.251355
-0.130235 0.117465 0.011095 -0.987465 0.087098 0.12327
-0.204934 0.416264 -0.094472 -0.167117 0.222917 -0.959388
0.066149 0.114898 0.129433 0.197186 0.102155 0.973643
0.086351 -0.338178 -0.094142 -0.45681 -0.009188 -0.888736
0.111717 0.333828 0.096509 0.369311 0.093007 0.922942
-0.110938 0.108929 0.06332 -0.773071 0.299548 0.558558
-0.053784 -0.34191 0.099168 0.201583 -0.097057 0.974475
-0.061708 -0.376713 -0.084412 -0.15682 -0.125398 -0.977515
0.064642 -0.186891 -0.087726 -0.63321 -0.220237 -0.73895
0.121698 -0.013377 -0.146718 0.414071 0.009482 -0.907548
0.405601 0.235474 -0.043562 -0.457061 -0.652214 0.600815
-0.101151 -0.072406 0.105621 -0.608846 0.041632 0.792154
0.095144 0.780379 0.027117 0.914894 0.154173 0.367194
-0.059302 0.549271 -0.101118 -0.363196 0.517816 -0.774344
0.200771 -0.485995 -0.009882 0.98467 0.122191 0.115589
-0.028404 0.826958 -0.069945 -0.653402 0.603611 -0.451654
0.156165 -0.571434 -0.09723 0.490271 -0.072411 -0.868464
0.166318 -0.524395 -0.093133 0.655581 -0.036781 -0.754148
0.150452 0.046888 -0.117952 0.678453 0.275152 -0.681083
-0.287759 0.361214 -0.083605 -0.645439 0.424343 -0.630854
0.190993 -0.063743 0.073327 0.759955 0.073151 0.645471
0.423531 0.30709 -0.098093 0.621907 0.750603 -0.211759
0.147022 0.393258 -0.130549 0.498351 -0.24818 -0.829772
0.072706 -0.173637 0.084994 -0.535603 -0.043395 0.843262
-0.067005 0.425378 -0.126354 -0.241739 -0.155933 -0.957033
0.037477 0.217565 -0.123567 0.021008 -0.262432 -0.962863
-0.114751 -0.229642 -0.040469 -0.887025 -0.030511 -0.46064
0.591308 0.060157 0.031915 0.906449 -0.32622 0.261764
-0.14269 -0.135007 0.036825 -0.977529 -0.015917 0.202473
-0.004803 0.285845 0.11847 -0.337515 0.086229 0.936398
-0.126443 0.398045 0.028272 -0.921388 -0.329888 0.194425
0.201244 0.014815 0.055007 0.917833 0.075976 0.386387
-0.058408 0.097448 -0.116448 -0.508415 0.301572 -0.806254
0.063587 -0.100093 0.082061 -0.070767 -0.618449 0.74787
-0.002772 0.486274 -0.126743 0.157583 0.120729 -0.978828
0.173566 -0.341962 0.07242 0.232203 -0.043108 0.96415
-0.132132 0.534685 -0.075922 -0.378729 0.669781 -0.637875
-0.014383 0.343221 -0.128915 0.004651 0.016632 -0.999587
0.519709 0.156398 0.020481 -0.491706 -0.372153 0.760029
0.151881 0.353295 0.067344 0.679782 -0.117357 0.723584
-0.019196 0.683747 0.002898 -0.958511 -0.252449 0.008585
0.211294 -0.074915 0.035748 0.947983 0.016201 0.310324
0.006757 0.863266 -0.015561 -0.13658 0.98518 -0.002815
0.10351 0.781582 0.001545 0.978915 0.029139 0.198938
-0.119492 0.565332 -0.027184 -0.320147 0.929268 -0.073634
-0.016354 0.718317 0.05856 -0.781066 -0.077596 0.613917
0.054728 -0.712602 0.021777 -0.95163 0.10305 0.287054
0.15301 -0.440031 0.070651 -0.087154 -0.098729 0.983951
0.08845 0.39987 0.09519 0.165913 0.206347 0.963853
-0.080865 -0.844308 -0.123793 -0.808009 -0.064741 -0.581625
0.086801 -0.813679 -0.09428 -0.832153 0.116223 -0.539002
0.070916 -0.731023 -0.035888 -0.87318 -0.105259 -0.468627
-0.027321 0.770006 -0.086093 -0.84297 -0.114377 -0.52375
-0.134289 -0.250129 0.048953 -0.983992 -0.084308 0.147075
0.126701 0.574167 -0.018821 0.299542 0.797555 0.499
0.492132 0.172406 0.006131 -0.546225 -0.800394 0.209207
0.070066 -0.263467 0.073661 -0.606104 -0.119147 0.785584
-0.291656 0.393251 -0.043651 -0.957084 0.166897 0.027924
0.124492 -0.234112 -0.098963 0.239974 -0.112672 -0.96295
-0.522627 0.119867 0.074468 -0.725946 0.680918 0.084461
-0.328347 0.239899 0.003495 0.291038 -0.36932 0.869766
0.500426 0.228854 -0.049307 0.64277 0.765544 -0.001478
0.198644 -0.671849 -0.02585 0.994306 -0.021511 -0.043897
-0.076719 0.203659 -0.085554 -0.760818 -0.076364 -0.644282
0.154124 0.215859 -0.077868 0.791107 -0.069748 -0.606673
0.005799 0.802563 -0.112628 -0.310527 0.279887 -0.906737
0.045896 0.555733 0.026532 0.122467 0.396109 0.904943
0.075459 0.857028 -0.010882 0.692681 0.720615 0.020834
0.219589 0.514755 -0.115818 0.369282 0.576634 -0.727701
0.0758 0.403501 0.096255 0.136463 0.212233 0.967198
0.170147 0.269534 0.046467 0.780614 0.061707 0.619348
0.069541 -0.812559 -0.055337 -0.951992 -0.091083 -0.283808
-0.018318 -0.661195 -0.086799 0.605288 0.116202 -0.786755
-0.04199 -0.076822 0.128295 -0.10439 -0.062358 0.991608
0.182893 0.242717 -0.008162 0.999582 -0.012815 -0.022171
-0.307699 0.3578 -0.052177 -0.654554 0.728269 -0.187443
-0.025529 -0.669969 -0.093473 0.533422 0.174754 -0.826602
0.019878 -0.158451 -0.037569 0.943469 -0.016059 -0.32968
0.174672 0.32012 0.037912 0.92706 0.01982 0.372144
0.191662 -0.604719 -0.06305 0.792952 -0.026735 -0.607841
0.008769 -0.465865 -0.049737 0.821349 0.066438 -0.564749
0.402439 0.257118 -0.126127 -0.1507 -0.243047 -0.953819
-0.033388 0.215383 0.112114 -0.376474 0.045307 0.921427
0.134174 -0.809743 0.059782 0.386711 0.726271 0.562489
-0.011953 -0.8273 -0.122509 0.597241 -0.68937 -0.397824
0.102843 0.746245 0.001974 0.821498 -0.116414 0.535512
0.023157 -0.287596 -0.021644 0.843353 -0.074883 -0.512578
-0.075537 0.116679 -0.098329 -0.612646 0.228545 -0.75616
0.110806 -0.869134 0.035459 -0.040333 -0.997391 -0.056287
0.170216 -0.207593 0.087904 0.366802 -0.168557 0.911217
-0.565392 0.049535 0.052184 -0.950847 0.228545 0.178167
0.045463 -0.280779 -0.048928 -0.834477 0.008468 -0.550543
-0.080599 -0.274047 0.109655 -0.03083 -0.101156 0.99287
0.161648 0.174563 0.066681 0.720325 0.060472 0.690856
0.086016 0.483856 -0.139821 -0.285981 0.294484 -0.911387
0.046909 0.855016 -0.067184 0.152205 0.855469 -0.49464
-0.10846 -0.391657 0.08855 -0.62017 -0.167383 0.758887
-0.010309 0.058831 -0.142826 -0.162217 0.209969 -0.964042
0.126809 -0.84483 -0.117132 0.338345 0.14072 -0.923374
0.075666 -0.70655 -0.055844 -0.867971 -0.158385 -0.468702
-0.289532 0.288082 0.001226 0.37178 -0.417683 0.824669
-0.11178 0.234228 -0.047651 -0.93744 -0.154352 -0.302146
0.087667 -0.852673 -0.081469 -0.973432 0.044418 -0.169982
-0.128234 0.098237 -0.016209 -0.992031 0.005991 -0.118154
0.096831 -0.49293 -0.099356 -0.549511 -0.012977 -0.835271
-0.009283 -0.524827 -0.079265 0.684697 0.075249 -0.724432
-0.138865 -0.450486 -0.002555 -0.993885 -0.007471 0.067317
-0.106363 -0.216115 0.104835 -0.554459 -0.061486 0.822148
0.011159 0.756175 0.072282 -0.454047 0.006723 0.876151
0.139249 -0.031437 0.113221 0.353574 -0.024185 0.935045
-0.550583 0.06289 0.016098 0.857011 -0.412228 -0.302917
-0.031594 -0.850699 -0.047737 0.589551 -0.80331 0.051796
0.088273 -0.462411 0.023301 -0.664252 -0.028979 0.746051
-0.10613 -0.507756 0.047463 -0.8025 -0.192923 0.56453
0.117636 0.202535 -0.111141 0.52995 -0.30768 -0.789818
-0.103217 0.112312 -0.072141 -0.808597 0.123659 -0.572392
0.132128 -0.869926 -0.083356 0.030121 -0.999487 -0.003118
-0.055424 0.368982 -0.123636 -0.358929 -0.061483 -0.931267
0.192465 -0.094195 -0.061441 0.848222 -0.017539 -0.529035
-0.02402 -0.787884 -0.142487 0.392813 0.407445 -0.822547
-0.110567 0.361573 0.044435 -0.85886 -0.285999 0.422862
0.109507 0.027104 -0.150942 0.451432 0.031572 -0.889959
0.192773 -0.401962 0.041308 0.945482 -0.023335 0.323876
0.227688 0.470613 0.015502 0.773149 0.019479 0.633145
-0.061331 -0.618443 -0.104875 0.097038 0.068465 -0.991857
0.353005 0.398192 -0.099727 0.941317 -0.318244 0.016208
0.157733 -0.219379 -0.08421 0.567078 -0.105826 -0.816601
-0.063318 0.255482 0.09096 -0.485261 0.069628 0.871428
0.145195 0.325499 0.071915 0.772649 0.00327 0.634185
0.055495 -0.271341 0.056489 -0.730403 -0.125126 0.671322
0.447327 0.211963 -0.093569 0.83807 -0.119481 -0.529108
0.182935 0.256799 -0.011765 0.998193 -0.008025 -0.05077
0.132494 -0.459206 0.060508 -0.502486 -0.138062 0.853119
0.185435 -0.154418 0.083541 0.700245 -0.018395 0.711094
0.023834 -0.140591 0.085094 0.869784 -0.187419 0.449108
0.156283 -0.845602 0.163527 0.812668 0.459866 0.345005
0.158418 -0.72078 0.001871 0.546945 -0.176092 0.808575
-0.04698 0.522333 0.054127 -0.169503 0.591218 0.788471
-0.11286 -0.354416 -0.05119 -0.768806 0.114186 -0.627551
0.014003 0.77088 -0.119734 -0.184326 -0.013448 -0.974668
0.029552 -0.279138 -0.018341 -0.185829 -0.5154 -0.703877
0.187147 0.032154 0.075579 0.802494 0.205291 0.56009
-0.09149 0.174841 -0.070935 -0.694447 0.081982 -0.714559
-0.044702 -0.674587 -0.105628 0.405112 0.18448 -0.894627
0.142422 0.581764 -0.062537 0.255351 0.95446 -0.091948
0.119526 0.408915 -0.144514 0.145508 -0.067734 -0.986805
-0.094538 0.570204 -0.011989 -0.383315 0.797567 0.459575
0.192531 0.340712 -0.03944 0.958088 -0.264909 -0.087525
-0.084201 -0.176965 -0.083437 -0.607579 -0.095846 -0.787966
-0.127454 -0.399284 -0.029937 -0.907286 0.018427 -0.419017
0.145103 -0.459114 0.066564 -0.302521 -0.137674 0.937645
0.083771 0.782136 0.059481 0.766457 0.149337 0.605514
0.187142 0.547222 -0.005348 0.235725 0.707058 0.666236
0.176363 0.269658 -0.039524 0.929883 -0.049447 -0.36363
-0.10165 -0.045424 0.104314 -0.630474 0.011908 0.77593
0.207638 -0.18851 0.003214 0.999109 -0.013986 0.034846
0.206373 -0.048476 -0.025451 0.97224 0.005555 -0.231114
-0.022859 0.515385 -0.122087 -0.048434 0.242267 -0.968929
0.102882 0.74946 -0.041434 0.945613 -0.204182 -0.2466
-0.055501 0.065149 0.113755 -0.393397 0.120017 0.909213
0.190004 -0.28828 0.064276 0.841429 -0.029682 0.52663
0.092278 0.422819 -0.145115 -0.120794 0.011454 -0.99238
-0.062457 0.525135 0.049234 -0.145776 0.584931 0.797473
0.086115 -0.857901 0.124902 -0.914283 0.289765 0.281155
-0.138747 0.032438 -0.00131 -0.955527 0.264319 -0.118149
0.027173 0.58427 -0.095817 -0.073293 0.534212 -0.841833
-0.185477 0.378386 0.01347 0.423996 -0.577922 0.696525
0.296014 0.38839 -0.144611 -0.01987 -0.102346 -0.991745
0.107996 0.201147 -0.115961 0.445572 -0.374153 -0.811032
0.142449 -0.431619 0.06934 -0.307647 -0.101109 0.945829
-0.107811 -0.3218 -0.053385 -0.785118 0.052111 -0.616889
0.109461 -0.646264 -0.091719 -0.408149 -0.076017 -0.909724
0.213516 -0.044523 0.011458 0.99824 0.013068 -0.012173
-0.027474 0.279697 -0.130511 -0.129709 -0.037016 -0.990167
0.061934 -0.390746 0.027017 -0.702733 -0.335021 0.627609
0.154787 0.552454 -0.001342 0.144127 0.736306 0.660902
0.190483 0.33831 0.000263 0.977225 -0.093188 0.187781
-0.021063 -0.073344 -0.115369 0.168925 -0.44014 -0.881151
0.11874 0.081698 0.105277 0.34909 0.085302 0.926953
0.122459 -0.315693 0.080965 -0.05683 -0.067622 0.995394
0.167462 0.235831 0.053317 0.72475 0.063972 0.68544
0.035518 0.783168 0.086229 0.012251 0.394987 0.91643
0.167773 -0.035656 0.095564 0.655153 0.018676 0.75464
0.04924 0.16821 0.129609 0.097124 0.046994 0.994133
-0.018446 -0.433874 0.069587 0.58156 -0.178419 0.793075
0.064343 -0.793496 0.009028 -0.776361 -0.521888 0.335766
0.199948 -0.467229 -0.017813 0.999721 -0.00243 0.017233
0.010762 -0.486389 0.027206 0.775169 -0.155125 0.612143
0.136806 0.042366 -0.131708 0.641119 0.217574 -0.734005
0.106899 0.183601 -0.111548 0.364498 -0.100298 -0.921084
-0.026501 -0.774544 0.020867 0.660775 0.644286 0.379728
-0.117191 0.477856 0.061236 -0.033288 0.042061 0.998233
-0.001219 -0.529272 0.028609 0.651904 -0.15459 0.742051
-0.012884 0.596466 -0.079108 -0.269242 0.723683 -0.633668
-0.003304 -0.067896 0.127463 0.178958 -0.134667 0.972872
-0.082666 -0.0426 0.116705 -0.5482 -0.026626 0.835686
-0.127759 -0.728613 -0.044148 -0.998095 -0.010014 0.030408
0.003314 -0.828027 -0.070982 0.832573 -0.553421 -0.016061
0.045906 0.184314 0.129243 0.079066 0.019113 0.996608
0.297347 0.423424 -0.021154 0.507972 0.23659 0.827309
-0.124629 0.367966 -0.046409 -0.936707 -0.349896 -0.00253
0.131501 0.254314 -0.118354 0.688033 -0.208096 -0.694451
-0.045702 0.202803 0.106162 -0.483429 0.01937 0.874736
0.124263 -0.647372 -0.095368 -0.05492 -0.092587 -0.992743
-0.527718 0.103904 0.028431 -0.761766 0.290066 -0.481923
0.192773 -0.693752 -0.03811 0.783096 -0.115134 -0.606386
0.482746 0.246825 -0.047805 0.734523 0.677567 0.024956
0.069588 -0.520439 0.011247 -0.620258 -0.014992 0.784115
0.212605 -0.091806 0.030334 0.970785 -0.006727 0.236643
0.05581 0.157194 -0.12068 -0.073717 0.067651 -0.994675
-0.143437 -0.048333 0.006702 -0.999499 0.024978 -0.002214
0.07409 -0.785064 -0.059495 -0.874488 0.159725 -0.457028
0.056134 -0.281393 0.055047 -0.751396 -0.139817 0.644855
-0.134076 -0.231125 0.055828 -0.977175 -0.080686 0.193577
0.205478 -0.227499 0.01788 0.995705 -0.044748 0.074839
0.022452 0.700593 0.089705 -0.445748 -0.195338 0.861836
-0.055993 0.40355 0.096892 -0.247474 0.129257 0.959542
0.02045 -0.696489 -0.063802 0.841508 -0.013784 -0.536991
0.029287 0.426954 0.095735 0.133385 0.186081 0.973053
0.180624 -0.582128 -0.077113 0.751672 -0.049348 -0.656729
0.166487 -0.863168 0.101955 0.219874 -0.965476 0.020195
-0.512839 0.129875 0.014799 -0.85126 0.473552 -0.135522
0.117739 -0.817515 0.081447 -0.054515 0.944264 0.321272
-0.205864 0.419964 0.036648 0.015398 -0.252695 0.963404
-0.062489 -0.017844 -0.129315 -0.259031 -0.117997 -0.957764
-0.147663 0.547449 0.012425 -0.396968 0.814022 0.416227
0.096599 0.202171 0.113722 0.389466 0.046129 0.919732
-0.544714 0.089968 0.028365 -0.564775 0.700411 -0.254016
-0.439292 0.224611 -0.036341 -0.722435 0.628248 -0.236593
0.185538 -0.372789 0.059757 0.845126 -0.04024 0.532371
0.042502 -0.278304 0.022006 -0.991091 -0.018251 0.124691
0.037915 0.760297 -0.120435 0.109365 -0.128626 -0.982881
0.145878 0.226328 -0.09134 0.784932 -0.141922 -0.60296
0.155353 0.039563 0.100435 0.457005 0.308872 0.831856
-0.065023 -0.059123 -0.11646 -0.307026 -0.317676 -0.894769
0.064436 -0.46795 0.005216 -0.479782 0.057316 0.875369
0.029166 0.131721 -0.125604 -0.147301 0.440014 -0.885727
-0.095807 -0.542367 -0.093004 -0.426437 0.077305 -0.889433
-0.523287 0.071826 0.070294 0.47015 -0.860126 0.191308
0.290134 0.33063 -0.078228 -0.614164 -0.784536 0.058994
-0.055438 -0.863388 0.007492 0.036738 -0.998606 -0.036595
-0.105616 -0.818875 -0.063095 -0.874819 -0.459186 -0.030788
0.085841 -0.72459 0.036449 0.017691 -0.115084 0.992456
0.041953 0.490991 -0.126656 -0.210711 0.083022 -0.97384
-0.101405 0.336754 0.048256 -0.839882 -0.202657 0.50296
0.190017 0.329149 -0.041687 0.971983 -0.176432 -0.136479
-0.021165 -0.404142 -0.072526 0.56088 0.151518 -0.812295
0.086956 0.828764 0.021633 0.870216 0.312971 0.365459
-0.061138 -0.191751 0.120287 -0.242557 -0.083202 0.963133
0.22266 0.405648 -0.029436 -0.660056 -0.631944 0.404824
0.553862 0.129343 0.046135 -0.569592 -0.024543 0.809701
0.344238 0.416064 -0.084182 0.763881 0.62999 0.12746
0.433232 0.300146 -0.096598 0.617161 0.739389 -0.25657
0.187962 -0.672028 -0.050694 0.705209 -0.296777 -0.642163
0.041996 0.012134 -0.153602 -0.178858 -0.301152 -0.934116
-0.19197 0.480807 -0.071518 -0.549508 0.454428 -0.700183
-0.515116 0.123292 0.083722 -0.380425 0.64089 0.534228
-0.143512 -0.143901 0.029485 -0.99302 -0.02748 0.110099
-0.113429 0.289389 -0.016542 -0.980756 -0.187934 0.043613
0.152731 -0.249654 0.083527 0.11235 -0.07614 0.990457
0.187866 0.182113 0.01667 0.93116 0.32045 0.166745
-0.050864 0.022573 0.126026 -0.430011 0.267861 0.858622
-0.082795 0.417122 -0.120221 -0.274166 -0.160787 -0.94813
-0.284032 0.262885 -0.066188 0.628554 -0.660471 -0.379813
0.098184 0.810191 -0.050737 0.935477 0.331517 -0.111994
-0.057726 -0.339431 -0.088184 -0.163403 -0.044792 -0.980814
0.043113 -0.316985 0.022903 -0.990283 -0.019751 0.134644
0.047133 -0.321071 -0.051131 -0.850692 -0.016495 -0.525254
-0.028196 -0.85488 -0.122862 0.699959 -0.442849 -0.472361
0.167055 0.54687 0.001882 0.20626 0.692463 0.690257
-0.017914 -0.274702 0.098021 0.366525 -0.220961 0.902918
0.1876 0.171153 -0.021862 0.899221 0.210067 -0.381098
0.162545 -0.83436 -0.042017 0.978052 0.035506 -0.023564
-0.036399 -0.16455 -0.093422 0.371199 -0.116746 -0.92093
0.313921 0.307342 -0.088141 -0.703115 -0.71056 0.001091
-0.02722 -0.211637 -0.088275 0.359909 -0.010557 -0.928737
-0.193131 0.455272 0.043416 -0.355758 0.162544 0.915435
-0.136441 0.484481 -0.099512 -0.435573 0.181365 -0.881549
0.150663 0.261722 -0.093211 0.862799 -0.094236 -0.496084
-0.018233 0.396058 0.105416 -0.028605 0.083672 0.995888
-0.043143 -0.571075 0.042916 0.42851 -0.230367 0.873355
-0.008012 -0.582294 0.025917 0.502359 -0.123428 0.854446
0.023447 -0.024535 -0.138414 -0.108089 -0.421401 -0.90031
0.181672 0.203607 -0.025247 0.978313 0.027979 -0.195114
-0.023402 -0.29665 -0.083939 0.552659 -0.128331 -0.823445
0.597415 0.113759 0.052636 0.735733 0.658189 0.140442
0.028373 0.685643 -0.074595 -0.077095 -0.519306 -0.845117
0.190717 -0.541569 -0.066829 0.814771 -0.028456 -0.578745
0.20607 -0.160275 0.027139 0.983249 -0.098051 0.139643
0.214192 -0.08664 0.018122 0.996475 0.008623 0.074193
0.005975 0.72689 0.073103 -0.504873 0.148891 0.846187
-0.564747 0.034226 0.021025 0.843236 -0.533688 0.006295
-0.072512 -0.136668 0.119796 -0.299255 0.043353 0.952632
0.198383 -0.684531 -0.022317 0.997691 -0.028485 -0.011843
0.266551 0.489646 -0.018005 0.648029 0.456366 0.606604
-0.448476 0.145481 0.013638 0.676043 -0.724007 0.08877
-0.047977 0.306512 0.098284 -0.404582 0.023934 0.913336
0.082655 -0.779738 -0.072769 -0.838871 0.235048 -0.490487
-0.397531 0.250002 0.007528 -0.238922 0.343846 0.905527
0.139923 -0.441573 0.067052 -0.353747 -0.143285 0.922519
-0.011715 -0.047449 -0.127862 0.004091 -0.499783 -0.865438
0.193329 0.068252 -0.047598 0.915286 0.124026 -0.38283
0.185591 0.008945 0.083753 0.751215 -0.141264 0.634364
0.282212 0.339401 -0.103865 -0.63447 -0.711637 -0.292409
0.027446 0.822337 -0.10535 -0.026117 0.643156 -0.764026
0.070972 -0.441215 -0.075526 -0.710521 0.023563 -0.703208
0.172205 0.1497 -0.055167 0.863961 0.016835 -0.502898
0.05012 -0.293733 -0.055674 -0.822455 -0.014716 -0.568597
0.179765 -0.53052 -0.080557 0.703852 -0.034432 -0.709442
0.164033 0.397095 -0.124181 0.382341 -0.403311 -0.831098
0.108448 -0.778064 -0.10267 -0.472406 0.434108 -0.766485
-0.121526 -0.516668 0.020984 -0.830707 -0.09667 0.548006
-0.415654 0.230715 0.011021 -0.268438 0.381596 0.880094
-0.057823 -0.093212 0.123919 -0.285212 -0.020644 0.957764
-0.02587 0.594477 -0.073042 -0.510077 0.711634 -0.479061
-0.147372 0.478831 0.059062 -0.262509 0.108881 0.957673
0.074799 -0.72704 -0.045568 -0.903954 -0.130545 -0.406294
-0.15526 0.409562 -0.087637 0.471312 -0.480002 -0.728078
0.007294 0.788804 0.08002 -0.405969 0.253682 0.873095
-0.135892 -0.530157 -0.016343 -0.985488 -0.065603 0.149716
0.027529 -0.291964 0.033447 0.994605 -0.011846 0.10298
0.169852 0.106126 -0.073247 0.7895 0.26341 -0.553857
-0.079832 -0.579242 0.057532 0.369465 -0.188144 0.897564
0.012158 -0.068174 0.122618 0.361498 -0.188605 0.912302
-0.018814 -0.66126 0.025269 -0.073781 0.058274 0.994172
-0.007582 0.216685 -0.127376 -0.059753 -0.150433 -0.985107
0.01011 0.384097 0.106478 0.002775 0.205569 0.978245
0.090978 0.827443 -0.018451 0.899695 0.42167 0.012114
0.120617 -0.652594 0.033989 0.083244 -0.123638 0.987694
0.260025 0.453928 -0.132053 0.164669 0.492114 -0.85372
0.128499 -0.192219 0.096831 0.083933 -0.152054 0.984722
0.138838 0.409774 0.078169 0.533544 0.080017 0.841597
-0.014767 -0.822189 0.028748 0.77352 -0.555009 0.231836
-0.054834 -0.671299 -0.109201 0.205307 0.173989 -0.962846
-0.047232 -0.818113 0.077243 0.102988 0.927607 0.356207
-0.013807 0.140352 0.125991 -0.428521 0.026219 0.897239
-0.09162 -0.759955 -0.110938 -0.691303 -0.028132 -0.717506
-0.059054 -0.198172 -0.093065 -0.287274 -0.107509 -0.951679
-0.133592 0.00365 -0.038774 -0.94273 0.062614 -0.321009
-0.545085 0.062401 0.038336 0.550552 -0.831292 -0.059447
0.03356 0.514888 0.059719 0.091477 0.502284 0.859369
0.196935 -0.640289 -0.050514 0.925075 -0.079075 -0.345282
0.203944 -0.078624 -0.036462 0.93367 0.067392 -0.351058
-0.128791 -0.395864 0.039032 -0.969619 0.136205 0.202148
-0.067132 0.051323 0.112761 -0.292751 0.081736 0.949573
0.127706 -0.152837 -0.108924 0.278775 -0.203619 -0.937042
0.166126 -0.49627 0.061474 0.344212 -0.192851 0.911377
-0.118578 0.308094 -0.017529 -0.97982 -0.160159 0.095715
0.07622 0.67032 -0.04407 0.790182 -0.111366 -0.60098
-0.354288 0.294415 -0.085551 -0.491451 0.328084 -0.803754
0.399756 0.330111 -0.096803 0.700664 0.706172 -0.075722
-0.363 0.253318 -0.083828 0.00495 -0.268159 -0.961695
0.004637 -0.53758 0.021261 0.699786 -0.169095 0.693932
-0.102013 0.014334 0.104456 -0.516158 0.23097 0.8238
0.182572 -0.354178 0.066311 0.828498 -0.064243 0.554675
-0.127731 -0.655289 -0.040957 -0.996567 -0.026369 0.076726
0.023494 -0.724898 -0.045397 0.985316 -0.061947 0.145931
-0.058184 -0.864255 0.08164 0.000203 -0.999972 0.003031
-0.086766 -0.850651 -0.114747 -0.858897 -0.164106 -0.477969
0.192641 0.070872 0.049911 0.863043 0.26363 0.426289
0.002681 -0.769233 -0.02062 0.665551 0.025459 0.736437
0.131849 -0.376047 -0.095939 0.471545 0.110117 -0.873189
-0.501512 0.147981 0.052737 -0.756296 0.648935 0.079625
0.225291 0.445315 0.014853 0.428475 -0.221405 0.870899
-0.102868 0.256204 0.056453 -0.906515 0.08113 0.403962
0.065815 0.040423 -0.159499 -0.025244 0.181946 -0.981731
0.100117 0.261641 0.107186 0.357214 0.071592 0.930179
-0.081341 0.413824 0.083597 -0.641934 0.084037 0.761179
0.10866 -0.609073 0.031796 -0.197659 0.220656 0.954407
-0.030849 -0.693111 0.022463 -0.499065 0.039509 0.864403
-0.015537 -0.817036 -0.135259 0.713837 -0.338419 -0.6068
0.130405 0.08468 0.102703 0.316934 0.149645 0.928222
0.100443 0.720682 0.007598 0.977351 -0.004817 0.199099
0.087874 -0.242184 -0.091888 -0.448096 -0.02423 -0.893552
0.13761 -0.012819 -0.138574 0.622943 0.054563 -0.779848
0.071717 0.582672 -0.097286 0.025518 0.679698 -0.726719
0.12989 0.103092 0.101116 0.521359 0.108737 0.845898
-0.27118 0.290588 -0.006501 0.48518 -0.577936 0.653414
0.089396 0.69038 -0.017612 0.988294 -0.140545 -0.054627
0.065483 -0.571342 0.007958 -0.628642 -0.027951 0.776833
-0.06054 -0.455571 0.077225 0.284513 -0.276079 0.917219
-0.060336 -0.426201 0.083943 0.184373 -0.23963 0.953003
0.390817 0.291519 -0.041179 0.169031 0.29634 0.939784
-0.098149 -0.236015 -0.066685 -0.755789 -0.056217 -0.651259
0.148798 0.149442 -0.087888 0.720119 0.09758 -0.686538
0.131873 0.062833 -0.129412 0.595361 0.174274 -0.783793
0.160911 0.199759 0.06444 0.771515 0.092008 0.628995
0.062311 0.474689 0.078844 0.099932 0.392213 0.913088
-0.336811 0.223774 -0.046184 0.500871 -0.842456 -0.182266
-0.00906 0.269849 -0.130956 0.055031 -0.05005 -0.996765
-0.091393 0.044952 -0.105663 -0.705684 0.243771 -0.665105
0.201325 -0.305917 -0.021151 0.895748 -0.041339 -0.441451
-0.523215 0.08518 0.096062 -0.072036 0.18101 0.898296
0.039767 -0.291479 0.009381 -0.947883 2e-05 0.314535
0.052101 -0.686413 -0.014491 -0.996131 -0.043118 -0.070002
0.058191 0.654741 0.038999 0.610793 -0.566363 0.549552
0.331393 0.389769 -0.051194 0.891583 -0.238912 0.370247
-0.123962 -0.306196 -0.026945 -0.878655 0.049973 -0.470131
0.198845 -0.447032 0.002858 0.990137 -0.042637 0.12694
0.186833 0.380634 0.026591 0.878781 -0.1934 0.435021
0.097437 0.164056 -0.115261 0.258063 0.160069 -0.952557
0.019469 0.001664 0.143894 0.015039 0.145962 0.988915
0.095521 -0.652946 -0.083125 -0.599036 -0.060333 -0.798265
-0.050621 -0.863964 0.036234 0.008918 -0.999752 -0.017176
0.008231 -0.154501 0.103464 0.686703 -0.114659 0.713181
0.197269 0.03715 -0.047516 0.952356 0.062928 -0.296462
0.039077 0.22982 0.128276 0.028926 0.042897 0.998627
-0.138804 -0.01781 -0.000593 -0.992894 0.091941 -0.04693
0.139339 0.21406 -0.096107 0.767756 -0.18048 -0.613403
0.138686 -0.219627 0.09045 0.052626 -0.17757 0.982611
0.011496 0.112936 -0.131384 -0.172312 0.40359 -0.898402
-0.566591 0.046936 0.042988 -0.904888 0.423623 0.033636
0.006538 0.288792 0.12168 -0.195434 0.100868 0.974394
0.150134 0.571899 -0.025636 0.266791 0.829406 0.484332
0.191826 0.347222 -0.056361 0.911981 -0.337265 -0.219727
0.203259 -0.24284 -0.033671 0.963889 -0.130984 -0.226714
-0.111572 0.505695 0.05643 0.022731 0.351223 0.933707
0.610755 0.060741 0.066729 -0.721892 -0.689752 -0.025285
-0.50095 0.093051 0.042829 0.527892 -0.808911 -0.226018
-0.450235 0.150038 -0.023539 0.337363 -0.825195 -0.449483
0.143687 -0.314183 0.080396 0.133125 -0.05583 0.988691
0.000192 0.295009 -0.130046 0.145182 0.0414 -0.9884
0.037485 -0.244783 -0.035059 -0.731007 -0.077284 -0.673332
-0.065622 0.547422 0.029691 -0.153926 0.667411 0.722556
0.153766 0.460323 0.060581 0.59848 0.22678 0.767375
0.180831 0.300782 0.021015 0.92678 0.023628 0.360211
-0.124198 0.390655 -0.084283 -0.86646 -0.245659 -0.428994
0.193009 0.012688 -0.057671 0.918703 -0.005477 -0.391517
-0.105607 -0.41087 -0.058029 -0.688144 0.051805 -0.719662
0.042781 0.842993 0.057928 0.213148 0.606033 0.757013
0.412268 0.236454 -0.117251 0.042162 -0.556548 -0.820786
0.154454 -0.187197 -0.091622 0.610346 -0.057198 -0.789904
0.150545 0.248909 0.072096 0.775372 0.061399 0.628248
-0.207153 0.391191 0.026989 0.147925 -0.433098 0.886873
0.058382 -0.178066 0.074531 -0.648409 -0.058301 0.758359
0.464216 0.268645 -0.060894 0.787236 0.607304 0.094527
-0.037056 -0.007746 0.142621 -0.278431 -0.087582 0.952014
-0.540782 0.068192 0.079007 0.460119 -0.827439 0.296186
-0.136351 -0.182096 -0.0049 -0.965891 -0.13517 -0.214798
-0.335488 0.247571 -0.076475 0.079043 -0.395765 -0.893096
0.051939 0.782846 0.084191 0.297949 -0.000752 0.937088
0.201388 -0.580911 -0.013775 0.984645 -0.090754 0.143111
0.170724 0.083746 0.07785 0.714835 0.213081 0.665971
-0.038479 0.758902 -0.038923 -0.991877 -0.059621 -0.105454
0.00528 -0.389175 0.06032 0.777857 -0.174876 0.602337
-0.021192 -0.045754 -0.128543 -0.039205 -0.443552 -0.894783
0.090486 -0.829546 0.062101 -0.97084 0.201011 0.116451
-0.059683 0.150196 -0.096791 -0.319112 0.28548 -0.903481
0.232136 0.465726 -0.132112 0.157802 0.246241 -0.952849
0.073029 -0.823006 -0.010398 -0.436 -0.889551 0.05437
-0.097083 -0.298508 -0.064777 -0.722719 -0.011422 -0.690931
-0.143753 -0.151347 0.010504 -0.996763 -0.05242 -0.050415
0.312081 0.399905 -0.028848 0.576801 0.248868 0.776158
-0.01195 -0.816511 0.020167 0.962302 -0.069405 0.187652
0.041669 -0.256378 0.019301 -0.983808 -0.009286 0.172354
-0.126485 -0.560262 -0.000736 -0.925483 -0.129969 0.352435
-0.023322 -0.415343 -0.07702 0.498309 0.225409 -0.836931
-0.169825 0.46094 0.04886 -0.456337 -0.165753 0.873965
-0.054488 -0.223563 -0.092584 -0.046632 0.011388 -0.998489
-0.076918 0.38314 -0.117318 -0.420898 -0.15217 -0.893728
-0.12573 -0.287808 0.067173 -0.988859 -0.0424 0.132905
0.162019 -0.17536 -0.086479 0.616313 -0.045448 -0.786171
-0.128336 -0.290172 0.04122 -0.995067 -0.089692 0.040481
-0.135765 -0.439444 0.018166 -0.97853 -0.023122 0.197303
-0.124628 0.064431 0.050716 -0.901708 0.256884 0.344801
-0.124317 0.196408 -0.012087 -0.891475 0.202403 -0.403877
0.00339 0.667211 0.069473 -0.715216 -0.540101 0.383599
0.001111 0.263574 0.122181 -0.372446 0.077756 0.924197
0.068999 -0.820848 -0.035824 -0.760673 -0.586086 -0.059834
0.148409 0.569935 -0.086321 0.420774 0.689345 -0.588375
0.137957 -0.420372 -0.097674 0.437721 0.115432 -0.888651
0.090896 0.11563 -0.132066 0.220151 0.468796 -0.853181
0.054548 0.675287 -0.0667 0.39356 -0.316966 -0.859726
-0.099191 -0.259801 -0.063374 -0.760494 -0.039402 -0.647959
0.05887 -0.363535 0.036615 -0.688973 -0.355939 0.625159
-0.128724 -0.638668 -0.051161 -0.998494 -0.048547 -0.001591
0.121539 -0.022445 0.120385 0.353424 -0.016766 0.935193
-0.108846 -0.461045 0.06829 -0.805478 -0.195126 0.559342
-0.038964 0.759916 -0.022784 -0.993273 -0.067559 0.061941
0.068429 -0.585953 0.00864 -0.652358 -0.142186 0.744257
0.086971 0.549134 0.032376 0.074103 0.784915 0.600054
-0.075651 -0.388615 -0.079483 -0.353243 -0.093989 -0.928571
0.046125 -0.452307 -0.012962 -0.902983 -0.075739 0.405577
-0.090041 -0.316132 0.105631 -0.105857 -0.04785 0.991511
0.124209 -0.869917 0.056795 -0.00043 -0.999856 -0.016214
0.091818 0.7257 -0.062974 0.867203 -0.365693 -0.335858
0.158076 -0.456046 -0.094408 0.487404 0.161281 -0.857648
0.350302 0.410051 -0.096447 0.744673 0.666413 0.003755
0.050788 0.148122 -0.120927 -0.130298 0.266694 -0.953937
-0.051851 -0.142172 0.122945 -0.065909 -0.118265 0.990331
0.095792 -0.30437 -0.097809 -0.279765 0.012875 -0.955937
0.024276 -0.570061 -0.008355 0.904191 0.070385 0.413057
0.163693 -0.840918 -0.019559 0.981435 0.187244 -0.006261
-0.263363 0.339203 -0.09586 0.159742 -0.159903 -0.972905
0.42433 0.245485 -0.11924 0.299516 -0.372091 -0.874353
0.054452 0.843274 0.051935 0.49513 0.565955 0.658356
-0.189507 0.370771 -0.083019 0.477063 -0.646642 -0.582582
-0.102485 0.250927 -0.075721 -0.793711 -0.251417 -0.550196
-0.100767 0.120183 0.070876 -0.704889 0.156184 0.6858
-0.080329 0.381297 0.083939 -0.670969 -0.056089 0.739062
-0.103718 -0.747676 -0.097568 -0.908292 0.045332 -0.386026
0.478453 0.210151 -0.069503 0.230129 -0.524965 -0.813063
-0.029961 -0.747751 -0.122657 0.378965 0.413783 -0.824695
-0.238472 0.45173 -0.046329 -0.763219 0.602625 -0.228024
0.076719 -0.508696 -0.082561 -0.699429 -0.029788 -0.714003
0.083868 -0.182639 -0.09969 -0.380457 -0.247842 -0.890825
0.128719 -0.824005 0.106613 0.108549 0.986225 0.102583
-0.103766 0.390187 0.065506 -0.642273 -0.125525 0.754693
-0.100357 -0.22903 0.107965 -0.406804 -0.046097 0.908763
0.54543 0.180058 0.001937 0.832126 0.533495 0.119673
0.019608 -0.168392 0.078905 0.943568 -0.107895 0.308333
-0.125464 0.104998 -0.027823 -0.945711 0.059879 -0.31302
-0.086125 -0.544966 -0.098121 -0.35159 0.086356 -0.931826
0.065657 -0.426706 0.012796 -0.650133 -0.324111 0.686856
0.005758 0.858459 -0.049242 -0.410585 0.824788 -0.385714
-0.053869 -0.833776 0.142906 0.557709 0.691107 0.428507
-0.329661 0.271097 0.005576 -0.021486 0.105738 0.993487
0.022553 -0.435797 0.007933 0.963984 0.149216 0.215205
-0.01526 -0.693983 -0.092594 0.609352 0.22055 -0.761479
0.597706 0.066386 0.0205 0.71883 -0.588338 0.018906
-0.013572 -0.401188 0.074214 0.489635 -0.202059 0.846279
-0.094274 -0.863159 0.101013 -0.099645 -0.991147 0.02323
0.060719 -0.548486 -0.061248 -0.779632 -0.049143 -0.624184
0.157338 0.437457 0.061963 0.740299 0.08407 0.66688
0.006124 -0.269711 0.087449 0.548973 -0.171636 0.814925
-0.289606 0.380378 -0.027594 -0.867438 0.470353 0.156189
-0.136573 0.402693 0.001553 0.04986 -0.877122 0.325009
-0.040335 0.570381 -0.095131 -0.314796 0.58649 -0.742532
0.054177 0.651504 -0.062794 0.448139 0.016218 -0.887553
0.328136 0.364101 -0.139272 0.170919 -0.086182 -0.97921
0.046306 -0.560552 -0.017425 -0.969907 -0.045297 0.230486
-0.340711 0.296606 2.6e-05 -0.199296 0.272531 0.940798
0.123552 -0.307036 -0.09531 0.3952 0.008049 -0.916927
-0.221219 0.383469 0.023874 -0.01014 -0.538619 0.835418
-0.121675 0.391336 0.037026 -0.942323 -0.249056 0.218604
0.093894 -0.779964 0.039058 -0.152368 0.859918 0.487078
0.181526 0.36079 -0.090822 0.677934 -0.467632 -0.565502
0.086839 -0.206533 0.090141 -0.323612 -0.101493 0.940372
0.205007 0.000526 -0.024382 0.969388 0.095924 -0.214542
0.055012 0.337345 -0.135349 -0.39352 -0.028287 -0.918856
-0.013811 0.814072 0.043479 -0.833201 0.331275 0.43867
0.063626 -0.024622 -0.149853 -0.253789 -0.365763 -0.894776
-0.021782 0.074791 0.127118 -0.331757 0.195066 0.920465
0.155327 0.50736 -0.131539 0.198844 0.369592 -0.906457
-0.130015 -0.577775 -0.058066 -0.965615 -0.009463 -0.255042
0.115676 -0.869827 -0.060314 0.011166 -0.998688 0.048942
-0.116068 -0.152231 -0.052462 -0.793521 -0.153967 -0.588384
0.110048 -0.869239 0.118226 0.01097 -0.998565 0.050382
0.007217 -0.171681 0.101455 0.645796 -0.130727 0.748345
0.198082 -0.189007 0.050494 0.958644 -0.044499 0.279599
0.275013 0.501263 -0.047924 0.722314 0.665154 0.179582
-0.093175 0.222981 -0.070541 -0.735786 -0.346916 -0.581032
0.12477 0.096436 -0.123837 0.596259 0.287603 -0.748751
-0.002873 -0.540865 0.027709 0.647428 -0.15592 0.744562
0.158873 0.18393 -0.072968 0.761552 0.06238 -0.644996
0.010243 -0.806733 -0.082985 0.978306 -0.150955 -0.124836
-0.136486 -0.419444 0.014816 -0.990576 0.03054 0.12906
0.019011 -0.44947 0.0197 0.906702 -0.009624 0.418097
0.190658 -0.458075 0.035454 0.963578 -0.069341 0.257647
-0.288125 0.262603 -0.01994 0.737554 -0.554103 0.383343
0.099944 -0.295053 -0.098967 -0.182285 0.014394 -0.979883
-0.13522 0.41626 0.047545 -0.521835 -0.712304 0.455675
0.019949 0.280649 -0.127573 0.082425 -0.019892 -0.995375
0.012964 -0.489289 -0.044911 0.842435 0.025234 -0.537595
-0.103604 0.189531 0.065468 -0.769571 -0.045226 0.634338
0.10549 -0.821491 0.085605 -0.360939 0.868184 0.325777
-0.405582 0.195054 0.020047 0.208476 0.231916 0.947685
-0.026765 0.468065 -0.130458 0.086394 0.080868 -0.992839
0.200132 -0.411034 0.014851 0.961743 -0.106916 0.250178
0.334873 0.371815 -0.137362 0.372272 0.069737 -0.918969
-0.023871 0.156008 0.121039 -0.3706 -0.003163 0.928649
0.135513 0.086218 -0.118764 0.639282 0.235116 -0.731575
0.061269 -0.580656 -0.058247 -0.743447 -0.079342 -0.66368
0.18601 0.328935 0.011289 0.923621 -0.121871 0.36273
0.000515 0.417031 0.10146 0.125134 0.274379 0.953298
0.00356 -0.821783 -0.091452 0.91698 -0.354069 -0.164093
0.094865 -0.746515 -0.081793 -0.801568 -0.069944 -0.593112
-0.102891 0.324062 -0.088967 -0.726763 -0.146047 -0.668906
0.073816 0.769051 -0.10493 0.609574 -0.048297 -0.788392
-0.013253 -0.538196 0.035916 0.556339 -0.18094 0.81028
-0.146993 0.518544 0.04579 -0.214672 0.475353 0.850624
-0.134835 0.000639 0.057566 -0.928961 -0.24483 0.253838
0.17771 -0.178467 -0.072485 0.647589 -0.005829 -0.760492
-0.034413 -0.087725 -0.111233 0.098819 -0.28233 -0.95314
0.109992 -0.01435 -0.151016 0.289484 -0.078168 -0.951788
0.01179 0.717022 0.081017 -0.798862 0.045902 0.5941
0.565386 0.113125 -0.013728 0.497486 0.153378 -0.853448
0.036825 0.158072 -0.118541 -0.099333 -0.018073 -0.993999
-0.095598 -0.742428 -0.107588 -0.749116 0.090388 -0.655263
-0.393766 0.239381 0.011194 -0.037558 0.185891 0.98123
-0.060998 -0.224518 0.11507 -0.06139 -0.160877 0.983624
-0.102634 -0.171495 -0.066226 -0.761172 -0.082926 -0.642656
0.059585 0.699964 -0.078141 0.416392 -0.5672 -0.708067
0.174975 0.166724 -0.049057 0.927665 0.048397 -0.35934
0.190015 0.349842 -0.066073 0.866651 -0.384136 -0.314849
0.135279 0.507151 -0.135999 0.116709 0.266508 -0.955298
0.03915 0.114767 0.133388 0.032255 0.173515 0.983667
-0.018062 0.52538 0.057659 -0.103307 0.52316 0.844015
-0.019456 -0.514704 -0.087472 0.638685 0.05413 -0.764898
0.13162 -0.068067 -0.13062 0.379308 -0.273139 -0.882738
-0.134873 -0.209066 0.000512 -0.976014 -0.084272 -0.199691
-0.029374 0.737713 0.020011 -0.986061 -0.074593 0.146249
-0.012858 0.187788 -0.116769 -0.283748 -0.237298 -0.928602
0.08777 -0.072949 -0.134172 -0.120552 -0.382323 -0.915518
-0.083301 -0.792366 0.028483 -0.683947 0.464377 0.561983
0.588724 0.098306 0.066431 -0.370739 -0.177692 0.835801
0.042977 -0.170375 -0.06468 -0.870667 -0.197569 -0.449386
-0.037832 0.404944 -0.129316 -0.078536 -0.029723 -0.996223
0.001157 0.5432 -0.114761 0.007791 0.386267 -0.922252
0.051522 -0.652189 -0.02638 -0.982382 -0.088693 -0.144382
-0.130919 -0.386487 0.006172 -0.886085 0.426502 0.012409
0.055848 0.512188 -0.127912 -0.15403 0.119909 -0.979511
0.103337 -0.315817 -0.099883 -0.095239 0.028977 -0.989855
-0.162225 0.414484 -0.093154 0.321996 -0.301213 -0.895829
0.425313 0.210931 -0.061356 -0.493575 -0.836467 0.237073
-0.11855 0.216657 0.026729 -0.94331 0.236033 0.228491
-0.174876 0.510112 0.036046 -0.547721 0.518728 0.654257
-0.068344 -0.390288 0.092471 0.183366 -0.218288 0.958182
0.165555 -0.48649 0.063826 0.384213 -0.166832 0.89863
0.133547 -0.403043 0.070328 -0.287111 -0.212669 0.933925
-0.096763 0.364876 -0.103277 -0.50021 -0.22467 -0.835384
-0.048704 -0.853434 0.14528 0.766251 -0.320825 0.498553
-0.004441 0.406861 -0.129042 0.063731 0.003419 -0.997924
0.297376 0.394933 -0.017866 0.401847 -0.032808 0.910974
-0.076298 -0.020994 -0.122443 -0.563243 -0.15517 -0.811208
-0.025274 -0.33621 -0.079694 0.587202 -0.094869 -0.801934
-0.122194 0.024468 -0.064202 -0.89349 0.086726 -0.439515
0.184428 0.170685 0.036092 0.890416 0.153448 0.425594
-0.172909 0.433097 -0.094049 -0.066846 0.126539 -0.989105
0.315512 0.428793 -0.124896 0.473881 0.636208 -0.608704
0.131604 0.017756 0.11813 0.368887 0.22323 0.900979
0.02013 -0.252102 0.066273 0.948628 -0.023108 0.315218
0.105684 -0.869885 0.102011 -0.062133 -0.993006 0.018686
0.11134 0.447123 -0.147002 -0.011208 -0.002434 -0.999439
0.229943 0.526781 -0.005748 0.504433 0.590363 0.622604
0.046126 -0.208614 0.055142 -0.872734 -0.083095 0.473836
-0.073959 0.053961 -0.119682 -0.646213 0.236 -0.723227
0.070348 -0.705876 -0.045835 -0.814596 -0.254912 -0.520706
0.54768 0.113497 -0.00797 -0.954755 -0.293736 -0.025576
0.076713 -0.425733 0.025142 -0.697524 -0.349624 0.625356
0.063409 -0.073662 -0.127849 -0.306048 -0.398382 -0.864251
0.153234 0.257887 0.067653 0.783294 0.072527 0.617353
-0.110739 -0.813345 -0.056853 -0.811079 -0.574673 -0.009925
0.084673 -0.518485 0.024344 -0.610509 0.037781 0.789594
-0.250361 0.38873 -0.094348 -0.118553 0.155149 -0.979208
0.510649 0.160834 0.017432 -0.559381 -0.632398 0.441305
-0.053232 -0.785655 0.043885 -0.141218 0.737564 0.656909
-0.029441 0.099348 -0.12828 -0.21102 0.259311 -0.942232
-0.51052 0.130474 0.078536 -0.769021 0.597213 0.176677
0.012961 -0.62647 -0.057201 0.684031 0.120311 -0.719378
-0.027184 0.490243 0.07484 -0.098416 0.446805 0.888421
-0.303788 0.285792 0.005582 0.206191 -0.072718 0.971346
0.182253 -0.715639 -0.007984 0.061987 -0.344914 0.917946
0.017276 0.395447 0.10408 0.060806 0.209424 0.975414
-0.500503 0.131744 0.083654 0.245355 0.206078 0.929398
0.19036 0.086004 -0.049599 0.87749 0.169726 -0.442029
0.186464 0.492303 0.026865 0.321173 0.252301 0.91097
0.108768 0.406236 0.089817 0.203315 0.127159 0.970726
0.192922 -0.004642 0.066289 0.790961 -0.125034 0.585582
0.025345 -0.595956 -0.035065 0.926305 0.09627 -0.34114
0.025467 -0.614768 -0.007091 0.946887 -0.013563 0.313612
0.214407 -0.080998 0.010175 0.999354 0.016959 0.000999
0.080194 0.646556 -0.040601 0.882353 0.160219 -0.433404
-0.128017 0.397871 0.015278 -0.97678 -0.20275 0.063872
-0.038493 0.243962 -0.127035 -0.330055 -0.112301 -0.935138
0.175951 -0.745509 -0.04566 0.848819 -0.052627 -0.519712
-0.06973 -0.072243 -0.111491 -0.366171 -0.252518 -0.894689
0.186121 -0.385672 0.057898 0.840527 -0.029315 0.539688
0.15885 -0.104328 0.104327 0.487381 0.016206 0.869308
0.070029 0.850404 -0.059065 0.48205 0.764465 -0.426691
-0.018998 -0.053436 0.131105 0.030957 -0.141156 0.987284
0.145539 0.291223 0.073673 0.786022 0.04764 0.615209
0.049172 -0.272716 0.047008 -0.85201 -0.088551 0.515617
0.043449 -0.0216 0.134692 0.077497 -0.220281 0.967699
-0.043083 -0.860496 -0.013146 0.281458 -0.949352 -0.114401
0.061963 -0.296712 -0.072277 -0.799297 -0.009026 -0.600726
0.243691 0.473574 0.001756 0.394641 -0.055464 0.91489
0.070667 -0.284776 -0.083059 -0.680134 0.013038 -0.731989
0.19339 0.370918 -0.083943 0.782789 -0.451645 -0.427457
-0.000489 0.429251 -0.128362 0.119359 0.013881 -0.992679
0.548282 0.112258 0.003972 -0.948945 -0.3143 0.022893
0.110275 0.150851 -0.113386 0.370398 0.196355 -0.906497
-0.059609 -0.864236 0.062399 -0.010052 -0.99994 -0.003641
0.058821 -0.748653 0.011574 -0.983263 -0.16101 0.054206
-0.070129 -0.480857 0.074886 0.304367 -0.168655 0.937445
-0.183855 0.485651 -0.074413 -0.510115 0.415508 -0.750583
0.02608 -0.38612 -0.002332 0.994486 -0.065089 -0.0397
-0.086116 -0.633768 0.046358 0.237433 -0.358364 0.901285
0.035477 -0.278308 -0.031757 -0.888293 -0.079008 -0.449346
0.00842 -0.660421 0.011711 0.726637 -0.16007 0.666125
0.511478 0.217694 -0.064646 0.452981 0.304981 -0.749528
0.285626 0.344319 -0.116714 -0.612208 -0.559466 -0.558149
-0.429866 0.229301 0.002818 -0.629988 0.577843 0.504003
0.102038 -0.42858 0.04838 -0.587029 -0.377007 0.716033
-0.328491 0.253047 0.00631 0.164998 -0.07383 0.981323
0.100795 -0.869409 0.111168 -0.197104 -0.975034 0.04769
-0.077756 -0.721836 0.011855 -0.025202 -0.170724 0.950318
-0.031195 -0.596413 0.029264 0.302341 -0.176575 0.93546
-0.047077 -0.006579 0.137984 -0.334975 -0.054144 0.915299
0.387509 0.31882 -0.0526 0.356524 0.499601 0.788331
-0.117675 0.005615 -0.074943 -0.850155 0.033082 -0.524974
-0.110481 0.240381 -0.055052 -0.928958 -0.164699 -0.30412
-0.111862 -0.05022 0.094309 -0.72397 0.036373 0.688788
-0.026316 0.706289 0.019004 -0.911471 -0.388954 0.118714
0.11476 -0.064517 0.119165 0.162733 -0.124613 0.97095
0.093295 -0.865898 0.117341 -0.481639 -0.870784 0.089293
0.12751 -0.285652 -0.093784 0.401261 -0.026096 -0.915258
-0.060094 -0.686301 -0.112185 0.010816 0.214743 -0.971417
0.315686 0.339067 -0.04057 -0.217127 -0.401102 0.885434
0.078523 0.08238 0.127105 0.471138 0.02626 0.880806
0.067574 -0.405035 -0.071746 -0.728674 -0.025091 -0.683925
0.142499 -0.869384 -0.078175 0.186043 -0.97188 -0.024433
-0.177311 0.480135 -0.081225 -0.434983 0.317381 -0.842593
0.045669 -0.421447 -0.007341 -0.929288 -0.109668 0.342392
0.009019 -0.770512 -0.089848 0.817757 0.182236 -0.5443
-0.113807 -0.503533 0.036919 -0.848855 -0.19533 0.490331
0.067556 -0.689272 -0.047573 -0.789758 -0.143092 -0.595986
0.071288 -0.756219 -0.040836 -0.855932 0.238294 -0.456483
0.060581 -0.200994 -0.079273 -0.712144 -0.204176 -0.671458
-0.072234 -0.418805 0.088023 0.112874 -0.215161 0.969282
-0.388049 0.284763 -0.024905 -0.681361 0.697973 0.21221
-0.056624 -0.798845 -0.146789 -0.358062 0.068957 -0.923434
-0.11488 -0.163357 -0.05152 -0.794776 -0.127935 -0.593125
-0.029784 0.717016 0.018558 -0.973749 -0.084131 0.175846
-0.064997 0.403336 -0.123524 -0.319454 -0.129491 -0.938084
0.086088 0.679218 0.005824 0.836649 -0.501936 0.200179
-0.064828 -0.51124 0.066057 0.375503 -0.226934 0.898198
0.199937 -0.45843 -0.028532 0.999214 0.002459 -0.033975
0.165393 -0.341507 -0.066229 0.680677 0.018682 -0.732121
-0.344567 0.229436 0.005247 0.372716 -0.398214 0.825338
-0.00929 0.674827 0.04851 -0.817875 -0.454286 0.329073
0.620952 0.04936 0.081417 -0.827718 -0.554565 0.016418
-0.103799 -0.825213 -0.018305 -0.987932 0.01395 0.039647
0.005568 0.744238 -0.109958 -0.496821 -0.367943 -0.783149
0.053229 -0.684633 0.006997 -0.976395 -0.000411 0.210536
0.045322 0.42942 -0.130809 -0.35064 0.046411 -0.932391
0.026342 -0.50879 -0.004585 0.965073 -0.059319 0.206949
0.145717 -0.193873 -0.096801 0.479073 -0.109885 -0.870047
-0.204781 0.465489 0.032376 -0.577269 0.265456 0.771157
-0.113251 -0.317299 -0.045335 -0.861317 0.05252 -0.490157
0.090376 -0.635014 0.020448 -0.674092 0.133468 0.705338
-0.137806 -0.428192 -0.002269 -0.995559 0.063031 -0.017559
0.19889 0.008691 -0.041823 0.955152 0.029937 -0.292598
-0.128345 -0.316791 1.5e-05 -0.999818 -0.008581 -0.0164
0.194521 -0.561838 0.01471 0.920064 0.019278 0.390677
-0.12833 0.560553 -0.013451 -0.409483 0.889226 0.112015
-0.366077 0.204783 0.001353 0.502393 -0.682134 0.508231
0.478342 0.234616 -0.011375 -0.100901 0.574166 0.780195
-0.125459 0.204998 0.004615 -0.917504 0.384003 0.005226
-0.103415 -0.725212 -0.004468 -0.668469 -0.337975 0.653452
0.198913 0.40509 -0.003333 0.958356 -0.205548 0.195025
-0.097102 0.572632 -0.028414 -0.381884 0.904063 0.011649
0.450813 0.277365 -0.09876 0.719251 0.360274 -0.587505
0.011012 0.125725 -0.125791 -0.111461 0.43629 -0.892395
0.297648 0.328972 -0.06006 -0.509197 -0.702323 0.497196
-0.103344 0.511012 -0.106299 -0.350074 0.386843 -0.851585
-0.201846 0.505343 -0.029011 -0.741481 0.654956 -0.137688
0.043656 -0.228171 0.040547 -0.979468 -0.039926 0.178873
-0.123701 -0.406011 -0.036151 -0.813186 -0.019923 -0.580342
0.104579 0.359977 0.096493 0.28645 0.09015 0.95176
-0.057225 -0.515286 0.061524 0.410332 -0.278026 0.867788
-0.300499 0.326577 0.004771 -0.25757 0.178044 0.948663
-0.09714 -0.412323 -0.065384 -0.55866 0.107106 -0.819449
0.060479 0.864418 -0.006705 0.375081 0.920311 0.058755
-0.039085 -0.859459 -0.125159 0.145549 -0.927287 -0.331524
0.010741 -0.513429 -0.049864 0.841075 0.049184 -0.536892
0.031705 -0.21975 0.027716 0.916205 -0.079899 0.385387
0.316334 0.449395 -0.060769 0.791065 0.531879 0.285842
0.547257 0.158537 0.036707 -0.517564 0.213574 0.809001
-0.113141 0.285743 -0.048638 -0.988723 -0.131146 -0.05836
-0.074653 -0.268693 -0.086142 -0.577143 -0.035893 -0.814207
0.098739 -0.127577 -0.117615 -0.244727 -0.214314 -0.943192
0.055766 -0.594483 -0.006396 -0.781583 -0.13364 0.607063
-0.005902 0.119916 -0.126257 -0.142438 0.361706 -0.920466
0.080904 0.471609 -0.141115 -0.358265 0.200358 -0.910418
0.181432 -0.207204 0.081717 0.596658 -0.148598 0.785067
0.063058 -0.088385 0.097701 0.116774 -0.802921 0.576963
0.066065 -0.47275 -0.07156 -0.727066 0.039463 -0.685301
-0.111572 0.526473 -0.093135 -0.384119 0.5666 -0.728768
-0.113684 -0.58071 0.022098 -0.905724 -0.018246 0.421027
0.150074 -0.071745 0.107833 0.55982 0.042391 0.802925
0.167902 -0.073773 0.096619 0.613671 0.053372 0.786596
-0.183638 0.458008 0.044933 -0.119678 -0.042035 0.988522
0.162979 -0.247161 0.082398 0.243079 -0.108693 0.962523
-0.015823 -0.455021 -0.076518 0.715357 0.088233 -0.692899
-0.084658 0.503221 -0.116184 -0.298077 0.338052 -0.891213
0.119083 -0.50699 0.045435 -0.559959 -0.086673 0.823834
-0.237519 0.456416 -0.031525 -0.836687 0.544867 -0.044314
0.190408 -0.564382 0.023558 0.874212 -0.072867 0.477048
-0.16902 0.381402 -0.07288 0.612595 -0.655731 -0.44102
0.079733 0.373089 0.100561 0.283 0.19041 0.939707
0.44309 0.29207 -0.068414 0.581508 0.774693 0.220582
-0.140094 -0.135697 -0.012975 -0.922812 -0.095157 -0.372992
0.072635 -0.705056 0.034585 -0.160564 0.165781 0.970725
-0.09198 -0.105527 -0.08802 -0.633592 -0.162742 -0.753993
-0.068216 -0.459051 -0.094194 -0.143031 0.103225 -0.981181
-0.052846 0.022289 -0.138829 -0.286272 -0.232647 -0.921092
0.166885 -0.862984 0.060116 0.251032 -0.956986 -0.026712
0.202356 -0.560024 -0.009184 0.942902 -0.048527 0.328527
0.602782 0.078308 0.005336 0.408092 -0.335459 -0.834305
0.13446 -0.237755 -0.095072 0.437326 -0.144841 -0.885961
0.083646 0.804206 0.045699 0.878058 0.265075 0.393988
-0.114563 0.125259 0.052392 -0.83928 0.107849 0.531182
0.19949 -0.269688 0.047007 0.935852 -0.053632 0.347885
0.052283 -0.311484 -0.0585 -0.814982 0.005868 -0.579392
0.149337 -0.860422 0.173924 0.299164 -0.763237 0.473227
-0.021122 -0.489311 -0.086459 0.657415 0.09255 -0.745766
-0.128585 0.394215 -0.025174 -0.958686 -0.217164 0.003491
0.148364 -0.403376 -0.089932 0.527134 0.097428 -0.843615
0.008015 0.562394 -0.105661 -0.01663 0.414219 -0.909994
-0.142876 -0.048295 0.023306 -0.994468 0.044308 0.094928
-0.118935 0.516634 0.050921 -0.04819 0.475784 0.877579
0.1322 0.290735 0.089011 0.648438 0.05066 0.759528
-0.553679 0.052123 0.031699 0.826232 -0.56007 -0.040425
-0.009818 0.844553 0.032856 -0.739243 0.424494 0.491999
0.187273 -0.589646 0.021691 0.628398 -0.181353 0.752886
0.056614 -0.324692 0.04776 -0.702481 -0.206315 0.679325
0.070044 -0.609214 -0.064958 -0.675668 -0.019766 -0.73691
0.067915 -0.772318 -0.042391 -0.894017 0.164011 -0.414789
0.061436 -0.538524 0.004008 -0.689467 -0.018566 0.723662
-0.267078 0.301396 -0.084521 0.571607 -0.432647 -0.691489
0.107355 0.077071 -0.140703 0.532266 0.264576 -0.804013
-0.131804 0.019434 -0.041774 -0.897866 0.047354 -0.431859
0.198525 0.122511 0.017453 0.949571 -0.182903 0.250091
0.204828 -0.248441 0.02052 0.997833 0.018374 0.060621
