-0.43343 0.232351 -0.035552 -0.753486 0.638936 -0.13207
0.065324 -0.326154 0.05721 -0.687767 -0.223546 0.686556
-0.270781 0.410946 -0.015426 -0.729358 0.647648 0.217741
0.069018 -0.56152 0.010533 -0.64468 0.014573 0.764129
-0.121526 -0.516668 0.020984 -0.830707 -0.09667 0.548006
0.158905 -0.340059 0.075805 0.240961 -0.040625 0.969654
0.150401 0.1568 0.079774 0.706535 0.040966 0.706444
0.039405 -0.194732 0.028347 -0.660748 -0.208742 0.598734
0.179765 -0.53052 -0.080557 0.703852 -0.034432 -0.709442
-0.019785 -0.835084 -0.028897 0.77086 -0.572513 0.013474
-0.11807 -0.795977 -0.036118 -0.887824 -0.422663 0.130502
-0.049285 -0.02207 -0.13199 -0.246398 -0.157732 -0.955476
-0.024292 -0.834288 0.040916 0.975483 0.089622 0.082832
-0.074763 -0.57009 0.056829 0.420882 -0.168688 0.890923
-0.0914 -0.854551 -0.10496 -0.830017 -0.286475 -0.37251
-0.201174 0.4048 0.031236 0.297283 -0.345166 0.889755
0.158543 -0.560191 -0.09651 0.536 -0.048146 -0.841261
-0.086447 0.028838 0.109035 -0.515127 0.378033 0.768211
0.578262 0.060957 0.00293 -0.927738 -0.371742 0.02727
-0.184006 0.427445 -0.094316 -0.048147 0.172299 -0.983377
0.092765 -0.852983 -0.019733 -0.801025 -0.563675 0.14927
0.035737 0.540467 0.039054 -0.000776 0.706778 0.707018
0.065291 0.423987 -0.138079 -0.297763 0.0454 -0.953017
-0.120949 -0.652423 0.00206 -0.981094 -0.123951 0.145512
-0.054936 -0.48116 -0.097314 0.044565 0.111714 -0.992554
0.183182 0.209777 -0.002505 0.999662 0.01982 -0.00916
0.186464 0.492303 0.026865 0.321173 0.252301 0.91097
0.104805 0.788397 -0.045207 0.993156 0.055023 -0.095722
0.225848 0.485573 -0.128013 0.235674 0.287058 -0.92737
0.190717 -0.541569 -0.066829 0.814771 -0.028456 -0.578745
0.136527 0.022298 -0.135164 0.615726 0.053271 -0.784175
0.059731 0.071218 0.130187 -0.008158 0.062956 0.995453
-0.135973 0.050161 0.012472 -0.994638 0.097138 0.011077
0.158125 -0.164599 0.097715 0.245844 -0.144869 0.956929
-0.050851 -0.084159 0.1263 -0.251048 -0.062104 0.962313
0.089509 0.834163 -0.038773 0.929869 0.364029 -0.052395
0.553862 0.129343 0.046135 -0.569592 -0.024543 0.809701
0.23644 0.536152 -0.030893 0.683605 0.650673 0.321497
0.001869 -0.233792 0.096974 0.566056 -0.134042 0.812844
-0.025008 0.515142 0.063126 -0.130693 0.516875 0.844702
-0.000974 -0.170623 0.107511 0.610221 -0.111153 0.78424
0.067015 -0.093518 0.089131 -0.101313 -0.732691 0.640563
-0.018948 0.414857 0.102412 -0.10244 0.303436 0.945972
0.357526 0.272519 -0.064975 -0.693315 -0.67928 0.234534
0.12945 -0.864855 0.157638 -0.026087 -0.984875 0.168905
0.106407 -0.870229 -0.096332 -0.112759 -0.980606 -0.064103
-0.178023 0.520236 -0.052917 -0.629152 0.619118 -0.46873
0.213022 -0.019659 0.016302 0.990873 0.087607 0.078716
-0.099199 -0.008974 -0.104117 -0.76849 -0.041126 -0.636066
-0.052559 0.07824 -0.125983 -0.388371 0.2043 -0.898434
0.003184 0.237676 0.125318 -0.391454 0.094842 0.911702
-0.079692 -0.093259 0.117573 -0.435138 -0.014681 0.89942
0.209978 -0.116528 -0.027419 0.916466 0.032561 -0.397163
0.135809 -0.628873 -0.096582 0.182527 -0.114371 -0.973458
-0.07137 -0.672773 0.028221 0.289587 -0.329043 0.898701
0.203551 0.557038 -0.03027 0.362466 0.873889 0.297028
0.011416 -0.204713 0.091636 0.828722 -0.082666 0.552906
-0.008655 -0.169445 -0.077322 0.629108 -0.05701 -0.774006
-0.090995 0.486822 -0.119429 -0.319119 0.227249 -0.919512
0.021797 0.725645 -0.104484 -0.147652 -0.538963 -0.828104
0.199055 -0.015569 -0.047381 0.954548 0.042524 -0.29363
0.095 -0.534535 -0.096539 -0.585179 -0.065189 -0.808039
0.0908 0.330746 -0.144121 0.022063 -0.061438 -0.996055
0.136135 -0.04201 0.113848 0.321994 -0.033849 0.945933
-0.136448 0.03854 0.028985 -0.979273 0.188218 0.070154
0.160171 -0.431693 -0.08722 0.540358 0.207879 -0.813779
-0.034483 0.583514 -0.010472 -0.360591 0.742205 0.558784
0.029245 -0.301729 -0.005129 0.989993 -0.091778 -0.088609
0.105044 -0.861117 0.164565 -0.343805 -0.891392 0.259008
0.076637 0.171548 -0.119019 0.136885 0.119042 -0.982369
0.240249 0.411033 -0.134134 -0.392541 -0.231532 -0.884313
0.02054 -0.285086 -0.031607 0.949531 -0.065777 -0.305314
0.044117 0.210071 0.12885 0.041905 0.03983 0.998249
0.195627 0.097484 -0.003313 0.985869 0.025924 0.065349
0.158749 -0.604407 -0.091268 0.521794 -0.158913 -0.837524
0.28793 0.482726 -0.044435 0.760623 0.564434 0.320258
-0.127935 0.162096 -0.005693 -0.991898 -0.020194 -0.108116
0.176823 -0.773873 -0.063857 0.769082 0.50142 -0.392668
-0.50961 0.085449 0.042071 0.590014 -0.748159 -0.257844
0.11524 -0.86643 0.004794 -0.147124 -0.98023 -0.092557
-0.123187 -0.318183 0.062138 -0.986836 -0.065299 0.147139
0.56276 0.129339 0.050282 -0.32841 0.171789 0.926003
-0.279825 0.365155 0.005786 -0.671789 0.179929 0.713466
0.187116 0.327587 -0.051056 0.856976 -0.357078 -0.371543
-0.047152 0.268274 0.102006 -0.627375 0.054539 0.775818
-0.335184 0.330356 -0.018621 -0.609438 0.731455 0.267363
0.064462 -0.723843 -0.027357 -0.822113 -0.218055 -0.524038
-0.334501 0.333959 -0.039149 -0.676604 0.735575 0.031753
0.108168 -0.193133 -0.104661 -0.128946 -0.143003 -0.980352
0.566777 0.088622 0.047652 -0.855124 -0.43576 0.262627
0.122044 -0.294529 -0.096195 0.368161 -0.018702 -0.92637
-0.015644 -0.809007 0.029019 0.871188 0.348319 0.345685
0.295049 0.361163 -0.029368 0.117749 -0.73002 0.664843
0.117265 0.398226 -0.144269 0.188178 -0.064928 -0.979869
0.041994 0.083757 -0.144938 -0.14033 0.224561 -0.964171
0.075529 0.833037 -0.077747 0.585412 0.636626 -0.501685
0.03391 -0.07749 -0.109779 -0.578958 -0.471235 -0.664408
-0.019561 0.688449 -0.009539 -0.993092 -0.103136 -0.018743
0.06001 -0.447391 0.002696 -0.529073 -0.060361 0.843576
-0.151561 0.487694 0.056348 -0.2452 0.1997 0.947506
0.013636 -0.444884 -0.038516 0.83446 0.044707 -0.549186
-0.124032 -0.670596 -0.025137 -0.951164 -0.102435 0.290971
0.086664 -0.843815 0.026485 -0.99873 -0.026666 -0.024126
0.119259 -0.137448 -0.115189 0.175587 -0.303498 -0.933643
-0.005062 0.753635 -0.107092 -0.609115 -0.297471 -0.732316
0.03297 0.723196 0.100036 -0.042675 -0.461441 0.865074
-0.46727 0.189472 -0.000239 -0.747624 0.66116 0.041256
0.275566 0.412334 -0.012807 0.045929 -0.139973 0.986525
-0.339525 0.22411 -0.001763 0.439159 -0.665019 0.57766
0.068184 0.230881 0.122858 0.298556 0.096597 0.949273
-0.03237 0.204855 -0.117858 -0.319492 -0.363162 -0.873125
0.166322 -0.220431 -0.078388 0.559878 -0.06218 -0.825844
0.450213 0.256467 -0.105113 0.68952 -0.105606 -0.710642
0.192655 0.117355 0.031719 0.918676 -0.002435 0.392059
0.248295 0.375945 -0.043123 -0.586557 -0.672201 0.448592
0.114247 0.416619 0.087105 0.307538 0.197823 0.929129
-0.072498 0.360675 -0.116284 -0.42691 -0.106374 -0.897421
-0.02574 -0.55829 0.03802 0.433753 -0.235108 0.86952
0.019553 -0.751787 -0.062153 0.982228 -0.100723 -0.152065
0.024423 -0.245945 0.055381 0.932261 -0.009624 0.36048
-0.113131 -0.793826 -0.012905 -0.893096 -0.27925 0.335671
-0.152807 0.550416 -0.024476 -0.441653 0.890331 -0.094634
-0.137081 -0.203662 0.01124 -0.990289 -0.087854 -0.102037
-0.005111 -0.39337 0.070708 0.684109 -0.19265 0.701503
-0.029374 0.737713 0.020011 -0.986061 -0.074593 0.146249
0.191358 0.333447 -0.018638 0.987895 -0.146296 0.029272
-0.002535 -0.181786 0.107455 0.610779 -0.077066 0.787985
0.194446 0.082248 -0.040921 0.911987 0.165679 -0.36799
0.182306 0.219518 0.019611 0.994792 0.054777 0.080423
0.200072 -0.259363 0.046794 0.942079 -0.015889 0.334434
0.159715 -0.188022 0.093565 0.260008 -0.102731 0.95982
-0.18837 0.491617 0.038088 -0.600419 0.326475 0.727459
0.086971 0.549134 0.032376 0.074103 0.784915 0.600054
-0.126144 -0.324246 0.039144 -0.992542 -0.031696 0.116957
-0.027553 0.813877 0.015947 -0.805861 0.216198 0.548662
-0.135892 -0.530157 -0.016343 -0.985488 -0.065603 0.149716
-0.028287 -0.240262 -0.088879 0.340283 0.020918 -0.937277
-0.117841 0.16229 0.041576 -0.871925 0.020227 0.486978
-0.141909 -0.165705 0.030205 -0.974435 -0.13506 0.170888
0.225291 0.445315 0.014853 0.428475 -0.221405 0.870899
0.082248 0.003374 -0.157293 0.089245 -0.068315 -0.990647
-0.010417 0.611395 -0.00029 -0.882116 0.08834 0.460427
0.020198 -0.157232 0.082549 0.902935 -0.157675 0.39677
0.060061 -0.45707 -0.064189 -0.731309 0.036983 -0.681006
-0.077881 -0.387081 0.094926 0.143039 -0.211708 0.966694
0.103147 -0.024489 -0.151286 0.164399 -0.233091 -0.95698
0.008663 0.556298 0.027286 -0.073739 0.429575 0.891661
0.165374 -0.627299 -0.083067 0.533012 -0.154802 -0.831424
0.164497 -0.547339 -0.093608 0.682774 -0.033679 -0.729851
-0.314366 0.347761 -0.064163 -0.631203 0.704214 -0.323925
0.174869 -0.810518 -0.031785 0.931437 -0.353348 0.04644
-0.119788 0.122879 -0.040354 -0.890694 0.032468 -0.451162
0.51338 0.189489 -0.052683 0.221595 -0.367849 -0.902208
0.031782 0.622394 -0.070567 -0.122591 0.5023 -0.855138
0.065165 -0.632484 0.003567 -0.211689 0.471715 0.851673
0.020198 0.826216 0.065914 -0.330212 0.525616 0.778671
0.295507 0.38368 -0.018307 0.184716 -0.123431 0.966911
-0.082035 0.577061 -0.032218 -0.522803 0.825622 0.102025
0.40741 0.252534 -0.033281 -0.257046 -0.012413 0.956343
-0.021341 0.694962 0.018574 -0.9555 -0.290559 0.033619
-0.127766 0.002296 -0.055295 -0.925333 0.073116 -0.371174
-0.418508 0.178846 0.027209 0.138001 0.173777 0.919931
0.060723 -0.668588 -0.042804 -0.824521 -0.188329 -0.527179
0.095615 -0.01442 -0.153865 0.131272 -0.151711 -0.977301
0.102364 0.75654 0.001538 0.931475 0.030818 0.35357
0.565837 0.119563 0.053481 -0.48479 0.175212 0.849619
-0.002596 -0.429792 -0.059964 0.739832 0.019551 -0.672458
0.126736 -0.725758 -0.097482 0.145287 0.170077 -0.969907
0.389909 0.305567 -0.127946 0.306913 0.192018 -0.929427
-0.07036 -0.588253 0.050026 0.425424 -0.220428 0.877617
0.46356 0.226731 -0.012685 -0.260746 0.28314 0.916599
0.168212 -0.708381 -0.065521 0.81303 -0.025984 -0.58156
0.114609 -0.869787 0.052894 -0.004137 -0.999642 -0.024199
0.010161 -0.695432 -0.006511 0.776309 -0.237531 0.583637
0.323683 0.323078 -0.046337 -0.415121 -0.502878 0.756094
0.019789 -0.599989 -0.044829 0.78811 0.11052 -0.602929
0.165122 -0.812324 -0.095729 0.864378 -0.101228 -0.481703
0.001592 0.160138 0.129475 -0.119108 0.009172 0.992753
0.187199 0.339493 0.011741 0.915115 -0.088443 0.39215
-0.087367 -0.168613 0.114584 -0.273633 -0.055922 0.95986
-0.540782 0.068192 0.079007 0.460119 -0.827439 0.296186
-0.03005 0.494679 -0.127421 0.004183 0.185405 -0.981809
0.152346 -0.309753 0.079068 0.229668 -0.059171 0.970285
0.166023 0.06419 0.088978 0.496407 0.227798 0.81947
-0.079177 0.184939 -0.081887 -0.648513 -0.019114 -0.760383
0.090978 0.827443 -0.018451 0.899695 0.42167 0.012114
0.454213 0.21923 -0.087162 0.702749 -0.264005 -0.659736
0.194521 -0.561838 0.01471 0.920064 0.019278 0.390677
0.38867 0.241503 -0.053285 -0.64343 -0.675663 0.345842
-0.125567 0.371491 -0.012883 -0.953533 -0.288785 0.066445
0.067225 -0.809672 -0.039434 -0.981724 -0.146035 -0.111515
-0.126809 -0.748478 -0.037788 -0.984435 -0.140467 0.085193
-0.197977 0.496799 0.023345 -0.737067 0.481001 0.473485
0.19134 -0.306731 0.058101 0.901993 -0.081602 0.421719
0.087916 -0.216485 -0.09376 -0.433315 -0.12438 -0.891278
0.025441 -0.083938 -0.096265 -0.436814 -0.659923 -0.602702
-0.097639 -0.636497 -0.099368 -0.495318 0.072544 -0.86481
-0.130106 -0.589841 -0.029676 -0.985969 -0.097114 0.129951
0.112768 0.497224 0.057552 0.28395 0.470481 0.833928
0.190483 0.33831 0.000263 0.977225 -0.093188 0.187781
0.211294 -0.074915 0.035748 0.947983 0.016201 0.310324
-0.126875 -0.610168 -0.00829 -0.981208 0.023794 0.189093
0.116649 -0.640907 -0.095253 -0.252183 -0.085722 -0.961926
0.098951 -0.768314 0.021214 -0.249396 0.804134 0.537685
0.099563 0.753324 0.011298 0.978771 -0.014972 0.199252
-0.287015 0.399963 -0.037533 -0.626246 0.770132 0.117701
0.101254 -0.712611 -0.090492 -0.570536 0.086348 -0.81472
0.123551 0.503756 -0.137419 0.044835 0.256795 -0.96486
-0.073668 0.526124 -0.10881 -0.319684 0.492647 -0.808127
-0.024595 -0.836866 0.053998 0.956867 0.281628 0.05477
0.201116 -0.569629 -0.006948 0.963532 -0.081501 0.252846
0.083513 -0.852809 0.071858 -0.978952 -0.013544 -0.069445
0.156496 -0.652362 0.028495 0.197483 -0.009389 0.978304
0.183395 0.201623 0.003036 0.995385 0.070186 0.001508
-0.126507 0.063895 -0.040625 -0.945913 0.133056 -0.294913
-0.132076 -0.43628 0.032439 -0.917847 -0.088468 0.386655
-0.101767 -0.552397 -0.090382 -0.537607 0.079053 -0.839404
0.021897 0.646448 0.038198 -0.426709 -0.480855 0.760706
0.180065 0.563492 -0.026351 0.308868 0.864661 0.37544
-0.030787 -0.41676 0.078989 0.335294 -0.180218 0.924484
-0.429269 0.159559 -0.002642 0.519398 -0.853806 0.018608
0.12099 0.29467 0.096273 0.507053 0.068975 0.856449
-0.102842 0.218006 0.066218 -0.738402 0.099545 0.662764
0.162972 -0.758865 0.023775 0.126631 0.083463 0.980998
0.157039 -0.017342 0.103299 0.560718 0.09629 0.821166
0.460534 0.196712 -0.005707 -0.724683 -0.328387 0.538554
0.111701 0.015287 -0.149083 0.47148 -0.027792 -0.880717
0.166365 -0.177264 0.092941 0.37633 -0.173817 0.908275
-0.2237 0.473529 -0.039998 -0.759492 0.569437 -0.305004
-0.288826 0.372435 -0.010144 -0.792219 0.450759 0.409122
0.08242 0.618742 -0.007017 0.93447 0.066192 0.343273
0.190416 0.018669 -0.064802 0.903766 -0.018277 -0.423227
0.072935 -0.304455 -0.084538 -0.640324 -0.020657 -0.765692
0.198593 0.377671 -0.051498 0.999519 -0.024141 0.012657
0.174353 -0.613 0.02123 0.372766 -0.23227 0.894228
-0.140495 -0.027203 0.00688 -0.956325 0.289544 0.012777
-0.01744 -0.574833 0.030086 0.356866 -0.194323 0.911821
0.176081 -0.803972 -0.038772 0.961438 -0.266699 0.028729
-0.282467 0.263881 -0.028458 0.686356 -0.663708 0.289724
-0.068194 -0.725871 0.014097 -0.324213 0.371339 0.867876
0.137273 0.226115 -0.102181 0.749228 -0.225953 -0.62156
0.135279 0.507151 -0.135999 0.116709 0.266508 -0.955298
0.076434 -0.536771 -0.079758 -0.712629 -0.07129 -0.697882
-0.079209 -0.446054 0.082327 0.081174 -0.149466 0.984501
0.069292 0.273747 -0.137534 -0.21645 -0.062717 -0.973418
0.184091 -0.661649 0.015009 0.641174 -0.116416 0.753942
0.000421 -0.273377 -0.06432 0.75666 -0.12724 -0.641231
-0.060066 -0.820668 0.084779 -0.188245 0.933549 0.304382
0.017433 -0.238695 0.077287 0.918109 -0.047909 0.38956
-0.058744 0.003458 -0.131744 -0.271297 -0.08574 -0.958491
0.095244 0.787897 -0.077095 0.891851 0.090675 -0.438964
-0.117861 0.324488 -0.006337 -0.98273 -0.043928 0.176587
-0.033847 0.838627 -0.019883 -0.735166 0.676631 -0.025612
0.067653 -0.744829 -0.030177 -0.862075 0.091935 -0.496357
-0.025435 -0.297149 0.096222 0.304212 -0.138037 0.942289
-0.13318 -0.050309 0.065025 -0.869005 0.034723 0.489524
-0.016064 -0.236618 -0.082748 0.523456 -0.009237 -0.851861
0.105361 0.78025 -0.021313 0.999869 -4e-05 0.006775
0.143476 0.508 0.040935 0.358377 0.543582 0.755696
0.128499 0.428917 -0.144781 0.144202 -0.088599 -0.98542
0.172016 0.011734 -0.097591 0.810498 0.037355 -0.583785
-0.237797 0.330404 -0.078641 0.51767 -0.604261 -0.604178
0.252843 0.422263 -0.138865 -0.200117 0.014652 -0.978751
-0.03634 0.808008 -0.007407 -0.983252 -0.090444 0.141976
0.200385 0.061669 0.02942 0.966151 0.215865 0.139147
-0.006296 -0.346847 0.08085 0.623977 -0.05558 0.774906
-0.527395 0.114143 0.051822 -0.816392 0.576996 0.002129
-0.092308 -0.311816 -0.069277 -0.679797 -0.003588 -0.733266
-0.032453 -0.509602 0.053268 0.356719 -0.267696 0.89458
-0.058457 -0.528764 -0.101673 0.023385 0.063818 -0.996129
-0.076126 -0.091923 -0.102512 -0.536904 -0.188365 -0.819083
-0.007916 0.631287 0.001336 -0.819469 -0.017043 0.570671
-0.001037 0.662751 -0.048424 -0.766577 -0.090298 -0.6315
0.10351 0.781582 0.001545 0.978915 0.029139 0.198938
-0.079297 0.493316 -0.121122 -0.261784 0.268512 -0.926905
-0.015356 -0.714102 -0.098816 0.541284 0.291946 -0.78783
0.167427 -0.56088 0.042365 0.279155 -0.197664 0.934588
-0.114442 -0.623852 -0.086352 -0.611174 0.101061 -0.784996
0.103181 0.791101 -0.054439 0.947179 0.153802 -0.266405
0.10826 0.431841 -0.146395 -0.016944 -0.038789 -0.998809
-0.072707 -0.32557 -0.08371 -0.448939 -0.030339 -0.89075
-0.097252 -0.17985 0.11118 -0.354396 -0.03159 0.927716
-0.121639 -0.080637 -0.059081 -0.802573 -0.124531 -0.582857
0.05761 0.31627 -0.135641 -0.38005 -0.031488 -0.924377
0.070562 0.240642 -0.134654 -0.223724 -0.159482 -0.960956
0.632328 0.038784 0.013421 -0.88588 -0.352773 -0.269979
0.205425 -0.171784 0.02743 0.976154 -0.036806 0.207659
-0.056488 0.041949 -0.134407 -0.413316 0.281299 -0.863886
-0.262981 0.41869 -0.059066 -0.684806 0.674494 -0.263335
0.035212 0.230806 -0.125855 -0.045067 -0.048385 -0.99548
0.053829 -0.654126 0.006849 -0.88974 0.110374 0.415561
0.024828 -0.537256 -0.017104 0.982184 -0.078288 -0.081397
-0.04201 -0.306659 0.099703 0.276382 -0.115386 0.952772
0.458923 0.19318 -0.030251 -0.415298 -0.907906 0.037604
-0.014989 -0.193995 0.113273 0.391303 -0.096354 0.914648
0.18058 -0.793792 -0.056648 0.899388 -0.379558 -0.049168
0.020759 -0.606788 0.001274 0.748013 0.023228 0.660138
-0.457059 0.193972 -0.032167 -0.747797 0.348089 -0.558755
-0.126485 -0.560262 -0.000736 -0.925483 -0.129969 0.352435
0.008349 0.403768 -0.128231 0.032793 0.011353 -0.999364
0.059257 0.224749 0.126332 0.259128 0.108117 0.953685
0.178515 -0.436523 0.063772 0.551999 -0.042163 0.830262
0.072796 -0.464559 0.010321 -0.584973 0.03936 0.806624
-0.047076 0.441257 0.089999 -0.155761 0.213384 0.964354
0.356096 0.317682 -0.133558 0.000779 -0.143834 -0.988291
0.097934 -0.436246 -0.097524 -0.496853 0.031312 -0.865138
0.155512 0.474336 -0.140536 0.281471 0.192058 -0.939617
0.004088 -0.37596 -0.048702 0.659228 0.049632 -0.750037
0.197394 -0.601615 0.005747 0.964159 -0.049544 0.253103
-0.054089 -0.030901 0.12856 -0.205078 0.080627 0.975012
0.117438 0.356864 -0.139861 0.385851 -0.142796 -0.91123
0.099294 0.346137 0.099359 0.292982 0.113129 0.948271
0.254434 0.362021 -0.056902 -0.701803 -0.655543 0.266951
-0.136093 -0.149561 0.06095 -0.960632 0.010432 0.276191
-0.111998 0.278904 -0.056044 -0.991617 -0.07493 -0.097658
0.616997 0.086653 0.015976 0.751804 0.655867 -0.067814
0.09327 0.106955 0.120587 0.358475 0.056153 0.930344
0.174533 -0.521676 0.049782 0.563809 -0.196748 0.799563
0.069969 0.278952 0.119019 0.362229 0.126368 0.922154
0.026367 -0.341726 -0.012432 0.967245 -0.061433 -0.228841
0.169621 -0.368199 -0.067071 0.621195 0.223401 -0.750528
-0.116068 -0.152231 -0.052462 -0.793521 -0.153967 -0.588384
0.062379 0.483035 -0.133138 -0.491402 0.325554 -0.799725
-0.027913 -0.659556 -0.093484 0.530394 0.08879 -0.842543
0.018682 0.375566 0.107915 0.077389 0.235247 0.968655
0.099944 -0.295053 -0.098967 -0.182285 0.014394 -0.979883
0.019313 -0.363204 0.041505 0.918856 -0.149925 0.362132
0.077095 -0.481741 0.015734 -0.658601 0.077073 0.748263
0.194815 -0.137225 -0.058231 0.76594 -0.028523 -0.642051
0.023908 0.689517 0.089246 -0.277616 0.003746 0.956612
0.465312 0.236595 -0.016706 -0.198618 0.489662 0.841101
-0.08896 0.141713 0.079394 -0.673409 0.077627 0.734852
0.196036 0.521497 0.012503 0.26395 0.510141 0.816867
0.191479 -0.753194 -0.008611 0.957026 -0.271453 0.088914
0.088823 -0.539187 0.02787 -0.561758 0.037607 0.825152
-0.094364 0.272848 0.066958 -0.70924 0.014176 0.70444
0.08845 0.39987 0.09519 0.165913 0.206347 0.963853
-0.085893 -0.062712 -0.104336 -0.584993 -0.224828 -0.779227
0.093811 0.362089 -0.145369 0.005302 -0.030914 -0.99946
0.035762 0.257364 -0.126056 -0.10605 -0.057587 -0.990966
-0.022767 -0.84324 0.062084 0.97819 0.162716 0.08991
-0.101445 0.141551 -0.068713 -0.756464 0.199345 -0.622174
-0.056929 -0.838292 0.151701 0.559575 0.532347 0.610622
0.088612 0.384132 0.097437 0.152989 0.115057 0.981366
-0.507479 0.085721 0.065046 0.697343 -0.691678 0.106378
-0.128328 0.118139 0.020485 -0.972992 0.073414 0.213974
0.027652 -0.259201 0.039665 0.98696 -0.033842 0.156666
0.199879 -0.196587 0.043612 0.951651 -0.024906 0.305726
0.075609 0.251028 -0.136586 -0.146148 -0.10604 -0.982545
0.547838 0.118475 -0.016717 -0.521686 -0.418642 -0.678028
0.20048 -0.024322 -0.043605 0.950645 0.02868 -0.307796
0.601087 0.068228 0.056874 -0.511714 -0.850211 0.02418
-0.278493 0.375059 -0.086329 -0.635907 0.290146 -0.713749
0.020759 0.146842 0.131623 -0.069554 0.053818 0.995893
-0.430248 0.220019 0.010006 -0.375008 0.397715 0.83288
0.492445 0.20304 -0.06305 0.042701 -0.388498 -0.920364
-0.158154 0.529728 -0.062682 -0.437166 0.693147 -0.5692
-0.00196 -0.607409 -0.069401 0.696218 0.023893 -0.717303
-0.155165 0.473122 0.057108 -0.277177 0.025401 0.958923
-0.085712 0.347093 0.074555 -0.786352 -0.015876 0.617012
-0.120206 0.329635 -0.051395 -0.997571 -0.044465 -0.047076
0.144985 -0.780454 -0.104201 0.394181 0.417584 -0.816876
0.163061 -0.308818 0.076186 0.25952 -0.06562 0.963378
0.027822 0.756666 -0.119866 -0.045186 -0.201208 -0.974792
0.007468 -0.573246 -0.05857 0.790641 -0.005505 -0.612064
-0.494031 0.151152 -0.024612 -0.8115 0.319683 -0.449838
0.042865 -0.180603 0.048096 -0.96941 -0.041191 0.238352
0.068163 0.766941 0.06947 0.3693 -0.376372 0.825559
-0.116134 0.217705 -0.02881 -0.918834 -0.11941 -0.373272
0.093219 0.029693 0.127975 0.213839 0.239941 0.946137
-0.105805 -0.83657 0.032598 -0.768378 0.639336 0.021084
0.266265 0.497794 -0.094222 0.618703 0.581735 -0.527963
0.06768 -0.497121 -0.07384 -0.711915 -0.009144 -0.701803
-0.142713 -0.168295 0.016426 -0.986848 -0.145767 -0.010371
0.13327 -0.399716 -0.098541 0.397474 0.096238 -0.91193
0.207507 -0.049345 0.040784 0.945217 0.048204 0.320749
0.021602 -0.558595 -0.00517 0.917013 0.050941 0.387353
0.149009 -0.110401 0.109179 0.422743 -0.016616 0.904958
0.108605 -0.119609 -0.120047 -0.017074 -0.189663 -0.980825
0.097187 -0.866779 0.049004 -0.575494 -0.811571 -0.075431
0.160677 0.323118 -0.094653 0.728808 -0.270954 -0.626943
-0.070691 -0.301654 -0.086429 -0.504181 -0.087668 -0.85557
0.06287 0.247454 -0.133096 -0.367853 -0.148128 -0.917715
-0.052899 -0.041447 0.128827 -0.191218 -0.039962 0.980489
-0.152536 0.526079 -0.070487 -0.456163 0.621128 -0.63708
0.196899 0.09033 -0.018015 0.975531 0.199059 -0.071073
-0.120173 0.48309 -0.10676 -0.436955 0.18589 -0.878691
0.164431 0.296041 -0.077596 0.855233 -0.22848 -0.464879
0.089895 0.696738 -0.004319 0.983011 -0.147567 0.012462
0.127322 0.555366 0.004227 0.282365 0.719559 0.633565
0.077504 0.685761 -0.048797 0.737938 -0.374298 -0.560796
-0.112302 -0.756842 0.000437 -0.73684 -0.077421 0.634168
-0.215115 0.420037 -0.090971 -0.253814 0.311939 -0.914585
0.406213 0.312515 -0.115075 0.576421 0.498444 -0.647513
0.05291 0.274958 -0.131912 -0.375469 -0.075008 -0.922721
-0.245669 0.44501 -0.038418 -0.760434 0.643373 -0.082364
-0.100177 -0.773157 -0.10298 -0.733484 0.110833 -0.670207
-0.328491 0.253047 0.00631 0.164998 -0.07383 0.981323
0.201504 0.484645 0.023276 0.411855 0.234687 0.880212
0.197644 -0.635882 -0.008707 0.982557 -0.07007 0.166627
0.0094 0.12266 0.131223 -0.122352 0.041195 0.989374
0.145294 0.013109 0.113114 0.437362 0.141884 0.886262
0.630579 0.034271 0.049489 -0.922356 -0.34615 -0.022913
-0.140674 -0.476994 -0.015766 -0.980594 0.085677 -0.148261
0.030203 -0.29112 -0.005236 0.990317 -0.104869 -0.066227
0.037485 -0.244783 -0.035059 -0.731007 -0.077284 -0.673332
-0.107748 0.330433 0.032893 -0.904859 -0.151345 0.39689
0.203503 -0.01975 -0.034455 0.938411 0.043504 -0.341155
0.256794 0.486218 -0.006871 0.598023 0.291471 0.743868
-0.025543 -0.78105 0.028899 0.625055 0.5651 0.533327
-0.00548 0.240618 -0.129131 0.057234 -0.056572 -0.995764
0.232385 0.436013 0.006558 0.544483 -0.346041 0.745834
0.067974 0.857264 0.022351 0.618261 0.730421 0.288015
-0.001085 0.436217 0.097253 0.026472 0.170292 0.984539
0.006273 0.715137 -0.091295 -0.421634 -0.575677 -0.695955
0.031051 0.279064 -0.127412 -0.052621 -0.039616 -0.997631
-0.057152 -0.036263 -0.127101 -0.265407 -0.287891 -0.918827
0.550706 0.115845 0.03141 -0.919947 -0.322303 0.219598
0.005455 0.657418 0.032123 -0.621536 -0.645947 0.422215
0.020828 -0.402507 -0.021335 0.96849 -0.093375 -0.225165
-0.054053 -0.478083 0.070265 0.35309 -0.295193 0.887707
-0.071976 -0.855952 0.156869 -0.077674 -0.715187 0.671867
0.199376 0.070858 0.024256 0.97135 0.209609 0.105907
0.206066 -0.530273 -0.022835 0.998453 0.009878 -0.021426
-0.03413 -0.154795 -0.094551 0.365547 -0.192004 -0.907133
-0.121698 -0.766237 -0.047387 -0.974026 -0.220612 -0.020534
-0.170608 0.397609 -0.090185 0.439583 -0.392789 -0.800354
-0.178982 0.485371 0.044695 -0.402535 0.161961 0.899879
0.229943 0.526781 -0.005748 0.504433 0.590363 0.622604
0.090567 -0.839899 0.105711 -0.872847 0.47383 0.114922
-0.011211 0.098227 -0.132931 -0.206888 0.394502 -0.888548
-0.501365 0.141881 -0.016016 -0.878272 0.097557 -0.40046
0.172062 -0.860661 0.11985 0.538112 -0.805143 0.128459
-0.070427 -0.863618 0.115511 -0.01874 -0.999689 0.015968
-0.097734 -0.849802 -0.042421 -0.802931 -0.590009 -0.049473
0.156294 0.261183 -0.081588 0.861301 -0.085109 -0.500523
0.052958 -0.695958 -0.017025 -0.977883 -0.103269 -0.165197
-0.050385 -0.791534 -0.14683 -0.22636 0.327294 -0.904064
0.190658 -0.458075 0.035454 0.963578 -0.069341 0.257647
0.020655 0.743657 0.089823 -0.90833 0.210667 0.360221
0.124628 0.092775 0.103998 0.292191 -0.020374 0.95516
0.230185 0.544019 -0.037553 0.608401 0.754657 0.241703
0.077814 0.552291 0.022974 -0.066292 0.831968 0.532631
-0.077756 -0.721836 0.011855 -0.025202 -0.170724 0.950318
-0.01526 -0.693983 -0.092594 0.609352 0.22055 -0.761479
-0.128279 -0.337218 0.008172 -0.99993 -0.004266 0.003438
0.145715 0.255637 -0.099428 0.803044 -0.113416 -0.584272
-0.371914 0.196911 -0.014972 0.657842 -0.751819 0.033988
0.083837 -0.615194 0.018865 -0.729391 -0.235497 0.639933
0.012488 0.61521 0.021597 -0.565903 -0.096213 0.815122
0.444269 0.261653 -0.110816 0.663388 -0.001858 -0.740353
-0.05604 0.108085 0.106486 -0.465006 0.224601 0.855271
0.02184 -0.23598 0.061401 0.942953 -0.005392 0.330627
0.083091 -0.060434 -0.138253 -0.121796 -0.370864 -0.920012
-0.015537 -0.817036 -0.135259 0.713837 -0.338419 -0.6068
0.197165 0.381202 -0.013504 0.986657 -0.113933 0.111457
-0.096206 -0.565993 0.056353 -0.735217 -0.054654 0.65916
0.259129 0.365092 -0.042713 -0.647501 -0.595964 0.470692
-0.029929 0.251758 -0.128786 -0.126465 -0.063864 -0.989694
0.01458 0.148898 -0.115069 -0.147209 0.215929 -0.961231
0.096402 -0.265175 -0.09679 -0.327031 0.044486 -0.941004
-0.011832 0.576041 -0.097215 -0.114005 0.556649 -0.822526
0.192888 0.560068 -0.032801 0.346133 0.871353 0.268768
-0.027003 0.737391 -0.066216 -0.873929 -0.356149 -0.324711
-0.442571 0.20307 -0.043649 -0.602866 0.106374 -0.790657
-0.44226 0.18463 0.023022 -0.082581 0.486468 0.861627
-0.523764 0.114165 0.025428 -0.858306 0.380449 -0.256648
0.160546 -0.837029 0.108542 0.725552 0.684486 0.066357
0.03686 -0.119467 0.081196 0.641543 -0.576308 0.496313
-0.100174 -0.783206 -0.104573 -0.793145 0.100893 -0.600501
-0.135598 -0.24049 0.028702 -0.998974 -0.042522 0.008596
-0.028674 0.747087 0.028645 -0.985718 -0.047108 0.160504
0.495366 0.170235 -0.039586 -0.454162 -0.853373 -0.217615
0.176383 0.473179 0.038698 0.586499 0.255978 0.766953
0.182432 0.227216 0.01123 0.998733 0.013592 0.045834
0.02608 -0.38612 -0.002332 0.994486 -0.065089 -0.0397
0.207303 0.012308 0.017124 0.999594 0.019757 0.014576
-0.056721 -0.459949 -0.094738 0.025057 0.118729 -0.991924
0.094369 -0.611353 0.027804 -0.429321 -0.000959 0.896566
0.628745 0.064638 0.070803 0.851477 0.513729 0.077838
-0.071128 0.346897 -0.115453 -0.488262 -0.081048 -0.868826
0.02449 -0.356047 0.031654 0.938072 -0.158133 0.303676
0.016706 -0.420067 -0.034061 0.888504 -0.024468 -0.444102
-0.024734 0.540798 0.047634 -0.174379 0.613574 0.764984
0.10354 -0.566808 -0.098171 -0.511148 -0.14704 -0.846135
0.296396 0.377488 -0.142388 -0.062395 -0.293492 -0.950879
0.12234 -0.525042 0.045441 -0.474861 -0.107836 0.872138
0.129124 -0.208549 -0.101142 0.265415 -0.204753 -0.941197
-0.011071 0.748869 -0.100226 -0.711677 -0.287529 -0.6379
-0.419001 0.166488 -0.012355 0.596266 -0.799438 -0.031389
0.165015 0.510728 -0.128872 0.139772 0.350379 -0.924411
0.310405 0.439086 -0.118373 0.491035 0.639553 -0.591214
0.04169 -0.370968 -0.03506 -0.924055 -0.061636 -0.36893
0.076222 -0.547661 0.017041 -0.70823 0.01221 0.705863
0.397166 0.332333 -0.084284 0.687451 0.715286 0.102374
-0.315127 0.253691 0.00347 0.321289 -0.272567 0.896773
0.01902 0.814483 0.07285 -0.33062 0.452973 0.823287
-0.077335 -0.81168 -0.131099 -0.710299 -0.154006 -0.68653
0.012659 -0.293684 0.075623 0.796711 -0.127444 0.590203
-0.126197 -0.127905 -0.044184 -0.659191 -0.058622 -0.716439
0.075639 0.492416 0.06823 0.130033 0.464822 0.875658
0.036904 -0.315273 -0.030699 -0.964864 -0.008138 -0.260488
0.201604 -0.02319 0.05314 0.890146 0.065418 0.450429
0.195405 -0.377253 0.035497 0.945041 -0.048605 0.323162
0.038647 -0.28886 -0.037225 -0.91426 -0.014755 -0.403374
0.110806 -0.869134 0.035459 -0.040333 -0.997391 -0.056287
0.386787 0.268196 -0.037985 -0.262594 -0.15488 0.94467
-0.081166 -0.857638 0.150648 -0.37993 -0.681944 0.542709
0.635555 0.053351 0.023843 0.894093 0.444159 -0.0496
-0.040985 0.182619 0.109864 -0.555607 0.088195 0.826369
0.354293 0.375172 -0.095208 0.742038 0.668392 0.046984
-0.070367 0.105124 0.100559 -0.492551 0.383293 0.780735
-0.011222 0.628222 -0.040956 -0.883182 0.318169 -0.333372
0.118331 -0.348707 -0.09937 0.27837 0.063951 -0.956539
0.031844 -0.030024 -0.137666 -0.195583 -0.428175 -0.881781
-0.137173 -0.443252 -0.019563 -0.973371 0.106078 -0.196295
0.139323 -0.844321 -0.110484 0.511518 0.029267 -0.856983
0.623369 0.075375 0.028943 0.864786 0.497516 -0.06522
0.205819 -0.520144 -0.021957 0.995906 0.038973 -0.019853
-0.097186 -0.700984 0.019226 -0.306733 -0.433028 0.836474
-0.025491 0.753692 -0.082494 -0.821871 -0.284445 -0.488522
-0.013087 -0.716963 0.017816 0.684768 -0.223444 0.693094
-0.066968 0.222769 0.092247 -0.541171 0.124374 0.831585
0.305154 0.341375 -0.043058 -0.276044 -0.517087 0.80838
0.186721 0.410272 0.038226 0.803811 -0.106116 0.580767
-0.147066 0.534934 -0.064758 -0.466513 0.690026 -0.551986
-0.022503 0.847784 -0.00752 -0.614367 0.786219 0.050549
0.085037 -0.849902 0.103783 -0.884214 0.445548 0.07567
0.003239 -0.785456 -0.10689 0.87018 0.198581 -0.444107
-0.087532 -0.251831 -0.07747 -0.723571 -0.048963 -0.688402
-0.014807 -0.417318 -0.070674 0.667724 0.145968 -0.729731
-0.0628 0.027908 -0.135364 -0.387159 0.063581 -0.900566
0.118635 -0.271656 0.083909 -0.000337 -0.107499 0.993714
-0.017239 0.81728 0.034806 -0.826053 0.362399 0.427926
-0.093711 0.29023 0.066745 -0.749364 0.065899 0.65826
-0.04479 -0.534633 0.051493 0.375836 -0.188546 0.906793
0.164894 -0.824311 -0.069531 0.771708 -0.634847 -0.036228
-0.22113 0.33243 -0.061801 0.644137 -0.66424 -0.33012
0.08144 0.730642 -0.083862 0.686398 -0.418906 -0.593565
0.37635 0.327605 -0.053023 0.388415 0.483607 0.781858
0.624143 0.048852 0.026374 -0.803425 -0.530671 -0.245944
0.075926 -0.691517 -0.059707 -0.843758 -0.08159 -0.529821
0.132999 -0.393565 0.072225 -0.22586 -0.186321 0.955783
0.206763 0.02092 -0.006563 0.998298 0.015111 -0.054514
0.166318 0.013443 -0.105806 0.709804 0.014704 -0.676136
0.155369 -0.740612 0.012591 0.283751 0.774132 0.565306
0.18477 0.019799 -0.076067 0.88619 -0.004683 -0.462961
-0.1388 -0.451414 -0.012895 -0.993229 0.041173 -0.083041
-0.134879 -0.206211 0.058552 -0.975772 -0.034779 0.207256
0.099602 -0.061181 -0.138858 0.034881 -0.33345 -0.940923
0.004848 -0.593423 0.01325 0.636393 0.065196 0.767308
-0.534057 0.096361 0.027132 -0.323653 0.604207 -0.628127
0.062282 -0.061981 -0.132582 -0.314856 -0.407041 -0.857414
0.139977 0.002379 0.116165 0.456454 -0.147627 0.865698
-0.060924 -0.59163 -0.103592 0.085729 0.012739 -0.995455
0.151177 -0.867332 0.103078 0.458505 -0.886937 0.015999
0.143324 -0.276946 -0.084877 0.575721 -0.096831 -0.8118
-0.018446 -0.433874 0.069587 0.58156 -0.178419 0.793075
0.205421 -0.271778 0.004228 0.999941 0.00327 -0.004064
0.437031 0.263979 -0.117363 0.59755 -0.001949 -0.794563
0.328182 0.354278 -0.138264 0.035577 -0.103147 -0.992953
0.077179 -0.113306 0.088421 -0.664087 -0.060482 0.743616
0.192277 -0.249227 -0.052806 0.766577 -0.145258 -0.624526
-0.128546 -0.017362 0.067295 -0.891791 0.097129 0.440617
-0.12852 -0.307826 0.012206 -0.999809 -0.017136 0.004097
-0.393502 0.190098 0.013366 0.567138 -0.419181 0.634898
-0.101886 0.525921 -0.098067 -0.347101 0.541205 -0.765841
0.301856 0.448872 -0.114637 0.544433 0.628298 -0.555598
0.341155 0.383769 -0.074479 0.84292 0.353533 0.316387
0.078174 -0.777832 -0.064386 -0.839569 0.202065 -0.504116
0.045463 -0.280779 -0.048928 -0.834477 0.008468 -0.550543
0.447843 0.196507 -0.075095 0.10341 -0.939602 -0.21243
0.54768 0.113497 -0.00797 -0.954755 -0.293736 -0.025576
0.029269 -0.218456 0.037081 0.975547 -0.033587 0.216615
0.384181 0.24833 -0.109104 -0.77832 -0.450838 -0.428897
0.179214 -0.593691 0.026114 0.555434 -0.330273 0.762931
0.482789 0.217087 -0.008672 0.484663 -0.041738 0.833768
0.253772 0.422489 -0.011039 0.095743 -0.273158 0.950239
-0.493865 0.149757 0.064157 -0.264578 0.824804 0.475805
0.169328 -0.75313 -0.058064 0.857023 0.176599 -0.471772
0.087507 0.748559 0.054859 0.835332 0.089919 0.537396
0.073397 0.806881 0.062535 0.774228 0.261813 0.57242
-0.011829 0.658501 -0.014317 -0.999595 -0.013975 -0.000955
-0.082278 -0.041431 -0.11333 -0.58247 -0.234046 -0.77694
0.202121 0.040859 -0.026691 0.972156 0.083348 -0.218719
-0.127162 -0.399811 0.04866 -0.959196 0.095106 0.259265
0.020536 0.852637 0.047703 -0.221272 0.687981 0.687037
0.19359 -0.131349 0.071687 0.865296 -0.016703 0.499269
-0.145007 0.414109 -0.084549 0.336648 -0.724773 -0.590812
-0.054633 0.205547 -0.104421 -0.528815 -0.311004 -0.789195
0.108615 0.388097 -0.145114 0.140303 -0.030676 -0.98915
-0.002465 -0.77839 -0.113921 0.836734 0.286045 -0.465986
0.159471 0.38007 -0.119397 0.478695 -0.305494 -0.822055
0.208823 0.5166 0.011113 0.276699 0.409928 0.867477
-0.102065 -0.55432 0.048346 -0.846424 -0.051852 0.529801
0.097733 -0.098572 -0.125151 -0.127089 -0.371718 -0.918073
0.188964 -0.038341 -0.072351 0.865328 -0.036836 -0.496961
-0.029784 0.717016 0.018558 -0.973749 -0.084131 0.175846
-0.120478 -0.012791 0.079923 -0.804918 -0.057735 0.579998
0.136293 -0.568252 0.042991 -0.052339 -0.197313 0.977716
-0.111904 -0.811141 -0.047018 -0.868841 -0.491764 0.039722
0.294163 0.469875 -0.040587 0.791505 0.435081 0.422577
0.360588 0.347423 -0.056872 0.584863 0.493449 0.640078
0.133648 -0.416518 0.067497 -0.298767 -0.131697 0.943996
0.072447 -0.407255 0.030178 -0.698628 -0.328385 0.635547
-0.030658 -0.227571 0.112569 0.135659 -0.158082 0.977273
0.059023 -0.744668 -0.005256 -0.984522 -0.108895 -0.126438
0.078193 0.092982 0.127317 0.441714 -0.015313 0.896671
0.015257 -0.069824 -0.106982 0.012963 -0.690587 -0.721606
-0.09169 -0.290847 -0.070565 -0.714029 -0.023442 -0.699574
-0.325949 0.271146 -0.089216 -0.01909 -0.372554 -0.926193
-0.045283 0.405285 0.099345 -0.274799 0.198509 0.939279
0.076311 0.434483 0.088979 0.082579 0.172627 0.981448
0.187072 -0.525366 0.034534 0.838988 -0.08389 0.537263
0.280265 0.496602 -0.059338 0.718775 0.694009 0.022466
-0.230729 0.452757 0.007691 -0.821596 0.407859 0.397771
0.171926 -0.784504 0.018503 0.591819 -0.506581 0.59537
0.006957 0.553297 -0.110194 -0.00736 0.430687 -0.902086
-0.126558 0.385121 0.006992 -0.966628 -0.206568 0.135905
-0.081154 -0.232109 -0.083199 -0.576691 -0.034157 -0.815363
-0.075172 0.25725 -0.106 -0.613933 -0.180834 -0.768074
0.154654 -0.816187 -0.106623 0.651931 -0.181164 -0.729185
0.012984 -0.173147 -0.052012 0.826853 0.05512 -0.559658
0.346368 0.392117 -0.089845 0.768801 -0.577178 0.193658
-0.129639 0.517299 0.04957 -0.099497 0.474258 0.872944
-0.122701 0.436167 0.061012 -0.10718 -0.085752 0.988684
-0.02884 -0.397776 -0.076135 0.431518 0.079701 -0.894265
-0.136376 0.011335 -0.024038 -0.987274 -0.019155 -0.156178
0.080282 -0.702992 -0.065005 -0.845025 -0.095674 -0.524666
0.597706 0.066386 0.0205 0.71883 -0.588338 0.018906
-0.053486 -0.287806 -0.092166 -0.094471 -0.07422 -0.991188
0.04737 -0.585831 -0.038422 -0.922352 -0.018482 -0.37756
-0.037647 0.341876 -0.128049 -0.142898 -0.005233 -0.988752
-0.081185 -0.826807 0.098573 -0.235821 0.961079 0.116881
-0.140995 -0.118053 0.042849 -0.947262 -0.007273 0.317566
0.33743 0.289698 -0.104354 -0.501991 -0.751886 -0.418724
-0.207537 0.498665 -0.003595 -0.757529 0.64051 0.115414
-0.027039 0.121583 -0.12084 -0.21935 0.353614 -0.908975
-0.078555 -0.361347 -0.079929 -0.444812 -0.019547 -0.895322
0.009389 -0.499128 -0.051411 0.844473 0.032224 -0.534144
-0.013643 0.837641 0.026522 -0.875566 0.147976 0.448274
-0.0257 0.470238 0.08422 -0.134863 0.39638 0.907241
0.01463 -0.736038 -0.076755 0.811794 0.026523 -0.581136
0.199465 -0.60904 -0.019281 0.997591 -0.061595 0.028278
-0.026435 0.110822 -0.125403 -0.243661 0.350909 -0.903502
0.624178 0.06305 0.008939 0.283513 -0.261559 -0.89748
-0.016553 -0.161183 0.11872 0.426071 -0.143317 0.890748
-0.226859 0.357266 0.011746 0.306288 -0.429093 0.848649
-0.457225 0.150662 -0.031822 0.347429 -0.828386 -0.435885
0.048584 -0.615717 -0.021373 -0.959381 -0.008475 0.260181
-0.065218 -0.862135 -0.067182 0.001619 -0.998379 0.056322
0.092994 -0.866482 0.103104 -0.501825 -0.863321 0.012425
0.205537 -0.285424 0.015853 0.99903 0.010619 0.037404
-0.042336 -0.507274 -0.097999 0.218348 0.076207 -0.971556
0.294446 0.438398 -0.02535 0.591562 0.384675 0.692418
0.14697 0.216778 -0.087232 0.714168 -0.173115 -0.67212
0.036355 0.337748 0.115834 0.077478 0.238443 0.965945
-0.030975 0.031058 -0.144737 -0.148432 0.076653 -0.985114
-0.087518 -0.602468 -0.101115 -0.459953 0.051205 -0.886343
0.328243 0.40742 -0.044954 0.635995 0.4422 0.631217
-0.138174 -0.037424 0.041399 -0.975237 0.106639 0.190176
0.151608 -0.087834 -0.11258 0.708168 -0.105582 -0.65932
0.174728 -0.329642 0.072947 0.259515 -0.053908 0.954291
0.086145 -0.289535 0.076886 -0.390437 -0.215584 0.89491
0.093546 -0.845711 0.137672 -0.83895 0.456319 0.290653
-0.063512 -0.036132 0.126332 -0.340958 0.032755 0.936628
-0.059609 -0.864236 0.062399 -0.010052 -0.99994 -0.003641
0.064752 -0.312078 0.059476 -0.720599 -0.0866 0.687899
0.012295 -0.124961 0.105663 0.677368 -0.216394 0.702827
0.059094 0.34059 0.111961 0.211915 0.180894 0.959091
0.037395 0.714913 0.096812 0.211747 -0.331041 0.911856
-0.054125 -0.622582 0.035005 0.383814 -0.170323 0.906967
-0.052489 -0.797664 0.05347 -0.235307 0.739337 0.621642
0.121118 -0.459321 0.052848 -0.598272 -0.095679 0.795047
-0.361107 0.303323 -0.075411 -0.600076 0.570378 -0.552365
0.069922 -0.217449 0.080227 -0.558089 -0.111189 0.821098
0.057357 0.498072 0.067287 0.051303 0.467943 0.881921
0.159887 -0.462651 0.067723 0.101469 -0.121705 0.979778
-0.011797 -0.668779 0.02537 0.216417 -0.029251 0.962206
-0.068189 -0.752711 -0.126497 -0.274161 0.18261 -0.939572
0.103466 -0.848345 0.1625 -0.805362 0.27263 0.525634
-0.460988 0.194963 0.008584 -0.692523 0.61701 0.338431
0.201887 0.009416 -0.03181 0.946374 0.028496 -0.319913
0.346471 0.306099 -0.127978 -0.296667 -0.428191 -0.844414
-0.108481 0.516157 0.051376 0.010604 0.473071 0.880828
-0.409489 0.233211 -0.064364 -0.527241 -0.084752 -0.843779
-0.029803 -0.85184 -0.016719 0.59549 -0.783014 -0.178651
0.063639 0.587707 -0.093612 0.070825 0.655485 -0.751718
0.601027 0.087739 0.00396 0.439572 0.108829 -0.885728
-0.127467 -0.64417 -0.03259 -0.988832 -0.089348 0.110469
0.0964 0.804901 -0.06742 0.935505 0.197813 -0.282088
-0.011698 0.566443 -0.103066 -0.085434 0.549972 -0.828364
-0.037365 0.798134 -0.027825 -0.997717 -0.021241 0.034224
0.122195 0.342941 0.090794 0.444166 0.0671 0.892454
-0.116692 0.233412 0.01029 -0.910965 0.386055 0.140033
0.12109 -0.825784 0.146592 -0.021325 0.990769 0.093694
0.162779 -0.588026 -0.091553 0.553846 -0.106512 -0.825101
-0.126512 -0.330979 -0.02055 -0.977381 0.003709 -0.203939
-0.138088 0.400214 -0.035184 0.314 -0.880168 -0.035231
0.164236 -0.82413 -0.008893 0.797399 -0.599288 0.069136
-0.080413 0.056294 -0.112757 -0.690036 0.207032 -0.692908
-0.06979 0.139758 0.09657 -0.574591 0.087342 0.8131
0.146971 -0.869147 0.091164 0.251299 -0.963362 0.008355
0.026855 0.381302 0.106211 0.056747 0.181229 0.981408
-0.09449 0.428044 0.071323 -0.640598 0.096036 0.761632
-0.076984 -0.328727 0.104666 0.088918 -0.084037 0.992312
-0.035595 -0.674936 -0.101129 0.532921 0.18855 -0.824161
0.150766 -0.625312 0.028272 0.346767 -0.184477 0.914283
0.11708 -0.670697 -0.093891 -0.165344 0.004554 -0.983032
0.19627 0.088592 -0.02943 0.946925 0.25345 -0.18764
0.177505 -0.01346 0.084388 0.708592 0.086419 0.692589
0.144179 -0.227596 -0.091353 0.505335 -0.147473 -0.850185
0.089199 0.429125 0.088862 0.094604 0.182612 0.978552
-0.056436 0.407988 -0.126791 -0.226407 -0.090095 -0.969518
0.030941 -0.257128 0.023312 0.983135 -0.063429 0.170709
0.197431 0.083218 0.010991 0.950603 0.286226 0.11424
0.281372 0.428661 -0.013041 0.395949 0.076066 0.913161
0.192334 -0.16115 -0.059755 0.720539 -0.021482 -0.69227
-0.023565 -0.770554 -0.131645 0.449596 0.487564 -0.747689
0.141306 -0.089048 0.112314 0.259136 -0.028205 0.9633
-0.080595 0.369703 0.082925 -0.720695 -0.048105 0.688987
0.137337 -0.489585 0.058906 -0.419238 -0.142333 0.895445
0.368061 0.256714 -0.092534 -0.7797 -0.595331 -0.181676
-0.022539 0.831649 0.015931 -0.720763 0.282282 0.629825
0.091144 0.506631 -0.1359 -0.101233 0.164799 -0.980363
-0.041286 0.005847 -0.136826 -0.18609 -0.124006 -0.973282
-0.041702 -0.781696 0.040084 0.122793 0.742658 0.647691
-0.437562 0.177347 -0.053379 -0.151061 0.055582 -0.950098
0.050889 0.351132 0.111846 0.174261 0.189902 0.96516
-0.012874 0.482506 -0.128171 0.083292 0.09096 -0.99217
0.209593 -0.08572 0.038898 0.941799 -0.0403 0.333736
0.201722 -0.296746 0.03478 0.9408 -0.066797 0.331982
0.286465 0.337172 -0.060426 -0.503562 -0.757409 0.395671
0.254582 0.506627 -0.015179 0.676989 0.46348 0.570982
0.169393 -0.173853 -0.080421 0.663384 -0.035396 -0.747002
-0.127272 -0.737146 -0.037888 -0.993559 -0.017418 0.105012
-0.172909 0.433097 -0.094049 -0.066846 0.126539 -0.989105
-0.004403 0.110868 0.130471 -0.222827 0.204225 0.951256
0.039117 -0.223298 0.014391 -0.278315 -0.28535 0.895902
0.162299 -0.515933 -0.09634 0.541795 -0.033428 -0.839013
-0.201846 0.505343 -0.029011 -0.741481 0.654956 -0.137688
0.205549 -0.32805 0.013278 0.993125 -0.014639 0.104464
0.205104 -0.551092 -0.029046 0.986384 -0.053709 -0.135199
0.199549 -0.347318 -0.030118 0.87542 0.164547 -0.45401
0.063984 0.260335 -0.135014 -0.314552 -0.088841 -0.943349
-0.230591 0.442314 -0.070056 -0.577419 0.556337 -0.597411
0.057292 -0.497036 0.001345 -0.667573 -0.019138 0.74359
-0.515616 0.080762 0.07778 0.67071 -0.72068 0.173653
-0.124198 0.390655 -0.084283 -0.86646 -0.245659 -0.428994
0.035905 0.814606 -0.111504 0.06193 0.541937 -0.832514
0.035175 0.303379 -0.127886 -0.138923 0.019837 -0.988518
0.051346 -0.388125 0.017275 -0.692802 -0.35201 0.627344
0.048132 0.716105 0.091302 0.577934 -0.127985 0.799263
-0.04937 0.56227 -0.096537 -0.353999 0.547667 -0.757904
0.177881 -0.11718 -0.079583 0.770745 -0.119774 -0.625749
-0.092408 -0.139377 0.113813 -0.252514 0.015102 0.967345
-0.144149 0.539466 0.028283 -0.291755 0.757666 0.580082
0.074799 -0.72704 -0.045568 -0.903954 -0.130545 -0.406294
-0.306315 0.285042 -0.093107 0.141426 -0.300782 -0.941995
0.190015 0.349842 -0.066073 0.866651 -0.384136 -0.314849
0.077551 -0.0829 0.104779 -0.114302 -0.760511 0.636826
0.146527 -0.865648 -0.093139 0.561048 -0.763754 -0.301465
0.071721 0.79604 -0.10542 0.600208 0.122996 -0.78798
-0.007645 -0.615066 -0.075117 0.681481 0.015601 -0.73161
0.308576 0.360525 -0.137756 -0.176728 -0.29779 -0.937267
-0.087927 -0.776275 0.012862 -0.540218 0.036028 0.80882
-0.124737 -0.368083 0.052833 -0.976441 -0.082256 0.199173
0.11792 -0.61922 -0.097667 -0.239338 -0.091523 -0.965062
0.145878 0.226328 -0.09134 0.784932 -0.141922 -0.60296
0.137501 -0.48282 -0.106033 0.211917 0.069135 -0.971907
0.195808 -0.315244 -0.03133 0.852116 -0.018166 -0.521892
-0.104077 -0.817951 -0.084397 -0.875719 -0.433253 -0.204132
-0.114425 0.148472 0.048839 -0.837969 0.076059 0.538655
0.020101 -0.579254 -0.040654 0.850905 0.110385 -0.511228
0.095521 -0.652946 -0.083125 -0.599036 -0.060333 -0.798265
-0.072774 -0.506771 0.070698 0.365537 -0.227252 0.902365
-0.066012 -0.862502 -0.016716 0.007655 -0.998886 -0.045754
0.109313 0.025476 0.123258 0.420528 0.310868 0.85225
0.108872 0.013934 0.127719 0.353418 0.233463 0.902495
-0.119501 0.12456 0.042603 -0.898854 0.127505 0.41704
0.111921 0.20981 -0.117746 0.533467 -0.373544 -0.758303
-0.00792 0.579608 0.011466 -0.537529 0.309699 0.782818
-0.065356 -0.170504 0.120057 -0.240354 -0.074055 0.966152
0.040844 0.480971 -0.127222 -0.181594 0.070442 -0.980739
0.089496 -0.861895 -0.083591 -0.858434 -0.442857 -0.14602
0.091814 -0.824751 -0.10121 -0.882766 -0.062406 -0.441885
0.097552 0.519038 0.049595 0.241632 0.54416 0.803275
-0.079396 0.56271 -0.078869 -0.461805 0.65501 -0.597489
0.139067 0.127086 0.091659 0.666568 0.02203 0.745087
0.091814 0.706228 -0.031159 0.881565 -0.421761 -0.155064
-0.135282 -0.549777 -0.038049 -0.990005 -0.0662 -0.101619
-0.128483 -0.114353 0.075525 -0.875045 0.006475 0.483636
-0.040079 -0.863925 0.052514 0.051168 -0.998593 -0.004738
0.134973 0.202146 -0.097835 0.672668 -0.134597 -0.725433
-0.037832 0.404944 -0.129316 -0.078536 -0.029723 -0.996223
-0.087874 -0.015895 0.112305 -0.555989 -0.244063 0.792047
-0.076842 0.240402 0.083898 -0.617625 0.055242 0.784425
0.005034 -0.100241 -0.084576 0.68022 -0.42073 -0.590924
0.015705 0.658316 0.055077 -0.279103 -0.953611 0.112156
0.167359 -0.809691 0.013144 0.961653 -0.112182 0.220707
-0.119769 -0.341945 0.078116 -0.953035 -0.013212 0.30164
-0.11529 -0.365027 -0.050035 -0.769383 0.087503 -0.628789
0.008526 -0.338416 0.067304 0.751549 -0.178311 0.633048
0.037589 0.808129 0.079033 0.035603 0.353196 0.93207
0.378023 0.290353 -0.129658 -0.063687 -0.153745 -0.980163
0.137507 0.175632 0.09172 0.680657 0.020111 0.732237
0.077275 0.72548 0.06814 0.686439 0.10071 0.719715
0.341339 0.378624 -0.065437 0.742945 0.498062 0.424624
-0.129714 -0.256979 -0.008745 -0.966169 -0.036721 -0.251005
0.145196 0.025008 -0.12754 0.767791 0.078772 -0.60124
0.145042 0.507987 -0.134079 0.210585 0.368546 -0.903083
0.236379 0.478559 0.006083 0.585348 -0.029823 0.807498
0.025853 -0.259897 -0.027232 0.23046 -0.1878 -0.811251
0.182792 0.183353 0.035139 0.935622 0.128773 0.314759
0.207638 -0.18851 0.003214 0.999109 -0.013986 0.034846
-0.068771 0.046756 -0.12676 -0.528618 0.294807 -0.792545
-0.134431 0.424259 0.056429 -0.485735 -0.362423 0.784209
-0.007361 0.363752 0.10944 -0.269534 0.290938 0.917673
0.045374 -0.482859 -0.020358 -0.950258 -0.011704 0.27881
0.068611 -0.083112 -0.125324 -0.272965 -0.437402 -0.856302
-0.00929 0.674827 0.04851 -0.817875 -0.454286 0.329073
-0.113298 -0.542239 -0.079531 -0.685894 0.122395 -0.716957
0.017416 0.710343 0.08815 -0.724576 -0.218603 0.625486
0.294853 0.337188 -0.119413 -0.599332 -0.560973 -0.567578
0.256156 0.387379 -0.025444 -0.280695 -0.57717 0.764978
0.097338 -0.816077 -0.107921 -0.732015 0.002199 -0.676251
-0.070028 -0.848534 0.163106 -0.035002 -0.379474 0.908732
0.155892 -0.781316 -0.097602 0.572725 0.387061 -0.722472
0.109992 -0.01435 -0.151016 0.289484 -0.078168 -0.951788
0.036352 -0.232682 0.01448 0.499311 -0.201288 0.639699
0.078559 -0.005079 0.136167 0.214188 -0.266171 0.932814
0.129674 0.02977 -0.139399 0.546957 0.105911 -0.829535
-0.023267 0.211673 0.116546 -0.512554 0.177883 0.839551
0.017959 0.692088 -0.076896 -0.271402 -0.60813 -0.740242
-0.07098 -0.24513 0.112397 -0.053482 -0.068943 0.996024
0.129463 -0.188106 -0.104237 0.242818 -0.090384 -0.962409
-0.071076 0.507284 -0.119326 -0.231716 0.352148 -0.906281
0.092128 -0.105808 0.101362 -0.511369 -0.167797 0.842357
0.065444 -0.157426 0.080279 -0.620456 0.02994 0.782447
-0.041998 0.28452 -0.12749 -0.323757 -0.025456 -0.942035
-0.006854 0.728269 0.067331 -0.561631 0.01022 0.825888
0.053977 0.182242 -0.116835 -0.17889 0.189798 -0.963885
0.109563 -0.092245 -0.127685 0.037506 -0.285581 -0.957415
0.013936 -0.609446 -0.053225 0.728811 0.097803 -0.67748
-0.018834 0.698642 0.046035 -0.930833 -0.211103 0.292665
-0.238561 0.391412 0.023096 -0.330543 -0.163054 0.927201
-0.112105 -0.553692 0.031006 -0.882434 -0.105679 0.458206
-0.074258 -0.863119 -0.000792 -0.013808 -0.999137 -0.03664
0.037027 0.381271 0.105734 0.0592 0.179113 0.981717
0.051516 0.063879 0.131446 0.135775 0.112956 0.982575
-0.216751 0.450888 0.02883 -0.666745 0.264359 0.695781
-0.029298 0.727788 0.017952 -0.987828 0.028097 0.148454
0.088443 -0.030744 0.129349 0.113133 -0.063363 0.991328
