0.003715 0.82588 0.055815 -0.582951 0.44789 0.671692
-0.020525 0.69479 0.02944 -0.969906 -0.22246 0.094947
-0.021458 -0.747862 -0.117955 0.611204 0.309636 -0.726013
0.194919 -0.475422 0.015003 0.952149 -0.000642 0.305097
0.206102 0.445987 -0.132541 0.058446 -0.173591 -0.980887
0.136806 0.042366 -0.131708 0.641119 0.217574 -0.734005
-0.111509 0.257593 -0.051474 -0.995589 -0.006881 -0.084602
-0.058361 0.112947 -0.110795 -0.460261 0.314591 -0.829995
0.065931 -0.125819 -0.104019 -0.514104 -0.221737 -0.82828
-0.041335 -0.030408 -0.132299 -0.169743 -0.214441 -0.961055
0.205541 -0.362583 -0.013292 0.995831 0.019399 -0.070853
0.191647 -0.307691 -0.037691 0.784256 -0.052855 -0.617377
0.144166 0.184527 0.084966 0.715543 0.031403 0.697835
0.154885 0.05226 -0.11103 0.68556 0.292968 -0.666219
0.231854 0.397028 -0.028902 -0.482724 -0.625991 0.56024
0.005338 0.242694 -0.127873 0.128099 -0.034277 -0.991132
0.174448 -0.4463 -0.079497 0.651158 0.181981 -0.736791
0.166318 -0.524395 -0.093133 0.655581 -0.036781 -0.754148
0.165044 -0.3929 -0.077424 0.561362 0.178052 -0.807563
0.04953 -0.424847 -0.050202 -0.795044 -0.035089 -0.604335
0.085897 -0.795722 0.04082 -0.68957 0.21578 0.688942
-0.052052 -0.86111 -0.125271 0.046704 -0.963 -0.256177
-0.040223 -0.547099 -0.099245 0.319658 0.006087 -0.947188
-0.128153 -0.624594 -0.06549 -0.975868 0.003149 -0.196469
-0.087335 0.379332 0.077192 -0.689772 -0.105237 0.712184
0.111512 0.562147 0.00516 0.422697 0.683743 0.593736
0.263773 0.357163 -0.046995 -0.619949 -0.662999 0.414339
-0.037889 -0.603844 -0.097515 0.403661 0.012434 -0.914496
0.06651 0.097009 -0.143759 -0.0021 0.329735 -0.941435
0.282038 0.335821 -0.074623 -0.596589 -0.775495 0.198999
0.179229 -0.303621 -0.052598 0.739246 -0.084683 -0.667559
-0.023856 0.806914 0.025719 -0.79505 0.338369 0.502005
-0.134076 -0.231125 0.055828 -0.977175 -0.080686 0.193577
-0.092341 -0.694417 -0.103221 -0.538417 0.082042 -0.836719
-0.011749 0.671446 -0.025147 -0.991658 -0.100714 -0.070454
0.065226 0.174532 -0.119202 -0.024573 0.110309 -0.991475
0.147389 -0.289858 0.081465 0.136289 -0.068886 0.988069
-0.095807 -0.542367 -0.093004 -0.426437 0.077305 -0.889433
-0.018185 0.441284 -0.130177 0.086406 -0.029406 -0.995577
-0.021782 0.074791 0.127118 -0.331757 0.195066 0.920465
0.24127 0.382258 -0.041198 -0.557338 -0.733069 0.389621
0.173566 -0.341962 0.07242 0.232203 -0.043108 0.96415
0.092459 0.549912 -0.121263 0.008169 0.447059 -0.893254
-0.202631 0.447864 -0.083728 -0.364511 0.42214 -0.828529
-0.128095 -0.208258 -0.018472 -0.907679 -0.100161 -0.406732
0.206723 -0.146562 0.036829 0.968444 -0.149126 0.196721
0.147618 -0.841452 -0.103733 0.672975 -0.124015 -0.725066
-0.102323 -0.539463 0.050107 -0.842052 -0.06152 0.535799
0.171667 -0.84955 0.09761 0.754121 0.655343 0.039234
0.144174 -0.037744 -0.131685 0.621002 -0.179802 -0.762006
-0.354288 0.294415 -0.085551 -0.491451 0.328084 -0.803754
-0.131243 -0.059835 -0.045197 -0.888661 -0.036974 -0.456417
-0.054625 0.336636 0.098417 -0.409666 -0.12448 0.903392
-0.003754 0.276237 0.119515 -0.324511 0.073731 0.942828
0.090978 0.827443 -0.018451 0.899695 0.42167 0.012114
0.145905 -0.650931 0.03062 0.198749 0.01632 0.976162
0.193167 -0.170615 0.070412 0.931594 -0.00102 0.362771
0.19339 0.370918 -0.083943 0.782789 -0.451645 -0.427457
0.027949 -0.301363 0.029046 0.994706 -0.00723 0.102479
0.058117 -0.691358 -0.032058 -0.868628 -0.148843 -0.472353
0.029166 0.131721 -0.125604 -0.147301 0.440014 -0.885727
0.060394 -0.149522 0.075956 -0.64122 0.050442 0.765546
0.070826 -0.822892 -0.022199 -0.458146 -0.887175 -0.005639
0.015393 0.71054 -0.091122 -0.245936 -0.632535 -0.734082
0.107206 -0.861564 -0.114768 -0.405507 -0.22478 -0.851683
0.205164 0.052532 -0.0043 0.98199 0.156065 -0.085262
-0.136025 -0.540305 -0.033749 -0.995164 -0.03674 -0.054145
0.162779 -0.588026 -0.091553 0.553846 -0.106512 -0.825101
0.124998 -0.27381 -0.09528 0.407543 -0.05557 -0.911464
-0.537432 0.067444 0.067838 0.396749 -0.905238 0.12006
0.109873 0.226595 0.105712 0.428983 0.064189 0.900918
0.135454 -0.11644 -0.116448 0.462039 -0.242623 -0.852865
-0.012167 -0.062734 0.129221 0.113991 -0.112975 0.987017
0.112461 -0.371209 0.070062 -0.436702 -0.253012 0.862535
-0.123754 -0.63427 -0.002681 -0.969971 -0.120357 0.207408
0.093165 -0.826614 0.073349 -0.822425 0.512444 0.1972
0.165574 0.3526 0.053829 0.791895 -0.088304 0.604115
0.168892 0.182064 0.05762 0.761713 0.085319 0.641502
0.161141 -0.817516 0.02589 0.926038 -0.155058 0.315839
0.127322 0.555366 0.004227 0.282365 0.719559 0.633565
0.141584 -0.676169 -0.089928 0.445085 -0.019279 -0.894623
0.097437 0.164056 -0.115261 0.258063 0.160069 -0.952557
-0.057507 0.062966 -0.127452 -0.366863 0.23724 -0.896777
0.064094 0.60702 -0.07655 0.205508 0.644317 -0.7357
-0.070574 -0.637866 0.038085 0.390418 -0.248066 0.886382
0.041209 0.660454 0.08242 0.11787 -0.955777 0.253366
0.162972 -0.758865 0.023775 0.126631 0.083463 0.980998
0.568457 0.095378 0.055792 -0.788269 -0.151677 0.58188
0.164028 0.551726 -0.100462 0.31106 0.718079 -0.621861
0.210884 0.41801 -0.113966 -0.184246 -0.871128 -0.439019
-0.090599 0.033504 -0.110377 -0.719223 0.239679 -0.651886
0.145591 0.370184 0.074853 0.640645 -0.030984 0.766873
-0.127783 0.191018 0.008701 -0.993719 0.093484 0.047841
-0.360521 0.208625 -0.047556 0.449905 -0.861264 -0.225679
0.22266 0.405648 -0.029436 -0.660056 -0.631944 0.404824
-0.066081 0.286203 0.088237 -0.395413 -0.000926 0.908206
0.081642 0.767785 -0.098512 0.759419 -0.04345 -0.612038
0.053357 -0.673061 0.009291 -0.916856 0.000191 0.36065
0.044961 -0.42825 -0.041181 -0.950278 -0.024595 -0.283578
-0.059749 -0.601258 -0.10368 0.113059 0.034968 -0.991702
-0.113966 -0.561954 0.024343 -0.886584 -0.117521 0.447229
-0.058268 0.420919 -0.127563 -0.184125 -0.112229 -0.975321
0.220635 0.393551 -0.074049 -0.736899 -0.67577 0.014337
0.141898 -0.515903 0.056377 -0.332167 -0.222341 0.913191
0.152295 -0.253473 -0.082496 0.501706 -0.111888 -0.857708
0.19773 -0.581135 0.005813 0.963024 -0.022055 0.264966
0.277834 0.489986 -0.088743 0.644534 0.62359 -0.440864
0.026367 -0.341726 -0.012432 0.967245 -0.061433 -0.228841
-0.432377 0.212433 -0.049296 -0.52057 0.10037 -0.847556
0.081327 -0.132563 0.091022 -0.569794 -0.005479 0.821349
0.164339 -0.839745 0.086054 0.787739 0.615723 0.01869
-0.002333 -0.056645 0.1287 0.132212 -0.158414 0.978019
0.605658 0.100892 0.039835 0.835292 0.547533 0.003513
0.266265 0.497794 -0.094222 0.618703 0.581735 -0.527963
0.204987 -0.24194 -0.016122 0.997516 -0.046677 -0.052007
-0.069902 -0.379831 0.095547 0.164827 -0.228638 0.95914
0.119897 -0.606816 0.033682 -0.17556 0.125823 0.967551
0.198026 -0.029394 -0.05229 0.936997 0.020342 -0.346453
-0.016863 -0.115605 0.123498 0.255652 -0.13361 0.956356
0.085051 -0.825522 0.007001 -0.496873 -0.863364 0.061796
0.395778 0.256785 -0.036724 -0.361249 -0.129599 0.912399
0.331693 0.352783 -0.041299 0.38892 0.182906 0.897234
-0.081403 -0.611928 0.050573 0.345688 -0.220167 0.898191
0.100245 -0.577005 0.032021 -0.387601 -0.151759 0.908678
-0.27023 0.325392 0.008223 0.093909 -0.169958 0.977223
-0.138867 -0.015117 0.015648 -0.998294 0.051299 0.026481
0.180648 0.274488 0.020623 0.970053 0.032507 0.235693
0.492951 0.193873 0.000659 0.015518 0.813877 0.453642
0.064336 0.174748 0.127745 0.182262 0.036584 0.977622
-0.135981 -0.540436 -0.023482 -0.990284 -0.088851 0.099607
0.035979 -0.294999 -0.029547 -0.954718 -0.055574 -0.286784
0.008458 -0.502624 0.026501 0.733564 -0.135334 0.66524
0.056687 -0.358366 -0.061397 -0.79663 -0.051242 -0.602219
0.198845 -0.447032 0.002858 0.990137 -0.042637 0.12694
0.140866 -0.558704 0.045416 -0.039618 -0.262108 0.963286
0.072573 -0.369121 -0.079665 -0.633098 -0.079089 -0.769494
0.053436 -0.705237 -0.012301 -0.973452 -0.150427 -0.166797
0.392386 0.317874 -0.122251 0.507038 0.405294 -0.760182
-0.038413 -0.825464 0.093433 0.457116 0.839483 0.258279
0.1808 -0.792988 -0.04276 0.923438 -0.36634 0.025516
0.007352 0.020121 0.141367 -0.095566 0.166525 0.98097
-0.475959 0.149559 -0.040285 0.004214 -0.412531 -0.888671
0.203638 -0.007854 0.044902 0.928476 0.032143 0.366043
-0.061476 0.018277 -0.133871 -0.348244 -0.289494 -0.88563
-0.027747 -0.822165 0.060177 0.80048 0.143306 0.45618
-0.050851 -0.084159 0.1263 -0.251048 -0.062104 0.962313
-0.010467 0.811162 0.052549 -0.805197 0.336637 0.47929
-0.002644 0.008992 0.141674 -0.157718 0.201752 0.965366
-0.068974 -0.258139 -0.089831 -0.386127 -0.016136 -0.920467
-0.104255 0.555937 0.016131 -0.069212 0.821492 0.563851
0.014972 -0.212531 0.084287 0.85674 -0.062492 0.511641
-0.13567 -0.472659 -0.03409 -0.943787 0.045858 -0.319608
-0.003388 0.762915 -0.111053 -0.510967 -0.198933 -0.834485
-0.09435 0.240489 -0.081116 -0.688559 -0.368678 -0.621854
0.076858 -0.815089 -0.073377 -0.88289 -0.145193 -0.375318
-0.100389 -0.710196 0.012789 -0.49521 -0.528825 0.682381
-0.238325 0.345464 -0.090199 0.323208 -0.472939 -0.817367
-0.131785 -0.215808 0.067856 -0.930726 -0.048832 0.361969
-0.024442 -0.076738 0.128913 0.027749 -0.070931 0.996795
0.043282 -0.306856 0.025051 -0.986322 -0.019761 0.153172
-0.517771 0.077206 0.06291 0.745562 -0.664431 0.046148
0.00569 0.449961 0.093924 0.05857 0.353886 0.932705
0.145724 -0.41461 -0.0924 0.507581 0.106277 -0.854807
-0.067132 0.051323 0.112761 -0.292751 0.081736 0.949573
-0.094084 0.338276 -0.099503 -0.618645 -0.136826 -0.773461
-0.073942 -0.654315 0.035061 0.345683 -0.260889 0.901195
0.082668 0.845625 -0.032552 0.809094 0.572777 -0.091547
0.133262 0.167461 0.095801 0.56504 0.023126 0.822539
0.140693 -0.787612 -0.110067 0.329534 0.426622 -0.841036
0.046394 0.131624 0.131117 0.101855 0.039954 0.993951
0.14161 0.581883 -0.052926 0.244742 0.965147 0.027406
0.208187 -0.150403 0.009993 0.972245 -0.214599 0.040954
-0.324006 0.34123 -0.060903 -0.644692 0.727401 -0.226167
-0.015935 0.119525 -0.124396 -0.201687 0.409396 -0.889649
0.410645 0.264088 -0.03477 -0.084775 0.262484 0.955732
0.120285 0.525666 -0.129524 0.06936 0.39014 -0.917614
0.179918 -0.274782 0.073738 0.453424 -0.012685 0.890257
0.097728 0.224082 0.111736 0.367661 0.090025 0.923498
0.500572 0.179425 -0.051033 0.032065 -0.459641 -0.886777
0.065194 -0.22094 -0.078802 -0.683374 -0.133781 -0.716599
-0.082686 -0.660912 0.036315 0.215942 -0.298362 0.92312
-0.123805 0.074712 -0.043935 -0.927999 0.119241 -0.351303
0.141463 -0.095833 -0.118234 0.495953 -0.163445 -0.852022
0.611503 0.093237 0.065321 0.761017 0.646631 0.05025
-0.120445 -0.700152 -0.027146 -0.88387 -0.118587 0.430056
0.241303 0.373604 -0.060606 -0.674407 -0.713656 0.17995
0.124416 0.211583 -0.109193 0.621696 -0.301782 -0.721886
-0.136401 -0.53115 -0.029628 -0.998933 -0.022814 -0.021332
0.202504 -0.232388 0.035226 0.965358 0.01153 0.260079
0.144334 -0.205307 -0.095404 0.632 -0.122022 -0.718712
-0.024293 0.199209 -0.118179 -0.260009 -0.412309 -0.872478
0.131871 0.22154 0.093753 0.598396 0.068579 0.798062
0.075577 -0.099586 0.089606 -0.581888 -0.360897 0.676273
0.395272 0.330377 -0.1101 0.598725 0.62032 -0.500628
-0.023322 -0.415343 -0.07702 0.498309 0.225409 -0.836931
-0.131973 0.065927 -0.001944 -0.887657 0.444513 -0.019037
0.073657 -0.350552 0.056515 -0.574454 -0.32202 0.749371
-0.06075 -0.825518 0.11481 -0.019852 0.990294 0.105657
0.044266 -0.254516 0.039724 -0.961162 -0.034837 0.259501
0.053459 -0.573052 -0.005574 -0.84581 -0.059389 0.52545
0.039697 0.065346 0.134168 0.154016 0.070662 0.984894
0.103371 -0.385516 -0.100341 -0.296381 -0.048284 -0.948678
-0.037941 -0.863011 0.101095 0.204793 -0.968176 0.065625
-0.384976 0.288005 -0.062145 -0.69587 0.682325 -0.221958
-0.031247 -0.857232 0.108726 0.833704 -0.34866 0.351676
0.135036 -0.835757 -0.114629 0.446674 -0.032305 -0.891155
0.112919 -0.487567 0.043472 -0.61252 -0.09585 0.784276
0.084231 -0.550108 0.025105 -0.646357 0.022654 0.759036
0.177936 -0.540727 -0.081694 0.697843 -0.036048 -0.71534
-0.102154 0.161231 -0.062358 -0.915896 0.109172 -0.353917
-0.102276 -0.454508 0.078973 -0.597176 -0.142122 0.766933
-0.015218 0.729289 0.060348 -0.73869 0.003252 0.672665
0.105507 -0.869832 0.057198 -0.130965 -0.982711 -0.022548
-0.113874 0.448006 -0.114262 -0.429965 -0.027962 -0.901329
0.207562 -0.15991 -0.010326 0.998024 -0.034178 -0.013119
-0.127202 0.380494 -0.061915 -0.977165 -0.173199 -0.099432
-0.042097 0.153697 0.112506 -0.518979 0.073005 0.85116
0.027437 -0.615754 -0.017627 0.992926 2e-05 0.101605
0.080302 0.636538 -0.04436 0.853635 0.244562 -0.442662
-0.133276 -0.107841 -0.036018 -0.878115 -0.106379 -0.464224
0.008476 -0.748005 -0.016227 0.601276 -0.431177 0.665431
0.088197 -0.459185 -0.092644 -0.591897 0.062291 -0.802165
0.05063 0.211156 -0.122223 -0.111384 -0.402728 -0.906053
0.162372 -0.198657 0.09159 0.24402 -0.145805 0.957516
0.120367 0.517686 0.041551 0.264979 0.621621 0.735418
-0.228147 0.435404 -0.076954 -0.470628 0.502585 -0.725185
0.02672 -0.592714 -0.013245 0.981886 0.025299 0.16362
0.082858 0.373169 -0.144893 -0.136063 -0.003048 -0.989806
0.168956 -0.280285 -0.066264 0.605121 -0.1638 -0.778704
-0.118148 -0.467172 -0.061577 -0.774438 0.117546 -0.621519
0.28021 0.354306 -0.12058 -0.504013 -0.629524 -0.590452
0.0987 0.447967 0.083025 0.144361 0.228611 0.962621
0.54768 0.113497 -0.00797 -0.954755 -0.293736 -0.025576
0.197131 0.381412 -0.084817 0.949073 -0.233053 -0.207539
-0.399563 0.180414 -0.022259 0.487029 -0.867398 -0.089083
-0.084441 0.453699 0.074891 -0.52494 0.225961 0.818241
0.183141 0.265544 -0.004509 0.999745 -0.008427 -0.010096
0.026576 -0.518515 -0.007719 0.979307 -0.094187 0.168572
-0.03604 -0.398001 0.084323 0.287446 -0.22562 0.930797
0.063623 0.131657 0.129071 0.151307 0.023719 0.987333
-0.013557 0.559973 0.021826 -0.017017 0.705447 0.701498
0.129749 -0.313937 -0.092594 0.468847 0.029641 -0.881723
0.182369 0.264682 -0.019336 0.990682 -0.002465 -0.126205
0.192475 -0.050235 -0.062788 0.902803 -0.050733 -0.426798
-0.522837 0.119902 0.040539 -0.793133 0.60685 -0.042995
-0.278202 0.271022 -0.023642 0.635879 -0.650959 0.413198
0.341339 0.378624 -0.065437 0.742945 0.498062 0.424624
0.054728 -0.712602 0.021777 -0.95163 0.10305 0.287054
-0.006081 -0.831413 -0.045092 0.152184 -0.972794 0.038237
0.0876 0.725281 0.056799 0.879446 0.009919 0.454289
-0.005724 -0.797396 -0.009104 0.867851 0.011109 0.492957
0.049758 -0.409223 -0.051384 -0.785023 -0.014949 -0.61825
-0.169892 0.370735 -0.052413 0.675674 -0.691787 -0.25337
-0.03323 0.324402 -0.128637 -0.123614 0.034993 -0.990703
0.111529 0.244151 -0.131363 0.47952 -0.217464 -0.848539
0.016392 0.039257 0.138223 0.063376 0.110397 0.991735
0.105551 -0.759804 -0.091689 -0.774522 0.008365 -0.561358
0.076475 -0.312673 0.06789 -0.455232 -0.130474 0.878104
0.073249 -0.1265 0.085025 -0.628811 0.022646 0.777138
0.156694 -0.500653 -0.099821 0.473612 -0.002825 -0.880303
-0.111921 0.307006 0.017294 -0.967656 -0.038675 0.246795
0.106338 -0.77244 0.030602 -0.162649 0.703193 0.650295
-0.559759 0.046771 0.002936 0.964851 -0.16326 -0.178648
-0.144997 0.427672 -0.093092 -0.118981 -0.462659 -0.864129
-0.128234 0.098237 -0.016209 -0.992031 0.005991 -0.118154
-0.166251 0.483501 -0.085472 -0.464736 0.282758 -0.838742
-0.069644 0.098747 -0.109543 -0.569049 0.299664 -0.764524
-0.049019 -0.814501 -0.147735 -0.177363 -0.087138 -0.976706
-0.049666 -0.369542 0.093463 0.301475 -0.278624 0.911673
0.329036 0.437902 -0.081517 0.794773 0.590356 0.110691
-0.059054 -0.864012 0.041742 -0.004074 -0.999807 -0.019006
-0.373116 0.216605 0.00958 0.273021 -0.154241 0.944469
-0.020739 -0.135969 0.123348 0.22286 -0.060311 0.971274
0.082974 0.28582 -0.140207 -0.065812 -0.066209 -0.993628
-0.049207 -0.6033 -0.101746 0.318868 0.032084 -0.946516
0.032183 0.011887 -0.151727 -0.171225 -0.31551 -0.931058
-0.034429 0.155532 -0.102869 -0.258032 0.18588 -0.943384
-0.04201 -0.306659 0.099703 0.276382 -0.115386 0.952772
0.088351 0.745956 -0.084682 0.784096 -0.262383 -0.556819
0.078193 0.092982 0.127317 0.441714 -0.015313 0.896671
-0.105545 -0.157152 0.107286 -0.658682 -0.05241 0.750528
0.199132 0.537824 -0.101207 0.287727 0.696402 -0.655586
0.081009 0.73903 -0.089561 0.662254 -0.388179 -0.640725
-0.017448 -0.333028 -0.073425 0.697037 -0.084546 -0.71185
0.093894 -0.779964 0.039058 -0.152368 0.859918 0.487078
0.011401 -0.241265 0.086606 0.813057 -0.073659 0.575876
0.054177 0.651504 -0.062794 0.448139 0.016218 -0.887553
0.198644 -0.671849 -0.02585 0.994306 -0.021511 -0.043897
-0.111858 -0.846701 0.065512 -0.923276 0.191153 0.06928
0.081086 0.512381 -0.132661 -0.304529 0.32162 -0.895655
0.076485 -0.288567 0.072442 -0.462644 -0.163505 0.869748
0.048674 -0.303554 -0.053271 -0.822069 0.000875 -0.569186
-0.329661 0.271097 0.005576 -0.021486 0.105738 0.993487
0.037612 0.577988 0.026274 0.132396 -0.005173 0.990064
-0.141371 0.021615 0.026853 -0.968056 0.151203 0.186951
0.081062 -0.199872 -0.094236 -0.404139 -0.233716 -0.883861
0.069018 -0.56152 0.010533 -0.64468 0.014573 0.764129
0.192888 0.560068 -0.032801 0.346133 0.871353 0.268768
-0.138299 -0.495525 -0.015069 -0.983516 -0.174613 0.014994
-0.068095 -0.230225 -0.090249 -0.303848 -0.006574 -0.948902
-0.0204 -0.547663 -0.089577 0.578207 -0.006643 -0.814597
-0.04199 -0.076822 0.128295 -0.10439 -0.062358 0.991608
0.040584 0.501348 0.066745 0.088592 0.485877 0.869458
-0.390596 0.272882 -0.006015 -0.542943 0.653414 0.526778
0.198019 -0.248754 -0.044199 0.88107 -0.142311 -0.447249
-0.43377 0.17819 0.026737 0.059094 0.573787 0.811289
0.067225 -0.809672 -0.039434 -0.981724 -0.146035 -0.111515
-0.560629 0.050934 0.074315 -0.467192 -0.567429 0.502944
0.141553 -0.172149 0.099214 0.161685 -0.276968 0.946305
0.197132 -0.438193 0.017752 0.971469 -0.097733 0.213599
0.05581 0.157194 -0.12068 -0.073717 0.067651 -0.994675
0.205227 -0.258616 0.017758 0.998701 0.016653 0.044483
-0.120396 -0.2151 0.090957 -0.823212 -0.041974 0.564276
0.149337 -0.860422 0.173924 0.299164 -0.763237 0.473227
-0.093824 -0.732645 -0.108111 -0.763911 0.088256 -0.63907
-0.028436 -0.326955 -0.082617 0.53 -0.092768 -0.840845
0.109507 0.027104 -0.150942 0.451432 0.031572 -0.889959
0.198159 0.381679 -0.027946 0.997305 -0.057728 0.039368
0.030646 -0.239813 0.026597 0.953786 -0.021688 0.292954
0.190222 0.170556 -0.011288 0.962567 0.209458 -0.147897
-0.107166 -0.371078 -0.059361 -0.721229 0.019198 -0.691526
-0.110328 -0.170429 -0.056453 -0.798108 -0.103953 -0.593224
0.032258 0.612984 -0.076001 -0.059679 0.375105 -0.91775
-0.57023 0.032539 0.067467 0.037286 -0.153798 0.859404
0.085409 -0.007078 -0.156984 0.089208 -0.136915 -0.98553
-0.06082 -0.613265 0.039668 0.441866 -0.161844 0.882112
0.017273 -0.458575 0.023195 0.884596 -0.048042 0.463617
0.19793 0.054678 0.049824 0.918708 0.220204 0.317767
0.192205 0.394368 0.017749 0.959872 -0.098344 0.258044
0.023689 -0.447787 -0.01602 0.903757 0.15737 -0.394347
0.175757 -0.465939 -0.082743 0.670215 0.127056 -0.730809
-0.058954 -0.41427 -0.084016 -0.142444 0.22402 -0.960502
-0.084612 -0.156069 -0.087052 -0.616298 -0.176363 -0.766527
0.068188 0.107639 -0.13907 0.033557 0.460295 -0.886335
-0.00929 0.674827 0.04851 -0.817875 -0.454286 0.329073
0.022247 -0.47844 0.007434 0.906344 -0.107159 0.407985
-0.042218 0.458296 -0.131973 -0.019217 0.038629 -0.99763
0.122127 0.493833 0.056238 0.23275 0.533419 0.812644
-0.123735 -0.345434 0.057238 -0.984228 0.06132 0.165427
0.042916 0.196233 0.129371 0.06145 0.022628 0.997783
0.33713 0.424503 -0.104119 0.726575 0.664011 -0.15582
0.469406 0.205011 -0.064267 0.152395 -0.718729 -0.677652
0.042023 -0.311991 0.014755 -0.971093 -0.023565 0.237122
0.200008 0.394284 -0.061409 0.979001 -0.191031 0.016651
0.086594 0.829067 -0.066548 0.824014 0.461577 -0.318014
0.022516 0.85413 -0.069431 -0.145966 0.844797 -0.512979
0.037598 0.789833 -0.120221 0.07533 0.123998 -0.985752
0.139616 -0.826072 0.106374 0.226982 0.965136 0.126
-0.007848 -0.831758 -0.073798 0.043882 -0.998669 -0.01043
-0.054831 0.217748 0.099571 -0.520758 0.097752 0.848035
0.062491 0.82541 -0.095923 0.316594 0.692051 -0.642719
-0.141844 -0.07022 0.036397 -0.970127 0.027729 0.234366
0.196601 0.405521 0.006971 0.932315 -0.196553 0.301707
0.17015 -0.606312 -0.083485 0.613233 -0.113254 -0.781685
0.114399 -0.589912 -0.099615 -0.335805 -0.149051 -0.926997
0.020486 -0.532368 0.000375 0.924354 -0.139627 0.352829
-0.112788 -0.193922 -0.048618 -0.832186 -0.073889 -0.548012
-0.025077 -0.794083 0.038862 0.688137 0.503369 0.516122
-0.011953 -0.8273 -0.122509 0.597241 -0.68937 -0.397824
0.165498 -0.637169 -0.081223 0.545087 -0.16913 -0.820597
-0.002232 -0.788516 -0.118864 0.857033 0.220268 -0.462731
0.107886 -0.494709 0.039167 -0.590316 -0.066246 0.804272
0.55083 0.105591 0.011829 -0.927944 -0.364771 0.052071
0.111242 0.332596 -0.139216 0.415223 -0.108148 -0.902887
0.042169 0.348383 -0.13001 -0.339128 -0.067957 -0.932919
-0.084916 -0.47063 -0.089791 -0.451397 0.109457 -0.885011
0.069122 0.154619 -0.121558 -0.007761 0.168618 -0.983206
-0.108794 -0.736873 -0.087077 -0.842953 0.128346 -0.522022
-0.056436 0.122915 -0.107937 -0.459005 0.321454 -0.82803
0.205616 0.032349 0.034047 0.983883 0.085362 0.145937
-0.226042 0.346522 -0.085324 0.405493 -0.605241 -0.684021
0.026342 -0.50879 -0.004585 0.965073 -0.059319 0.206949
0.582218 0.131641 0.01903 0.77672 0.627108 -0.047736
0.029287 0.426954 0.095735 0.133385 0.186081 0.973053
0.087814 0.795629 0.042789 0.894962 0.246111 0.358742
0.128813 0.031155 0.116266 0.198435 0.185292 0.952855
0.193048 -0.211852 0.062841 0.947836 -0.035588 0.314216
-0.125731 0.403776 0.040063 -0.811618 -0.49575 0.297298
-0.105323 -0.011547 -0.095612 -0.836104 -0.032216 -0.547245
0.074487 -0.81957 -0.064029 -0.825655 -0.479049 -0.252213
-0.311451 0.271591 -0.08889 0.112224 -0.399941 -0.90709
0.301224 0.320416 -0.099513 -0.695203 -0.709929 -0.104082
0.391946 0.324871 -0.060778 0.481473 0.636674 0.598978
0.051242 0.612652 -0.075472 0.126218 0.544557 -0.822141
0.489475 0.239578 -0.054965 0.70914 0.703485 -0.025483
0.005799 0.802563 -0.112628 -0.310527 0.279887 -0.906737
0.460534 0.196712 -0.005707 -0.724683 -0.328387 0.538554
0.011022 0.604332 -0.079438 -0.13043 0.629737 -0.764881
-0.037214 0.805572 -0.017158 -0.986537 -0.117486 0.076573
0.182993 0.193847 -0.019914 0.975685 0.122903 -0.164777
-0.105616 -0.818875 -0.063095 -0.874819 -0.459186 -0.030788
0.156143 -0.729582 -0.079155 0.712795 0.015487 -0.700289
-0.076704 0.284344 0.081138 -0.52662 0.003527 0.8423
0.443205 0.198854 -0.063796 -0.519583 -0.847453 0.054828
-0.027184 0.490243 0.07484 -0.098416 0.446805 0.888421
-0.168459 0.472923 -0.087453 -0.385841 0.236435 -0.891272
-0.120262 0.038405 -0.064326 -0.875035 0.142124 -0.462122
-0.180905 0.360235 -0.050617 0.646663 -0.726756 -0.231404
0.154454 -0.187197 -0.091622 0.610346 -0.057198 -0.789904
0.045965 -0.162484 -0.073254 -0.825626 -0.196376 -0.527618
-0.215625 0.399706 0.031175 -0.155387 -0.323993 0.929235
-0.030525 0.597181 -0.062496 -0.551437 0.792925 -0.253888
-0.006296 -0.346847 0.08085 0.623977 -0.05558 0.774906
-0.315886 0.284726 0.005911 -0.083155 0.043873 0.994785
0.042019 -0.268811 0.019785 -0.985247 -0.027214 0.160273
-0.021516 0.130772 0.122562 -0.418475 0.007849 0.907297
-0.104737 -0.670865 -0.09539 -0.552093 -0.037235 -0.832506
0.083868 -0.182639 -0.09969 -0.380457 -0.247842 -0.890825
0.214509 -0.112795 0.004077 0.999581 -0.005448 0.00295
0.051035 0.202116 0.128626 0.085426 0.021131 0.995956
-0.050385 -0.791534 -0.14683 -0.22636 0.327294 -0.904064
-0.124232 -0.468 -0.053651 -0.797045 0.102933 -0.594871
0.108423 -0.571664 0.035765 -0.339681 -0.141016 0.929756
0.053878 -0.585225 -0.048885 -0.806199 -0.025461 -0.590089
0.038102 -0.105455 -0.095034 -0.668456 -0.42895 -0.605159
-0.083185 -0.09675 -0.096752 -0.544399 -0.177173 -0.81822
-0.012228 0.672091 -0.015576 -0.953744 -0.27862 -0.083309
0.112976 0.444794 0.081395 0.19801 0.206355 0.957549
0.008883 -0.379764 0.057443 0.832313 -0.113344 0.541248
-0.114249 0.125042 -0.050559 -0.886769 0.056656 -0.458677
0.129997 -0.867905 0.015024 0.051531 -0.993209 -0.095855
-0.120749 -0.533795 -0.069553 -0.789591 0.109417 -0.603743
0.132405 0.290986 -0.122461 0.680945 -0.051799 -0.729667
-0.087365 0.30657 -0.101234 -0.659445 -0.071481 -0.748215
-0.014445 0.538095 0.050778 -0.061048 0.608751 0.789564
0.073987 -0.149858 0.086291 -0.562247 0.006708 0.826755
0.122947 0.214601 0.099369 0.540687 0.036356 0.839911
0.173458 -0.456105 -0.082795 0.654324 0.16896 -0.736799
0.086302 0.803739 -0.089182 0.774664 0.233622 -0.58425
0.106852 -0.305885 -0.099428 0.015045 0.016019 -0.994056
0.173435 0.464474 0.043186 0.576308 0.190771 0.793533
0.16354 -0.232655 -0.078972 0.539848 -0.127457 -0.831602
0.155134 -0.229139 -0.08448 0.522688 -0.129174 -0.842501
0.120741 0.442525 -0.14664 0.069006 -0.036142 -0.996535
0.019811 -0.175757 -0.04002 0.928614 0.057696 -0.362195
0.620899 0.078388 0.064079 0.869724 0.4906 0.050229
0.132004 0.473502 0.065916 0.258777 0.429557 0.863439
0.17655 0.048747 -0.085157 0.819307 0.196127 -0.537873
0.021306 -0.224794 -0.039794 0.946776 -0.0153 -0.319176
-0.080118 -0.299095 -0.08014 -0.589934 -0.061824 -0.804916
0.170891 0.569563 -0.063767 0.533193 0.812815 -0.212254
0.167462 0.235831 0.053317 0.72475 0.063972 0.68544
0.554565 0.110212 0.04308 -0.84684 -0.336388 0.399207
-0.154551 0.429224 -0.093968 0.077441 -0.104592 -0.990425
-0.552045 0.05558 0.067187 0.819448 -0.557672 0.059888
-0.060551 0.088251 -0.118565 -0.495089 0.290094 -0.817998
0.107612 -0.79082 -0.109667 -0.416626 0.420255 -0.798947
-0.047076 0.441257 0.089999 -0.155761 0.213384 0.964354
0.127265 -0.326788 0.080454 -0.028161 -0.071947 0.996437
0.344296 0.320545 -0.041708 0.018013 -0.080304 0.993221
0.120942 0.333719 -0.134531 0.510272 -0.125163 -0.848641
0.168092 0.386815 -0.117758 0.417313 -0.408572 -0.808525
0.049021 0.476009 -0.129355 -0.258598 0.084404 -0.959485
-0.373729 0.29008 -0.006796 -0.541397 0.617525 0.568015
0.078331 0.771151 0.06228 0.679686 -0.286676 0.671333
0.12808 -0.268469 0.08399 0.05301 -0.085501 0.994594
-0.109292 0.288809 0.025713 -0.966698 -0.05776 0.248464
0.064229 -0.115441 -0.106167 -0.471863 -0.319488 -0.814546
0.08907 0.433436 -0.144701 -0.157869 -0.004549 -0.98714
0.084992 -0.822536 0.032593 -0.756779 -0.598319 0.202382
-0.09593 0.204505 -0.061887 -0.787244 0.046291 -0.611727
0.103673 0.543029 -0.124426 0.073428 0.520007 -0.850147
-0.00646 -0.012642 -0.140067 -0.135336 -0.220111 -0.965553
0.305706 0.429802 -0.130048 0.387884 0.553676 -0.735793
-0.179558 0.35783 -0.037629 0.633728 -0.764969 -0.097588
0.089923 0.275805 0.109885 0.394849 0.107925 0.912336
0.034613 -0.016282 0.135648 -0.053771 -0.331845 0.931185
0.058298 0.645941 0.032832 0.598317 -0.409007 0.684999
0.071564 0.607453 0.010831 0.693763 -0.005662 0.718023
-0.19197 0.480807 -0.071518 -0.549508 0.454428 -0.700183
-0.127473 0.081223 -0.027507 -0.983208 0.073553 -0.156712
0.14966 -0.810921 0.045437 0.599075 0.520565 0.607345
0.199594 -0.112056 0.061415 0.894428 -0.023744 0.446523
0.00997 -0.538637 -0.054709 0.86749 0.041653 -0.495666
-0.136591 -0.494544 -0.002714 -0.960678 -0.146145 0.229951
-0.409489 0.233211 -0.064364 -0.527241 -0.084752 -0.843779
0.204319 0.017894 -0.025306 0.969279 -0.015532 -0.24032
-0.367172 0.280115 -0.084372 -0.346155 0.325645 -0.879627
0.097399 -0.401682 0.055422 -0.532855 -0.212568 0.817997
-0.140309 -0.176387 0.027034 -0.948943 -0.278303 0.125559
0.115696 0.341688 -0.138315 0.424731 -0.120752 -0.897185
0.500426 0.228854 -0.049307 0.64277 0.765544 -0.001478
0.212672 -0.049597 0.000805 0.985619 0.021328 -0.163683
-0.088505 0.452642 -0.123786 -0.346622 -0.038946 -0.935817
0.199529 0.037739 -0.038166 0.967391 0.068806 -0.242991
-0.007303 -0.5615 -0.077345 0.753515 -0.058442 -0.654251
-0.103355 0.228697 0.063594 -0.798648 0.146319 0.57816
0.012784 -0.213051 -0.055931 0.803666 0.008507 -0.594063
-0.43343 0.232351 -0.035552 -0.753486 0.638936 -0.13207
0.15129 0.236588 -0.086151 0.819815 -0.114227 -0.560458
-0.128546 -0.017362 0.067295 -0.891791 0.097129 0.440617
-0.135188 -0.185674 0.06314 -0.965349 -0.048518 0.247572
0.118779 -0.70529 0.026252 0.366685 -0.292636 0.881545
-0.115386 -0.346059 0.08619 -0.797878 -0.097704 0.59409
-0.093244 0.008441 0.111843 -0.517835 0.240191 0.820877
0.51338 0.189489 -0.052683 0.221595 -0.367849 -0.902208
-0.316717 0.248835 -0.073916 0.257948 -0.689317 -0.664557
0.227068 0.411287 -0.126512 -0.56444 -0.388177 -0.724567
0.630981 0.037246 0.023975 -0.94364 -0.293003 -0.12272
-0.130963 -0.566032 -0.021188 -0.952443 -0.13017 0.272122
-0.136428 -0.521528 -0.032018 -0.996077 -0.003946 -0.068175
0.029552 -0.279138 -0.018341 -0.185829 -0.5154 -0.703877
0.105735 0.555848 0.016559 0.414945 0.644746 0.635409
0.282144 0.361156 -0.128669 -0.38413 -0.614258 -0.685962
0.00161 -0.340893 0.073689 0.689187 -0.107857 0.715599
-0.108675 -0.698182 -0.090487 -0.70201 -0.060138 -0.708925
-0.020359 -0.182432 0.117052 0.465801 -0.11775 0.876798
-0.124499 0.205006 0.014178 -0.901084 0.388825 0.178123
0.040246 0.362892 -0.130021 -0.313382 -0.044645 -0.946829
0.146462 0.109092 -0.101233 0.692514 0.251056 -0.676058
0.242601 0.508527 -0.004683 0.639321 0.375254 0.670334
-0.025383 -0.476173 0.061477 0.413774 -0.322528 0.849507
0.027347 -0.309864 0.034036 0.991784 -0.029897 0.121055
0.022942 -0.391349 0.018368 0.921929 -0.2303 0.307771
0.180075 -0.693502 -0.050483 0.716652 -0.128235 -0.683806
-0.069542 0.471722 0.075323 -0.232766 0.351023 0.906369
0.139977 0.002379 0.116165 0.456454 -0.147627 0.865698
0.199255 -0.458254 -0.002434 0.993346 -0.02228 0.106129
-0.069486 -0.203186 0.116392 -0.305921 -0.087896 0.947883
-0.079479 0.57523 -0.053232 -0.42351 0.868881 -0.23499
-0.335184 0.330356 -0.018621 -0.609438 0.731455 0.267363
-0.029803 -0.85184 -0.016719 0.59549 -0.783014 -0.178651
-0.144128 -0.085301 0.002801 -0.999068 0.010884 -0.036018
0.201815 -0.086624 -0.042451 0.894536 0.048164 -0.442586
-0.046991 -0.833862 0.129193 0.443614 0.82482 0.308464
0.632311 0.024392 0.049055 -0.895663 -0.434347 -0.008128
-0.184813 0.427197 0.035727 0.172443 -0.417968 0.889311
-0.02402 -0.787884 -0.142487 0.392813 0.407445 -0.822547
0.183847 -0.292259 0.070806 0.55248 -0.04729 0.827883
0.004848 -0.593423 0.01325 0.636393 0.065196 0.767308
0.13123 0.383134 0.084284 0.478795 0.057481 0.875869
0.107996 0.201147 -0.115961 0.445572 -0.374153 -0.811032
0.05144 -0.668126 -0.004943 -0.998368 -0.023936 0.038716
0.174921 -0.521975 -0.08546 0.697581 -0.02808 -0.715923
0.092048 0.816035 -0.068321 0.845479 0.407173 -0.335323
0.478342 0.234616 -0.011375 -0.100901 0.574166 0.780195
-0.12908 -0.49274 -0.049953 -0.849912 0.070577 -0.521835
0.014694 0.195248 -0.11774 0.17796 -0.319812 -0.930054
0.017046 0.064961 -0.145431 -0.155591 0.209322 -0.965287
-0.13555 -0.197772 -0.00142 -0.97246 -0.085059 -0.21167
0.082398 0.212278 0.11936 0.417965 0.084266 0.903018
0.187435 -0.257567 -0.056813 0.723986 -0.183114 -0.664963
0.01741 0.385685 -0.128051 0.002256 -0.020665 -0.999332
-0.107535 -0.022958 -0.091232 -0.816338 -0.061244 -0.574299
0.156857 -0.416198 0.07313 0.003376 -0.085837 0.994082
0.184412 -0.486078 -0.075615 0.778137 0.019063 -0.627483
0.071082 0.677889 0.072829 0.816711 -0.134333 0.516437
0.121631 -0.544481 -0.107573 -0.154985 -0.048434 -0.983489
0.122948 -0.42974 -0.103239 0.095159 0.073177 -0.989096
-0.377344 0.268653 0.004625 -0.260477 0.383506 0.883222
0.137834 -0.869715 0.095388 0.033559 -0.999046 0.01461
0.042476 0.725777 0.098404 0.702855 -0.280489 0.640522
-0.065688 -0.296355 0.106331 0.09956 -0.101154 0.98965
0.565369 0.155016 0.024537 0.738539 0.67313 0.032614
0.173017 -0.687032 0.014982 0.463486 -0.423265 0.777337
-0.040908 0.485261 0.075177 -0.164154 0.439679 0.882796
0.128902 0.076418 -0.127465 0.553641 0.260141 -0.789804
0.263437 0.419616 -0.01165 -0.035632 -0.186061 0.981211
0.186476 0.433489 0.040616 0.554622 0.019343 0.829522
0.172205 0.1497 -0.055167 0.863961 0.016835 -0.502898
0.011506 -0.162451 0.097373 0.804205 -0.12115 0.579774
0.135124 -0.706113 -0.093094 0.429323 0.029471 -0.902009
0.093487 -0.866849 -0.07517 -0.693609 -0.719076 -0.025526
0.026717 0.859559 -0.060307 -0.091852 0.875127 -0.470163
0.029414 0.200431 0.129683 0.014411 0.049265 0.998602
-0.120231 -0.441478 -0.051958 -0.75324 0.24799 -0.608444
0.183214 0.285677 -0.018263 0.988739 -0.107331 -0.089399
0.053795 0.771104 -0.116049 0.4075 -0.046669 -0.911087
0.152196 0.417958 -0.136213 0.248832 -0.224054 -0.941651
-0.120465 0.073034 -0.054248 -0.896016 0.13421 -0.421921
-0.012345 -0.801093 0.011428 0.952922 0.16398 0.253892
0.037033 0.316529 0.120018 0.082024 0.113278 0.989911
-0.022264 -0.484797 0.057109 0.455769 -0.285547 0.839808
-0.170608 0.397609 -0.090185 0.439583 -0.392789 -0.800354
-0.091393 0.044952 -0.105663 -0.705684 0.243771 -0.665105
-0.014534 -0.130347 -0.089799 0.605021 -0.231683 -0.761525
-0.120051 0.563684 -0.007149 -0.393944 0.871954 0.2612
-0.006473 -0.217495 0.105314 0.507326 -0.131716 0.850475
0.164617 -0.104586 -0.098402 0.722324 -0.12723 -0.679115
0.305154 0.341375 -0.043058 -0.276044 -0.517087 0.80838
0.086971 0.549134 0.032376 0.074103 0.784915 0.600054
-0.118505 0.493529 -0.105158 -0.398477 0.228931 -0.887937
0.011704 0.249909 -0.127345 0.149445 -0.043313 -0.987722
0.204091 -0.501744 -0.023103 0.978478 0.178118 -0.0912
-0.12391 0.060521 -0.049247 -0.917792 0.121647 -0.376833
-0.059041 -0.863991 0.103679 0.001829 -0.999738 0.020647
0.142861 -0.456452 -0.101676 0.334015 0.138053 -0.932288
-0.035265 -0.58833 0.03326 0.398014 -0.287831 0.870146
-0.019758 0.55007 0.038456 0.041675 0.838562 0.533922
-0.09198 -0.105527 -0.08802 -0.633592 -0.162742 -0.753993
-0.075453 -0.398897 -0.07858 -0.354222 -0.052008 -0.932199
0.006538 0.288792 0.12168 -0.195434 0.100868 0.974394
0.004931 -0.714482 -0.083923 0.637463 0.190479 -0.742683
0.15804 -0.762183 -0.08427 0.766784 0.338086 -0.537681
0.163942 -0.139977 -0.08979 0.666533 -0.166442 -0.726442
0.158439 0.359704 0.062121 0.67773 -0.108886 0.72694
0.010171 -0.203303 -0.059091 0.778995 0.034655 -0.624461
0.098108 0.775795 0.018767 0.960394 0.058401 0.269368
-0.31993 0.285864 -0.093888 -0.03579 -0.208142 -0.976946
0.054018 0.030178 0.137115 0.034095 0.254618 0.966105
-0.082278 -0.041431 -0.11333 -0.58247 -0.234046 -0.77694
0.064415 -0.121363 0.077062 -0.735587 0.064432 0.672425
0.170719 -0.270879 -0.067017 0.579833 -0.197011 -0.790432
0.08777 -0.072949 -0.134172 -0.120552 -0.382323 -0.915518
0.033088 -0.290875 -0.016003 -0.984544 -0.133281 -0.108451
0.175177 -0.859614 0.077893 0.912912 -0.360451 -0.006477
0.010109 0.036521 -0.151614 -0.162716 0.161255 -0.972454
0.003805 0.7544 -0.112864 -0.438725 -0.271312 -0.853304
0.20132 0.400916 -0.049823 0.928526 -0.341303 0.020552
0.468688 0.261713 -0.049181 0.669134 0.731248 0.125348
0.182674 0.224519 -0.014366 0.998032 0.010099 -0.059194
0.110104 -0.276467 -0.099425 0.025291 -0.009251 -0.996999
-0.0691 -0.020982 0.1229 -0.375346 -0.100478 0.904043
-0.097362 0.23379 -0.072351 -0.724701 -0.417296 -0.547306
0.102507 0.596909 -0.040806 0.587362 0.770804 0.229612
0.080862 -0.373253 -0.086686 -0.665457 -0.075012 -0.742333
0.080481 0.185064 -0.11835 0.13886 -0.16266 -0.969452
-0.033674 0.578135 -0.090367 -0.243583 0.662335 -0.707589
0.182746 0.063396 0.069126 0.788929 0.230535 0.568377
0.11242 0.392445 0.090623 0.28559 0.112734 0.95149
-0.014325 0.534576 -0.11768 -0.083441 0.366239 -0.925589
0.363309 0.363967 -0.083194 0.66064 0.710914 0.235978
-0.039217 -0.064371 -0.119963 -0.056712 -0.321851 -0.944699
0.074038 -0.318908 -0.084912 -0.637858 -0.027693 -0.768428
0.006105 0.528141 0.055826 0.097724 0.572599 0.812135
-0.012858 0.187788 -0.116769 -0.283748 -0.237298 -0.928602
-0.118521 -0.012264 -0.074476 -0.838872 0.005136 -0.542822
0.150502 -0.307087 -0.077865 0.606292 0.01618 -0.795006
0.205325 -0.242961 -0.005887 0.999473 -0.021941 -0.020828
0.164842 -0.842414 0.116827 0.773466 0.627381 0.073846
-0.084589 -0.085315 0.115167 -0.433935 0.000786 0.900535
-0.040013 0.495408 -0.12716 -0.047594 0.238662 -0.968224
0.043311 -0.40771 -0.029107 -0.998568 -0.030087 -0.035415
-0.108181 -0.809228 -0.085981 -0.873513 -0.372314 -0.308526
0.641904 0.02255 0.051211 0.290368 -0.86191 -0.004194
0.093667 -0.238431 0.087339 -0.226693 -0.15992 0.960318
0.039008 -0.105078 0.095582 0.482706 -0.589514 0.643932
0.045408 -0.335871 0.030415 -0.927914 -0.105163 0.351384
-0.103716 0.41019 -0.111722 -0.438929 -0.213688 -0.866658
0.027984 -0.246325 -0.030077 0.141931 -0.090839 -0.902832
0.070777 -0.802225 -0.056895 -0.893904 0.068039 -0.441191
0.018197 0.669141 -0.064439 -0.393321 -0.295728 -0.861571
-0.010157 0.780593 -0.108963 -0.708102 0.010969 -0.704998
0.328182 0.354278 -0.138264 0.035577 -0.103147 -0.992953
-0.137095 -0.502172 -0.023888 -0.995306 -0.077656 -0.042638
0.289014 0.350527 -0.124713 -0.556785 -0.473445 -0.681857
0.025974 0.863052 -0.048784 -0.079459 0.976673 -0.18841
0.057231 -0.127071 0.069785 -0.748891 0.208939 0.62215
0.109124 -0.870421 -0.07222 -0.004858 -0.998988 0.023151
0.112942 -0.580821 0.035747 -0.285924 -0.187311 0.939345
0.033147 0.333988 -0.127146 -0.162679 -0.018705 -0.985019
0.084318 -0.849964 0.084002 -0.937929 0.320165 0.010549
-0.144345 -0.100697 0.017306 -0.999563 0.007488 0.022245
-0.112022 0.252306 0.018212 -0.991578 0.093109 0.080162
0.075459 0.857028 -0.010882 0.692681 0.720615 0.020834
-0.119723 0.318568 -0.02092 -0.995988 -0.043182 0.072571
0.082951 -0.763415 0.011294 -0.04061 0.037829 0.918535
0.208767 0.511103 -0.122317 0.219808 0.499464 -0.835478
0.181921 0.288895 -0.029423 0.963977 -0.155649 -0.211397
-0.045031 -0.458488 0.072945 0.209484 -0.239716 0.947942
0.423531 0.30709 -0.098093 0.621907 0.750603 -0.211759
0.072427 -0.217429 -0.085642 -0.529311 -0.142971 -0.834747
0.075853 -0.746191 -0.047286 -0.898216 0.075982 -0.431055
0.024529 0.697165 -0.083343 -0.144792 -0.6167 -0.771982
-0.024936 0.604267 -0.04038 -0.722996 0.690315 0.019413
0.285802 0.436883 -0.017755 0.607392 0.199005 0.767628
0.182826 0.321003 0.016626 0.909254 -0.099772 0.403301
0.018236 0.063473 0.13644 0.161927 0.060991 0.984291
0.10844 0.278488 0.103522 0.352791 0.042845 0.934474
-0.021027 0.43897 0.095911 -0.130638 0.232855 0.96285
-0.030975 0.031058 -0.144737 -0.148432 0.076653 -0.985114
0.093421 0.577591 -0.003956 0.476965 0.557177 0.67706
0.017404 0.199866 0.129712 -0.020876 0.05588 0.99808
-0.056988 -0.703758 -0.117257 -0.038069 0.21409 -0.970832
0.20017 0.069285 -0.02275 0.985011 0.108738 -0.133492
-0.061896 -0.490887 0.069542 0.395444 -0.249538 0.883717
-0.126667 -0.532589 0.008771 -0.892089 -0.126361 0.430179
0.042998 0.772938 -0.119968 0.208327 0.016093 -0.972925
0.155376 -0.711028 0.007616 0.462803 -0.445055 0.765557
-0.120431 0.353259 -0.067628 -0.985025 -0.098891 -0.130142
-0.036994 -0.021126 -0.135014 -0.162095 -0.166734 -0.971903
0.207538 0.001923 0.014603 0.983916 0.156856 0.028988
0.12131 0.106453 -0.122389 0.526677 0.341037 -0.776637
0.119171 -0.556656 0.041755 -0.31015 -0.089307 0.94573
0.128689 -0.869383 -0.100344 0.108759 -0.981569 -0.142926
0.011612 0.441889 0.095585 0.095991 0.207629 0.971489
0.025817 -0.617579 -0.039936 0.934863 0.083492 -0.332206
0.490609 0.172382 -0.019237 -0.650948 -0.757731 0.007871
0.085339 0.498443 0.064424 0.173374 0.483677 0.857336
-0.052836 0.130946 0.107073 -0.520995 -0.0304 0.852536
-0.118927 -0.652589 0.012289 -0.955662 -0.104291 0.268912
0.230761 0.418663 -0.131623 -0.444893 -0.218081 -0.867809
0.013462 0.176016 0.130365 -0.044702 0.018238 0.99852
0.204699 -0.36799 -0.022703 0.983647 0.036231 -0.173226
-0.491838 0.154399 0.055498 -0.389004 0.844952 0.350509
-0.00684 -0.764802 -0.111177 0.734325 0.358326 -0.572932
0.13053 0.050877 -0.133734 0.557706 0.262412 -0.786739
0.037395 0.714913 0.096812 0.211747 -0.331041 0.911856
0.083834 0.101108 0.124548 0.458304 0.00751 0.887809
0.458004 0.262542 -0.0962 0.733682 0.239402 -0.633552
-0.108922 -0.123072 -0.06788 -0.766904 -0.083405 -0.636252
0.018816 -0.484206 0.015591 0.915065 -0.077506 0.395781
0.196955 -0.148852 0.063164 0.892701 -0.094559 0.44045
-0.113315 -0.513139 0.034634 -0.852168 -0.117915 0.507889
0.078762 -0.326876 -0.088376 -0.628628 -0.023696 -0.777171
0.088644 -0.503503 0.026057 -0.558006 0.035692 0.828801
0.204018 0.053671 0.021208 0.954942 0.260927 0.132616
0.142949 -0.434058 -0.097522 0.402849 0.166218 -0.899958
0.080904 0.471609 -0.141115 -0.358265 0.200358 -0.910418
0.478453 0.210151 -0.069503 0.230129 -0.524965 -0.813063
0.194998 -0.553287 -0.060041 0.834381 -0.013287 -0.55097
-0.099288 -0.130375 0.111301 -0.472103 0.055817 0.873278
0.06244 -0.620513 -0.002019 -0.391785 0.164028 0.881759
-0.366077 0.204783 0.001353 0.502393 -0.682134 0.508231
0.092624 -0.376897 0.058333 -0.468452 -0.250864 0.846367
-0.172639 0.363714 -0.033828 0.672815 -0.737078 -0.029601
0.027745 0.307641 0.121413 0.014773 0.096195 0.994392
0.01627 -0.222228 -0.050572 0.866274 -0.016774 -0.497505
0.203959 -0.543791 -0.035653 0.96652 -0.027113 -0.249112
-0.124629 0.367966 -0.046409 -0.936707 -0.349896 -0.00253
-0.293635 0.373466 -0.053192 -0.879249 0.448449 -0.116403
-0.002774 -0.445151 -0.061034 0.739194 0.064595 -0.670301
0.200515 0.403335 -0.01511 0.961026 -0.236126 0.134163
-0.070748 -0.861351 -0.119945 -0.142172 -0.966367 -0.199976
-0.048704 -0.853434 0.14528 0.766251 -0.320825 0.498553
0.109587 0.003325 -0.150781 0.379039 0.070328 -0.92155
0.206414 0.01071 0.034718 0.993559 0.00218 0.105743
-0.366739 0.201077 -0.028602 0.641536 -0.766157 -0.032067
0.099206 0.736419 0.007036 0.97332 -0.087868 0.211267
0.100347 0.282043 -0.139034 0.176955 -0.037069 -0.98282
-0.098171 0.305634 0.055256 -0.871009 0.191555 0.451151
0.104047 0.42796 0.087184 0.217675 0.242524 0.944385
-0.017744 0.724525 -0.074073 -0.80624 -0.434009 -0.394073
0.110905 0.163071 -0.111417 0.373122 0.1362 -0.91683
0.042126 -0.237027 0.02479 -0.988502 -0.035529 0.144789
-0.064458 -0.793162 0.045631 -0.347186 0.514298 0.76929
-0.009093 -0.259962 -0.076789 0.641205 -0.081401 -0.761611
0.158659 0.282009 0.058723 0.735139 0.014415 0.677204
-0.097835 -0.753075 -0.105379 -0.756828 -0.087804 -0.641558
-0.12413 -0.39371 0.056191 -0.957015 0.09309 0.269051
-0.024504 -0.12477 0.124881 0.14515 -0.064559 0.985524
-0.130919 -0.386487 0.006172 -0.886085 0.426502 0.012409
-0.076454 0.287864 -0.108904 -0.638375 -0.05169 -0.767886
0.101606 0.251446 0.107205 0.368339 0.074168 0.926665
-0.125147 -0.733723 -0.028367 -0.922647 0.069864 0.37577
-0.040854 0.385606 -0.128435 -0.141192 -0.03236 -0.988306
0.061344 -0.415197 -0.064545 -0.751078 -0.011051 -0.660114
0.01734 -0.738635 -0.023837 0.920063 -0.120725 0.367861
0.149919 -0.137734 -0.101805 0.579714 -0.235947 -0.779052
-0.05995 -0.261948 0.110519 0.089101 -0.145327 0.985151
0.064692 -0.423992 -0.068206 -0.744658 -0.000454 -0.667369
0.103201 0.238827 -0.134378 0.325733 -0.233016 -0.910436
-0.117916 0.233851 -0.015882 -0.930971 0.357567 -0.028127
0.110957 -0.526511 0.039582 -0.520071 -0.017752 0.852238
0.210457 -0.051931 -0.009061 0.983169 0.022648 -0.172659
0.095945 0.599177 -0.072918 0.424294 0.821711 -0.347676
0.187717 0.006682 -0.070075 0.83845 0.135101 -0.526484
-0.12553 -0.280919 -0.021281 -0.944606 0.01093 -0.321107
0.132984 0.199666 0.094802 0.552231 0.057682 0.829939
-0.119813 0.312754 -0.031483 -0.996402 -0.083221 0.013422
-0.150492 0.394322 0.002493 0.659313 -0.670512 0.336496
-0.029937 0.841192 -0.002019 -0.675804 0.713753 0.169583
-0.119026 -0.635042 -0.083143 -0.724093 0.050687 -0.683075
-0.276878 0.374696 0.006857 -0.769918 0.155442 0.618351
-0.1047 -0.631307 0.041121 -0.815145 -0.113736 0.55514
0.101234 -0.448785 -0.100344 -0.456975 0.055999 -0.887443
-0.071425 -0.284911 0.108053 0.068592 -0.11438 0.990891
-0.113838 -0.572422 -0.083056 -0.683748 0.0423 -0.728321
0.154883 -0.860043 -0.025111 0.554949 -0.818891 0.125869
0.074708 -0.822101 0.004944 -0.541965 -0.798826 0.130369
0.19312 -0.44697 0.02867 0.96175 -0.099126 0.253962
0.104533 0.291327 0.10395 0.303712 0.080586 0.946794
0.045546 -0.569035 -0.034437 -0.948334 -0.041841 -0.252215
0.205365 -0.272046 -0.007234 0.999351 0.017208 -0.03036
0.513139 0.189487 0.01729 -0.476308 0.022938 0.800425
-0.087532 -0.251831 -0.07747 -0.723571 -0.048963 -0.688402
0.036935 0.289098 -0.128135 -0.142252 -0.017683 -0.988604
-0.057332 0.24893 0.095362 -0.557232 0.089644 0.825166
0.302484 0.320615 -0.069246 -0.655125 -0.700333 0.265036
-0.128301 -0.027539 0.070026 -0.870327 0.097521 0.482434
0.639846 0.045916 0.029783 0.896756 0.437969 -0.021655
0.017429 -0.196062 0.081708 0.920752 -0.056765 0.367694
-0.066409 0.354197 0.092551 -0.398061 -0.099412 0.901938
0.191276 -0.626015 0.01156 0.821984 -0.078061 0.554301
0.428713 0.207384 -0.096273 -0.479148 -0.858476 -0.133687
-0.087858 -0.213474 -0.078757 -0.673907 -0.013092 -0.736506
-0.041087 -0.340146 0.0964 0.257527 -0.100256 0.960748
0.10109 0.065601 0.118253 0.431878 0.131936 0.890891
-0.089085 -0.830726 0.108493 -0.46617 0.860522 0.139525
0.075754 -0.514493 0.016565 -0.653179 0.015932 0.756944
0.284527 0.459338 -0.022127 0.691369 0.217444 0.688316
0.206415 0.033169 -0.007883 0.9961 0.03945 -0.077029
-0.034218 -0.806023 -0.149384 0.232162 -0.128177 -0.948483
0.056608 -0.397047 0.017803 -0.682637 -0.341062 0.646222
0.067732 -0.259908 -0.078915 -0.746387 0.017813 -0.662497
-0.142438 -0.037932 0.020746 -0.980824 0.155637 0.103964
-0.139419 -0.469151 -0.009144 -0.992821 0.05568 0.072527
0.126273 -0.77181 -0.105229 -0.042749 0.382815 -0.916925
-0.248686 0.302025 -0.0589 0.749418 -0.606776 -0.261999
-0.12874 -0.62714 -0.030175 -0.996279 -0.041533 0.068774
0.164468 0.123227 0.071714 0.602877 0.212497 0.768013
0.113317 -0.868839 -0.110156 -0.012513 -0.921211 -0.303758
-0.124923 0.015369 -0.059661 -0.893396 0.034078 -0.447903
-0.028271 0.600692 -0.048659 -0.692152 0.714914 -0.054774
0.020193 -0.707726 -0.026809 0.909149 -0.128524 0.393489
0.363995 0.265117 -0.066827 -0.755224 -0.621752 0.200843
-0.456385 0.144631 0.039175 0.68249 -0.682844 0.204653
-0.010533 0.330499 -0.129343 0.045808 0.043037 -0.997568
0.006074 -0.024461 0.1333 0.100188 -0.131063 0.981562
-0.170059 0.533756 -0.042299 -0.616725 0.716057 -0.321157
0.495366 0.170235 -0.039586 -0.454162 -0.853373 -0.217615
-0.030839 -0.831547 0.088418 0.823408 0.5066 0.24614
-0.482078 0.160274 0.05003 -0.205514 0.803951 0.509682
0.050172 0.486359 -0.12877 -0.200423 0.078647 -0.975848
0.143324 -0.276946 -0.084877 0.575721 -0.096831 -0.8118
0.053186 0.660135 0.070509 0.233731 -0.961346 0.136473
0.451935 0.246305 -0.100563 0.644945 -0.257342 -0.717663
0.0855 0.637309 -0.02605 0.965766 0.194932 -0.070683
-0.021488 -0.842526 -0.035094 0.918738 -0.391358 -0.006844
-0.02574 -0.55829 0.03802 0.433753 -0.235108 0.86952
-0.076918 0.38314 -0.117318 -0.420898 -0.15217 -0.893728
0.030941 -0.257128 0.023312 0.983135 -0.063429 0.170709
-0.358171 0.272612 0.005709 0.02014 0.232696 0.971943
0.01767 -0.418997 0.02593 0.945162 -0.073152 0.311852
0.309951 0.370415 -0.141259 -0.044874 -0.246393 -0.967444
0.267325 0.38458 -0.138482 -0.385024 -0.256122 -0.884509
0.018363 -0.05553 -0.12001 -0.025918 -0.624797 -0.770839
0.144071 -0.582431 -0.101599 0.324243 -0.146595 -0.934349
-0.068045 -0.534963 -0.101785 -0.129226 0.070622 -0.986632
-0.075111 -0.863793 0.093678 -0.043934 -0.998946 0.008777
-0.11226 -0.779042 -0.083669 -0.90138 0.007461 -0.432195
0.144318 0.536723 0.017482 0.287355 0.640541 0.710962
0.366219 0.284874 -0.125365 -0.323721 -0.383562 -0.864013
0.070066 -0.263467 0.073661 -0.606104 -0.119147 0.785584
0.119367 0.426522 0.083352 0.257973 0.177477 0.949019
0.059535 -0.617201 -0.054202 -0.77028 -0.0597 -0.634587
-0.091319 -0.190131 0.112333 -0.203153 -0.052832 0.977309
-0.059359 -0.469279 -0.095776 -0.003698 0.11512 -0.992396
-0.088747 0.084503 0.088916 -0.476327 0.362262 0.777743
0.01463 -0.736038 -0.076755 0.811794 0.026523 -0.581136
-0.429803 0.236557 -0.01659 -0.722369 0.687865 0.067787
0.068978 0.461322 0.082783 0.072172 0.269844 0.959972
-0.052525 -0.864288 0.05592 0.002967 -0.999858 -0.006748
0.013903 0.643856 -0.059799 -0.384694 0.121578 -0.910384
0.108605 -0.119609 -0.120047 -0.017074 -0.189663 -0.980825
0.08365 0.67132 -0.018235 0.988178 -0.071479 -0.120512
0.090311 -0.835815 0.083536 -0.928694 0.362574 0.069447
0.089285 0.694863 0.011057 0.984329 -0.157861 0.050172
0.299302 0.438327 -0.126787 0.42609 0.560233 -0.709438
0.18405 0.192301 0.018817 0.974517 0.192431 0.094315
-0.122205 -0.436049 0.054763 -0.860605 -0.14767 0.487193
0.261714 0.515136 -0.044062 0.73 0.672294 0.097955
