0.142861 -0.371413 -0.087569 0.587798 0.124088 -0.799284
0.059291 0.214947 0.127176 0.199807 0.06965 0.974002
-0.127755 -0.481867 -0.050661 -0.839927 0.07326 -0.537341
-0.037832 0.404944 -0.129316 -0.078536 -0.029723 -0.996223
0.168892 0.182064 0.05762 0.761713 0.085319 0.641502
0.045463 -0.280779 -0.048928 -0.834477 0.008468 -0.550543
0.183588 -0.506835 -0.076751 0.767097 -0.000132 -0.641451
0.18393 -0.004505 -0.079123 0.886485 0.07157 -0.456295
0.098675 0.777399 -0.068514 0.949294 0.010853 -0.312117
0.10332 -0.86737 -0.038531 -0.242636 -0.949111 0.186826
-0.071621 0.170203 0.093887 -0.63155 0.002607 0.774598
-0.229506 0.393232 0.026584 -0.259339 -0.2468 0.931263
0.117364 0.557482 -0.112585 0.219356 0.606155 -0.762908
0.04568 -0.506477 -0.019095 -0.766091 -0.000546 0.526244
0.134835 0.26212 0.088132 0.6754 0.044126 0.734824
-0.113933 -0.095504 0.095158 -0.740853 0.084219 0.666153
0.128896 -0.658487 0.032674 0.1 -0.142539 0.984362
0.026411 -0.378345 0.004719 0.99734 -0.042587 0.036181
-0.119044 -0.222778 -0.033561 -0.863679 -0.047842 -0.501073
0.020539 -0.211498 -0.041958 0.930152 -0.009889 -0.361412
-0.014895 -0.236672 0.105619 0.372736 -0.18877 0.907919
0.107684 -0.365007 -0.10119 -0.07286 0.013363 -0.991406
-0.140495 -0.027203 0.00688 -0.956325 0.289544 0.012777
0.163438 -0.235739 0.083869 0.242418 -0.173199 0.953647
0.01425 -0.599657 0.007141 0.606934 0.087965 0.789279
-0.056002 -0.103367 -0.108147 -0.154804 -0.20449 -0.965567
0.13775 -0.726251 -0.09388 0.510901 0.170548 -0.841666
-0.049742 0.247402 0.101193 -0.628827 0.056583 0.774927
0.052928 0.265419 0.123836 0.213147 0.129689 0.968296
-0.003308 0.389108 0.105746 0.025413 0.090301 0.995288
-0.014889 -0.708564 0.022129 0.631171 -0.212265 0.744302
0.1314 -0.825146 0.126055 0.178207 0.981086 0.041274
-0.523215 0.08518 0.096062 -0.072036 0.18101 0.898296
-0.129532 -0.405618 0.04047 -0.966449 0.076055 0.243984
0.076704 -0.671358 0.026047 -0.549571 0.31308 0.773473
-0.52825 0.079291 0.030897 0.458817 -0.637062 -0.61742
0.027446 0.822337 -0.10535 -0.026117 0.643156 -0.764026
0.024131 -0.126701 0.09178 0.810329 -0.274071 0.517851
-0.073247 -0.494172 0.073491 0.354173 -0.180481 0.917355
0.202121 0.040859 -0.026691 0.972156 0.083348 -0.218719
0.023278 0.143121 -0.11896 -0.123668 0.430806 -0.893386
0.038578 0.129002 -0.128128 -0.110103 0.422944 -0.899375
-0.107502 -0.090981 0.10126 -0.680789 0.081015 0.727631
-0.033283 -0.08155 0.128415 -0.034896 -0.055022 0.997453
0.073071 -0.547942 -0.075322 -0.71219 -0.070267 -0.698382
-0.002774 -0.445151 -0.061034 0.739194 0.064595 -0.670301
-0.040419 0.331641 -0.127566 -0.205055 0.008783 -0.976846
0.114531 0.58524 -0.028237 0.40145 0.785702 0.467038
0.055285 0.636682 0.030482 0.490444 -0.422489 0.756207
0.021306 -0.224794 -0.039794 0.946776 -0.0153 -0.319176
-0.108831 -0.197911 0.103818 -0.643553 -0.023754 0.762911
0.142495 -0.793382 0.038238 0.570181 0.407781 0.71133
-0.031209 -0.55982 -0.095572 0.397771 -0.026328 -0.917078
0.001125 0.602774 -0.078379 -0.254703 0.660675 -0.704303
0.198494 -0.103878 -0.051277 0.882657 0.037676 -0.467623
0.192277 -0.249227 -0.052806 0.766577 -0.145258 -0.624526
0.018514 -0.439599 -0.030185 0.930318 0.029552 -0.36411
0.189873 -0.366248 -0.049759 0.585509 0.235259 -0.77521
0.02674 -0.682051 -0.045723 0.995487 -0.016355 -0.065219
0.149822 0.094988 -0.102884 0.701144 0.209941 -0.681003
0.102126 -0.645393 0.032849 -0.404955 0.12695 0.898652
-0.560629 0.050934 0.074315 -0.467192 -0.567429 0.502944
0.036935 0.289098 -0.128135 -0.142252 -0.017683 -0.988604
0.160919 -0.536933 -0.096182 0.547473 -0.03264 -0.835378
0.095378 -0.611981 -0.086361 -0.582198 -0.082344 -0.808492
0.099643 0.59289 -0.079994 0.352047 0.736793 -0.566989
0.196584 -0.72458 -0.026868 0.978547 -0.072184 -0.17062
0.336495 0.320553 -0.131895 -0.221425 -0.352329 -0.908826
0.256794 0.486218 -0.006871 0.598023 0.291471 0.743868
0.413546 0.216627 -0.087619 -0.61099 -0.790949 -0.024467
-0.004555 -0.024175 0.132906 -0.062884 -0.121224 0.987884
0.179063 0.103108 -0.060942 0.795769 0.282374 -0.535238
0.204286 -0.409171 -0.015951 0.981297 -0.143417 -0.124376
0.195525 -0.495788 0.015546 0.937457 0.05652 0.342406
0.039767 -0.291479 0.009381 -0.947883 2e-05 0.314535
-0.089507 -0.828816 0.091637 -0.553859 0.823882 0.114079
-0.117527 -0.780955 -0.071757 -0.94232 -0.052773 -0.325663
-0.090494 0.013072 -0.113823 -0.718647 -0.01792 -0.694815
0.03686 -0.119467 0.081196 0.641543 -0.576308 0.496313
-0.028404 0.826958 -0.069945 -0.653402 0.603611 -0.451654
-0.116068 -0.152231 -0.052462 -0.793521 -0.153967 -0.588384
-0.559759 0.046771 0.002936 0.964851 -0.16326 -0.178648
-0.353466 0.312734 -0.020215 -0.651867 0.711653 0.259653
0.13162 -0.068067 -0.13062 0.379308 -0.273139 -0.882738
0.014248 -0.754974 -0.027689 0.7246 -0.384421 0.570871
-0.124032 -0.670596 -0.025137 -0.951164 -0.102435 0.290971
0.187456 0.130699 -0.028693 0.847817 0.20014 -0.488599
0.204923 0.034162 -0.018885 0.975319 0.087262 -0.197217
0.109249 0.732637 -0.022207 0.828784 -0.340553 -0.360329
0.088226 -0.062693 0.120451 -0.034597 -0.313944 0.948199
-0.039217 -0.064371 -0.119963 -0.056712 -0.321851 -0.944699
-0.127766 0.495317 -0.100697 -0.403373 0.266574 -0.874895
-0.013087 -0.716963 0.017816 0.684768 -0.223444 0.693094
0.108168 -0.193133 -0.104661 -0.128946 -0.143003 -0.980352
0.125232 0.238105 0.096906 0.54539 0.042072 0.837007
0.097852 0.069725 -0.147073 0.431525 0.228175 -0.871309
-0.006613 0.231025 0.1224 -0.371082 0.121495 0.92057
-0.095786 -0.661772 0.03637 -0.176664 -0.33185 0.916813
0.144672 0.172183 0.084872 0.710597 0.026712 0.703082
-0.121567 0.433528 -0.108638 -0.49249 -0.209586 -0.844203
0.205943 -0.344097 0.001183 0.998926 -0.012502 0.021317
-0.182278 0.527277 -0.008526 -0.709503 0.695565 0.109997
0.110805 -0.767856 -0.098039 -0.469921 0.385783 -0.789514
0.022707 -0.4774 -0.023094 0.903361 0.048149 -0.426011
-0.333829 0.331595 -0.06543 -0.581526 0.764563 -0.256675
0.096705 -0.302328 0.07799 -0.407453 -0.214829 0.886787
-0.052618 0.032782 0.122418 -0.405002 0.211328 0.887396
0.006901 -0.814482 -0.053975 0.885178 -0.376619 0.248877
-0.008904 0.737719 0.065878 -0.58822 0.034536 0.802171
0.199585 0.393188 -0.086612 0.956447 -0.271901 -0.08888
-0.049889 -0.277331 0.106171 0.162695 -0.135182 0.977076
0.088252 0.776344 0.052098 0.893858 -0.024013 0.410524
-0.102827 -0.813535 -0.010337 -0.952781 -0.117993 0.25005
0.118113 0.589862 -0.049063 0.322636 0.941308 0.082639
-0.12803 -0.667559 -0.047616 -0.997768 -0.016026 0.061821
0.001168 0.009267 -0.145057 -0.146718 -0.245423 -0.953941
-0.003469 -0.161391 0.110783 0.594999 -0.119552 0.793224
0.202233 -0.53311 -0.005008 0.934507 -0.042229 0.33914
-0.092701 -0.621527 0.049779 -0.083563 -0.226413 0.964819
-0.044802 -0.4905 0.063595 0.331366 -0.286772 0.898404
-0.08912 -0.236305 -0.076778 -0.717228 -0.040881 -0.69551
-0.140309 -0.176387 0.027034 -0.948943 -0.278303 0.125559
-0.069542 0.471722 0.075323 -0.232766 0.351023 0.906369
0.109461 -0.646264 -0.091719 -0.408149 -0.076017 -0.909724
0.087558 -0.841762 -0.070207 -0.98385 0.15142 -0.079325
-0.122384 -0.41817 0.060527 -0.896186 -0.130966 0.421692
-0.567894 0.038771 -0.010564 0.46861 0.440981 -0.528513
0.020181 0.123712 0.132287 -0.07343 0.020016 0.99534
0.087908 -0.805666 0.043819 -0.754894 0.112341 0.637767
-0.046605 -0.124595 0.124956 -0.101717 -0.068418 0.991391
-0.038907 -0.293821 -0.091203 0.211894 -0.085219 -0.973038
-0.065847 -0.331924 -0.086265 -0.292088 -0.045089 -0.955213
0.331693 0.352783 -0.041299 0.38892 0.182906 0.897234
0.052535 -0.112799 0.070116 0.182487 -0.746115 0.523654
0.168956 -0.280285 -0.066264 0.605121 -0.1638 -0.778704
0.20515 -0.243615 0.012184 0.999224 -0.002169 0.03683
-0.200104 0.382787 0.021093 0.161637 -0.496691 0.851802
-0.130602 -0.393539 0.028212 -0.954623 0.216226 0.196219
-0.415365 0.252438 -0.043708 -0.782898 0.610068 -0.104147
0.175245 0.219374 -0.043346 0.927865 -0.009583 -0.37216
0.28699 0.478254 -0.093939 0.596459 0.677848 -0.428135
-0.113769 0.086876 -0.061726 -0.870107 0.165548 -0.464074
-0.054199 -0.82793 0.131694 0.530605 0.805285 0.229208
-0.036932 -0.661947 -0.099745 0.757951 0.159794 -0.595509
-0.237841 0.327192 -0.002368 0.513569 -0.611059 0.59872
-0.070644 -0.55722 0.05748 0.351135 -0.175756 0.91951
-0.077552 0.008544 -0.123847 -0.573574 -0.040004 -0.817585
-0.013473 0.825211 -0.08681 -0.463891 0.659366 -0.59074
0.185435 -0.154418 0.083541 0.700245 -0.018395 0.711094
-0.126719 -0.180172 -0.029178 -0.871932 -0.140024 -0.468443
-0.206946 0.451561 0.036085 -0.554694 0.270568 0.786184
-0.122999 -0.084089 0.08245 -0.788892 0.018508 0.61414
0.006695 -0.571781 0.011966 0.657999 -0.089764 0.745783
-0.038391 -0.131202 -0.10243 0.241686 -0.197593 -0.948951
0.046781 -0.304136 0.03889 -0.946757 -0.055629 0.315666
0.109259 0.270395 -0.136053 0.352108 -0.057287 -0.933784
0.084504 0.682077 0.017267 0.885594 -0.420557 0.168959
-0.523017 0.11995 0.064384 -0.757597 0.652114 0.019873
0.184848 -0.561409 0.031425 0.715712 -0.139353 0.683484
0.05498 0.191864 -0.115784 -0.239947 -0.030902 -0.960734
0.335652 0.306611 -0.050665 -0.543665 -0.563941 0.620328
0.073822 0.784539 0.070749 0.759123 0.074296 0.632908
-0.108343 0.458499 0.062913 -0.166721 0.038504 0.98414
-0.037325 0.590582 -0.028997 -0.395492 0.883628 0.197664
-0.194825 0.347694 -0.031607 0.593841 -0.803581 0.031954
-0.094538 0.570204 -0.011989 -0.383315 0.797567 0.459575
0.582293 0.12972 0.050868 0.708805 0.699691 0.082819
0.061683 0.766569 -0.11237 0.432122 -0.080434 -0.897863
-0.05498 0.160357 0.103358 -0.519343 0.09738 0.848802
0.179634 0.178848 0.043333 0.84871 0.082894 0.522204
0.088443 -0.030744 0.129349 0.113133 -0.063363 0.991328
0.42608 0.240009 -0.029579 -0.365163 -0.540657 0.698662
-0.170608 0.397609 -0.090185 0.439583 -0.392789 -0.800354
-0.076054 -0.217427 -0.086531 -0.493526 0.004083 -0.866717
0.066399 -0.80526 -0.004015 -0.91961 -0.355877 0.153181
-0.110234 -0.670782 0.024007 -0.770591 -0.243084 0.582489
0.106571 0.130526 0.112835 0.503937 0.018375 0.862754
0.124412 0.350872 -0.135561 0.467888 -0.154912 -0.869871
0.181289 0.315063 -0.053978 0.869443 -0.321435 -0.374351
0.048996 0.705457 -0.086944 0.242312 -0.639539 -0.728355
0.034915 -0.31142 -3e-05 -0.955405 -0.059548 0.28844
0.01813 0.552313 -0.111233 -0.053969 0.453683 -0.887953
0.174454 0.424955 0.049051 0.546658 0.070234 0.833338
-0.11926 -0.60003 0.010474 -0.914961 0.033455 0.400744
0.111405 -0.86433 0.153754 -0.084489 -0.9844 0.152992
-0.112901 0.296058 0.007062 -0.988953 -0.098099 0.109225
-0.491838 0.154399 0.055498 -0.389004 0.844952 0.350509
0.46087 0.234229 -0.087931 0.579845 -0.364072 -0.728715
0.040246 0.362892 -0.130021 -0.313382 -0.044645 -0.946829
0.146527 -0.865648 -0.093139 0.561048 -0.763754 -0.301465
-0.025208 -0.454752 0.068448 0.393064 -0.290348 0.869581
-0.011797 -0.668779 0.02537 0.216417 -0.029251 0.962206
0.342963 0.41767 -0.108835 0.69046 0.701319 -0.172548
0.049664 0.220329 0.128041 0.086809 0.055365 0.993616
0.132927 -0.86992 0.08423 0.006005 -0.999907 0.010047
0.206878 0.027255 0.002142 0.999557 0.02285 -0.017644
-0.127761 0.547946 0.023594 -0.156738 0.81965 0.545561
-0.489428 0.163331 0.004755 -0.776628 0.629589 -0.019252
0.178515 -0.436523 0.063772 0.551999 -0.042163 0.830262
-0.023635 -0.006757 0.144726 -0.186647 -0.092311 0.94257
-0.004761 0.671849 0.05657 -0.85548 -0.398295 0.326721
-0.225386 0.466759 -0.046949 -0.68601 0.596241 -0.416571
0.482789 0.217087 -0.008672 0.484663 -0.041738 0.833768
0.04953 -0.424847 -0.050202 -0.795044 -0.035089 -0.604335
0.053504 -0.064987 0.11926 0.041685 -0.459316 0.884904
-0.116872 -0.085286 0.090343 -0.765203 0.063003 0.6405
0.010857 0.054898 0.138241 0.047249 0.027029 0.994332
0.05959 -0.759479 -0.005656 -0.997682 0.021178 -0.054606
0.071921 0.693581 0.072903 0.672191 -0.041769 0.73457
-0.004346 -0.507721 0.036691 0.62131 -0.221428 0.751302
0.100874 0.46093 -0.146004 -0.089177 0.077175 -0.992945
0.006014 0.067537 -0.14339 -0.142872 0.206548 -0.967727
0.095883 0.738976 0.026763 0.962693 -0.12375 0.237766
-0.093985 -0.595129 -0.097359 -0.463115 0.043574 -0.885209
0.071721 0.79604 -0.10542 0.600208 0.122996 -0.78798
-0.032337 0.400451 0.1039 -0.148876 0.162004 0.973258
-0.20336 0.366799 0.011383 0.159964 -0.558054 0.813566
0.303515 0.420063 -0.137055 0.26998 0.451509 -0.848166
0.087305 -0.64392 -0.077432 -0.656168 -0.055953 -0.752061
0.045243 -0.344625 -0.045386 -0.871732 -0.079583 -0.483238
-0.095308 0.024816 -0.108454 -0.756763 0.137821 -0.637845
0.079601 -0.792459 -0.07322 -0.841597 0.22424 -0.489729
-0.127467 -0.64417 -0.03259 -0.988832 -0.089348 0.110469
0.197887 0.05917 -0.038337 0.959562 0.077922 -0.269251
-0.073348 -0.350976 -0.082631 -0.398614 -0.019675 -0.915051
-0.107553 0.294855 -0.076696 -0.83688 -0.079472 -0.539509
0.208227 0.501481 0.016768 0.262118 0.267077 0.925708
0.226475 0.513032 0.007996 0.412041 0.486507 0.768999
0.605658 0.100892 0.039835 0.835292 0.547533 0.003513
0.205291 -0.192202 -0.038882 0.96991 0.004058 -0.242123
-0.286732 0.346392 -0.091942 -0.413919 0.303953 -0.856068
0.209334 0.479356 0.020635 0.357155 0.104662 0.925708
-0.1352 0.495962 0.05812 -0.158589 0.297848 0.939508
0.01217 -0.649191 -0.061935 0.611114 0.160238 -0.775104
0.117679 0.181078 0.104175 0.483195 0.027984 0.874607
0.156857 -0.416198 0.07313 0.003376 -0.085837 0.994082
-0.107177 0.171493 -0.052024 -0.852333 0.080517 -0.51667
0.084546 0.706861 0.059693 0.830318 -0.136281 0.538779
0.153075 -0.034351 -0.124126 0.70455 -0.108867 -0.700615
0.132169 0.539651 -0.121549 0.176901 0.476272 -0.86107
-0.044849 -0.731451 -0.120161 0.330763 0.223984 -0.913087
-0.079949 -0.71785 -0.116054 -0.426716 0.219961 -0.873892
-0.344567 0.229436 0.005247 0.372716 -0.398214 0.825338
-0.019813 -0.722447 0.021965 0.564229 -0.341152 0.735891
-0.117548 -0.442379 0.060714 -0.83402 -0.186753 0.518991
-0.041702 -0.781696 0.040084 0.122793 0.742658 0.647691
-0.001092 -0.561744 -0.069508 0.77288 -0.039062 -0.633308
-0.107811 -0.3218 -0.053385 -0.785118 0.052111 -0.616889
0.200978 -0.504476 -0.001391 0.951436 0.056086 0.295391
-0.101068 -0.377099 -0.065747 -0.663769 -0.028328 -0.74154
-0.016553 -0.161183 0.11872 0.426071 -0.143317 0.890748
0.11459 0.137554 0.107419 0.561647 0.026649 0.825591
0.093219 0.029693 0.127975 0.213839 0.239941 0.946137
0.137005 -0.742641 0.025542 0.247847 0.692716 0.666396
0.012744 -0.293434 -0.045213 0.79688 -0.092364 -0.595729
0.302484 0.320615 -0.069246 -0.655125 -0.700333 0.265036
-0.101886 0.525921 -0.098067 -0.347101 0.541205 -0.765841
0.110805 0.109138 0.111162 0.534721 0.088032 0.83921
-0.085042 0.215007 -0.076747 -0.772647 -0.181756 -0.601218
-0.112435 -0.147058 0.101484 -0.679478 0.038233 0.732314
-0.025274 -0.33621 -0.079694 0.587202 -0.094869 -0.801934
-0.131535 -0.550364 -0.014356 -0.9057 -0.247942 0.331685
0.195994 0.15896 -0.001763 0.834369 0.532627 -0.062818
0.335803 0.297978 -0.059701 -0.583668 -0.634402 0.506401
0.003898 -0.039275 0.133192 0.176268 -0.307309 0.931721
0.072796 -0.464559 0.010321 -0.584973 0.03936 0.806624
-0.036539 -0.371266 0.089893 0.206563 -0.149094 0.966691
-0.029301 -0.668198 0.024088 -0.206486 -0.022208 0.972996
0.065494 0.209162 -0.124637 -0.212759 -0.417142 -0.881771
-0.123692 0.146655 -0.024144 -0.904528 0.19177 -0.379246
0.156122 0.445456 -0.141429 0.237041 -0.135164 -0.961909
0.631648 0.03015 0.06976 -0.94918 -0.309245 -0.003048
-0.128108 -0.280745 0.055715 -0.986281 -0.0992 0.127533
0.515619 0.153625 -0.006697 -0.654549 -0.755616 0.022728
0.103718 0.440377 -0.146592 -0.071341 -0.023715 -0.996738
0.111764 0.522179 0.041756 0.357823 0.590104 0.722554
0.046848 0.728438 -0.105855 0.236582 -0.52712 -0.81582
-0.077081 -0.711476 0.015459 0.270998 -0.380991 0.882509
0.188667 -0.765014 -0.010446 0.948896 -0.297697 0.077874
0.146097 -0.355088 0.078075 0.153809 -0.105128 0.981342
-0.09084 -0.297019 0.106764 -0.108611 -0.086581 0.98901
0.069292 0.273747 -0.137534 -0.21645 -0.062717 -0.973418
0.113225 0.532674 -0.128005 0.068971 0.328365 -0.938725
0.190993 -0.658011 0.006218 0.91908 -0.068713 0.383666
-0.022163 -0.329666 0.09126 0.392322 -0.113257 0.911933
0.010762 -0.486389 0.027206 0.775169 -0.155125 0.612143
0.331393 0.389769 -0.051194 0.891583 -0.238912 0.370247
-0.264149 0.31188 -0.08768 0.530597 -0.342998 -0.773968
-0.072511 -0.509589 -0.098222 -0.189326 0.083753 -0.977786
0.065104 -0.250613 0.070421 -0.708708 -0.108718 0.696689
-0.077686 -0.531136 0.06606 0.394957 -0.203432 0.895863
0.100912 0.460548 0.079678 0.191777 0.375518 0.905785
0.196531 -0.387132 -0.045984 0.899055 0.00259 -0.43694
0.07148 0.751016 0.068499 0.416352 0.125829 0.89404
0.149659 -0.828762 0.105558 0.423569 0.885051 0.168555
0.198389 0.368137 -0.05655 0.996254 -0.073656 -0.029232
0.00978 -0.738307 -0.012615 0.751241 -0.203796 0.623121
0.064746 0.861076 -0.039109 0.441953 0.868263 -0.188841
-0.10379 0.566716 -0.010736 -0.149569 0.972708 0.150333
-0.077036 -0.863555 0.035722 -0.038052 -0.999238 -0.005908
-0.037412 0.778912 -0.046432 -0.989907 0.078346 -0.116556
0.01179 0.717022 0.081017 -0.798862 0.045902 0.5941
-0.049871 -0.495831 -0.098229 0.111006 0.097827 -0.987269
0.325411 0.438176 -0.102214 0.614285 0.699179 -0.363673
-0.083505 -0.861387 0.140539 -0.188732 -0.955897 0.20988
0.182906 -0.110909 -0.074098 0.786345 -0.081491 -0.611896
0.060581 -0.200994 -0.079273 -0.712144 -0.204176 -0.671458
-0.427207 0.160786 -0.013986 0.534259 -0.842891 -0.038785
0.205754 -0.087578 0.050135 0.922175 -0.042962 0.378671
-0.347219 0.300768 -0.087049 -0.423513 0.310942 -0.849349
0.101707 -0.284996 0.082168 -0.134037 -0.107107 0.984858
0.135684 -0.842239 0.180538 0.11889 0.632644 0.733311
0.164054 0.372024 -0.113325 0.535909 -0.320146 -0.780975
-0.109723 -0.244724 -0.04936 -0.838569 -0.023139 -0.543653
-0.021516 0.130772 0.122562 -0.418475 0.007849 0.907297
0.012784 -0.213051 -0.055931 0.803666 0.008507 -0.594063
-0.021192 -0.045754 -0.128543 -0.039205 -0.443552 -0.894783
-0.365772 0.227345 -0.0742 0.163239 -0.473729 -0.863335
-0.09435 0.240489 -0.081116 -0.688559 -0.368678 -0.621854
-0.038179 -0.858009 -0.056485 0.52589 -0.839464 0.112487
0.178025 -0.607415 -0.076933 0.643014 -0.079736 -0.761351
-0.136805 -0.464934 -0.028273 -0.970284 0.060423 -0.231226
0.042865 -0.180603 0.048096 -0.96941 -0.041191 0.238352
-0.000522 0.337727 0.112824 -0.038208 0.055773 0.997252
-0.128046 -0.37382 -0.020399 -0.994374 0.015008 -0.097577
0.204394 -0.273923 0.028263 0.986489 -0.022233 0.154431
-0.095701 0.340201 0.058479 -0.806377 -0.164182 0.563734
0.187534 -0.426724 -0.060617 0.788299 0.119872 -0.602916
-0.014857 -0.62199 -0.081843 0.677192 0.009944 -0.735725
0.051368 -0.501207 -0.007676 -0.87636 -0.007482 0.481167
-0.125221 0.155569 -0.017792 -0.922452 0.054602 -0.37823
-0.055386 -0.496834 0.065536 0.343578 -0.21939 0.912863
0.231927 0.51824 -0.000631 0.559784 0.524193 0.63503
0.195458 -0.718416 -0.008378 0.965608 0.007835 0.25759
-0.122205 -0.436049 0.054763 -0.860605 -0.14767 0.487193
0.19125 0.036654 -0.062303 0.905534 0.0649 -0.418483
-0.022882 0.4053 0.104247 -0.075622 0.164527 0.983097
0.131648 -0.462283 -0.10527 0.128606 0.103699 -0.985047
0.198913 0.40509 -0.003333 0.958356 -0.205548 0.195025
-0.057185 -0.861096 -0.040008 0.085399 -0.995725 -0.006737
-0.067374 -0.410065 0.089063 0.132075 -0.169598 0.976344
-0.009374 0.322904 0.113351 -0.110604 0.073943 0.991015
-0.1263 0.154454 0.017334 -0.96501 -0.052133 0.240895
-0.393801 0.191384 -0.04889 0.281855 -0.810532 -0.48621
0.038102 -0.105455 -0.095034 -0.668456 -0.42895 -0.605159
-0.11855 0.216657 0.026729 -0.94331 0.236033 0.228491
0.094872 -0.482294 0.029658 -0.615177 0.014114 0.788028
0.182746 0.063396 0.069126 0.788929 0.230535 0.568377
0.153267 -0.439463 -0.093524 0.503726 0.204212 -0.838725
-0.111763 -0.637418 -0.089797 -0.606833 0.06557 -0.792107
-0.14677 0.552904 -0.015434 -0.52228 0.843903 0.017813
-0.102057 -0.29479 0.10488 -0.433979 -0.066349 0.89379
0.321568 0.345672 -0.136685 -0.123696 -0.193576 -0.970695
0.176631 0.230618 0.040204 0.900549 0.042149 0.429885
0.094738 -0.664238 -0.08199 -0.603244 -0.0065 -0.797454
-0.024595 -0.836866 0.053998 0.956867 0.281628 0.05477
0.147261 0.403266 0.074118 0.579051 0.032673 0.814418
0.139067 0.127086 0.091659 0.666568 0.02203 0.745087
-0.506251 0.143109 0.037551 -0.783188 0.621724 0.00578
0.027498 -0.343875 0.007591 0.998847 -0.047642 0.002386
0.174476 -0.75783 -0.050257 0.856947 0.243579 -0.453495
0.216553 0.552505 -0.045831 0.52902 0.832968 0.07783
-0.054108 0.558773 0.018675 -0.190923 0.778828 0.597332
0.076495 -0.600844 -0.07112 -0.684283 -0.047823 -0.727527
-0.087706 0.359198 -0.106952 -0.545521 -0.170169 -0.819987
0.468547 0.187379 -0.01602 -0.579012 -0.813157 0.041545
0.174487 -0.857577 0.106998 0.942265 -0.082942 0.079736
-0.093244 0.008441 0.111843 -0.517835 0.240191 0.820877
0.587012 0.046614 0.018263 0.102758 -0.897293 0.029802
0.267627 0.346345 -0.07016 -0.681907 -0.728565 0.058885
-0.29338 0.32724 -0.095499 -0.162585 0.221578 -0.958706
0.164339 -0.839745 0.086054 0.787739 0.615723 0.01869
0.257329 0.374286 -0.035858 -0.546418 -0.558739 0.622434
0.203719 -0.52478 -0.035728 0.96051 0.051026 -0.26896
-0.045164 0.554078 -0.103898 -0.275171 0.486224 -0.827997
0.019664 -0.18762 -0.041952 0.920666 0.058581 -0.378916
-0.027102 -0.841616 0.088997 0.964325 0.163006 0.174552
0.085037 -0.849902 0.103783 -0.884214 0.445548 0.07567
0.054137 0.793225 0.081312 0.287389 0.252717 0.92164
0.476103 0.254089 -0.045875 0.713226 0.69522 0.081456
0.161648 0.174563 0.066681 0.720325 0.060472 0.690856
-0.126727 -0.300397 -0.01832 -0.974177 0.01841 -0.214196
0.368761 0.261606 -0.105023 -0.663657 -0.663057 -0.343075
0.075696 0.29848 0.113237 0.367022 0.142473 0.918512
0.156694 -0.500653 -0.099821 0.473612 -0.002825 -0.880303
0.066576 0.012147 0.139158 0.179896 0.137611 0.972392
-0.058735 -0.771799 -0.135602 -0.255175 0.378643 -0.886642
-0.156642 0.379561 -0.033453 0.712205 -0.698315 -0.056047
0.0892 0.688605 0.003715 0.982088 -0.16859 0.066516
-0.046373 -0.703361 -0.114111 0.330523 0.292945 -0.896521
-0.050187 -0.86321 -0.09253 0.020041 -0.999354 0.020966
0.138259 0.026056 0.113792 0.396146 0.14871 0.904797
-0.108877 -0.278323 -0.049758 -0.818596 0.00623 -0.574228
0.173481 -0.227268 0.081782 0.404153 -0.210484 0.887439
-0.558632 0.063082 0.074167 -0.905608 0.353862 0.218102
0.009151 0.261183 -0.12824 0.13536 -0.047687 -0.98961
-0.073409 -0.863872 0.04934 -0.03452 -0.999325 -0.010206
-0.127166 -0.298459 0.049419 -0.989773 -0.107246 0.085616
0.063671 0.343102 -0.138745 -0.399334 -0.018424 -0.916205
-0.163595 0.396582 0.018031 0.314687 -0.657741 0.677268
-0.467172 0.134532 0.041834 0.73277 -0.612558 0.275595
-0.107751 -0.472021 -0.073407 -0.684144 0.120673 -0.719249
-0.12156 0.361221 -0.001417 -0.974142 -0.206926 0.07151
0.281372 0.428661 -0.013041 0.395949 0.076066 0.913161
-0.101152 0.175807 -0.060967 -0.751765 0.114864 -0.647056
0.146951 -0.524592 0.055667 -0.200313 -0.276869 0.936766
-0.053728 0.50829 0.061166 -0.181863 0.463747 0.866779
0.228497 0.385448 -0.064335 -0.711178 -0.699611 0.06424
0.15554 -0.863256 -0.068511 0.577545 -0.815078 -0.04199
0.193222 -0.341308 -0.037578 0.752471 0.183232 -0.628313
0.039629 0.704601 -0.089373 0.134398 -0.644417 -0.752251
-0.112154 0.259897 0.001465 -0.999457 0.027922 0.0136
0.165138 0.087144 -0.088189 0.765264 0.206791 -0.608639
-0.112901 0.242352 -0.038815 -0.986819 0.139906 -0.078008
0.181628 0.295685 -0.036633 0.936546 -0.21894 -0.270213
0.199465 -0.60904 -0.019281 0.997591 -0.061595 0.028278
-0.051627 0.150824 0.10673 -0.548336 0.100162 0.8299
0.202381 -0.419017 -0.000828 0.974648 -0.182965 0.120562
0.053795 0.771104 -0.116049 0.4075 -0.046669 -0.911087
0.0526 0.42244 0.094991 0.086872 0.275379 0.956527
0.19949 -0.269688 0.047007 0.935852 -0.053632 0.347885
-0.083797 0.481856 0.066291 -0.294905 0.309651 0.902557
0.059255 -0.768617 -0.002522 -0.999359 0.020194 -0.016476
0.127966 -0.622255 -0.098063 0.00773 -0.118157 -0.989921
-0.066936 -0.026967 -0.126319 -0.37485 -0.198251 -0.901483
-0.128873 0.09282 0.000158 -0.999592 -0.026463 -0.000916
-0.15793 0.503786 0.049817 -0.260683 0.346497 0.89792
-0.093486 -0.030841 -0.106348 -0.679861 -0.116949 -0.723896
-0.055438 -0.863388 0.007492 0.036738 -0.998606 -0.036595
0.193329 0.068252 -0.047598 0.915286 0.124026 -0.38283
-0.11789 -0.181991 -0.04281 -0.826596 -0.113118 -0.550737
0.120408 0.041815 -0.142553 0.484265 0.20781 -0.849226
0.166646 0.286488 -0.068516 0.894714 -0.174875 -0.410517
0.174651 -0.054203 0.089752 0.686771 0.022572 0.72652
-0.079861 0.51272 -0.113646 -0.286526 0.399056 -0.870316
0.044505 0.574165 -0.103144 -0.054869 0.523072 -0.848369
0.139836 -0.860353 -0.108832 0.615011 -0.461828 -0.626672
-0.03403 0.159494 0.116659 -0.510136 0.05005 0.858395
-0.36187 0.217137 0.005804 0.329965 -0.372216 0.865398
0.148048 0.274902 -0.099531 0.837482 -0.100981 -0.537026
-0.183801 0.509654 -0.057313 -0.643061 0.520706 -0.559704
0.11134 0.447123 -0.147002 -0.011208 -0.002434 -0.999439
0.000434 0.813474 0.061301 -0.578261 0.45912 0.674316
0.125219 0.14203 0.100899 0.52905 0.044001 0.847422
-0.138372 -0.032806 -0.02127 -0.976587 0.123213 -0.168112
-0.115933 -0.646369 -0.087318 -0.669558 0.04498 -0.739892
0.089018 -0.748245 0.02506 -0.060012 -0.62242 0.778922
-0.002572 -0.760773 -0.102887 0.800427 0.242887 -0.543326
0.198187 0.116127 -0.00935 0.983093 -0.072374 -0.147146
0.20423 -0.344649 -0.017898 0.958116 0.090788 -0.251929
0.02884 -0.264172 0.029839 0.984259 -0.048361 0.169864
-0.264123 0.417027 -0.011849 -0.724464 0.620393 0.284008
0.08845 0.39987 0.09519 0.165913 0.206347 0.963853
0.048205 -0.57586 -0.040815 -0.872989 -0.044485 -0.481477
0.193222 -0.385139 0.041174 0.945144 -0.03001 0.324842
-0.119065 0.213881 -0.019729 -0.958869 0.029752 -0.269474
-0.008815 -0.723477 -0.098002 0.584616 0.30102 -0.75245
0.162257 -0.846657 -0.065666 0.992102 -0.015985 -0.114958
-0.357953 0.314533 -0.044975 -0.691607 0.719417 0.050442
0.38608 0.325454 -0.122526 0.540334 0.406208 -0.736052
-0.231627 0.386161 -0.096268 -0.005313 0.109956 -0.993261
0.07682 -0.594233 0.015424 -0.725803 -0.132021 0.675009
-0.533298 0.068855 0.043087 0.454833 -0.858888 -0.185983
0.046022 0.162424 -0.119655 -0.093559 0.053126 -0.993688
-0.006961 0.447593 0.094991 -0.031949 0.303525 0.950106
0.184311 0.193669 0.009043 0.969423 0.231866 0.036409
0.1332 0.268754 -0.11968 0.706561 -0.098861 -0.699184
0.19675 -0.337882 0.04039 0.905318 -0.078632 0.417332
0.628242 0.063507 0.019601 0.822622 0.495405 -0.226022
0.180863 -0.367598 0.067039 0.658845 -0.074976 0.731943
0.031468 0.37184 0.107977 0.0476 0.199027 0.977979
0.074945 0.482663 -0.136798 -0.240645 0.164057 -0.956411
-0.202453 0.346126 -0.061197 0.553344 -0.755479 -0.34617
0.080481 0.185064 -0.11835 0.13886 -0.16266 -0.969452
-0.011057 0.755865 0.062108 -0.759384 0.039968 0.648539
-0.140552 0.399933 -0.045089 0.499695 -0.859348 -0.086844
0.350395 0.395899 -0.116758 0.876451 -0.214073 -0.392819
-0.368422 0.29969 -0.069794 -0.646528 0.622833 -0.438408
0.166775 -0.744772 0.013138 0.315833 0.818908 0.476787
-0.081152 -0.432277 -0.08254 -0.414941 0.329644 -0.846643
0.169945 -0.854025 0.127715 0.895115 0.176381 0.185734
-0.110688 0.224559 0.051298 -0.903794 0.18425 0.379874
0.090103 0.595163 -0.011171 0.799125 0.288069 0.518648
0.358076 0.363424 -0.123504 0.717849 0.484848 -0.493684
0.042748 -0.063713 0.120612 0.008848 -0.385539 0.919703
-0.125308 -0.344921 0.047458 -0.990218 0.052007 0.128615
0.179552 0.227203 -0.032142 0.911595 0.006683 -0.410695
0.158988 0.40653 0.062912 0.726339 0.031312 0.686592
-0.081613 -0.61096 -0.103375 -0.224029 0.079457 -0.96756
-0.147139 0.508198 0.050712 -0.20928 0.37747 0.901863
0.029001 -0.301396 0.016016 0.998371 -0.043241 0.03225
-0.001984 0.198404 0.128432 -0.16954 0.069822 0.978631
0.341155 0.383769 -0.074479 0.84292 0.353533 0.316387
-0.066227 0.448615 -0.129287 -0.170981 -0.066221 -0.98235
0.038221 0.077177 0.133039 0.083904 0.086825 0.991697
0.013318 -0.764041 -0.081515 0.838242 0.113425 -0.531397
0.198863 0.39351 -0.018075 0.984143 -0.152581 0.064346
-0.123805 0.074712 -0.043935 -0.927999 0.119241 -0.351303
0.19359 -0.131349 0.071687 0.865296 -0.016703 0.499269
-0.021532 0.566881 -0.101686 -0.121552 0.587473 -0.799797
-0.495306 0.142882 0.073758 -0.052006 0.659566 0.7002
-0.067552 -0.095681 -0.106267 -0.354662 -0.17279 -0.916883
0.111301 0.21957 -0.12216 0.531542 -0.34568 -0.772779
-0.103824 0.192899 -0.052969 -0.839113 0.119237 -0.530583
0.18397 0.050398 -0.072243 0.860669 0.166864 -0.480633
-0.001351 0.457797 -0.128275 0.12586 0.034697 -0.991382
-0.096305 -0.285492 0.106765 -0.258062 -0.055118 0.957617
-0.008921 0.701944 -0.063198 -0.704181 -0.512661 -0.489318
0.134071 -0.510406 0.054118 -0.423532 -0.177366 0.888222
-0.099411 -0.827775 -0.0823 -0.927181 -0.270557 -0.253984
0.059177 -0.43227 0.0047 -0.634188 -0.222741 0.739616
-0.028641 -0.504082 -0.092855 0.548863 0.065826 -0.830935
-0.003754 0.276237 0.119515 -0.324511 0.073731 0.942828
-0.419001 0.166488 -0.012355 0.596266 -0.799438 -0.031389
-0.136428 -0.521528 -0.032018 -0.996077 -0.003946 -0.068175
0.088012 0.299135 0.107571 0.383907 0.126795 0.907108
0.047136 0.6492 0.042262 0.305399 -0.622326 0.715085
-0.075172 0.25725 -0.106 -0.613933 -0.180834 -0.768074
-0.260639 0.328192 -0.092095 0.381518 -0.304491 -0.86936
-0.052052 -0.86111 -0.125271 0.046704 -0.963 -0.256177
-0.089627 -0.860629 -0.094867 -0.222731 -0.971686 -0.062657
0.068163 0.766941 0.06947 0.3693 -0.376372 0.825559
0.099922 0.052612 -0.150466 0.400186 0.225991 -0.885451
0.151849 -0.37636 -0.082153 0.560375 0.172856 -0.809789
-0.31824 0.320155 0.002173 -0.286476 0.263388 0.918403
0.17655 0.048747 -0.085157 0.819307 0.196127 -0.537873
0.000196 -0.101197 0.121289 0.363608 -0.165344 0.916658
0.064462 -0.723843 -0.027357 -0.822113 -0.218055 -0.524038
0.448502 0.216879 -0.018152 -0.702358 -0.155923 0.679059
0.194701 0.025951 0.065488 0.853087 0.109232 0.509805
-0.016711 0.281073 0.114756 -0.2685 0.021758 0.962963
0.050995 0.694344 -0.077934 0.216433 -0.599749 -0.769591
0.207139 -0.178415 0.012708 0.997323 -0.00962 0.07044
-0.093931 -0.470787 -0.084143 -0.555001 0.113419 -0.824007
0.054379 0.137752 0.130138 0.115474 0.037658 0.992588
-0.263363 0.339203 -0.09586 0.159742 -0.159903 -0.972905
0.014598 -0.578962 -0.049193 0.779179 0.048829 -0.624543
-0.005511 -0.311186 0.084849 0.326629 -0.117384 0.929942
-0.06484 -0.818354 0.075233 -0.229253 0.897236 0.367636
-0.018275 0.619242 -0.029792 -0.940434 0.281554 -0.011447
0.083224 -0.505416 -0.088924 -0.664082 -0.022386 -0.746721
-0.053232 -0.785655 0.043885 -0.141218 0.737564 0.656909
0.62861 0.048276 0.015195 -0.850807 -0.383643 -0.330941
-0.199503 0.496461 -0.050342 -0.6544 0.562492 -0.503593
0.030324 0.738298 0.102695 -0.331721 0.31827 0.862968
0.094643 -0.865756 0.058666 -0.614922 -0.780104 -0.065575
0.453553 0.204878 -0.078541 0.752124 -0.439962 -0.488519
-0.036399 -0.16455 -0.093422 0.371199 -0.116746 -0.92093
0.188916 0.042491 0.069412 0.771355 0.219657 0.596693
0.336722 0.403223 -0.052633 0.740318 0.128949 0.591608
0.123558 -0.869162 0.03082 0.00032 -0.998543 -0.052054
0.053436 -0.705237 -0.012301 -0.973452 -0.150427 -0.166797
0.02628 -0.270827 0.045618 0.977668 -0.021364 0.206834
0.083012 0.825134 0.030963 0.821717 0.30405 0.481535
-0.058184 -0.864255 0.08164 0.000203 -0.999972 0.003031
-0.007391 0.52243 -0.121374 -0.020975 0.191527 -0.981238
0.030646 -0.239813 0.026597 0.953786 -0.021688 0.292954
0.05931 0.449774 -0.13601 -0.30503 0.035362 -0.950678
-0.04937 0.56227 -0.096537 -0.353999 0.547667 -0.757904
0.001831 -0.195469 0.102776 0.615997 -0.10081 0.781229
0.179758 -0.770954 -0.053721 0.769976 0.538651 -0.337642
0.129748 -0.857667 0.183372 -0.012526 -0.445647 0.835843
0.002396 0.772345 -0.115635 -0.484071 -0.046209 -0.872104
-0.127833 0.100313 0.024357 -0.984968 -0.036489 0.164842
0.100795 -0.869409 0.111168 -0.197104 -0.975034 0.04769
-0.027913 -0.659556 -0.093484 0.530394 0.08879 -0.842543
-0.072643 0.524313 0.048323 -0.112519 0.564919 0.816741
0.049234 -0.583924 -0.016536 -0.904251 -0.095459 0.416027
0.020654 0.486991 0.077333 0.064796 0.55293 0.829417
0.039079 0.015335 0.142144 0.059444 0.176941 0.982313
-0.126197 -0.127905 -0.044184 -0.659191 -0.058622 -0.716439
-0.025008 0.515142 0.063126 -0.130693 0.516875 0.844702
0.170443 -0.50796 -0.090171 0.676787 -0.019955 -0.735694
0.187689 -0.462189 0.044429 0.929829 -0.095755 0.354519
0.209593 -0.08572 0.038898 0.941799 -0.0403 0.333736
0.055788 0.782931 -0.115332 0.391996 0.025152 -0.9186
-0.095967 0.129836 -0.077417 -0.734004 0.138129 -0.664345
-0.215097 0.44046 0.03368 -0.624907 0.212909 0.746377
0.004693 0.695535 0.077035 -0.71942 0.020559 0.690305
0.312846 0.387927 -0.026266 0.548976 0.073137 0.821995
0.099497 0.799866 -0.058165 0.936723 0.228967 -0.250023
0.103466 -0.848345 0.1625 -0.805362 0.27263 0.525634
0.109873 0.226595 0.105712 0.428983 0.064189 0.900918
0.060721 0.072938 -0.151087 -0.083773 0.240639 -0.965844
-0.107197 0.05275 -0.082315 -0.804088 0.184378 -0.561881
0.007904 -0.015419 -0.140964 -0.10556 -0.280158 -0.954098
0.207641 -0.177547 -0.014582 0.999722 -0.000441 -0.02268
-0.010837 0.403816 0.104858 0.01663 0.122867 0.991561
0.170305 0.300816 0.047881 0.73295 -0.016847 0.678634
-0.238561 0.391412 0.023096 -0.330543 -0.163054 0.927201
0.200515 0.403335 -0.01511 0.961026 -0.236126 0.134163
0.122331 0.449678 0.077557 0.285082 0.352692 0.890297
0.083102 -0.434047 0.027485 -0.672909 -0.354409 0.648768
0.184264 0.482697 -0.135167 0.087879 0.165515 -0.981563
0.200454 -0.552244 -0.002969 0.938119 -0.029635 0.342293
0.612868 0.059574 0.05429 -0.756854 -0.647525 -0.066421
0.200004 -0.393119 -0.037124 0.930971 -0.04389 -0.360812
-0.101322 0.534171 -0.092612 -0.372797 0.573792 -0.728922
0.058917 0.122554 0.129945 0.142292 0.058077 0.986703
-0.105612 0.147903 0.061488 -0.768978 0.061867 0.636184
0.130584 0.24189 -0.115816 0.692955 -0.202696 -0.690909
-0.071748 -0.314505 -0.084787 -0.452701 -0.041766 -0.888904
0.267479 0.457201 -0.009758 0.447624 -0.031118 0.881327
0.21207 0.43659 0.019015 0.574328 -0.288938 0.75737
-0.00077 0.649036 -0.048693 -0.749817 0.070395 -0.656134
-0.404821 0.206767 -0.061721 -0.207797 -0.297868 -0.929164
0.059419 -0.627533 -0.052435 -0.79041 -0.115266 -0.60029
0.056609 -0.390481 -0.059883 -0.769527 -0.014754 -0.638361
-0.035129 0.801236 -0.064915 -0.987596 -0.004116 -0.147566
0.039814 0.740127 -0.113391 0.118434 -0.391908 -0.910657
0.156483 0.35208 -0.110964 0.605756 -0.278165 -0.745284
-0.148947 0.545626 -0.045481 -0.502251 0.754578 -0.422003
0.045191 -0.196715 -0.05851 -0.869185 -0.154231 -0.454678
-0.029803 -0.85184 -0.016719 0.59549 -0.783014 -0.178651
0.028818 -0.280765 0.025228 0.987322 -0.046238 0.150155
-0.35872 0.305419 -0.013687 -0.500232 0.727771 0.461273
-0.004441 0.406861 -0.129042 0.063731 0.003419 -0.997924
0.016672 0.596376 0.022568 -0.447763 0.035271 0.891228
0.186721 0.410272 0.038226 0.803811 -0.106116 0.580767
0.161491 -0.287815 -0.070575 0.580381 -0.096443 -0.808253
0.111759 -0.399008 0.063918 -0.428314 -0.172147 0.884727
0.143039 0.161383 0.086933 0.699841 0.028031 0.713621
0.13069 0.124504 0.098436 0.550316 0.026703 0.833011
-0.144149 0.539466 0.028283 -0.291755 0.757666 0.580082
-0.3581 0.229347 0.00933 0.141116 -0.179887 0.968944
0.008006 0.588679 0.01989 -0.462826 0.122998 0.876763
-0.002873 -0.540865 0.027709 0.647428 -0.15592 0.744562
0.19312 -0.44697 0.02867 0.96175 -0.099126 0.253962
-0.113619 0.380688 -0.094497 -0.694749 -0.238848 -0.678179
0.171477 0.467478 -0.138059 0.162674 0.064952 -0.984186
0.121374 -0.212334 0.093147 0.078317 -0.203878 0.975029
-0.099665 -0.826996 0.02381 -0.867244 0.475848 0.12884
-0.076175 0.445755 -0.127168 -0.245457 -0.106123 -0.962751
0.207391 -0.012184 0.034932 0.959318 0.125565 0.24729
-0.018987 0.164218 0.123282 -0.442801 -0.014764 0.894722
0.104424 -0.330494 0.076651 -0.279771 -0.135676 0.949986
-0.128525 -0.370793 0.014226 -0.99954 -0.004626 0.024722
0.043611 0.595453 0.024976 0.270472 -0.023342 0.955783
0.255646 0.479367 -0.119538 0.414807 0.506415 -0.755602
0.202898 0.403381 -0.073161 0.924442 -0.379451 0.019221
0.115258 0.549189 0.017374 0.372563 0.661051 0.649951
0.366219 0.284874 -0.125365 -0.323721 -0.383562 -0.864013
0.19315 -0.095851 0.073168 0.746162 0.002897 0.665735
-0.12408 0.20542 -0.005172 -0.918213 0.311223 -0.215079
0.159361 0.273331 -0.078534 0.890209 -0.115156 -0.44054
0.197004 -0.554975 0.006941 0.945233 0.011221 0.326023
0.094865 -0.746515 -0.081793 -0.801568 -0.069944 -0.593112
-0.065262 -0.574631 -0.103491 -0.014275 0.02205 -0.998761
0.017433 -0.238695 0.077287 0.918109 -0.047909 0.38956
-0.236197 0.425963 0.019484 -0.650504 0.316477 0.687445
0.331507 0.416651 -0.124404 0.507981 0.624508 -0.593067
0.081919 -0.727647 -0.061454 -0.923346 -0.107977 -0.367197
0.194754 -0.159831 0.065473 0.908295 -0.036372 0.413268
-0.194125 0.427574 0.038531 0.174012 -0.44829 0.876009
-0.128602 0.135412 -0.002441 -0.998263 0.045994 -0.017051
0.198925 -0.630879 -0.037444 0.999787 -0.011239 -0.01519
-0.082273 -0.802204 -0.128508 -0.718696 -0.176828 -0.671282
-0.0204 -0.547663 -0.089577 0.578207 -0.006643 -0.814597
-0.017638 0.494011 0.073658 -0.041173 0.455062 0.889194
-0.216512 0.453054 -0.072338 -0.485253 0.567269 -0.664728
-0.270449 0.413677 -0.037477 -0.745779 0.665636 0.009317
-0.013765 -0.743604 0.001884 0.272156 -0.73003 0.620083
0.09327 0.106955 0.120587 0.358475 0.056153 0.930344
-0.164071 0.496265 0.051003 -0.381174 0.277482 0.88088
0.145042 0.507987 -0.134079 0.210585 0.368546 -0.903083
-0.215378 0.350808 -0.082391 0.442991 -0.630599 -0.629176
-0.268053 0.403673 -0.076131 -0.492448 0.644519 -0.581522
0.198593 0.377671 -0.051498 0.999519 -0.024141 0.012657
0.095761 -0.867317 0.070079 -0.489837 -0.868848 -0.039525
-0.092057 -0.373729 -0.07193 -0.543647 -0.032099 -0.838171
0.151748 -0.686607 0.023592 0.312359 -0.394352 0.86288
-0.353413 0.284334 -0.088237 -0.276965 0.111628 -0.949637
0.204784 -0.017691 0.045463 0.90722 0.102507 0.402371
-0.111509 0.257593 -0.051474 -0.995589 -0.006881 -0.084602
-0.135239 -0.220512 0.054072 -0.988233 -0.052523 0.14111
-0.09001 -0.34582 0.103494 -0.090817 -0.096785 0.98833
0.04644 -0.395459 -0.04709 -0.880836 0.025729 -0.462738
0.025345 -0.595956 -0.035065 0.926305 0.09627 -0.34114
-0.006039 -0.263391 0.095541 0.464687 -0.211873 0.858617
-0.048964 0.160175 -0.09781 -0.320936 0.123754 -0.931551
0.079419 0.74815 0.062875 0.648852 0.133578 0.748751
-0.046997 -0.824718 0.099003 0.182404 0.961021 0.204029
0.081801 -0.094374 0.09689 -0.498033 -0.393028 0.764909
0.067114 0.806603 -0.105948 0.513157 0.293719 -0.80126
0.000515 0.417031 0.10146 0.125134 0.274379 0.953298
0.117389 -0.260832 0.08548 0.053524 -0.232981 0.96769
-0.02898 -0.650562 0.023903 0.015784 0.009921 0.997698
-0.126443 0.398045 0.028272 -0.921388 -0.329888 0.194425
0.142135 0.520841 0.031081 0.277947 0.625185 0.728504
-0.087832 -0.164235 -0.082145 -0.652298 -0.147833 -0.742897
0.110905 0.163071 -0.111417 0.373122 0.1362 -0.91683
0.162299 -0.515933 -0.09634 0.541795 -0.033428 -0.839013
0.181691 -0.270202 -0.058344 0.680237 -0.231071 -0.693947
-0.102013 0.014334 0.104456 -0.516158 0.23097 0.8238
0.162963 -0.737568 0.004273 0.291293 0.781626 0.550788
0.143417 0.142979 -0.094652 0.697764 0.145052 -0.701075
-0.129139 -0.276409 -0.003828 -0.989102 -0.070111 -0.122026
0.106852 -0.305885 -0.099428 0.015045 0.016019 -0.994056
0.066158 0.559675 0.020217 0.213861 0.402477 0.879669
0.276548 0.386122 -0.141814 -0.271706 -0.174757 -0.937304
-0.109292 0.288809 0.025713 -0.966698 -0.05776 0.248464
0.017433 -0.719423 -0.071151 0.883645 0.058245 -0.457121
-0.121526 -0.516668 0.020984 -0.830707 -0.09667 0.548006
0.096255 -0.275775 0.082098 -0.170325 -0.131514 0.975303
0.074713 0.521048 -0.129167 -0.123611 0.155985 -0.979768
0.312443 0.456903 -0.073983 0.724663 0.687901 0.020626
0.16114 -0.536257 0.051999 0.192484 -0.283372 0.934493
0.02989 -0.207342 0.034792 0.976522 -0.002182 0.215315
0.206373 -0.048476 -0.025451 0.97224 0.005555 -0.231114
0.187562 0.339892 -0.062085 0.827071 -0.384529 -0.409231
0.126609 -0.278682 0.083311 0.019365 -0.061824 0.997747
0.08553 0.355312 -0.145133 -0.085257 -0.022963 -0.995811
-0.022084 -0.837825 0.017595 0.975769 -0.174495 0.034747
-0.44259 0.194187 0.017715 -0.232677 0.503413 0.82776
-0.570223 0.02744 0.030441 -0.10945 -0.977029 0.08753
0.203171 -0.220299 -0.044048 0.922629 -0.072918 -0.375498
0.120367 0.517686 0.041551 0.264979 0.621621 0.735418
-0.047557 -0.050483 0.128886 -0.160152 -0.07243 0.984167
0.014595 -0.400835 0.039709 0.871076 -0.206303 0.445595
0.158299 0.38879 -0.123273 0.398745 -0.331128 -0.853136
-0.06211 0.582295 -0.057042 -0.342118 0.925137 -0.134164
0.075511 0.672374 0.036488 0.803452 -0.573671 0.13735
0.095521 -0.652946 -0.083125 -0.599036 -0.060333 -0.798265
-0.135365 -0.138591 -0.024509 -0.916247 -0.103682 -0.38401
-0.021454 0.372789 -0.129172 -0.012021 -0.023014 -0.999581
0.205265 -0.294826 0.020148 0.991138 -0.01287 0.116307
0.141201 -0.107443 -0.115537 0.48483 -0.211133 -0.848181
0.565837 0.119563 0.053481 -0.48479 0.175212 0.849619
0.001651 -0.657766 0.018178 0.623314 -0.110554 0.773331
0.13627 -0.581621 0.040665 -0.132807 -0.168654 0.973739
0.088463 -0.848657 -0.040596 -0.975052 -0.144576 0.113415
0.531348 0.199004 -0.057456 -0.133694 -0.566222 -0.811753
0.252589 0.432072 -0.138072 -0.141073 0.113966 -0.979745
-0.110693 -0.842343 0.018472 -0.864717 0.466179 -0.042257
0.143758 -0.252644 -0.087542 0.511266 -0.09379 -0.85422
-0.097252 -0.17985 0.11118 -0.354396 -0.03159 0.927716
0.16084 0.231788 -0.070399 0.831813 -0.03871 -0.552923
-0.320041 0.258788 -0.082841 0.063163 -0.542186 -0.837451
0.00028 -0.110973 -0.083139 0.733515 -0.350509 -0.581391
-0.04399 -0.855125 0.136342 0.75124 -0.383659 0.464006
0.103336 0.763774 -0.050937 0.972392 -0.115994 -0.195124
0.060619 0.377284 0.104112 0.129112 0.172178 0.975933
-0.109053 -0.304407 -0.050438 -0.802767 0.034286 -0.595265
-0.423649 0.211257 -0.054589 -0.528132 0.06194 -0.846837
0.034689 -0.026409 0.133605 -0.186702 -0.220563 0.939909
-0.078254 -0.863266 0.125542 -0.033941 -0.998643 0.036079
0.092151 -0.737363 -0.079184 -0.841794 -0.072152 -0.534516
0.169422 0.360111 0.049177 0.802458 -0.103732 0.587405
0.054277 -0.728162 0.014827 -0.983539 -0.153348 0.079231
-0.020354 0.492347 -0.127582 0.047763 0.137874 -0.989198
0.249176 0.513623 -0.093645 0.537591 0.644119 -0.543995
0.200845 -0.152531 0.051858 0.928237 -0.145111 0.340308
0.172424 0.395175 -0.119781 0.333859 -0.448492 -0.827332
0.072955 0.855932 -0.03671 0.599034 0.776913 -0.188928
0.206674 -0.197809 -0.027075 0.995474 -0.025188 -0.087346
0.415935 0.314555 -0.095124 0.692589 0.713004 -0.093355
0.089285 0.694863 0.011057 0.984329 -0.157861 0.050172
0.099581 -0.868233 -0.051831 -0.369511 -0.910793 0.109876
0.004584 -0.248686 -0.063352 0.758213 -0.078184 -0.647173
0.023803 -0.036111 -0.133003 -0.098384 -0.479077 -0.871087
-0.018856 -0.832695 -0.117537 0.49329 -0.857499 -0.122782
0.167294 -0.517403 0.05567 0.437979 -0.247909 0.857777
0.003405 -0.208983 0.099577 0.64773 -0.113463 0.751508
-0.113584 0.021129 0.091883 -0.80325 0.157402 0.573569
-0.129854 -0.510989 -0.051131 -0.863606 0.069135 -0.498467
0.242831 0.480185 -0.12484 0.35069 0.430891 -0.831445
-0.109111 0.078627 0.080562 -0.675439 0.406622 0.612156
-0.244653 0.430884 -0.067188 -0.56344 0.618271 -0.54364
0.042019 -0.268811 0.019785 -0.985247 -0.027214 0.160273
-0.296731 0.249035 -0.05601 0.56085 -0.792464 -0.226453
-0.037584 -0.526836 0.050435 0.332371 -0.216798 0.917447
0.066993 0.196219 -0.119716 -0.200212 -0.220843 -0.949649
-0.00205 -0.45677 -0.061808 0.73957 0.095527 -0.666121
0.013654 -0.445009 0.029581 0.827746 -0.049754 0.558783
0.540365 0.17836 0.022908 0.178859 0.594253 0.723664
0.175001 -0.187633 -0.074972 0.642881 -0.010676 -0.765602
0.070562 0.240642 -0.134654 -0.223724 -0.159482 -0.960956
0.031005 0.77358 -0.120891 -0.001918 0.038621 -0.999201
0.063593 -0.03808 0.13042 0.033917 -0.176254 0.983305
-0.184148 0.497644 -0.066257 -0.603607 0.463558 -0.647815
0.192945 0.348961 -0.00962 0.984332 -0.084698 0.152142
0.080006 -0.042547 0.128397 0.045332 -0.272539 0.954847
-0.062123 -0.131464 0.122472 -0.243442 0.013467 0.969566
-0.001705 0.222893 0.125352 -0.339399 0.151714 0.92714
0.041116 0.658688 0.072245 0.132877 -0.97552 0.174793
-0.100312 -0.3932 0.094192 -0.33645 -0.203793 0.909362
0.310384 0.434154 -0.038394 0.788629 0.251125 0.556752
-0.298277 0.361063 -0.067496 -0.691841 0.654012 -0.3044
-0.0317 0.020905 0.133576 -0.314321 0.216777 0.923251
-0.352481 0.222283 0.005281 0.364819 -0.460401 0.792665
0.163965 0.482293 0.045954 0.57582 0.320786 0.751537
0.205104 -0.551092 -0.029046 0.986384 -0.053709 -0.135199
0.015257 -0.069824 -0.106982 0.012963 -0.690587 -0.721606
0.189749 0.092969 0.042718 0.970838 0.059825 0.221388
0.095461 0.797339 -0.073901 0.894717 0.149621 -0.409379
0.086978 0.700388 0.052326 0.891911 -0.253838 0.363311
0.071034 -0.107438 0.082872 -0.663206 -0.090701 0.732783
0.095244 0.787897 -0.077095 0.891851 0.090675 -0.438964
-0.021341 0.694962 0.018574 -0.9555 -0.290559 0.033619
0.11244 -0.194008 0.097105 -0.044531 -0.128765 0.990064
0.025974 -0.486396 -0.016683 0.96114 0.051424 -0.253037
-0.065622 0.547422 0.029691 -0.153926 0.667411 0.722556
-0.105568 -0.390713 -0.060111 -0.716836 -0.098454 -0.690058
0.206109 0.425619 0.016694 0.692454 -0.582116 0.406779
-0.476114 0.122412 0.00606 0.463595 -0.803099 -0.354593
-0.103784 -0.195649 -0.062761 -0.815109 -0.038144 -0.57732
0.195808 -0.315244 -0.03133 0.852116 -0.018166 -0.521892
-0.090666 0.445257 0.07208 -0.615293 0.118817 0.778917
0.078494 -0.34656 -0.087176 -0.680973 -0.05457 -0.729005
0.097552 0.519038 0.049595 0.241632 0.54416 0.803275
0.087569 -0.859455 0.065884 -0.779278 -0.599353 -0.176779
0.065659 0.081731 -0.148877 -0.057802 0.323255 -0.942945
0.090849 -0.552042 -0.091225 -0.659869 -0.118571 -0.741785
0.134316 -0.761249 -0.102247 0.242517 0.167211 -0.948432
0.020158 -0.419371 -0.01762 0.992303 0.002624 -0.119519
0.025974 0.863052 -0.048784 -0.079459 0.976673 -0.18841
-0.045702 0.202803 0.106162 -0.483429 0.01937 0.874736
0.187329 0.388738 -0.108595 0.471946 -0.561713 -0.67845
0.036054 -0.342819 -0.014491 -0.99397 -0.086644 0.009142
0.428274 0.293354 -0.054046 0.415356 0.695784 0.583784
-0.034509 -0.852206 -0.131614 0.525631 -0.515642 -0.649101
0.428892 0.292446 -0.112825 0.561849 0.494838 -0.661579
-0.082084 -0.62163 0.048428 0.357044 -0.257411 0.88527
0.044001 -0.451802 -0.035168 -0.990537 -0.003881 -0.111804
0.180332 -0.762408 -0.043393 0.768948 0.342546 -0.524924
0.158006 -0.831775 -0.094247 0.879081 -0.331847 -0.325254
0.165525 0.529121 0.019057 0.286993 0.618057 0.730186
-0.132032 -0.1823 -0.017521 -0.881811 -0.159836 -0.443316
0.144745 0.56192 -0.009846 0.178169 0.756306 0.629111
0.097618 0.813452 -0.033054 0.952213 0.299886 -0.01947
0.579133 0.105801 -0.006941 0.57534 0.081704 -0.81299
0.172264 0.375905 0.048303 0.772009 -0.086027 0.629602
0.152196 0.417958 -0.136213 0.248832 -0.224054 -0.941651
-0.024747 -0.846814 -0.118615 0.94537 -0.107016 -0.286364
0.520726 0.161102 -0.038074 0.049835 -0.455104 -0.781132
-0.012167 -0.062734 0.129221 0.113991 -0.112975 0.987017
-0.128266 -0.062788 0.073578 -0.843613 0.028822 0.53578
-0.10638 0.043365 0.095646 -0.515046 0.191782 0.824342
0.141334 -0.236717 0.086764 0.110181 -0.223288 0.968287
0.175011 -0.011937 -0.096175 0.829675 0.05559 -0.553809
0.105361 0.78025 -0.021313 0.999869 -4e-05 0.006775
-0.1102 -0.230086 -0.04945 -0.855036 -0.030749 -0.516865
0.142285 0.478571 -0.142736 0.157133 0.187188 -0.966732
0.070826 -0.822892 -0.022199 -0.458146 -0.887175 -0.005639
-0.032578 0.271468 -0.129351 -0.177804 -0.038175 -0.98191
-0.033024 -0.574244 0.037024 0.421892 -0.274721 0.861798
-0.279976 0.323987 0.008347 -0.029666 -0.042379 0.997284
0.551827 0.169603 -0.000632 0.80969 0.579342 -0.028316
-0.063965 0.507292 0.059871 -0.14437 0.444227 0.884133
0.085548 0.507817 0.059036 0.137747 0.456714 0.878863
-0.104077 -0.817951 -0.084397 -0.875719 -0.433253 -0.204132
-0.07036 -0.588253 0.050026 0.425424 -0.220428 0.877617
-0.199811 0.344484 -0.023579 0.638372 -0.747234 0.180427
-0.012432 -0.389816 0.07671 0.569101 -0.218962 0.792533
