0.059053 -0.593228 -0.054788 -0.734605 -0.031117 -0.677695
-0.036664 -0.526545 -0.097496 0.319446 0.036504 -0.945527
-0.104639 0.233116 -0.061363 -0.789389 -0.374397 -0.485979
-0.070808 0.031117 -0.130742 -0.551517 0.212955 -0.804576
0.077275 0.72548 0.06814 0.686439 0.10071 0.719715
0.115381 -0.870374 -0.091646 0.017745 -0.999551 -0.0173
0.270728 0.35492 -0.113096 -0.49969 -0.727682 -0.460242
-0.089899 -0.197488 -0.077281 -0.689981 -0.025768 -0.72333
0.049664 0.220329 0.128041 0.086809 0.055365 0.993616
0.010206 -0.005998 -0.143732 -0.125268 -0.215953 -0.96807
-0.042144 -0.580724 0.039435 0.493784 -0.315709 0.809183
-0.127268 0.398053 -0.07808 -0.971743 -0.152906 -0.179376
0.107877 -0.434376 -0.101992 -0.267547 0.041547 -0.961909
-0.103338 -0.337638 0.100689 -0.672876 -0.081123 0.735111
0.199572 -0.490734 -0.043284 0.98715 0.046669 -0.150861
-0.015294 0.393424 -0.129524 0.023569 -0.009224 -0.999657
0.000567 -0.13285 -0.073211 0.793951 -0.172734 -0.582893
0.067653 -0.744829 -0.030177 -0.862075 0.091935 -0.496357
-0.104074 0.269813 0.051923 -0.954193 -0.004757 0.288595
-0.107678 0.517996 -0.100816 -0.368935 0.38867 -0.837659
-0.120302 -0.78449 -0.04121 -0.995683 -0.070517 0.026627
-0.083301 -0.792366 0.028483 -0.683947 0.464377 0.561983
0.004675 0.504388 0.068717 0.034087 0.476354 0.877035
0.105604 -0.344423 -0.100424 -0.058452 0.029113 -0.990666
-0.086912 0.522788 -0.105798 -0.292605 0.464762 -0.835644
-0.191922 0.481554 0.038274 -0.661489 0.212947 0.718635
0.32795 0.313616 -0.051295 -0.517061 -0.575238 0.633185
0.01031 0.538144 0.046409 0.19249 0.747685 0.631801
0.175939 -0.360112 0.070673 0.232304 -0.099997 0.966959
0.090188 0.559997 -0.11564 0.011627 0.592998 -0.803747
0.140226 -0.637223 0.030553 0.273585 0.022309 0.955916
-0.114469 0.21629 0.042827 -0.960811 0.118193 0.246165
0.409282 0.298964 -0.049343 0.333641 0.582297 0.736802
0.068015 -0.794063 -0.048904 -0.925106 0.035605 -0.370492
-0.031195 -0.596413 0.029264 0.302341 -0.176575 0.93546
0.055686 0.812917 -0.108678 0.274983 0.482382 -0.830143
0.083771 0.782136 0.059481 0.766457 0.149337 0.605514
0.135988 -0.146672 -0.107271 0.402489 -0.220653 -0.886041
0.08144 0.730642 -0.083862 0.686398 -0.418906 -0.593565
0.198763 0.38142 -0.061008 0.999137 -0.040265 0.001293
0.137337 -0.489585 0.058906 -0.419238 -0.142333 0.895445
-0.296418 0.303713 0.00618 0.02174 -0.086608 0.994818
-0.06981 -0.862854 -0.079515 -0.019159 -0.998926 0.040568
-0.052626 0.175666 -0.097265 -0.488494 -0.196185 -0.844687
0.200385 0.061669 0.02942 0.966151 0.215865 0.139147
-0.123682 -0.505931 0.020489 -0.814374 -0.180533 0.550554
0.032937 0.861153 0.039645 0.009632 0.895501 0.429162
-0.076126 -0.091923 -0.102512 -0.536904 -0.188365 -0.819083
-0.093934 0.560249 -0.070268 -0.460561 0.700711 -0.544834
0.027517 0.093089 0.134854 0.080656 -0.185543 0.975805
-0.109151 0.208792 -0.041959 -0.854087 -0.016843 -0.516763
0.119736 -0.729594 0.022398 0.427328 0.283482 0.842346
0.185567 0.565798 -0.040913 0.319193 0.931489 0.153784
0.033088 -0.290875 -0.016003 -0.984544 -0.133281 -0.108451
0.084318 -0.849964 0.084002 -0.937929 0.320165 0.010549
0.06281 0.429864 0.090845 0.13051 0.232936 0.963564
-0.048114 -0.3525 -0.087655 0.104481 -0.086467 -0.988295
0.195856 0.131894 0.025141 0.873894 0.005307 0.483936
-0.160983 0.480838 0.055034 -0.244082 0.108333 0.962233
0.086302 0.803739 -0.089182 0.774664 0.233622 -0.58425
0.086323 0.682122 -0.021466 0.842556 -0.419735 -0.327311
0.188916 0.042491 0.069412 0.771355 0.219657 0.596693
0.060528 -0.728559 -0.018774 -0.878 -0.173417 -0.435973
0.033703 0.184824 -0.113922 0.018243 0.166008 -0.982038
0.201647 -0.492815 -0.027683 0.986537 0.127101 -0.094864
0.105949 -0.864761 0.009149 -0.384105 -0.891185 -0.149739
-0.077239 0.339985 -0.111704 -0.511504 -0.075942 -0.855802
0.596407 0.116295 0.027287 0.7637 0.64364 -0.039619
0.20653 -0.001725 0.033079 0.986288 0.050729 0.141228
0.026861 -0.671987 -0.043725 0.994794 0.00499 -0.076304
-0.139903 0.010642 0.001086 -0.971954 -0.202091 -0.114839
0.182878 0.082213 0.063777 0.82528 0.160401 0.539093
0.150766 -0.625312 0.028272 0.346767 -0.184477 0.914283
0.008663 0.556298 0.027286 -0.073739 0.429575 0.891661
0.020618 -0.580889 -0.000462 0.799813 0.062589 0.594591
-0.105019 0.024891 -0.095422 -0.819415 0.100245 -0.560577
0.01942 -0.698022 -0.022005 0.889077 -0.153805 0.430107
-0.121827 -0.296407 0.079245 -0.945398 -0.064406 0.314233
0.478453 0.210151 -0.069503 0.230129 -0.524965 -0.813063
0.198738 -0.651647 -0.03417 0.998684 -0.031492 -0.029203
0.172729 -0.764199 -0.058895 0.808138 0.406023 -0.419963
-0.075643 0.194034 -0.085526 -0.691417 -0.082723 -0.717035
0.064229 -0.115441 -0.106167 -0.471863 -0.319488 -0.814546
0.244408 0.527103 -0.026941 0.671731 0.648615 0.352828
-0.076215 -0.253136 0.111584 -0.064848 -0.055131 0.99613
-0.106866 -0.601178 -0.089852 -0.618049 0.055372 -0.78397
-0.381982 0.196433 0.009002 0.581659 -0.538483 0.598017
0.093165 -0.826614 0.073349 -0.822425 0.512444 0.1972
0.110081 -0.826257 0.119689 -0.263387 0.962929 0.033449
0.035471 0.56102 0.026271 0.104318 0.154351 0.974822
0.140759 0.419192 -0.140101 0.386021 -0.232387 -0.89243
0.054377 -0.099118 0.086252 0.453608 -0.666218 0.587009
0.530514 0.139206 -0.017584 -0.701559 -0.694878 -0.130611
0.165108 0.004225 -0.108857 0.821307 0.104191 -0.559541
-0.111077 0.535775 0.038086 -0.035742 0.647013 0.760796
-0.469716 0.171634 -0.03503 -0.590824 0.464331 -0.657911
0.156474 -0.003275 0.104487 0.535022 -0.239359 0.804821
-0.077238 0.163002 0.08937 -0.638427 -0.009557 0.769603
0.18807 -0.168761 0.080367 0.759925 -0.045102 0.641614
0.129997 -0.867905 0.015024 0.051531 -0.993209 -0.095855
-0.031902 -0.496289 0.057012 0.316484 -0.270203 0.9089
-0.135973 0.050161 0.012472 -0.994638 0.097138 0.011077
0.118974 -0.780561 0.040229 0.076343 0.673379 0.728709
0.164895 -0.094209 0.100684 0.615971 0.036228 0.786853
-0.052039 -0.832879 -0.144466 -0.042991 -0.259385 -0.960307
-0.1341 -0.139745 0.065732 -0.90119 0.03083 0.419245
-0.5199 0.123407 0.054962 -0.744453 0.667047 0.01162
-0.076284 -0.184911 -0.08788 -0.52054 -0.097952 -0.845042
0.019549 -0.272188 -0.036852 0.923378 -0.081699 -0.370227
-0.048704 -0.853434 0.14528 0.766251 -0.320825 0.498553
-0.347699 0.217629 -0.003569 0.575372 -0.737002 0.343738
0.021897 0.646448 0.038198 -0.426709 -0.480855 0.760706
0.196987 -0.175344 0.057599 0.960072 -0.050423 0.273181
0.006957 0.553297 -0.110194 -0.00736 0.430687 -0.902086
0.261526 0.357924 -0.106993 -0.582023 -0.732337 -0.347837
0.202245 -0.048139 0.053056 0.888602 0.041699 0.45603
0.008769 -0.465865 -0.049737 0.821349 0.066438 -0.564749
0.095761 -0.867317 0.070079 -0.489837 -0.868848 -0.039525
0.173292 -0.141591 0.093444 0.597488 -0.080458 0.797319
0.492445 0.20304 -0.06305 0.042701 -0.388498 -0.920364
-0.120949 -0.652423 0.00206 -0.981094 -0.123951 0.145512
0.004551 0.493121 -0.124145 0.159785 0.122792 -0.978194
0.102364 0.75654 0.001538 0.931475 0.030818 0.35357
0.175134 -0.130609 0.092506 0.654954 -0.031713 0.75447
0.33134 0.397847 -0.044199 0.806283 -0.048229 0.578294
0.065444 -0.157426 0.080279 -0.620456 0.02994 0.782447
-0.048545 -0.591744 0.039061 0.481402 -0.291019 0.826746
-0.047216 -0.558977 -0.101419 0.323245 0.000436 -0.94565
0.147068 0.048175 0.101819 0.683894 0.302021 0.662967
0.063983 0.808551 0.069303 0.498238 0.428356 0.753368
-0.030064 0.276341 0.11118 -0.351054 0.027767 0.934682
0.055848 0.512188 -0.127912 -0.15403 0.119909 -0.979511
0.28793 0.482726 -0.044435 0.760623 0.564434 0.320258
0.166849 -0.801663 -0.0932 0.842421 0.00534 -0.531312
0.121289 0.525396 0.034931 0.281034 0.625776 0.725621
-0.547671 0.060464 0.049158 0.66131 -0.740459 0.007073
-0.111946 0.280002 0.00361 -0.998009 -0.030885 0.04946
0.20599 -0.541979 -0.023757 0.998545 -0.024894 -0.030111
-0.099894 -0.070959 -0.088948 -0.70121 -0.233646 -0.673291
-0.100487 -0.090885 -0.082804 -0.706827 -0.133397 -0.694449
-0.125233 0.137233 -0.026052 -0.912868 0.146077 -0.372833
0.177631 -0.666374 -0.06389 0.662461 -0.262453 -0.700902
0.05046 -0.195897 -0.068398 -0.817164 -0.164239 -0.551222
0.133267 -0.852641 -0.117246 0.55613 -0.076085 -0.808772
0.184336 0.294907 -0.022068 0.970089 -0.206414 -0.11878
0.132228 -0.544027 -0.108511 0.106252 -0.035842 -0.991722
0.102423 0.43817 0.084701 0.189829 0.241255 0.951523
0.193436 0.14089 0.028909 0.869651 0.053518 0.489028
-0.117251 -0.288398 0.089993 -0.813666 -0.048669 0.578778
-0.006854 0.728269 0.067331 -0.561631 0.01022 0.825888
-0.126216 -0.189821 -0.027317 -0.869494 -0.129727 -0.473758
-0.026027 -0.280648 0.099486 0.333349 -0.254921 0.906585
0.037811 -0.081452 0.111916 0.078242 -0.55046 0.828148
-0.031001 0.376564 0.106095 -0.047646 0.060079 0.997019
0.182723 0.194301 0.029426 0.979804 0.098141 0.166123
0.180795 0.558697 -0.017787 0.238947 0.819482 0.518517
-0.083975 -0.60336 0.054183 0.375622 -0.22911 0.881674
0.092877 -0.052923 -0.142126 -0.01448 -0.363915 -0.930668
0.100412 -0.518132 -0.101283 -0.542605 -0.018504 -0.839573
0.044483 -0.045945 -0.133702 -0.33013 -0.437063 -0.835694
0.17929 -0.647083 -0.068992 0.60763 -0.210703 -0.765516
-0.102933 -0.838362 -0.056979 -0.918769 -0.350638 -0.092002
0.06387 -0.131553 0.077506 -0.67043 0.061978 0.738871
-0.128072 0.079942 0.022295 -0.992754 0.07063 0.091854
0.513139 0.189487 0.01729 -0.476308 0.022938 0.800425
0.086978 0.700388 0.052326 0.891911 -0.253838 0.363311
0.140792 0.058858 -0.122305 0.673208 0.207315 -0.708219
0.026085 -0.214727 0.051272 0.957474 -0.027553 0.281493
-0.123114 -0.333935 0.05849 -0.987323 0.005174 0.15749
-0.126882 -0.689014 -0.066816 -0.966406 -0.062661 -0.234744
0.19046 -0.445208 0.039911 0.955277 -0.090511 0.279172
-0.134036 -0.457836 0.02089 -0.93116 -0.128013 0.331977
-0.005876 -0.2275 0.103548 0.510262 -0.143375 0.84455
-0.128612 -0.551139 -0.004377 -0.942697 -0.145931 0.297266
0.163007 -0.836943 -0.029092 0.985325 0.168312 0.012644
-0.101886 0.525921 -0.098067 -0.347101 0.541205 -0.765841
-0.075248 0.325318 0.082923 -0.541535 -0.08983 0.834867
-0.131889 -0.226185 0.065601 -0.936314 -0.089622 0.33926
0.287485 0.422575 -0.139474 0.16689 0.295419 -0.93488
0.40794 0.279322 -0.127592 0.154074 0.084345 -0.980435
0.029904 -0.164345 0.049746 0.898319 -0.269722 0.341762
0.470558 0.260685 -0.058793 0.718237 0.694692 0.034381
0.148364 -0.403376 -0.089932 0.527134 0.097428 -0.843615
-0.004963 0.689671 0.063474 -0.784343 -0.222115 0.571996
0.307242 0.443273 -0.039792 0.69516 0.380611 0.606052
0.023278 0.143121 -0.11896 -0.123668 0.430806 -0.893386
0.087103 -0.771137 -0.075321 -0.788605 0.268714 -0.551189
0.114426 -0.61853 0.036171 -0.167803 0.208836 0.955569
0.171787 -0.5901 0.033181 0.557206 -0.312326 0.766582
-0.11317 0.099491 0.064418 -0.843478 0.197837 0.498103
0.003065 -0.827484 -0.048417 0.901248 -0.424613 0.064981
0.588724 0.098306 0.066431 -0.370739 -0.177692 0.835801
0.037616 -0.113559 -0.089512 -0.738744 -0.365959 -0.5581
0.215621 0.401151 -0.081546 -0.905358 -0.420571 -0.004248
0.55043 0.168816 -0.01335 0.868335 0.323064 -0.275416
-0.006893 -0.750761 -0.105386 0.72948 0.219625 -0.644275
0.054728 -0.712602 0.021777 -0.95163 0.10305 0.287054
0.212312 0.542237 -0.011597 0.365445 0.726519 0.578689
-0.007647 0.668992 0.039375 -0.710359 -0.698411 0.085582
-0.060603 -0.550888 0.055123 0.386796 -0.203578 0.898901
-0.108224 -0.050733 -0.084785 -0.779644 -0.148013 -0.60832
-0.258256 0.315831 0.002408 0.376046 -0.380168 0.839799
0.188774 -0.328283 0.060298 0.871851 -0.094887 0.477113
-0.109053 -0.304407 -0.050438 -0.802767 0.034286 -0.595265
0.076915 -0.069848 -0.133604 -0.199359 -0.401433 -0.893659
0.088963 0.710727 -0.05235 0.820202 -0.474392 -0.31235
0.34513 0.39306 -0.127181 0.82681 0.016582 -0.550194
-0.203904 0.504206 -0.018562 -0.749349 0.660942 -0.007909
0.008249 0.63766 0.024426 -0.634986 -0.284907 0.716469
-0.13943 0.031568 0.020294 -0.93684 0.334831 0.087994
0.029064 -0.157748 0.058804 0.862502 -0.33517 0.352854
0.083644 0.538082 -0.126846 -0.095745 0.380347 -0.916325
0.069611 0.758948 -0.106727 0.531112 -0.164443 -0.830262
-0.326596 0.227455 -0.014669 0.6648 -0.716723 0.194331
-0.102912 -0.120725 -0.075653 -0.709261 -0.096787 -0.696033
-0.357953 0.314533 -0.044975 -0.691607 0.719417 0.050442
-0.018108 0.709024 0.053695 -0.884153 -0.16473 0.43332
0.193884 0.045861 -0.053291 0.910351 0.131753 -0.3918
0.201389 -0.335538 -0.022099 0.88983 0.109973 -0.441694
-0.183638 0.458008 0.044933 -0.119678 -0.042035 0.988522
0.067984 0.145251 0.128088 0.238096 0.034701 0.967858
0.010373 -0.395083 0.050201 0.851821 -0.184969 0.489377
-0.108986 -0.099337 -0.071629 -0.768149 -0.119024 -0.628771
0.115696 0.341688 -0.138315 0.424731 -0.120752 -0.897185
-0.255489 0.414471 0.005812 -0.663762 0.51421 0.542059
-0.092444 -0.424413 -0.072615 -0.551254 0.328243 -0.765698
0.417398 0.313378 -0.084657 0.679912 0.731559 0.041512
0.166728 -0.822426 -0.060276 0.76886 -0.638793 -0.027259
-0.061263 -0.440269 -0.090411 -0.092363 0.258438 -0.960835
-0.106773 0.538742 -0.08578 -0.414121 0.605084 -0.67976
-0.111826 -0.803104 -0.079404 -0.951043 -0.203235 -0.221153
0.052388 0.685129 -0.071817 0.316272 -0.478342 -0.812686
0.012325 -0.425698 0.035042 0.851148 -0.147254 0.503483
-0.04399 -0.855125 0.136342 0.75124 -0.383659 0.464006
0.64467 0.023963 0.06229 0.8796 -0.437024 0.059053
0.177492 -0.499533 0.05313 0.659134 -0.188294 0.723528
-0.113125 -0.533414 0.032137 -0.872795 -0.058444 0.48448
-0.026316 0.706289 0.019004 -0.911471 -0.388954 0.118714
0.146971 -0.869147 0.091164 0.251299 -0.963362 0.008355
0.016672 0.596376 0.022568 -0.447763 0.035271 0.891228
-0.09384 0.179334 0.074952 -0.695998 -0.022633 0.717685
-0.029441 0.099348 -0.12828 -0.21102 0.259311 -0.942232
0.163915 -0.805515 0.022886 0.835812 0.304172 0.451929
-0.489428 0.163331 0.004755 -0.776628 0.629589 -0.019252
0.040584 0.501348 0.066745 0.088592 0.485877 0.869458
0.508916 0.222385 -0.04915 0.456142 0.860117 0.056471
0.065226 0.174532 -0.119202 -0.024573 0.110309 -0.991475
-0.06585 -0.716183 -0.120704 -0.152322 0.278059 -0.943151
-0.115132 -0.375628 -0.0509 -0.753343 -0.002853 -0.656846
0.112397 0.190529 0.106416 0.492389 0.028284 0.86981
0.126232 -0.688833 0.028671 0.192897 -0.184141 0.962804
-0.314573 0.351535 -0.054694 -0.666132 0.720762 -0.191715
0.427119 0.301101 -0.104856 0.599956 0.672556 -0.425937
0.064462 -0.723843 -0.027357 -0.822113 -0.218055 -0.524038
0.180638 0.241007 -0.027701 0.960391 0.00726 -0.264868
-0.118593 0.56055 0.002121 -0.264314 0.877906 0.38434
0.072766 0.526676 0.050225 0.120676 0.524077 0.842666
0.174826 0.055275 0.082426 0.731568 0.255844 0.630226
-0.526212 0.074152 0.038777 0.553705 -0.724374 -0.403247
0.054784 -0.496783 -0.059724 -0.801591 -0.0269 -0.59692
0.058725 0.533035 0.047464 0.026476 0.645951 0.759116
0.581377 0.058647 0.029224 -0.891634 -0.426684 0.127588
0.198726 0.147608 -0.005262 0.947106 0.220946 -0.202242
-0.138624 -0.439704 -0.007757 -0.995079 0.0768 -0.058574
-0.136546 -0.516819 -0.022343 -0.998861 -0.015489 0.018786
0.197995 0.512317 0.016991 0.296768 0.393011 0.865722
-0.506251 0.143109 0.037551 -0.783188 0.621724 0.00578
0.020759 -0.606788 0.001274 0.748013 0.023228 0.660138
-0.068965 0.436106 -0.127491 -0.207331 -0.135527 -0.968353
-0.118499 -0.302007 0.087171 -0.867812 -0.039336 0.486965
-0.127114 -0.354085 0.035907 -0.994542 0.047536 0.089531
0.161969 -0.858054 -0.049755 0.870033 -0.456762 0.046643
0.164431 0.296041 -0.077596 0.855233 -0.22848 -0.464879
-0.052119 -0.505924 0.062012 0.385406 -0.25327 0.887217
-0.016833 -0.095891 0.126653 0.13277 -0.128498 0.98265
-0.113204 0.244394 -0.01678 -0.963877 0.245246 -0.007716
0.084904 0.649101 -0.017095 0.990873 -0.046884 0.060758
-0.112051 -0.614284 -0.086957 -0.61959 0.09368 -0.779187
-0.123255 -0.044647 0.080079 -0.767097 0.06397 0.637988
-0.042093 -0.695076 -0.110292 0.349324 0.281179 -0.892732
-0.00077 0.649036 -0.048693 -0.749817 0.070395 -0.656134
-0.069249 0.31251 -0.115069 -0.53336 -0.010261 -0.845588
-0.045859 0.322808 -0.126075 -0.331464 0.016472 -0.941388
-0.02731 0.794177 0.026373 -0.90684 0.140949 0.395927
-0.121996 0.361361 -0.062128 -0.977801 -0.179824 -0.088075
-0.13931 -0.04441 -0.021614 -0.965898 0.02799 -0.2484
-0.129851 -0.246719 -0.008548 -0.948646 -0.017986 -0.314285
-0.333482 0.236862 -0.066748 0.317009 -0.701281 -0.637056
0.030685 0.365614 -0.12826 -0.144954 -0.03909 -0.988363
-0.112771 0.280819 -0.039094 -0.994627 -0.101683 -0.015902
0.150849 0.57707 -0.041747 0.537276 0.797358 0.204207
-0.13522 0.41626 0.047545 -0.521835 -0.712304 0.455675
0.086801 -0.813679 -0.09428 -0.832153 0.116223 -0.539002
0.038961 0.534556 0.046823 0.024273 0.779783 0.625573
-0.091802 0.511734 -0.110293 -0.310966 0.42358 -0.848789
0.1649 -0.58437 0.03924 0.47325 -0.211109 0.852294
0.197639 -0.273177 -0.035757 0.880086 -0.155662 -0.446375
0.122047 -0.701939 -0.095283 0.016633 0.070023 -0.992293
0.282144 0.361156 -0.128669 -0.38413 -0.614258 -0.685962
-0.114456 0.162087 -0.039394 -0.889754 0.113012 -0.441562
0.063671 0.343102 -0.138745 -0.399334 -0.018424 -0.916205
0.185615 0.303917 -0.028772 0.926533 -0.316343 -0.195937
0.425421 0.235279 -0.113189 0.295052 -0.453369 -0.838229
-0.060353 0.3622 0.096825 -0.497336 -0.083544 0.861498
-0.04201 -0.306659 0.099703 0.276382 -0.115386 0.952772
0.003201 0.660854 0.041908 -0.42187 -0.897063 0.069215
0.046134 -0.351032 0.025414 -0.891148 -0.175335 0.406481
0.084618 -0.383664 0.05172 -0.561909 -0.239954 0.789837
0.175726 0.019309 -0.091999 0.828477 0.00876 -0.558942
0.059511 -0.778919 -0.012721 -0.997663 -0.003515 -0.060283
0.000192 0.295009 -0.130046 0.145182 0.0414 -0.9884
0.310096 0.458272 -0.061946 0.755613 0.626493 0.175557
0.103809 -0.329101 -0.100169 -0.089361 0.018237 -0.989263
-0.037852 0.787254 -0.034911 -0.995272 0.076332 -0.041884
-0.018028 0.071468 -0.137849 -0.184916 0.229166 -0.955006
0.218899 0.414499 -0.022263 -0.456785 -0.729634 0.50131
0.135684 -0.842239 0.180538 0.11889 0.632644 0.733311
0.092048 0.816035 -0.068321 0.845479 0.407173 -0.335323
-0.051592 -0.189437 0.121652 -0.016154 -0.110909 0.991624
-0.016508 -0.013161 0.138014 -0.053141 -0.721109 0.667213
-0.262095 0.373478 0.017331 -0.303795 0.096116 0.944195
0.042824 0.247928 -0.126976 -0.201386 -0.024374 -0.977547
0.281372 0.428661 -0.013041 0.395949 0.076066 0.913161
0.631438 0.05776 0.086063 0.858148 0.497219 0.122881
0.123469 -0.566572 0.041561 -0.229365 -0.162877 0.958995
0.041558 -0.125717 -0.08623 -0.506822 -0.391563 -0.767529
0.033557 -0.227112 0.021813 0.866866 -0.151864 0.472105
0.184383 -0.779794 -0.029586 0.970274 -0.234403 -0.003338
0.096987 0.75706 -0.072798 0.941508 -0.106538 -0.301899
0.020101 -0.579254 -0.040654 0.850905 0.110385 -0.511228
0.164037 0.536263 -0.115144 0.239406 0.59473 -0.76742
0.049723 0.292 0.121313 0.123456 0.10502 0.98645
-0.128259 -0.60825 -0.018489 -0.993442 -0.000211 0.113263
0.052655 -0.35209 0.034482 -0.748573 -0.259162 0.60931
-0.183906 0.521865 -0.04024 -0.691943 0.659595 -0.288128
0.38396 0.266427 -0.123578 -0.353266 -0.421619 -0.833323
0.172299 -0.815365 -0.065319 0.795816 -0.592749 -0.062712
-0.558471 0.066782 0.064469 -0.905694 0.400898 0.107587
0.142184 0.438433 0.072822 0.436839 0.135284 0.888043
0.02045 -0.696489 -0.063802 0.841508 -0.013784 -0.536991
-0.260109 0.295224 -0.07131 0.60686 -0.61337 -0.497924
0.055725 0.350443 -0.135997 -0.356507 -0.035588 -0.933471
0.06435 0.66676 0.072547 0.64357 -0.698387 0.303171
0.159114 0.470954 0.053271 0.600589 0.246275 0.758046
0.198374 0.079214 -0.026392 0.978338 0.147669 -0.13321
-0.12842 -0.29338 -0.003518 -0.996922 -0.016818 -0.069349
0.009221 -0.053074 -0.122708 0.082312 -0.604158 -0.792394
0.273278 0.42423 -0.140814 0.01382 0.106871 -0.994081
-0.455124 0.142556 0.026765 0.647981 -0.734543 0.18986
-0.345495 0.291303 -0.089833 -0.296521 0.120256 -0.94443
0.107426 0.143164 0.111822 0.50259 0.058317 0.861264
0.153766 0.460323 0.060581 0.59848 0.22678 0.767375
0.085522 -0.86058 0.077251 -0.708943 -0.667626 -0.141132
0.286465 0.337172 -0.060426 -0.503562 -0.757409 0.395671
0.200352 -0.599676 -0.022907 0.994916 -0.099561 0.007074
-0.12955 -0.282679 0.022 -0.991439 -0.126797 0.002941
0.154083 -0.514567 0.058979 -0.016347 -0.251662 0.963225
-0.032682 0.176466 -0.106883 -0.366471 -0.283681 -0.886064
0.034332 0.423621 -0.128629 -0.148923 0.047846 -0.986322
0.080827 -0.280558 0.076168 -0.475983 -0.181592 0.859721
0.399451 0.321638 -0.114065 0.591353 0.519205 -0.616158
-0.02612 -0.85117 0.083951 0.9843 -0.04298 0.166114
0.172466 0.561085 -0.083791 0.387343 0.751431 -0.53353
0.584522 0.065701 -0.02117 0.400165 0.473816 -0.684584
0.19065 -0.512698 0.02928 0.916097 -0.046198 0.3964
-0.031131 -0.038577 -0.131079 -0.063006 -0.346283 -0.935913
0.067141 0.840601 -0.076236 0.493035 0.671107 -0.552315
0.012368 -0.228436 0.086707 0.831478 -0.064816 0.550928
0.176098 0.532903 0.011161 0.304529 0.602015 0.737063
-0.017239 0.81728 0.034806 -0.826053 0.362399 0.427926
0.020416 -0.712162 -0.063151 0.924934 0.008383 -0.377135
-0.114249 0.125042 -0.050559 -0.886769 0.056656 -0.458677
0.144376 -0.869427 0.080789 0.170865 -0.978299 0.002252
0.384181 0.24833 -0.109104 -0.77832 -0.450838 -0.428897
0.155787 -0.863387 -0.05565 0.546219 -0.837353 0.013291
-0.100895 0.534396 0.039584 -0.01778 0.621698 0.782777
0.054612 0.081923 0.12927 0.03189 -0.016846 0.995628
0.102429 0.801927 -0.038305 0.89375 0.425311 -0.065524
0.200956 -0.053294 -0.041793 0.940889 -0.013512 -0.337227
0.013936 -0.609446 -0.053225 0.728811 0.097803 -0.67748
-0.199625 0.368488 -0.087835 0.38798 -0.525947 -0.75431
0.124412 0.350872 -0.135561 0.467888 -0.154912 -0.869871
-0.11286 -0.295603 -0.043881 -0.862834 0.034291 -0.503659
0.201249 -0.583256 -0.03162 0.991052 -0.067038 -0.110088
0.010171 -0.203303 -0.059091 0.778995 0.034655 -0.624461
0.418967 0.21915 -0.048464 -0.58187 -0.726876 0.363653
-0.050039 -0.86416 0.087553 0.023385 -0.999541 0.011823
0.194472 0.394294 0.007836 0.965393 -0.106721 0.23617
0.163376 -0.837487 0.019114 0.9098 0.414219 -0.000963
0.003565 0.076998 0.135884 -0.278559 0.069189 0.94491
-0.292804 0.362641 -0.075331 -0.737358 0.498063 -0.44042
-0.461051 0.135101 0.023469 0.67435 -0.725191 0.13844
0.115926 0.160305 0.105737 0.524581 0.02883 0.850099
0.042101 -0.138696 -0.079257 -0.66855 -0.362784 -0.648631
0.100132 -0.644314 -0.087442 -0.538198 -0.081887 -0.836817
-0.007624 -0.828803 -0.11231 0.537073 -0.782491 -0.244865
0.025974 -0.486396 -0.016683 0.96114 0.051424 -0.253037
0.198644 -0.671849 -0.02585 0.994306 -0.021511 -0.043897
0.33378 0.427901 -0.076754 0.816548 0.54846 0.167668
0.147919 0.038465 -0.123158 0.680528 0.169214 -0.71252
0.054535 0.5739 -0.103683 -0.045086 0.556116 -0.828369
0.097343 -0.042414 -0.145714 0.051177 -0.319764 -0.945229
0.072306 -0.416143 0.025507 -0.701276 -0.353543 0.618969
0.176438 -0.219262 -0.071176 0.605917 -0.001009 -0.795263
0.148444 0.105868 0.083305 0.586969 0.086617 0.802676
-0.059488 -0.127789 -0.10326 -0.179937 -0.125024 -0.972381
-0.018916 -0.834397 -0.075245 0.656878 -0.670528 -0.008367
0.205736 -0.220999 -0.030443 0.994222 -0.048771 -0.092538
0.172087 0.556142 -0.011277 0.209356 0.781345 0.586935
-0.109745 -0.060707 0.096886 -0.705673 0.029429 0.707858
0.057341 0.293813 -0.134656 -0.347207 -0.047838 -0.936226
-0.352613 0.252963 0.008599 0.060112 0.094471 0.99336
0.001659 0.520004 0.061099 0.069855 0.502826 0.861344
-0.001794 0.762915 0.068808 -0.361183 -0.220658 0.883096
-0.204934 0.416264 -0.094472 -0.167117 0.222917 -0.959388
-0.084159 -0.305181 0.106686 -0.025787 -0.067586 0.996611
0.106723 -0.597854 -0.095205 -0.436516 -0.104704 -0.893095
0.333127 0.43073 -0.096482 0.779624 0.612678 -0.093731
0.057278 0.576209 0.020057 0.377563 0.031803 0.923588
-0.026619 0.183204 -0.111129 -0.316026 -0.251455 -0.914476
0.064319 -0.168657 0.079666 -0.613992 -0.029542 0.787362
-0.021488 -0.842526 -0.035094 0.918738 -0.391358 -0.006844
0.150152 -0.570843 0.042736 0.008467 -0.119952 0.99242
0.008979 -0.398171 -0.047024 0.805386 0.050486 -0.589223
0.085051 -0.825522 0.007001 -0.496873 -0.863364 0.061796
0.150134 0.571899 -0.025636 0.266791 0.829406 0.484332
0.027729 0.009219 0.142885 -0.010918 0.128347 0.991617
0.087914 -0.833736 -0.020962 -0.955166 -0.20886 -0.002219
0.078774 0.047511 -0.157274 0.133572 0.292193 -0.945472
0.027041 -0.638204 -0.037971 0.987961 0.015145 -0.145234
0.287108 0.354915 -0.035785 -0.091212 -0.796868 0.587571
0.095 -0.534535 -0.096539 -0.585179 -0.065189 -0.808039
-0.125709 -0.618683 -0.003406 -0.919026 -0.062347 0.354519
0.069905 0.595605 0.012389 0.625856 0.007995 0.779631
0.081722 0.580841 0.003876 0.600378 0.288661 0.737209
0.547523 0.177405 -0.007372 0.859152 0.51015 -0.0121
-0.052607 -0.315052 -0.089983 -0.070397 -0.061715 -0.993453
-0.004761 0.671849 0.05657 -0.85548 -0.398295 0.326721
-0.136591 -0.494544 -0.002714 -0.960678 -0.146145 0.229951
0.106995 -0.11678 0.109287 -0.623989 -0.072527 0.777912
-0.109925 0.280246 0.020307 -0.978569 -0.010173 0.201764
0.127706 -0.152837 -0.108924 0.278775 -0.203619 -0.937042
-0.123474 -0.329042 -0.029761 -0.900264 0.011704 -0.432169
0.360498 0.320603 -0.044583 0.217082 0.277859 0.934805
-0.113429 0.289389 -0.016542 -0.980756 -0.187934 0.043613
0.010477 0.847666 0.047853 -0.420132 0.596967 0.677535
0.088966 0.569795 -0.108527 0.043139 0.639542 -0.76638
0.08887 -0.470707 -0.093923 -0.564515 0.039698 -0.824341
-0.45356 0.167339 -0.049298 -0.426274 -0.094089 -0.804812
-0.0914 -0.854551 -0.10496 -0.830017 -0.286475 -0.37251
-0.015528 -0.740414 -0.109951 0.605802 0.313859 -0.730709
0.036825 0.158072 -0.118541 -0.099333 -0.018073 -0.993999
0.074531 -0.807727 0.01815 -0.906813 -0.166786 0.383835
0.010078 0.100185 0.135845 -0.075222 0.129221 0.986801
0.117691 -0.869738 0.083928 0.004379 -0.999907 0.011938
0.159092 -0.807083 0.03162 0.813639 0.278336 0.478296
0.010708 0.70543 0.081352 -0.648661 0.047532 0.746687
0.191945 -0.738153 -0.031131 0.774506 -0.245146 -0.580903
0.023409 0.051783 0.136461 0.10945 0.080205 0.990746
0.189638 0.172786 0.019216 0.964509 0.187118 0.171991
-0.152028 0.453279 -0.095756 -0.284696 0.029444 -0.956853
-0.002478 -0.225474 -0.072793 0.665453 -0.000618 -0.743298
-0.06826 -0.779225 0.030367 -0.470643 0.51494 0.698421
0.19171 -0.477827 0.026323 0.966628 -0.008511 0.255488
-0.106746 -0.080658 0.100951 -0.701627 0.052627 0.710323
0.167848 0.319284 -0.083062 0.80766 -0.271659 -0.522628
0.226847 0.387538 -0.095194 -0.719742 -0.687925 -0.085516
0.429222 0.254591 -0.120797 0.414289 -0.231967 -0.877054
0.009019 -0.770512 -0.089848 0.817757 0.182236 -0.5443
-0.111438 0.27376 0.01126 -0.994509 0.020925 0.092089
0.354871 0.272327 -0.075443 -0.674307 -0.720762 0.157969
0.106189 0.596522 -0.050225 0.488473 0.860292 0.114055
0.04814 -0.623014 -0.027999 -0.987141 -0.075098 -0.058993
-0.051291 0.551539 0.029079 -0.200277 0.72975 0.653607
-0.12743 -0.052425 0.074679 -0.818847 0.029794 0.570909
-0.127755 -0.481867 -0.050661 -0.839927 0.07326 -0.537341
-0.054831 0.217748 0.099571 -0.520758 0.097752 0.848035
0.040219 0.145665 -0.120349 -0.149071 0.308584 -0.933403
0.160523 -0.863816 0.118249 0.261768 -0.963744 0.02939
0.189828 -0.473294 0.03458 0.957738 -0.051352 0.278325
-0.091765 0.111815 0.081338 -0.579499 0.400832 0.709188
-0.02583 0.289861 -0.131182 -0.11871 -0.002546 -0.991851
0.303708 0.356602 -0.034617 0.107678 -0.494348 0.853993
-0.076842 0.240402 0.083898 -0.617625 0.055242 0.784425
0.199721 -0.231124 0.044662 0.947819 0.03567 0.316455
0.489134 0.194083 -0.058471 -0.107403 -0.461129 -0.878424
-0.163941 0.527927 0.02904 -0.528283 0.664763 0.527182
0.062222 -0.796757 -0.002091 -0.850279 -0.485471 0.182471
-0.084219 0.250031 0.077602 -0.6582 0.045548 0.751202
0.021797 0.725645 -0.104484 -0.147652 -0.538963 -0.828104
0.242958 0.375901 -0.05115 -0.584458 -0.71626 0.380907
0.256007 0.519908 -0.03746 0.701293 0.682637 0.192984
0.172084 -0.389327 -0.071641 0.666001 0.141871 -0.713569
-0.302141 0.254303 -0.004621 0.656174 -0.519427 0.519096
0.114227 0.507504 -0.136815 -0.003992 0.207538 -0.977866
0.187013 -0.587816 -0.069535 0.748875 -0.040744 -0.661249
-0.110938 0.108929 0.06332 -0.773071 0.299548 0.558558
-0.021782 0.074791 0.127118 -0.331757 0.195066 0.920465
0.11563 0.315221 -0.135743 0.456745 -0.060439 -0.886176
0.05709 -0.4435 -0.060101 -0.757891 0.037785 -0.651096
-0.017115 0.153846 -0.108119 -0.341015 0.089084 -0.920227
-0.328347 0.239899 0.003495 0.291038 -0.36932 0.869766
-0.0305 0.262065 0.111479 -0.299499 0.022561 0.953599
-0.056436 0.407988 -0.126791 -0.226407 -0.090095 -0.969518
-0.032075 0.768779 0.021503 -0.918891 -0.034183 0.378053
-0.470665 0.184667 -0.009581 -0.813212 0.57877 -0.047
0.026896 -0.494669 -0.010448 0.9921 0.018894 -0.03684
0.126365 -0.822208 0.096026 0.082777 0.969314 0.223631
0.005034 -0.100241 -0.084576 0.68022 -0.42073 -0.590924
0.208227 0.501481 0.016768 0.262118 0.267077 0.925708
0.094831 -0.74088 0.030148 -0.000131 -0.449316 0.889504
0.157407 0.425523 0.063269 0.720169 0.075477 0.689028
-0.107434 0.278478 0.032722 -0.985977 -0.007947 0.16435
0.089234 -0.825917 0.050906 -0.98602 -0.032693 0.130148
0.084973 -0.123326 0.093926 -0.5805 -0.052472 0.81165
0.597415 0.113759 0.052636 0.735733 0.658189 0.140442
-0.038639 -0.686188 0.019359 -0.220728 -0.15301 0.962195
-0.234415 0.357936 -0.094963 0.192026 -0.29449 -0.934988
0.042628 0.740618 0.097671 0.774202 0.267576 0.560181
-0.102693 0.42214 0.065351 -0.429403 0.079717 0.895046
0.065032 0.458596 -0.137132 -0.294559 0.075294 -0.952169
-0.156688 0.490938 -0.088037 -0.438754 0.281994 -0.852945
0.145224 0.119208 0.086231 0.697584 0.013326 0.716219
0.308334 0.420857 -0.030459 0.802659 0.176514 0.564545
-0.52369 0.117479 0.084257 -0.683053 0.696967 0.115224
0.314339 0.307735 -0.076782 -0.675413 -0.71849 0.14529
0.341339 0.378624 -0.065437 0.742945 0.498062 0.424624
0.074803 -0.55953 -0.0757 -0.726727 -0.104029 -0.678646
-0.502474 0.121823 0.081513 0.549474 -0.149195 0.793503
0.175943 -0.562823 0.038339 0.494342 -0.196711 0.843695
-0.045072 -0.049899 -0.124346 -0.15987 -0.417133 -0.89251
-0.050124 -0.391381 -0.082436 0.157647 -0.094097 -0.97821
0.107667 0.10521 -0.131139 0.437576 0.380285 -0.812313
-0.118232 0.302349 -0.031529 -0.965139 -0.250521 0.011001
-0.025543 -0.78105 0.028899 0.625055 0.5651 0.533327
0.597598 0.069365 0.046635 -0.300938 -0.920346 0.170072
0.157853 -0.501457 0.061838 0.05232 -0.198985 0.971305
0.022497 -0.495593 -0.026085 0.863724 0.056637 -0.495678
0.177489 -0.708377 -0.05233 0.783544 -0.037048 -0.617302
-0.137319 -0.452231 -0.023449 -0.974454 0.066601 -0.2134
0.156824 -0.319936 -0.073397 0.621773 0.01004 -0.783097
-0.00283 -0.495259 -0.068227 0.781705 0.067056 -0.619867
-0.263786 0.355413 -0.097188 -0.053186 -0.008666 -0.996577
-0.005062 0.753635 -0.107092 -0.609115 -0.297471 -0.732316
-0.0313 0.548015 0.039052 -0.200168 0.71247 0.672536
0.020081 -0.183541 0.073372 0.965238 -0.076808 0.246592
-0.12476 -0.140589 0.08354 -0.83228 0.08102 0.548192
0.010028 -0.659876 -0.065909 0.583936 0.175443 -0.792358
0.007349 -0.682101 0.004571 0.781881 -0.286909 0.552861
-0.109198 -0.11109 -0.069207 -0.754405 -0.099019 -0.64884
-0.122412 -0.613405 0.005634 -0.915495 0.052415 0.396466
0.169393 -0.173853 -0.080421 0.663384 -0.035396 -0.747002
-0.341307 0.240294 -0.073795 0.305579 -0.546012 -0.772335
0.01193 0.084241 -0.139891 -0.199961 0.287567 -0.936278
0.180349 0.302518 -0.045941 0.885705 -0.288304 -0.362876
0.056608 -0.397047 0.017803 -0.682637 -0.341062 0.646222
0.192132 -0.356635 -0.044642 0.690038 0.267726 -0.667351
-0.403843 0.180724 -0.035912 0.478446 -0.83021 -0.271651
0.128163 -0.81945 0.085782 0.140185 0.946972 0.275658
-0.560689 0.064863 0.055287 -0.813184 0.551101 0.119828
0.295797 0.34811 -0.040601 -0.202304 -0.666028 0.713398
-0.120778 0.049806 0.072397 -0.929974 0.089523 0.34434
-0.070572 0.125973 -0.099705 -0.541613 0.198087 -0.816484
-0.263547 0.421725 -0.038534 -0.79064 0.611696 -0.012245
0.602881 0.10508 0.023467 0.898925 0.409387 -0.102156
-0.030379 -0.194298 -0.089923 0.351064 -0.041358 -0.934539
-0.107177 0.171493 -0.052024 -0.852333 0.080517 -0.51667
-0.051433 -0.648277 0.028351 0.296652 -0.164117 0.93962
0.119122 0.570549 -0.010165 0.363796 0.715305 0.595798
0.167489 0.507835 0.031965 0.489165 0.439478 0.74854
0.168432 0.203855 0.0551 0.753157 0.077828 0.653205
0.042322 -0.22567 0.030172 -0.991192 -0.045292 0.120186
-0.080853 0.317994 0.079008 -0.550973 -0.031804 0.833462
-0.099107 -0.022469 0.105018 -0.616902 0.024309 0.780425
-0.071621 0.170203 0.093887 -0.63155 0.002607 0.774598
0.022697 -0.37838 0.025721 0.927798 -0.12719 0.348211
0.012122 -0.472222 0.028714 0.797611 -0.111896 0.592073
0.053412 0.565518 0.021732 0.298224 0.183533 0.927807
-0.42774 0.185309 -0.053878 -0.105148 -0.029574 -0.956332
0.013776 0.696221 0.084089 -0.557795 0.046866 0.825908
-0.397222 0.222254 0.013198 0.11318 0.085341 0.989567
0.197154 -0.49068 -0.055479 0.924778 0.01147 -0.372552
-0.076736 -0.153567 -0.092699 -0.55801 -0.146278 -0.81679
0.062173 0.693027 -0.07104 0.524037 -0.530111 -0.664741
0.0508 0.633907 -0.06603 0.180691 0.254006 -0.944379
-0.041229 -0.863779 0.038999 0.059397 -0.997482 -0.029528
0.161589 -0.622119 0.024655 0.380438 -0.097556 0.90552
-0.112435 -0.147058 0.101484 -0.679478 0.038233 0.732314
0.019608 -0.168392 0.078905 0.943568 -0.107895 0.308333
0.241954 0.535198 -0.058418 0.705197 0.708529 -0.018165
0.154159 -0.823838 0.062409 0.670932 0.72003 0.169118
-0.090494 0.013072 -0.113823 -0.718647 -0.01792 -0.694815
0.044909 -0.227388 -0.051687 -0.893806 -0.084557 -0.438739
0.055185 -0.643413 0.006032 -0.650738 0.250931 0.706316
-0.013267 -0.806639 0.019389 0.941045 0.207401 0.258147
0.017146 -0.165257 0.087702 0.891693 -0.10626 0.433077
-0.07868 0.045126 -0.118648 -0.667657 0.258699 -0.697989
-0.131071 -0.095713 0.070075 -0.841258 0.003425 0.540521
-0.501512 0.147981 0.052737 -0.756296 0.648935 0.079625
-0.092192 -0.177021 -0.076408 -0.693359 -0.078524 -0.716159
0.035016 -0.327625 -0.01589 -0.997087 -0.041421 -0.062004
-0.083827 0.462192 -0.125405 -0.357854 0.037601 -0.931841
-0.037183 0.202645 0.110804 -0.49198 0.021688 0.869794
0.22041 0.545267 -0.079899 0.437937 0.788673 -0.426812
0.402439 0.257118 -0.126127 -0.1507 -0.243047 -0.953819
0.028205 -0.318156 0.019935 0.998107 -0.033715 0.04479
-0.082795 0.417122 -0.120221 -0.274166 -0.160787 -0.94813
0.030867 -0.165362 -0.039676 -0.914095 -0.115058 -0.387336
-0.438075 0.22727 -0.015618 -0.715923 0.69448 0.07088
0.054806 -0.116673 0.061483 -0.140448 -0.410142 0.784465
0.064746 0.861076 -0.039109 0.441953 0.868263 -0.188841
-0.052059 -0.558921 0.049927 0.370455 -0.173613 0.912014
0.438863 0.261688 -0.032952 0.06423 0.550119 0.830258
0.206373 -0.048476 -0.025451 0.97224 0.005555 -0.231114
-0.150402 0.540633 -0.053779 -0.459718 0.765653 -0.448693
-0.475399 0.173946 -0.026534 -0.705338 0.566408 -0.409065
0.075374 -0.655588 0.018592 -0.61168 0.31995 0.723089
0.157551 -0.864544 0.096394 0.285235 -0.955725 0.011864
-0.313814 0.353606 -0.045234 -0.673934 0.735856 -0.054712
0.177466 0.009507 -0.089005 0.82861 0.050889 -0.5567
0.122288 0.588744 -0.072078 0.365516 0.88227 -0.279029
-0.025077 -0.794083 0.038862 0.688137 0.503369 0.516122
0.016916 -0.364015 -0.034114 0.856505 -0.006514 -0.510007
-0.010465 -0.769387 -0.009373 0.643836 0.301973 0.686013
-0.040276 -0.392999 -0.080019 0.25492 -0.031592 -0.964958
0.063919 -0.571478 -0.06245 -0.723101 -0.107764 -0.682227
-0.014338 0.1102 0.127689 -0.350658 0.212861 0.910124
-0.022503 0.847784 -0.00752 -0.614367 0.786219 0.050549
-0.092141 -0.736178 0.00318 -0.620372 0.239035 0.729845
0.082731 -0.529355 -0.086899 -0.693581 -0.073118 -0.716189
0.073976 0.625784 -0.057483 0.589237 0.462365 -0.650006
-0.038592 0.27892 0.106968 -0.509448 0.076582 0.856773
0.199483 -0.489218 -0.000448 0.976757 0.078562 0.197467
0.199055 -0.015569 -0.047381 0.954548 0.042524 -0.29363
-0.040384 0.828729 -0.01002 -0.936452 0.257896 0.180812
-0.046167 -0.582224 -0.100693 0.338221 -0.018398 -0.940849
0.416221 0.304567 -0.112689 0.550683 0.543575 -0.632525
-0.106169 0.406672 0.065215 -0.502001 -0.012797 0.860315
-0.137854 -0.088038 0.051477 -0.969648 0.013581 0.242322
-0.137081 -0.203662 0.01124 -0.990289 -0.087854 -0.102037
0.175967 -0.126597 -0.080001 0.751578 -0.131762 -0.645603
0.046209 -0.168737 0.059364 -0.890006 -0.039613 0.450057
0.01627 0.359909 0.111954 0.016506 0.179155 0.98328
-0.01193 0.511654 -0.123504 -0.004694 0.225452 -0.973904
-0.014325 0.534576 -0.11768 -0.083441 0.366239 -0.925589
-0.12296 -0.488658 -0.058766 -0.795539 0.080439 -0.600512
0.014333 -0.108517 -0.070066 0.425433 -0.600439 -0.669527
0.154341 0.31354 -0.099246 0.778458 -0.164061 -0.605328
0.586544 0.053785 0.041427 -0.039802 -0.6098 0.634075
-0.007027 0.313007 -0.130155 0.092224 0.060775 -0.99376
0.087913 0.62728 -0.025569 0.962681 0.20773 0.103434
0.117844 -0.627648 0.038119 -0.063255 0.012983 0.993021
-0.404821 0.206767 -0.061721 -0.207797 -0.297868 -0.929164
0.020803 -0.622355 -0.048629 0.749652 0.163068 -0.637514
-0.113737 0.141001 -0.047397 -0.887879 0.134142 -0.439826
-0.332144 0.33529 -0.056308 -0.649776 0.749005 -0.119801
0.291121 0.329401 -0.089853 -0.663176 -0.746229 -0.026182
0.190944 0.34983 0.001275 0.972041 -0.055094 0.225484
-0.061896 -0.490887 0.069542 0.395444 -0.249538 0.883717
-0.127473 0.081223 -0.027507 -0.983208 0.073553 -0.156712
0.207872 -0.136789 0.037866 0.964572 -0.125119 0.231007
0.205672 -0.285266 0.005108 0.99973 0.020149 0.00954
0.087276 0.838082 0.002866 0.838635 0.521006 0.090335
-0.012884 0.596466 -0.079108 -0.269242 0.723683 -0.633668
-0.511935 0.098095 0.085694 0.827683 -0.040304 0.5523
0.032943 -0.247385 0.018524 0.904197 -0.092715 0.413098
0.104463 0.250576 -0.135851 0.28521 -0.126285 -0.943245
0.197529 -0.018432 0.060567 0.863048 0.093484 0.493864
-0.094283 -0.681514 0.028646 -0.164714 -0.397129 0.900184
-0.001697 0.019745 -0.148719 -0.183692 -0.431189 -0.876213
0.103466 -0.848345 0.1625 -0.805362 0.27263 0.525634
-0.124317 0.196408 -0.012087 -0.891475 0.202403 -0.403877
0.2054 -0.24822 0.00311 0.999827 0.00109 0.002517
0.23247 0.382799 -0.054876 -0.687295 -0.692995 0.216661
0.088644 -0.503503 0.026057 -0.558006 0.035692 0.828801
-0.093486 -0.030841 -0.106348 -0.679861 -0.116949 -0.723896
-0.012746 -0.117006 -0.092481 0.581038 -0.298144 -0.756262
0.174573 0.095222 -0.071595 0.807193 0.209387 -0.551037
0.214047 -0.078756 0.000755 0.99616 0.040293 -0.074317
-0.112302 -0.756842 0.000437 -0.73684 -0.077421 0.634168
0.234845 0.535825 -0.080107 0.571776 0.70837 -0.411637
-0.096964 0.066878 -0.093271 -0.734411 0.154869 -0.660141
0.11524 -0.86643 0.004794 -0.147124 -0.98023 -0.092557
-0.015416 0.450614 -0.130013 0.111944 0.010803 -0.993473
-0.315405 0.2971 -0.095592 -0.076086 -0.084678 -0.992276
0.035343 -0.319041 -0.021568 -0.992146 -0.016567 -0.119747
0.156694 -0.500653 -0.099821 0.473612 -0.002825 -0.880303
0.052109 -0.171254 0.068806 -0.795891 -0.03467 0.603412
-0.021599 -0.841337 0.02826 0.990748 0.041066 0.058273
0.133593 -0.293279 -0.090658 0.512164 -0.033141 -0.857754
0.186719 -0.687905 -0.045842 0.655568 -0.188991 -0.730357
0.030811 0.385437 -0.128884 -0.12939 -0.014053 -0.99132
0.042748 -0.063713 0.120612 0.008848 -0.385539 0.919703
-0.036932 -0.661947 -0.099745 0.757951 0.159794 -0.595509
0.14041 -0.029644 -0.135964 0.601411 -0.111559 -0.790269
-0.11789 -0.181991 -0.04281 -0.826596 -0.113118 -0.550737
-0.022084 -0.837825 0.017595 0.975769 -0.174495 0.034747
-0.451061 0.143949 -0.015295 0.448509 -0.832166 -0.298376
0.009211 -0.773476 -0.026943 0.833714 -0.055193 0.546721
0.065627 -0.014035 -0.153583 -0.173879 -0.251899 -0.950409
0.269433 0.50415 -0.081083 0.652373 0.654634 -0.378383
-0.113656 0.371233 -0.091067 -0.683704 -0.232855 -0.691056
-0.00225 -0.409039 -0.058211 0.640156 0.093827 -0.758404
-0.040042 -0.273102 -0.092588 0.176028 -0.051986 -0.981746
-0.097679 0.195003 -0.060874 -0.776097 0.113769 -0.619959
0.162979 -0.247161 0.082398 0.243079 -0.108693 0.962523
0.16587 -0.663362 -0.074522 0.604505 -0.188434 -0.773198
0.323551 0.360792 -0.038289 0.47338 0.055887 0.874154
0.011401 -0.241265 0.086606 0.813057 -0.073659 0.575876
0.154772 -0.374288 0.075292 0.131818 0.004211 0.990322
-0.092408 -0.139377 0.113813 -0.252514 0.015102 0.967345
0.085679 -0.686233 -0.074319 -0.755948 -0.005915 -0.654184
0.199492 -0.541279 0.000974 0.938568 -0.037279 0.342962
-0.007258 0.597004 0.0063 -0.695653 0.209803 0.684062
0.060061 -0.45707 -0.064189 -0.731309 0.036983 -0.681006
-0.071896 -0.208452 -0.088915 -0.39117 -0.021733 -0.916608
-0.073218 0.360314 0.088941 -0.579084 -0.050936 0.811801
0.199212 -0.612267 -0.038231 0.998285 -0.036114 -0.042465
-0.087567 -0.655168 -0.105143 -0.31963 0.015282 -0.944322
0.15444 0.561795 -0.094287 0.369604 0.704616 -0.605141
0.02506 0.712687 0.096508 -0.327439 -0.317759 0.877449
0.09421 -0.70888 0.035894 0.160747 -0.029435 0.985446
0.190397 0.127827 0.035228 0.86892 0.028487 0.493408
0.162302 0.096536 -0.088195 0.756962 0.257862 -0.598851
0.124728 -0.008212 0.119187 0.344256 -0.20405 0.914942
0.084546 0.706861 0.059693 0.830318 -0.136281 0.538779
-0.102603 0.346013 0.050545 -0.836343 -0.246993 0.488305
-0.10686 -0.561582 -0.087992 -0.591234 0.0693 -0.801674
0.195223 -0.297391 0.051066 0.891812 -0.096141 0.441926
0.15898 -0.864192 0.10831 0.255193 -0.963977 0.016088
-0.227887 0.365072 -0.095691 0.173509 -0.206075 -0.960466
0.052337 -0.463781 -0.004177 -0.798328 -0.026902 0.593082
0.120285 0.525666 -0.129524 0.06936 0.39014 -0.917614
0.083765 0.028673 -0.159729 0.165039 0.008027 -0.98093
-0.183701 0.388166 0.019337 0.29266 -0.476637 0.827514
-0.018102 0.679539 -0.013322 -0.868651 -0.455097 -0.1667
0.267476 0.347422 -0.09156 -0.688712 -0.703936 -0.161925
0.062716 0.615138 -0.070587 0.304059 0.599802 -0.739733
-0.087832 -0.164235 -0.082145 -0.652298 -0.147833 -0.742897
-0.114303 0.089482 0.06506 -0.883307 0.16586 0.434305
0.431262 0.211892 -0.04918 -0.534363 -0.741962 0.39389
-0.082686 -0.660912 0.036315 0.215942 -0.298362 0.92312
-0.447848 0.216469 -0.027291 -0.742681 0.653167 -0.095283
0.167055 0.54687 0.001882 0.20626 0.692463 0.690257
0.243328 0.533792 -0.048471 0.704198 0.709389 0.026307
-0.073959 0.053961 -0.119682 -0.646213 0.236 -0.723227
0.180628 -0.674056 -0.057077 0.697953 -0.314182 -0.642496
0.20017 0.069285 -0.02275 0.985011 0.108738 -0.133492
0.175938 -0.80242 -0.025719 0.954015 -0.266757 0.101204
-0.043525 -0.863507 0.028076 0.068329 -0.996454 -0.040943
0.167292 -0.69554 0.012927 0.38649 -0.502484 0.772851
-0.06392 -0.28129 -0.090249 -0.277349 -0.057593 -0.95628
-0.00365 0.679906 -0.051813 -0.7218 -0.351566 -0.595656
0.103567 0.563152 0.010596 0.321282 0.712981 0.60627
-0.572031 0.033105 0.009446 -0.985448 -0.050509 -0.018363
-0.100247 -0.032952 0.105091 -0.644102 0.037322 0.76395
0.198399 -0.029102 0.060377 0.877538 0.039909 0.476947
0.143912 0.266352 0.078225 0.754158 0.07057 0.652855
0.2341 0.516922 -0.104017 0.5109 0.60377 -0.611655
0.121673 0.199262 0.101017 0.557659 0.036561 0.828846
0.070536 -0.333799 -0.081427 -0.699714 -0.051061 -0.712378
0.489142 0.227486 -0.072314 0.292081 -0.116691 -0.929969
0.548963 0.113674 0.019949 -0.918438 -0.366243 0.12073
-0.020894 0.716492 -0.05361 -0.905468 -0.355227 -0.229147
-0.102917 0.110581 0.072583 -0.69696 0.344086 0.62197
-0.032803 0.214395 -0.121246 -0.3261 -0.300028 -0.893583
0.213198 -0.088549 -0.009892 0.982438 0.044099 -0.17018
0.085916 0.320307 -0.143799 -0.036556 -0.068656 -0.996952
-0.109083 0.560143 0.006731 -0.143771 0.863794 0.481121
0.065174 -0.359889 -0.072137 -0.779063 -0.070178 -0.622967
0.008652 -0.762311 -0.02447 0.696228 -0.248533 0.668393
0.098184 0.810191 -0.050737 0.935477 0.331517 -0.111994
0.2059 -0.30828 0.002084 0.999609 -0.000368 -0.015226
0.014224 0.186839 0.130099 -0.02908 0.028925 0.998986
-0.51668 0.079498 0.046138 0.620846 -0.763881 -0.166252
-0.066654 -0.861407 -0.046922 0.013565 -0.999776 0.007666
0.151879 -0.193412 0.095007 0.160597 -0.135897 0.975254
-0.127568 0.05322 -0.041724 -0.938233 0.128617 -0.31665
-0.305734 0.354784 -0.06465 -0.630228 0.712037 -0.308214
-0.108923 -0.796514 -0.00464 -0.841009 -0.309597 0.432992
0.144334 -0.205307 -0.095404 0.632 -0.122022 -0.718712
-0.015537 -0.817036 -0.135259 0.713837 -0.338419 -0.6068
-0.136374 -0.030124 0.048208 -0.984648 0.069194 0.153357
0.179395 0.029479 0.086582 0.681733 0.239958 0.689456
-0.14269 -0.135007 0.036825 -0.977529 -0.015917 0.202473
-0.098854 -0.857541 -0.009049 -0.613255 -0.758839 -0.216419
0.095767 -0.854338 -0.009518 -0.702239 -0.708137 0.021974
-0.002572 -0.760773 -0.102887 0.800427 0.242887 -0.543326
0.175785 0.089802 0.07048 0.723482 0.220767 0.653614
-0.047077 -0.006579 0.137984 -0.334975 -0.054144 0.915299
-0.001634 -0.799704 -0.12123 0.862981 0.014482 -0.49651
-0.021532 0.566881 -0.101686 -0.121552 0.587473 -0.799797
0.118796 -0.053774 0.11913 0.285336 -0.083608 0.953654
-0.118729 0.172822 0.039986 -0.878773 0.011188 0.476424
0.186121 -0.385672 0.057898 0.840527 -0.029315 0.539688
0.15129 0.236588 -0.086151 0.819815 -0.114227 -0.560458
-0.122166 0.398489 -0.090863 -0.799322 -0.257881 -0.539011
-0.539874 0.078719 0.087854 0.48357 -0.272458 0.739626
0.297648 0.328972 -0.06006 -0.509197 -0.702323 0.497196
-0.089401 0.312059 0.069922 -0.866907 0.03017 0.496279
-0.003211 0.830839 0.045701 -0.661659 0.402206 0.631364
0.317858 0.308582 -0.108802 -0.591191 -0.687825 -0.415679
-0.140748 0.4597 0.060301 -0.20148 -0.111504 0.972534
0.54768 0.113497 -0.00797 -0.954755 -0.293736 -0.025576
0.190222 0.170556 -0.011288 0.962567 0.209458 -0.147897
-0.267794 0.337958 0.01007 -0.097836 -0.189376 0.974412
-0.096914 0.477361 0.064016 -0.213253 0.169668 0.959733
0.135812 0.305419 -0.119958 0.715371 -0.067254 -0.693844
0.177641 0.018057 0.090611 0.655655 0.136507 0.741761
-0.411087 0.258103 -0.035748 -0.813682 0.580643 -0.006256
-0.111807 0.263333 0.011316 -0.996975 0.039276 0.060052
-0.023787 -0.315675 0.093693 0.28904 -0.067193 0.951416
-0.08961 0.296726 -0.097886 -0.543226 -0.063092 -0.816336
0.156314 -0.831252 0.097896 0.631766 0.763626 0.126167
0.571272 0.076058 0.028707 -0.858542 -0.504257 0.088604
0.164733 -0.142734 0.098342 0.478137 -0.124653 0.868563
0.190749 -0.636129 0.011224 0.845446 -0.085662 0.515367
0.275013 0.501263 -0.047924 0.722314 0.665154 0.179582
0.2062 -0.024958 -0.025566 0.972042 0.023135 -0.231221
0.132158 -0.435092 -0.102306 0.240605 0.107227 -0.964185
-0.089467 0.135959 -0.082493 -0.682934 0.185419 -0.706053
0.045095 0.306488 -0.130045 -0.323286 0.002057 -0.943288
0.075061 0.181304 0.123712 0.467644 0.035395 0.880403
0.213855 -0.119888 0.017284 0.99288 -0.062204 0.089878
0.037477 0.217565 -0.123567 0.021008 -0.262432 -0.962863
-0.264006 0.395545 0.009572 -0.595988 0.35158 0.717527
0.03686 -0.119467 0.081196 0.641543 -0.576308 0.496313
0.080729 -0.559258 0.021829 -0.704863 0.006565 0.709245
0.024037 0.839191 0.060829 -0.212563 0.599995 0.769168
-0.243334 0.30949 -0.017269 0.714836 -0.641908 0.273124
-0.052618 0.032782 0.122418 -0.405002 0.211328 0.887396
0.182674 0.224519 -0.014366 0.998032 0.010099 -0.059194
0.166932 0.10544 0.074637 0.696827 0.21122 0.682892
0.020594 -0.682127 -0.063032 0.710762 0.123378 -0.688495
0.164524 0.190775 0.061479 0.765923 0.100915 0.634677
-0.07282 -0.825921 0.104906 -0.162826 0.981487 0.099611
0.025741 0.865174 -0.033402 -0.16779 0.968484 -0.180128
-0.015318 0.295922 -0.131334 0.020356 0.034311 -0.999053
0.207066 -0.205817 -0.005486 0.998914 -0.043677 0.006474
-0.27118 0.290588 -0.006501 0.48518 -0.577936 0.653414
0.186615 -0.437155 0.052146 0.882491 -0.085333 0.461691
0.205399 -0.301157 -0.008406 0.991607 -0.009876 -0.123847
0.067291 0.777615 -0.109493 0.513295 0.008022 -0.857933
-0.125459 0.204998 0.004615 -0.917504 0.384003 0.005226
-0.070734 0.547623 -0.097266 -0.355605 0.548275 -0.756098
-0.099685 -0.812652 0.001237 -0.969544 0.062939 0.232917
0.167882 0.140429 -0.063615 0.859605 0.062719 -0.505021
0.116249 -0.820986 -0.117526 -0.214011 -0.10329 -0.963052
-0.112573 -0.764129 -0.082925 -0.866234 -0.02473 -0.498866
-0.034689 0.787908 0.007549 -0.983951 0.051017 0.170352
0.14032 -0.693493 -0.090259 0.445977 -0.001692 -0.895009
0.005113 -0.402982 0.055368 0.79311 -0.210142 0.571236
-0.022348 -0.829817 0.031669 0.870044 -0.415659 0.22649
-0.135765 -0.439444 0.018166 -0.97853 -0.023122 0.197303
