-0.140459 0.450002 -0.100271 -0.481021 -0.034246 -0.87493
-0.140524 0.546538 -0.054065 -0.504788 0.726094 -0.466403
0.02628 -0.270827 0.045618 0.977668 -0.021364 0.206834
0.043282 -0.306856 0.025051 -0.986322 -0.019761 0.153172
-0.099894 -0.070959 -0.088948 -0.70121 -0.233646 -0.673291
0.212312 0.542237 -0.011597 0.365445 0.726519 0.578689
-0.402958 0.190527 -0.053063 0.250679 -0.726141 -0.629777
-0.003231 0.714614 -0.083027 -0.571666 -0.566372 -0.590175
-0.081613 -0.61096 -0.103375 -0.224029 0.079457 -0.96756
0.152887 0.494874 -0.136139 0.154501 0.268319 -0.950276
-0.07474 0.487788 0.066872 -0.243496 0.379795 0.889958
-0.028404 0.826958 -0.069945 -0.653402 0.603611 -0.451654
0.092449 -0.443877 -0.094268 -0.55261 0.053016 -0.831658
0.158434 -0.86194 0.151393 0.319462 -0.939547 0.112799
0.624178 0.06305 0.008939 0.283513 -0.261559 -0.89748
0.372736 0.308519 -0.043603 0.144625 0.294161 0.939527
0.104038 -0.832618 0.147978 -0.766194 0.594545 0.179613
0.061181 -0.51829 0.004676 -0.687232 -0.031173 0.725315
-0.070516 0.420013 0.090249 -0.367801 0.145212 0.916854
0.084618 -0.383664 0.05172 -0.561909 -0.239954 0.789837
0.064854 -0.498037 0.007644 -0.586729 0.040261 0.808427
0.032786 0.113298 -0.134772 -0.121775 0.403043 -0.9055
0.155732 0.525132 -0.124023 0.215792 0.581107 -0.781875
0.055062 0.464291 -0.133179 -0.434761 0.148945 -0.887498
-0.057775 -0.375805 0.094034 0.230698 -0.288197 0.928961
0.158125 -0.164599 0.097715 0.245844 -0.144869 0.956929
0.579133 0.105801 -0.006941 0.57534 0.081704 -0.81299
-0.064073 -0.143636 0.121786 -0.132713 -0.060398 0.98849
0.538321 0.129973 0.009362 -0.762595 -0.645686 0.02984
0.406445 0.290697 -0.126274 0.269093 0.231225 -0.932693
-0.014689 0.677391 0.032428 -0.761641 -0.613174 0.190898
0.17206 -0.656542 -0.071767 0.58643 -0.222459 -0.77873
0.366219 0.284874 -0.125365 -0.323721 -0.383562 -0.864013
-0.018923 0.6825 0.013427 -0.938199 -0.323944 0.025813
0.163965 0.482293 0.045954 0.57582 0.320786 0.751537
0.433961 0.231062 -0.032065 -0.632137 -0.485465 0.589626
-0.004014 -0.202436 -0.073272 0.644246 0.027091 -0.763327
0.103371 -0.385516 -0.100341 -0.296381 -0.048284 -0.948678
-0.206946 0.451561 0.036085 -0.554694 0.270568 0.786184
0.15129 0.236588 -0.086151 0.819815 -0.114227 -0.560458
-0.117317 -0.355997 0.081744 -0.850187 -0.055106 0.521559
0.115381 -0.870374 -0.091646 0.017745 -0.999551 -0.0173
0.055498 0.852063 0.042035 0.425449 0.65904 0.61867
0.065815 0.040423 -0.159499 -0.025244 0.181946 -0.981731
-0.069343 0.335754 -0.115596 -0.499094 -0.050107 -0.865037
0.090248 -0.52398 -0.093924 -0.58147 -0.054707 -0.8117
0.090103 0.595163 -0.011171 0.799125 0.288069 0.518648
0.308334 0.420857 -0.030459 0.802659 0.176514 0.564545
-0.013205 0.799694 0.053182 -0.872787 0.2257 0.429921
-0.130553 -0.422432 -0.027752 -0.843916 0.213508 -0.491794
0.181174 0.250225 0.026909 0.974951 0.014994 0.211808
0.211535 0.412928 -0.051608 -0.458375 -0.797533 0.107016
0.066173 -0.364491 0.044015 -0.572815 -0.302602 0.737401
-0.127458 0.377869 -0.046167 -0.982656 -0.172867 -0.001507
0.01964 -0.338027 0.05008 0.892568 -0.140653 0.427451
-0.123805 0.074712 -0.043935 -0.927999 0.119241 -0.351303
0.194272 -0.073055 0.070697 0.743454 0.078453 0.663932
0.044249 0.763506 0.084029 0.711643 0.067864 0.682842
0.206809 -0.007279 -0.017334 0.981405 0.090184 -0.168887
-0.286732 0.346392 -0.091942 -0.413919 0.303953 -0.856068
0.536205 0.159181 -0.030384 0.581929 -0.206856 -0.783295
0.065165 -0.632484 0.003567 -0.211689 0.471715 0.851673
-0.013208 -0.488054 -0.078804 0.694328 0.096355 -0.713155
0.090839 0.615205 -0.037617 0.85257 0.500972 0.063902
0.529859 0.206229 -0.011815 -0.071928 0.95088 0.283591
0.054549 0.548731 0.029131 0.143275 0.571796 0.804413
-0.118578 0.308094 -0.017529 -0.97982 -0.160159 0.095715
-0.499972 0.150706 0.04338 -0.707847 0.702792 0.060233
-0.116692 0.233412 0.01029 -0.910965 0.386055 0.140033
0.054549 0.58456 -0.096587 0.014498 0.581252 -0.813226
-0.105871 -0.837664 0.053397 -0.716424 0.694813 0.060034
-0.040431 -0.515364 0.054862 0.409776 -0.284203 0.866329
0.074605 0.834224 0.038905 0.751863 0.35604 0.550242
0.009037 -0.670292 0.008147 0.780793 -0.230987 0.578782
0.062878 0.839271 0.046761 0.581629 0.487165 0.650955
0.11745 -0.510611 -0.107713 -0.191109 0.00329 -0.981132
-0.011169 0.422186 0.100523 -0.045774 0.303261 0.950244
-0.395751 0.21257 -0.066149 -0.240946 -0.336836 -0.909177
0.109873 0.226595 0.105712 0.428983 0.064189 0.900918
0.193298 -0.256683 0.061146 0.824067 -0.019366 0.563359
0.460508 0.275279 -0.073247 0.741908 0.667596 -0.022682
0.183239 0.115766 0.050927 0.851017 0.192334 0.486897
-0.034951 0.80695 0.002187 -0.97601 0.004784 0.202835
0.142996 -0.868491 0.128937 0.15014 -0.976976 0.068048
-0.108524 0.22175 -0.047097 -0.833 -0.259411 -0.487456
-0.46727 0.189472 -0.000239 -0.747624 0.66116 0.041256
0.135553 0.185425 -0.096467 0.614434 0.02217 -0.786329
-0.058788 -0.787183 -0.142649 -0.297809 0.357223 -0.881818
0.011593 -0.801633 -0.068747 0.975996 -0.19744 0.003175
0.137911 0.320399 0.080759 0.755617 0.036636 0.65295
-0.001511 0.58755 0.013273 -0.590384 0.217154 0.776723
-0.196907 0.508087 -0.038631 -0.713974 0.629105 -0.306149
0.199958 -0.147539 -0.049889 0.855952 -0.013672 -0.513853
-0.40344 0.241903 -0.069316 -0.550518 -0.058923 -0.831827
0.201325 -0.305917 -0.021151 0.895748 -0.041339 -0.441451
-0.010719 0.041249 0.134987 -0.252009 0.10562 0.959306
-0.116622 0.338582 -0.074727 -0.878083 -0.207602 -0.427669
-0.552719 0.055532 0.022322 0.88887 -0.437378 -0.118258
0.072706 -0.173637 0.084994 -0.535603 -0.043395 0.843262
0.062852 -0.527295 -0.065883 -0.763815 -0.083017 -0.63996
0.097907 -0.524266 0.032432 -0.505852 0.044742 0.861173
-0.061734 -0.30936 0.104634 0.149435 -0.086083 0.984697
-0.214636 0.368734 0.01449 0.171021 -0.479707 0.859591
0.068734 -0.296207 -0.080872 -0.72847 -0.012926 -0.681676
0.018068 -0.551235 0.003236 0.886935 -0.054467 0.437158
0.14043 -0.406358 -0.094815 0.510147 0.069662 -0.856997
0.10866 -0.609073 0.031796 -0.197659 0.220656 0.954407
0.046224 -0.598881 -0.033534 -0.985628 -0.035188 -0.114923
-0.282058 0.3949 -0.07279 -0.633227 0.499208 -0.550782
-0.001897 0.371207 -0.128649 0.065249 -0.019564 -0.997525
0.091692 0.604454 -0.021724 0.831462 0.365866 0.376209
-0.07098 -0.24513 0.112397 -0.053482 -0.068943 0.996024
0.014972 -0.212531 0.084287 0.85674 -0.062492 0.511641
-0.144345 -0.100697 0.017306 -0.999563 0.007488 0.022245
-0.036641 0.085117 -0.130291 -0.267148 0.264479 -0.925816
-0.268897 0.415002 -0.048027 -0.731524 0.676406 -0.078337
0.065324 -0.326154 0.05721 -0.687767 -0.223546 0.686556
0.615776 0.055912 0.09012 -0.864769 -0.480088 0.114247
-0.116063 -0.675231 0.008599 -0.940305 -0.1457 0.296357
0.183311 -0.784281 -0.038997 0.973212 -0.219445 -0.022563
0.186256 0.10239 -0.049109 0.836717 0.290733 -0.463627
0.168885 -0.678222 0.020312 0.393562 -0.265684 0.878239
0.010531 -0.527283 0.01788 0.703992 -0.170323 0.689182
0.014598 -0.578962 -0.049193 0.779179 0.048829 -0.624543
-0.092084 -0.208376 0.111066 -0.194697 -0.046828 0.979693
-0.476114 0.122412 0.00606 0.463595 -0.803099 -0.354593
-0.07036 -0.588253 0.050026 0.425424 -0.220428 0.877617
-0.216811 0.470949 0.017683 -0.766564 0.365146 0.520163
-0.101756 0.28116 0.058064 -0.859292 0.062976 0.504457
-0.38359 0.227891 0.011528 0.084119 0.030935 0.995837
0.354871 0.272327 -0.075443 -0.674307 -0.720762 0.157969
0.026607 0.592352 -0.090333 -0.066726 0.591832 -0.803259
-0.095557 -0.815881 0.024738 -0.906845 0.336852 0.245075
0.02672 -0.592714 -0.013245 0.981886 0.025299 0.16362
-0.132632 -0.391533 0.016899 -0.903518 0.391986 0.157809
0.116249 -0.820986 -0.117526 -0.214011 -0.10329 -0.963052
0.206369 -0.120167 -0.037181 0.922599 0.018504 -0.383633
-0.036006 -0.047295 0.130889 -0.108321 -0.140236 0.983809
-0.104401 -0.708145 -0.094208 -0.71911 -0.009487 -0.693586
0.043686 -0.339745 0.020895 -0.976069 -0.077811 0.197547
0.21227 -0.04024 0.024026 0.976519 0.025056 0.211784
-0.044849 -0.731451 -0.120161 0.330763 0.223984 -0.913087
-0.04508 -0.693008 0.017069 -0.18516 -0.176146 0.965677
-0.371914 0.196911 -0.014972 0.657842 -0.751819 0.033988
0.25138 0.471464 -0.125764 0.310093 0.410575 -0.856422
0.378164 0.35151 -0.091221 0.703024 0.701785 0.090654
0.188044 0.323273 0.003505 0.961599 -0.115944 0.242332
0.013399 -0.09608 -0.082364 0.26175 -0.640383 -0.69498
0.051083 -0.598877 -0.015098 -0.885886 -0.052009 0.460466
-0.103305 -0.6761 0.02831 -0.473265 -0.357952 0.789938
0.087687 -0.84305 0.076881 -0.914907 0.399856 0.032681
-0.062755 0.226931 -0.106117 -0.617139 -0.266598 -0.740296
0.022452 0.700593 0.089705 -0.445748 -0.195338 0.861836
-0.044882 0.493456 0.070299 -0.22979 0.503368 0.831913
0.013035 -0.675314 -0.00046 0.828748 -0.271821 0.482201
0.568056 0.080695 0.018987 -0.871522 -0.483834 0.026385
0.198467 -0.469692 0.001234 0.986599 -0.017659 0.15773
0.167055 0.54687 0.001882 0.20626 0.692463 0.690257
-0.110938 0.108929 0.06332 -0.773071 0.299548 0.558558
0.101149 -0.867945 -0.109105 -0.442997 -0.807512 -0.300113
-0.002535 -0.181786 0.107455 0.610779 -0.077066 0.787985
-0.118654 -0.388107 0.077997 -0.911992 -0.066229 0.402898
0.085566 0.583616 -0.096046 0.068867 0.755165 -0.650734
0.102258 -0.448833 0.038423 -0.791409 -0.11378 0.573515
-0.024847 0.706484 -0.019524 -0.676645 -0.667564 -0.147126
-0.028674 0.747087 0.028645 -0.985718 -0.047108 0.160504
0.009059 0.660783 0.061547 -0.368392 -0.919016 0.12716
-0.033499 0.409706 0.101477 -0.236868 0.309638 0.92013
-0.11031 -0.426988 0.075548 -0.725799 -0.236821 0.644944
0.166318 0.013443 -0.105806 0.709804 0.014704 -0.676136
0.184336 0.294907 -0.022068 0.970089 -0.206414 -0.11878
-0.154551 0.429224 -0.093968 0.077441 -0.104592 -0.990425
0.155206 0.558987 -0.008892 0.163964 0.756904 0.63255
0.108901 -0.183595 -0.106 -0.085407 -0.146674 -0.984897
0.212979 0.493154 -0.128957 0.199948 0.275882 -0.938644
0.006572 -0.367633 0.063494 0.794043 -0.163087 0.584898
-0.059341 -0.244379 0.112523 0.040532 -0.111884 0.99223
-0.138779 0.407619 -0.070277 0.236083 -0.680043 -0.634146
-0.125549 -0.640255 -0.074452 -0.89051 0.008962 -0.443032
-0.004356 0.608822 -0.069747 -0.433075 0.64842 -0.624928
0.0987 0.447967 0.083025 0.144361 0.228611 0.962621
-0.069662 -0.47559 -0.096021 -0.15708 0.09659 -0.982176
-0.258255 0.403422 0.011245 -0.617133 0.366974 0.687899
-0.119522 -0.578153 0.009606 -0.908017 -0.046539 0.414585
-0.041702 -0.781696 0.040084 0.122793 0.742658 0.647691
-0.427799 0.196371 -0.053394 -0.35543 0.052301 -0.930053
-0.129639 0.517299 0.04957 -0.099497 0.474258 0.872944
-0.084484 -0.672532 0.033075 0.167328 -0.352658 0.915656
-0.018131 0.693231 -0.032095 -0.898507 -0.336425 -0.231563
0.104048 -0.464299 -0.102372 -0.331455 0.047772 -0.939476
-0.113841 -0.440464 -0.059221 -0.725615 0.249435 -0.640408
0.073188 0.020935 -0.160046 0.021273 -0.151857 -0.986515
-0.009567 -0.599913 -0.07684 0.683205 -0.008619 -0.729995
-0.112805 0.006392 -0.084068 -0.861215 0.016741 -0.507863
0.029927 0.547356 -0.114116 -0.089663 0.381158 -0.919898
-0.137656 -0.479342 0.000252 -0.963658 -0.047791 0.259105
0.034459 0.190369 0.129881 0.040036 0.025319 0.998828
0.097859 -0.868539 -0.090598 -0.446356 -0.869598 -0.07294
0.095735 -0.246355 -0.095626 -0.365953 0.019363 -0.928569
0.204768 -0.534009 -0.033087 0.983921 0.011353 -0.176348
-0.065206 0.005481 0.127152 -0.287454 0.315609 0.902007
0.190658 -0.458075 0.035454 0.963578 -0.069341 0.257647
-0.099107 -0.022469 0.105018 -0.616902 0.024309 0.780425
-0.03564 -0.417598 -0.082516 0.29679 0.251579 -0.919442
-0.085196 -0.340833 -0.075972 -0.558514 0.029905 -0.828224
0.084694 -0.012767 0.131664 0.222308 -0.276543 0.927137
0.154028 0.516631 -0.128507 0.141262 0.361217 -0.920757
-0.129273 0.012411 -0.048286 -0.937241 0.04456 -0.344884
-0.095108 -0.784924 0.010732 -0.739467 0.21365 0.573045
-0.012032 0.791781 0.060417 -0.892415 0.177262 0.413411
0.062636 0.820744 0.062759 0.491013 0.514938 0.70218
-0.125827 -0.453943 0.041879 -0.868951 -0.201499 0.448233
-0.071037 -0.003565 0.12836 -0.412661 0.061941 0.871799
0.017459 0.284106 0.123423 -0.093854 0.14338 0.984447
-0.034541 -0.263381 0.10589 0.178009 -0.18132 0.967159
-0.020359 -0.182432 0.117052 0.465801 -0.11775 0.876798
0.19849 0.381601 -0.0732 0.992817 -0.094102 -0.060949
0.085472 -0.826879 -0.049251 -0.524998 -0.849082 -0.046222
0.065226 0.174532 -0.119202 -0.024573 0.110309 -0.991475
0.022672 -0.22566 0.059519 0.928857 -0.023083 0.366322
0.181815 -0.136795 -0.072075 0.715662 -0.071453 -0.694733
0.098948 -0.458955 0.033302 -0.68217 -0.077064 0.724842
-0.004506 -0.054788 -0.122874 0.082602 -0.517994 -0.850967
-0.133568 -0.463354 -0.039127 -0.896905 0.078299 -0.43377
0.184253 -0.471782 -0.074739 0.75907 0.082631 -0.644468
0.156159 -0.836868 0.131873 0.643658 0.739701 0.195511
-0.068885 -0.808408 -0.13929 -0.566189 -0.136326 -0.80997
0.27338 0.380357 -0.023419 -0.359764 -0.241381 0.901101
0.169437 -0.642591 0.024048 0.43859 0.048919 0.893881
-0.128336 -0.290172 0.04122 -0.995067 -0.089692 0.040481
0.220776 0.504453 0.013155 0.225034 0.320789 0.912372
0.643493 0.030033 0.04525 0.961315 0.096458 0.012676
0.142891 0.330071 -0.116778 0.694551 -0.174295 -0.697879
-0.007371 0.053271 0.135461 -0.289095 0.109563 0.949724
-0.106484 -0.491608 0.054681 -0.775866 -0.317545 0.544969
0.089895 0.696738 -0.004319 0.983011 -0.147567 0.012462
0.084546 0.706861 0.059693 0.830318 -0.136281 0.538779
0.184024 0.289108 -0.004782 0.99116 -0.127976 0.014482
-0.000986 -0.188938 -0.070556 0.643754 0.01349 -0.764981
0.045322 0.42942 -0.130809 -0.35064 0.046411 -0.932391
-0.065125 -0.863319 0.004807 0.004251 -0.999387 -0.03449
0.00528 -0.389175 0.06032 0.777857 -0.174876 0.602337
-0.135251 0.056626 0.000823 -0.97424 0.189742 -0.030074
0.054803 -0.478841 -5.4e-05 -0.664656 0.00107 0.740114
0.065889 -0.62215 -0.060449 -0.70114 -0.081343 -0.707524
0.252127 0.518419 -0.025564 0.686223 0.607458 0.399642
0.194579 0.523828 -0.116307 0.180557 0.641141 -0.745827
-0.024645 0.838909 -0.052232 -0.563301 0.763016 -0.314495
-0.051863 0.274104 -0.122309 -0.458556 -0.052591 -0.886676
0.151734 0.179425 -0.081997 0.716091 0.160986 -0.671668
-0.028317 -0.35336 0.090676 0.303922 -0.120908 0.944291
0.095212 0.736773 -0.065981 0.896581 -0.292358 -0.325467
-0.515616 0.080762 0.07778 0.67071 -0.72068 0.173653
-0.083621 0.172398 -0.07831 -0.622151 0.071221 -0.779395
-0.020408 -0.392787 -0.07057 0.618424 0.058184 -0.782585
-0.021397 0.817793 -0.088345 -0.503709 0.560017 -0.645837
0.015091 -0.301771 0.069761 0.802531 -0.166202 0.572267
0.138249 -0.161138 0.103775 0.184069 -0.285426 0.938756
0.37064 0.359494 -0.099 0.712826 0.699932 -0.005949
0.046246 -0.354262 -0.04596 -0.899151 -0.042731 -0.420694
0.115696 0.341688 -0.138315 0.424731 -0.120752 -0.897185
0.076764 0.655234 -0.043043 0.788633 0.088305 -0.607637
0.142661 0.131745 -0.097963 0.705421 0.198913 -0.679906
0.277138 0.455977 -0.014377 0.57964 0.147663 0.798706
0.639846 0.045916 0.029783 0.896756 0.437969 -0.021655
-0.125597 0.127628 -0.02671 -0.93599 0.023932 -0.344249
-0.024702 -0.22809 -0.087603 0.390205 0.014703 -0.918849
-0.074896 0.197408 0.090746 -0.576984 0.065434 0.812947
0.028355 -0.181725 0.044771 0.945819 -0.118534 0.294793
0.086039 0.623912 -0.041867 0.725513 0.546814 -0.409024
0.205421 -0.271778 0.004228 0.999941 0.00327 -0.004064
-0.085391 -0.622199 -0.10382 -0.268562 0.084425 -0.958768
-0.011691 0.433143 -0.129449 0.079289 -0.011827 -0.996654
0.190135 -0.47625 -0.066741 0.842351 0.048048 -0.535827
-0.012072 0.665444 -0.007248 -0.985952 -0.107132 0.003977
-0.090666 0.445257 0.07208 -0.615293 0.118817 0.778917
0.049237 0.255425 0.125902 0.196654 0.087187 0.975165
0.096977 0.186135 -0.11501 0.244785 -0.202098 -0.944509
0.194998 -0.553287 -0.060041 0.834381 -0.013287 -0.55097
-0.105314 0.497752 -0.110373 -0.404849 0.28683 -0.86573
-0.038413 -0.825464 0.093433 0.457116 0.839483 0.258279
0.207462 -0.017613 -0.017789 0.974074 0.055402 -0.21828
0.018514 -0.439599 -0.030185 0.930318 0.029552 -0.36411
-0.099199 -0.008974 -0.104117 -0.76849 -0.041126 -0.636066
0.177492 -0.499533 0.05313 0.659134 -0.188294 0.723528
-0.137937 -0.004019 0.018531 -0.994799 -0.01848 0.028357
0.02328 -0.208383 -0.032941 0.499422 -0.036435 -0.838832
0.284486 0.392097 -0.143941 -0.14715 -0.03239 -0.986248
0.022838 -0.718142 -0.055552 0.972654 -0.023894 -0.224976
0.199995 -0.457833 -0.015467 0.999675 -0.001454 0.023791
0.173349 0.329285 0.040671 0.87612 -0.00286 0.478648
0.120046 -0.795878 -0.117032 -0.08803 0.512664 -0.848568
0.036355 0.337748 0.115834 0.077478 0.238443 0.965945
0.141306 -0.089048 0.112314 0.259136 -0.028205 0.9633
0.097784 -0.566445 0.0322 -0.411119 -0.090295 0.906272
0.053092 0.374492 -0.13573 -0.333254 -0.016268 -0.94209
-0.50506 0.140474 -0.006882 -0.947377 0.192488 -0.235897
0.013776 0.696221 0.084089 -0.557795 0.046866 0.825908
-0.053391 -0.432332 -0.089123 -0.005153 0.229124 -0.972433
0.006014 0.067537 -0.14339 -0.142872 0.206548 -0.967727
-0.141696 0.399792 -0.00697 0.528588 -0.819774 0.130241
-0.027347 0.34653 0.10516 -0.159092 -0.033276 0.983591
-0.105921 -0.280863 0.102427 -0.621137 -0.036397 0.774445
0.156483 0.35208 -0.110964 0.605756 -0.278165 -0.745284
0.158546 0.071198 -0.101573 0.704124 0.210834 -0.675997
0.16731 0.405876 -0.126938 0.282292 -0.399096 -0.869938
-0.128147 -0.3393 -0.00417 -0.999251 0.007196 -0.029696
0.024836 -0.281809 0.049986 0.948034 -0.022329 0.308092
-0.054831 0.217748 0.099571 -0.520758 0.097752 0.848035
-0.04399 -0.855125 0.136342 0.75124 -0.383659 0.464006
0.529165 0.17725 0.019331 -0.32419 0.314561 0.859975
0.55117 0.158665 -0.017106 0.727052 0.111917 -0.66724
0.113769 -0.111173 0.113456 -0.266293 -0.017086 0.937783
0.074587 -0.822788 -0.044996 -0.436799 -0.890412 -0.063564
0.292705 0.367873 -0.021838 0.058166 -0.498472 0.845546
0.190749 -0.636129 0.011224 0.845446 -0.085662 0.515367
0.087874 -0.242184 -0.091888 -0.448096 -0.02423 -0.893552
-0.31993 0.285864 -0.093888 -0.03579 -0.208142 -0.976946
-0.098534 -0.561501 -0.09314 -0.513216 0.056473 -0.856297
0.627479 0.06482 0.080868 0.861041 0.490175 0.114901
-0.017999 0.738166 0.05649 -0.78668 0.056873 0.612092
-0.013366 -0.564725 0.030295 0.494533 -0.163736 0.851796
-0.122205 -0.436049 0.054763 -0.860605 -0.14767 0.487193
0.10941 -0.86414 -0.016793 -0.37823 -0.922066 0.061803
-0.021453 -0.839395 -0.083692 0.915231 -0.360667 -0.022731
0.087098 0.815191 0.030914 0.812999 0.330088 0.478933
-0.076823 -0.861443 -0.039546 -0.048072 -0.998178 -0.025933
-0.319442 0.307552 0.003777 -0.206302 0.113678 0.971367
-0.105963 0.567993 -0.02256 -0.303636 0.940551 0.079032
0.077971 -0.16776 -0.10098 -0.416556 -0.221521 -0.881414
-0.061992 -0.074321 0.12392 -0.296558 -0.11183 0.948012
-0.076553 -0.81059 0.053402 -0.683177 0.510789 0.52001
-0.071748 -0.314505 -0.084787 -0.452701 -0.041766 -0.888904
0.402439 0.257118 -0.126127 -0.1507 -0.243047 -0.953819
0.235559 0.378136 -0.068342 -0.696656 -0.713836 0.053588
-0.130015 -0.577775 -0.058066 -0.965615 -0.009463 -0.255042
0.14625 -0.864066 -0.01809 0.312705 -0.941494 0.055614
-0.128001 -0.347125 -0.011346 -0.996189 0.037713 -0.069085
0.258639 0.510697 -0.025443 0.728532 0.556391 0.395541
-0.084307 -0.682407 0.029032 0.137219 -0.367962 0.914809
0.033872 0.864128 0.023692 -0.048134 0.98573 0.15292
-0.129176 -0.601932 -0.059682 -0.987649 -0.014847 -0.144722
-0.003932 0.083521 0.132085 -0.438515 -0.001719 0.894208
0.185615 0.303917 -0.028772 0.926533 -0.316343 -0.195937
0.018648 -0.206047 0.07701 0.95275 -0.031032 0.301368
-0.422561 0.200095 0.01815 -0.117309 0.278184 0.952449
0.182993 0.193847 -0.019914 0.975685 0.122903 -0.164777
-0.070808 0.031117 -0.130742 -0.551517 0.212955 -0.804576
-0.111092 0.26955 -0.058997 -0.988008 -0.04835 -0.14001
-0.036705 -0.620605 0.028219 0.340233 -0.150257 0.927518
0.042237 -0.208161 -0.047617 -0.95063 -0.053401 -0.30366
0.063616 0.359337 0.106544 0.196587 0.191142 0.961456
-0.482078 0.160274 0.05003 -0.205514 0.803951 0.509682
0.114835 0.235533 0.103198 0.468415 0.054085 0.880206
-0.108218 0.063161 -0.077701 -0.826217 0.123671 -0.54933
-0.134449 -0.560913 -0.03156 -0.986013 -0.107759 0.115355
-0.126882 -0.347767 -0.022306 -0.980254 0.070356 -0.17982
0.145294 0.013109 0.113114 0.437362 0.141884 0.886262
-0.451189 0.142337 -0.002934 0.523205 -0.837692 -0.055466
-0.128612 -0.551139 -0.004377 -0.942697 -0.145931 0.297266
0.141642 0.492558 -0.138366 0.169669 0.281052 -0.944442
-0.096808 -0.822827 0.032215 -0.859151 0.468024 0.187304
-0.370668 0.238397 -0.078698 -0.024032 -0.334862 -0.940063
0.053475 -0.321184 -0.060205 -0.820548 -0.008254 -0.571408
0.358464 0.337014 -0.134087 0.30539 0.067993 -0.949048
-0.095199 0.127532 0.0749 -0.670396 0.049497 0.74013
0.098951 -0.768314 0.021214 -0.249396 0.804134 0.537685
-0.131795 -0.502721 -0.046569 -0.85297 0.065109 -0.51769
0.020411 -0.32219 -0.028611 0.920923 -0.002172 -0.389502
-0.082278 -0.041431 -0.11333 -0.58247 -0.234046 -0.77694
0.048183 -0.260793 -0.052124 -0.823734 -0.005764 -0.566781
0.064904 -0.141395 0.079024 -0.64204 0.049847 0.764727
-0.499449 0.105443 0.019865 -0.037509 -0.781551 -0.615663
-0.016995 0.311367 -0.130608 0.006016 0.066078 -0.997029
0.162095 -0.685497 0.020675 0.322455 -0.355931 0.875701
-0.0252 -0.384773 -0.073894 0.548377 -0.025593 -0.830854
0.138136 -0.385724 0.074377 -0.145953 -0.139638 0.977868
0.070029 0.850404 -0.059065 0.48205 0.764465 -0.426691
-0.330454 0.225241 -0.038271 0.507663 -0.85182 -0.121968
0.110025 -0.379826 0.066569 -0.418907 -0.203996 0.884315
0.016472 -0.703821 -0.070117 0.816231 0.080999 -0.569977
0.13804 -0.65187 -0.093034 0.376002 -0.119601 -0.918561
0.010764 0.485699 -0.124405 0.134394 0.14424 -0.977935
-0.117191 0.477856 0.061236 -0.033288 0.042061 0.998233
-0.055704 -0.864287 0.071784 -0.004001 -0.999987 0.00119
0.066584 0.79566 0.073594 0.542337 0.288516 0.785517
0.049356 0.618037 0.025985 0.27829 -0.189348 0.933517
-0.126882 -0.689014 -0.066816 -0.966406 -0.062661 -0.234744
-0.12434 -0.262753 -0.023763 -0.853654 0.035652 -0.51935
-0.025548 -0.515616 0.049502 0.398714 -0.226458 0.886374
0.172136 0.138861 0.059807 0.740978 0.128643 0.658578
0.183136 0.201212 -0.01262 0.992858 0.068582 -0.062558
0.197231 -0.446758 0.013024 0.975705 -0.086426 0.198034
-0.367592 0.306544 -0.055453 -0.668409 0.734591 -0.105251
0.066277 0.303911 -0.138177 -0.297875 -0.06834 -0.95118
0.200771 -0.485995 -0.009882 0.98467 0.122191 0.115589
0.109877 0.169844 0.108769 0.543182 0.058469 0.836379
0.206674 -0.197809 -0.027075 0.995474 -0.025188 -0.087346
0.294085 0.327211 -0.099116 -0.686741 -0.717234 -0.11015
0.071944 0.816894 -0.09744 0.518221 0.507077 -0.681933
-0.136925 -0.419414 -0.006856 -0.987896 0.081354 -0.125016
0.064343 -0.793496 0.009028 -0.776361 -0.521888 0.335766
0.181921 0.288895 -0.029423 0.963977 -0.155649 -0.211397
-0.289606 0.380378 -0.027594 -0.867438 0.470353 0.156189
-0.457059 0.193972 -0.032167 -0.747797 0.348089 -0.558755
-0.015867 0.080776 -0.136113 -0.15527 0.216243 -0.963908
0.186957 0.415518 -0.12645 0.244692 -0.393911 -0.885392
-0.032578 0.271468 -0.129351 -0.177804 -0.038175 -0.98191
0.01594 0.074342 0.136362 0.202724 0.058439 0.977369
-0.388862 0.250382 -0.078369 -0.374242 -0.155343 -0.912622
0.196754 -0.397623 0.029687 0.942555 -0.036666 0.331636
0.097643 -0.007237 0.129397 0.282573 -0.250304 0.925065
0.122127 0.493833 0.056238 0.23275 0.533419 0.812644
-0.143551 -0.069613 0.025405 -0.994281 0.022016 0.098088
0.028168 -0.101082 0.104238 0.416537 -0.411069 0.806788
-0.073805 -0.769957 0.020657 -0.484387 0.284834 0.805126
0.150498 -0.805835 -0.11057 0.578689 0.122831 -0.796159
-0.038844 0.8326 -0.026994 -0.790249 0.608821 -0.053915
0.154159 -0.823838 0.062409 0.670932 0.72003 0.169118
0.052928 0.265419 0.123836 0.213147 0.129689 0.968296
0.065543 -0.093245 -0.118554 -0.33268 -0.489901 -0.804472
0.295507 0.38368 -0.018307 0.184716 -0.123431 0.966911
-0.115243 -0.208261 0.09756 -0.706174 -0.018346 0.707554
-0.120316 0.33667 -0.027538 -0.999421 -0.017149 0.026921
-0.031174 -0.28292 -0.089237 0.36281 -0.077165 -0.928407
0.112035 0.454866 0.078686 0.268658 0.383373 0.881138
0.015472 0.804219 0.075886 -0.340022 0.395315 0.853189
-0.105612 0.147903 0.061488 -0.768978 0.061867 0.636184
0.069922 -0.217449 0.080227 -0.558089 -0.111189 0.821098
-0.112418 -0.270858 -0.043795 -0.870748 -0.004392 -0.491098
0.106995 -0.11678 0.109287 -0.623989 -0.072527 0.777912
-0.40545 0.214956 0.014982 0.1587 0.186415 0.963585
-0.000319 0.78194 -0.114247 -0.407453 0.082902 -0.908585
0.163007 -0.836943 -0.029092 0.985325 0.168312 0.012644
-0.340243 0.219855 -0.037717 0.616023 -0.776089 -0.07983
-0.077772 -0.264544 0.110702 -0.037958 -0.091028 0.995033
-0.042145 0.373585 0.105171 -0.22105 0.063813 0.968609
0.032873 0.143825 0.132076 0.040466 0.035211 0.998163
0.177631 -0.666374 -0.06389 0.662461 -0.262453 -0.700902
0.046021 -0.291052 0.039706 -0.898014 -0.058783 0.426065
0.073029 -0.823006 -0.010398 -0.436 -0.889551 0.05437
0.149822 0.094988 -0.102884 0.701144 0.209941 -0.681003
0.206317 -0.21256 0.010966 0.998044 -0.031481 0.052224
-0.482828 0.170292 -0.012325 -0.722811 0.680828 -0.105288
0.154989 -0.358174 -0.076249 0.628339 0.122615 -0.767734
0.076704 -0.671358 0.026047 -0.549571 0.31308 0.773473
-0.042959 -0.139951 -0.101013 0.238768 -0.303842 -0.920977
0.209978 -0.116528 -0.027419 0.916466 0.032561 -0.397163
0.495366 0.170235 -0.039586 -0.454162 -0.853373 -0.217615
0.109837 -0.529372 -0.104886 -0.344292 -0.020763 -0.937935
-0.086707 -0.860987 -0.061134 -0.14469 -0.985315 0.060804
-0.137353 -0.468725 0.002706 -0.980924 -0.031872 0.190541
0.191328 0.060232 0.058163 0.795496 0.3232 0.510663
-0.120445 -0.700152 -0.027146 -0.88387 -0.118587 0.430056
-0.485011 0.167893 0.025764 -0.649874 0.745208 0.130071
0.110914 0.551535 -0.118557 0.167129 0.568285 -0.802282
-0.023322 -0.415343 -0.07702 0.498309 0.225409 -0.836931
-0.13931 -0.04441 -0.021614 -0.965898 0.02799 -0.2484
-0.111509 0.257593 -0.051474 -0.995589 -0.006881 -0.084602
0.352573 0.288952 -0.050783 -0.604875 -0.521805 0.600889
0.119173 -0.362069 0.074774 -0.259131 -0.210336 0.941996
-0.486968 0.11383 0.057935 0.883975 -0.284937 0.35649
0.1003 -0.417698 0.052211 -0.556169 -0.331451 0.760924
0.506178 0.161641 -0.001065 -0.601594 -0.794325 0.080775
0.130511 -0.2288 0.089367 0.082191 -0.167994 0.982335
0.095445 -0.129874 0.100237 -0.558427 -0.036708 0.828712
0.072935 -0.304455 -0.084538 -0.640324 -0.020657 -0.765692
-0.074571 -0.638228 -0.10647 -0.083825 0.079209 -0.991648
-0.317503 0.263814 0.005537 0.101229 -0.08343 0.988258
-0.041998 0.28452 -0.12749 -0.323757 -0.025456 -0.942035
0.203944 -0.078624 -0.036462 0.93367 0.067392 -0.351058
0.153601 0.432861 -0.139329 0.257617 -0.219709 -0.940001
0.34651 0.39495 -0.08043 0.725122 -0.637667 0.201573
0.108504 0.095884 -0.134687 0.470662 0.278462 -0.834076
-0.061267 0.117481 0.100659 -0.542103 0.12392 0.829716
-0.354739 0.314352 -0.067555 -0.681167 0.67393 -0.276168
0.098433 0.766183 0.01924 0.982829 0.014781 0.180769
-0.222084 0.388787 -0.09619 -0.021536 0.054848 -0.997649
-0.071128 0.346897 -0.115453 -0.488262 -0.081048 -0.868826
0.104518 -0.754708 0.021732 -0.186322 -0.497264 0.811674
0.096835 -0.265668 0.083652 -0.163918 -0.151085 0.97391
0.014003 -0.503542 -0.043785 0.845042 0.027095 -0.533429
0.088403 0.188366 0.118012 0.449381 0.024734 0.891399
0.002264 -0.259097 0.091882 0.54874 -0.197624 0.809418
-0.124309 -0.697098 -0.07176 -0.87722 -0.121408 -0.461165
0.158418 -0.72078 0.001871 0.546945 -0.176092 0.808575
-0.031688 0.750031 -0.064317 -0.885241 -0.360492 -0.293704
0.030811 0.385437 -0.128884 -0.12939 -0.014053 -0.99132
-0.213519 0.358339 0.008216 0.250413 -0.548169 0.797141
-0.058954 -0.41427 -0.084016 -0.142444 0.22402 -0.960502
0.092048 0.816035 -0.068321 0.845479 0.407173 -0.335323
0.074713 0.521048 -0.129167 -0.123611 0.155985 -0.979768
0.196088 -0.183612 -0.056194 0.770471 0.016422 -0.634317
0.118779 -0.70529 0.026252 0.366685 -0.292636 0.881545
-0.103138 -0.86084 0.096778 -0.630921 -0.728469 0.065031
-0.002724 0.860174 -0.016395 -0.562471 0.818318 -0.012786
-0.007148 -0.632244 0.023018 0.149437 0.150328 0.975111
-0.028306 0.714667 -0.023673 -0.901554 -0.398508 -0.139185
0.027392 -0.598662 -0.024697 0.994474 0.036142 -0.059696
0.122107 -0.197702 -0.104308 0.099177 -0.144008 -0.982287
0.047782 -0.282073 0.043558 -0.858145 -0.04989 0.509315
-0.284842 0.335129 -0.095386 -0.175317 0.16605 -0.966634
0.111473 -0.834131 0.16498 -0.52267 0.717378 0.433567
0.090422 0.138792 -0.123138 0.215767 0.328236 -0.918141
-0.122506 -0.173862 -0.037499 -0.826045 -0.12256 -0.550036
0.124883 -0.521484 -0.108119 -0.040507 -0.00446 -0.998957
-0.110032 0.014058 0.098304 -0.701185 0.148439 0.694422
0.14771 -0.184291 0.096465 0.111716 -0.115938 0.986404
0.008215 -0.349009 -0.045318 0.745441 -0.054853 -0.663918
0.554571 0.164345 0.039422 0.299814 0.865459 0.293757
-0.064101 -0.628532 -0.10577 0.066471 0.069069 -0.994339
-0.05604 0.108085 0.106486 -0.465006 0.224601 0.855271
0.158526 -0.842467 0.147852 0.688896 0.690498 0.205592
-0.059302 0.549271 -0.101118 -0.363196 0.517816 -0.774344
0.003984 0.704666 -0.080559 -0.51394 -0.562683 -0.63856
-0.017634 0.464267 0.087939 -0.102112 0.38118 0.914788
-0.127646 -0.348265 0.026338 -0.996166 0.0352 0.076631
0.045934 -0.459991 -0.045125 -0.929155 0.013771 -0.353255
0.196581 -0.213422 0.051805 0.939993 -0.009471 0.339933
0.198942 -0.065853 0.062682 0.868127 0.067108 0.491279
-0.049385 -0.199377 -0.093977 0.036654 -0.108266 -0.987366
-0.160983 0.480838 0.055034 -0.244082 0.108333 0.962233
-0.065688 -0.296355 0.106331 0.09956 -0.101154 0.98965
0.20764 -0.195784 -0.005554 0.999058 -0.04079 0.004021
0.368877 0.339224 -0.056684 0.515357 0.548866 0.655245
-0.1138 -0.142273 -0.058536 -0.762357 -0.170206 -0.623535
0.096644 -0.767095 -0.085544 -0.773935 0.230703 -0.57085
-0.113933 -0.036305 -0.079921 -0.824618 -0.077151 -0.560336
0.192977 -0.610232 0.012968 0.766574 -0.142931 0.613693
-0.281421 0.290217 -0.087914 0.415131 -0.474206 -0.774459
-0.095555 0.55379 -0.077322 -0.404672 0.687302 -0.603131
-0.126809 -0.747776 -0.051257 -0.982054 -0.144176 -0.093997
0.020536 0.852637 0.047703 -0.221272 0.687981 0.687037
0.083789 -0.047885 -0.143725 -0.084063 -0.368315 -0.92496
0.000695 0.794406 -0.112624 -0.367486 0.202627 -0.906088
-0.097835 -0.753075 -0.105379 -0.756828 -0.087804 -0.641558
-0.087968 0.061281 -0.103978 -0.713477 0.14314 -0.68535
-0.130252 -0.078957 -0.0453 -0.856489 -0.060464 -0.51182
-0.09333 0.195916 0.076013 -0.672915 -0.003888 0.739479
-0.098841 0.009111 -0.10486 -0.85095 0.00017 -0.492384
-0.134763 -0.163679 -0.018504 -0.908799 -0.132052 -0.385711
0.144303 -0.703494 -0.088264 0.524079 0.004598 -0.847838
0.198857 -0.563738 0.001824 0.959111 0.004118 0.282585
0.006106 -0.449491 0.0395 0.782628 -0.11033 0.612159
0.226415 0.390182 -0.051374 -0.693459 -0.671212 0.256401
0.046707 0.793346 -0.117645 0.289728 0.172013 -0.939829
-0.055386 -0.496834 0.065536 0.343578 -0.21939 0.912863
-0.054298 -0.116106 -0.105772 -0.073447 -0.157809 -0.984072
-0.021611 0.354664 0.106063 -0.185916 0.00412 0.979124
-0.053486 -0.287806 -0.092166 -0.094471 -0.07422 -0.991188
-0.033012 -0.246454 0.109031 0.197051 -0.204531 0.958764
0.019732 0.509139 0.065125 0.092515 0.497087 0.861453
0.010919 0.007517 0.143107 -0.017964 0.135951 0.990017
0.134841 0.549647 0.008236 0.217623 0.724066 0.654181
-0.033527 -0.232295 -0.090164 0.239588 0.025041 -0.969318
0.056134 -0.281393 0.055047 -0.751396 -0.139817 0.644855
0.535503 0.168283 0.026985 -0.352675 0.373077 0.835227
-0.143944 -0.078593 0.021703 -0.998016 0.006981 0.058911
0.007468 -0.573246 -0.05857 0.790641 -0.005505 -0.612064
-0.0552 -0.368514 -0.086614 -0.024682 -0.126802 -0.990315
-0.01526 -0.693983 -0.092594 0.609352 0.22055 -0.761479
0.164033 0.397095 -0.124181 0.382341 -0.403311 -0.831098
0.02491 -0.386036 -0.011959 0.972165 -0.047525 -0.214071
-0.047491 0.58521 -0.072102 -0.467197 0.739089 -0.479674
0.628646 0.066063 0.059972 0.855922 0.509429 0.035331
0.092602 0.23908 -0.135876 0.046237 -0.177816 -0.981655
-0.113483 0.185901 0.048984 -0.885064 -0.019642 0.462758
0.090813 -0.624641 0.02229 -0.721437 -0.275065 0.634602
-0.107502 -0.090981 0.10126 -0.680789 0.081015 0.727631
0.205059 -0.384266 -0.021318 0.987266 0.00061 -0.152758
0.145724 -0.41461 -0.0924 0.507581 0.106277 -0.854807
0.166925 0.57154 -0.039428 0.469654 0.814945 0.305842
0.121553 -0.468095 -0.106037 -0.04662 0.08272 -0.993011
0.187329 0.388738 -0.108595 0.471946 -0.561713 -0.67845
-0.003388 0.762915 -0.111053 -0.510967 -0.198933 -0.834485
-0.188597 0.398943 0.02532 0.219774 -0.319082 0.921774
-0.51575 0.128259 0.037611 -0.761796 0.647285 -0.01134
-0.011612 -0.578124 -0.07969 0.685161 -0.063359 -0.725609
0.082409 -0.250777 0.081803 -0.366357 -0.116183 0.921057
-0.017701 0.322242 -0.129827 -0.008599 0.063238 -0.997371
-0.112788 -0.193922 -0.048618 -0.832186 -0.073889 -0.548012
0.179384 0.219025 0.036226 0.932234 0.129287 0.334702
-0.010533 0.330499 -0.129343 0.045808 0.043037 -0.997568
0.132498 0.210504 -0.102414 0.619795 -0.219381 -0.753346
-0.122114 -0.060618 0.082839 -0.78791 0.029879 0.614902
0.02522 0.185804 0.130295 0.011113 0.029311 0.999441
-0.002585 -0.735434 0.001346 0.635061 -0.374697 0.665979
-0.072512 -0.136668 0.119796 -0.299255 0.043353 0.952632
0.323795 0.297655 -0.08453 -0.700786 -0.710514 0.037656
0.139464 -0.246793 0.08513 0.115812 -0.134982 0.983484
-0.282467 0.263881 -0.028458 0.686356 -0.663708 0.289724
-0.128382 0.440219 -0.106211 -0.496937 -0.15764 -0.850585
0.021173 -0.542793 -0.004104 0.937628 -0.095831 0.330691
-0.09459 0.409125 -0.114707 -0.339991 -0.205423 -0.917421
0.135495 -0.265266 -0.091245 0.468469 -0.086527 -0.877626
0.158076 -0.456046 -0.094408 0.487404 0.161281 -0.857648
-0.012406 0.848785 0.021007 -0.711794 0.557647 0.366719
0.034532 -0.31567 -0.009577 -0.998679 -0.032973 0.002815
0.19 0.319326 -0.018556 0.993436 -0.109149 0.012706
-0.027003 0.737391 -0.066216 -0.873929 -0.356149 -0.324711
0.043944 -0.499602 -0.031981 -0.998167 -0.003307 -0.022715
0.032165 0.202912 -0.118175 0.159933 -0.516171 -0.841109
0.077275 0.72548 0.06814 0.686439 0.10071 0.719715
-0.142968 -0.125482 -0.005554 -0.97845 -0.032977 -0.195946
0.190601 0.337811 -0.049318 0.959263 -0.223554 -0.161975
0.593625 0.11014 0.066743 0.178484 0.578356 0.789678
0.061931 -0.250615 -0.071862 -0.782484 -0.010206 -0.62238
0.180831 0.300782 0.021015 0.92678 0.023628 0.360211
0.001926 0.621381 0.013545 -0.729854 -0.053191 0.68097
-0.058268 0.420919 -0.127563 -0.184125 -0.112229 -0.975321
0.072796 -0.464559 0.010321 -0.584973 0.03936 0.806624
-0.08346 -0.319182 -0.076689 -0.602811 -0.006738 -0.797389
-0.108236 0.014878 -0.091106 -0.836586 0.014921 -0.547554
0.016315 -0.305459 -0.038586 0.865499 -0.043413 -0.496933
0.083767 -0.49617 0.022206 -0.647772 0.049083 0.759921
0.021878 0.714893 -0.096826 -0.172445 -0.600387 -0.779565
0.086801 -0.813679 -0.09428 -0.832153 0.116223 -0.539002
-0.060924 -0.59163 -0.103592 0.085729 0.012739 -0.995455
0.101424 0.2181 -0.128035 0.326929 -0.364562 -0.870626
-0.089467 0.135959 -0.082493 -0.682934 0.185419 -0.706053
-0.17757 0.371394 -0.001051 0.543304 -0.673013 0.500618
-0.054994 0.14043 0.105443 -0.53052 0.066398 0.844916
0.163755 -0.032587 -0.113139 0.750654 -0.071802 -0.656192
0.188409 -0.759682 -0.000897 0.927495 -0.247033 0.273377
0.063574 -0.696002 0.029398 -0.569491 0.289345 0.7594
0.384277 0.342666 -0.079271 0.706197 0.593483 0.363778
-0.125164 0.035869 0.067958 -0.872749 0.164821 0.458095
-0.020823 -0.346619 0.08886 0.381557 -0.092341 0.916965
-0.004419 -0.579476 -0.072167 0.735431 -0.037189 -0.676261
-0.042974 -0.770342 0.02851 0.139453 0.687581 0.651549
0.174095 -0.735668 -0.003582 0.25351 0.547191 0.786636
0.00339 0.667211 0.069473 -0.715216 -0.540101 0.383599
0.044107 -0.418028 -0.038674 -0.983 -0.013619 -0.180203
0.182051 -0.784144 -0.013349 0.92361 -0.360204 0.118293
-0.131966 -0.545747 -0.050268 -0.89845 0.01612 -0.43618
-0.056624 -0.798845 -0.146789 -0.358062 0.068957 -0.923434
0.005455 0.657418 0.032123 -0.621536 -0.645947 0.422215
0.143766 0.037167 0.108983 0.591452 0.23111 0.770693
-0.098104 -0.861275 0.008675 -0.332213 -0.922745 -0.086238
0.037326 0.002414 0.143581 0.079024 -0.078132 0.982347
-0.361635 0.309861 -0.06258 -0.652359 0.721414 -0.231951
-0.002108 -0.443458 0.051241 0.765822 -0.145151 0.626442
-0.112022 0.252306 0.018212 -0.991578 0.093109 0.080162
-0.538281 0.10002 0.058581 -0.733342 0.678895 0.005021
0.166923 0.202421 -0.060801 0.872951 0.022356 -0.487062
-0.119529 0.098501 0.051504 -0.924557 0.08213 0.367485
0.009035 -0.108063 0.114302 0.577349 -0.294933 0.760489
-0.074049 -0.036427 0.121535 -0.436708 0.020278 0.897821
-0.077053 -0.68778 0.024215 0.338977 -0.368029 0.865803
-0.109571 -0.447375 -0.066378 -0.711642 0.195681 -0.67445
-0.195304 0.431007 -0.09258 -0.159178 0.277577 -0.947217
0.078411 0.838861 0.031355 0.761476 0.377054 0.522522
-0.041048 0.46295 0.08442 -0.187845 0.438603 0.869035
-0.144221 -0.117988 0.005738 -0.998719 -0.008437 -0.042069
0.069905 0.595605 0.012389 0.625856 0.007995 0.779631
0.096931 -0.82585 0.083403 -0.610508 0.740871 0.224672
0.1977 -0.237681 -0.048545 0.835539 -0.165024 -0.521368
0.41751 0.245286 -0.030697 -0.310949 -0.186136 0.890909
-0.176599 0.399648 0.023129 0.152294 -0.411687 0.895185
-0.060613 0.57173 -0.082086 -0.434052 0.659607 -0.611422
-0.023261 -0.147156 0.123625 0.208948 -0.101447 0.972224
0.005114 0.108324 0.13333 -0.20583 0.286141 0.9329
-0.030525 0.597181 -0.062496 -0.551437 0.792925 -0.253888
-0.031532 -0.195764 0.118876 0.180889 -0.142422 0.972999
0.176624 -0.694781 0.008412 0.425194 -0.493843 0.757905
-0.10846 -0.391657 0.08855 -0.62017 -0.167383 0.758887
0.197706 -0.697389 -0.016535 0.991193 -0.031311 0.11133
0.046321 -0.411571 -0.002011 -0.89318 -0.180639 0.401153
0.165138 0.087144 -0.088189 0.765264 0.206791 -0.608639
0.157357 -0.640173 -0.085492 0.517392 -0.180604 -0.8364
0.118331 -0.348707 -0.09937 0.27837 0.063951 -0.956539
0.05983 -0.243848 0.065839 -0.732229 -0.140601 0.666098
-0.1257 -0.542248 0.007891 -0.868517 -0.158295 0.464464
0.210681 -0.051632 0.031698 0.937296 0.069708 0.341307
0.335448 0.326666 -0.041279 -0.083811 -0.1473 0.974862
0.079419 0.74815 0.062875 0.648852 0.133578 0.748751
0.120741 0.442525 -0.14664 0.069006 -0.036142 -0.996535
0.087984 -0.053565 0.123564 0.001724 -0.392773 0.918522
-0.112302 -0.756842 0.000437 -0.73684 -0.077421 0.634168
-0.539604 0.088334 0.088307 -0.172538 0.309314 0.715181
0.033147 0.333988 -0.127146 -0.162679 -0.018705 -0.985019
0.080346 0.417607 -0.143355 -0.221017 0.037626 -0.973668
0.146341 -0.702603 0.017441 0.33633 -0.464637 0.818172
0.175163 -0.400439 -0.07099 0.652088 0.099799 -0.751043
0.115926 0.160305 0.105737 0.524581 0.02883 0.850099
-0.018856 -0.832695 -0.117537 0.49329 -0.857499 -0.122782
-0.112154 0.259897 0.001465 -0.999457 0.027922 0.0136
-0.137451 -0.052773 0.050201 -0.97827 0.038566 0.202265
-0.02424 -0.848125 0.073444 0.981106 0.016773 0.148499
0.200605 0.53395 0.001605 0.253395 0.63743 0.727264
0.035016 -0.143664 0.060096 0.793192 -0.395864 0.453241
-0.112901 0.242352 -0.038815 -0.986819 0.139906 -0.078008
-0.117461 -0.762632 -0.074211 -0.901536 -0.031759 -0.424597
-0.131711 -0.423658 0.035506 -0.935994 -0.036056 0.34958
0.019147 0.554485 0.028471 -0.019572 0.414662 0.908279
-0.087202 0.404721 0.079258 -0.626851 0.004344 0.778859
0.044271 -0.438535 -0.038775 -0.978035 9.9e-05 -0.205449
-0.126727 -0.300397 -0.01832 -0.974177 0.01841 -0.214196
0.189166 -0.117986 -0.065324 0.776005 -0.023951 -0.63004
0.165574 0.3526 0.053829 0.791895 -0.088304 0.604115
-0.126722 -0.36547 -0.028719 -0.97453 0.042314 -0.212576
0.07709 0.051354 0.129904 0.37553 0.12464 0.914182
-0.076332 0.048443 0.10897 -0.521069 0.065584 0.850471
0.084106 0.601687 -0.075548 0.291683 0.704739 -0.644353
-0.041321 -0.498859 0.059347 0.335145 -0.255904 0.905639
0.021602 -0.558595 -0.00517 0.917013 0.050941 0.387353
0.197642 -0.247911 0.052493 0.920274 0.032002 0.387053
-0.55805 0.060068 0.001749 0.023523 0.151302 -0.755309
-0.072234 -0.418805 0.088023 0.112874 -0.215161 0.969282
0.055264 -0.139816 -0.09159 -0.661817 -0.224713 -0.714723
0.128165 -0.247163 0.086632 0.111664 -0.153732 0.981534
0.036655 0.105015 -0.138634 -0.108076 0.313172 -0.940496
-0.135746 0.023677 0.049655 -0.939739 0.153886 0.296179
-0.004132 0.467577 0.087665 -0.02521 0.41186 0.909859
0.106303 0.324242 -0.140386 0.400844 -0.098885 -0.910726
0.125115 0.294499 -0.12839 0.584609 -0.044736 -0.810056
0.308576 0.360525 -0.137756 -0.176728 -0.29779 -0.937267
0.102103 0.549354 0.025479 0.391582 0.635262 0.664345
0.00833 0.349883 -0.127158 0.07246 -0.017926 -0.997136
0.137368 -0.283438 0.082651 0.053058 -0.048514 0.997324
0.503781 0.225841 -0.060074 0.645855 0.747491 -0.140801
0.227688 0.470613 0.015502 0.773149 0.019479 0.633145
0.041996 0.012134 -0.153602 -0.178858 -0.301152 -0.934116
-0.236955 0.377311 -0.097219 0.041169 0.067592 -0.99603
0.610708 0.08579 0.007559 0.300013 0.226141 -0.919392
0.148986 0.249062 -0.09306 0.792002 -0.140055 -0.593463
0.062311 0.474689 0.078844 0.099932 0.392213 0.913088
-0.109097 -0.654386 0.030527 -0.770796 -0.144705 0.617755
0.075548 0.087325 -0.14684 0.066607 0.337239 -0.937661
-0.070053 -0.615372 0.043384 0.437427 -0.192451 0.878206
0.10373 -0.660549 -0.088127 -0.486184 -0.021258 -0.871934
-0.42774 0.185309 -0.053878 -0.105148 -0.029574 -0.956332
-0.087049 0.379285 -0.112031 -0.414421 -0.180833 -0.89163
-0.024902 -0.847335 -0.057444 0.686267 -0.721167 0.059357
0.297376 0.394933 -0.017866 0.401847 -0.032808 0.910974
0.190397 0.127827 0.035228 0.86892 0.028487 0.493408
0.136378 -0.342282 0.079348 0.032071 -0.049493 0.997285
0.155369 -0.740612 0.012591 0.283751 0.774132 0.565306
0.142426 -0.301026 -0.083813 0.590515 -0.00839 -0.806714
0.166487 -0.863168 0.101955 0.219874 -0.965476 0.020195
-0.011868 0.157841 0.12654 -0.394213 0.00243 0.910314
-0.103207 -0.418296 0.085901 -0.672829 -0.227162 0.703402
0.030207 -0.115453 0.091962 0.560499 -0.54443 0.620077
-0.372946 0.247726 -0.081593 -0.09252 -0.283696 -0.9537
-0.134581 -0.411583 -0.014745 -0.958384 0.083125 -0.269854
-0.508838 0.087927 0.075472 0.83495 -0.452375 0.270584
-0.178023 0.520236 -0.052917 -0.629152 0.619118 -0.46873
-0.140849 -0.121022 -0.014316 -0.935595 -0.083222 -0.339784
0.054947 0.862901 -0.045792 0.174389 0.96292 -0.20038
0.176634 0.240695 -0.038432 0.9333 0.017006 -0.358104
0.312443 0.456903 -0.073983 0.724663 0.687901 0.020626
-0.109292 0.288809 0.025713 -0.966698 -0.05776 0.248464
-0.081427 -0.207862 0.11312 -0.208959 -0.039845 0.976898
-0.102196 -0.501056 0.05617 -0.798362 -0.249586 0.547797
0.196384 -0.68223 -0.009171 0.959526 0.025089 0.274326
0.121502 0.083891 -0.130176 0.554649 0.255915 -0.791266
0.166871 0.470506 0.04715 0.635065 0.18412 0.749254
0.344653 0.309346 -0.044157 -0.296128 -0.282344 0.888663
-0.089429 0.563315 0.006477 -0.1077 0.857832 0.497492
0.076543 0.73629 0.067117 0.629139 0.122092 0.767362
0.005337 -0.520649 -0.059716 0.817043 0.05985 -0.573334
0.009634 -0.481457 -0.049874 0.829433 0.043427 -0.555837
0.060578 0.281256 0.120739 0.18602 0.092786 0.977927
0.179735 -0.438621 -0.072866 0.684469 0.179459 -0.706517
0.13956 -0.603071 0.037418 -0.153681 -0.119698 0.977809
0.14925 0.408281 -0.134498 0.344918 -0.268537 -0.898218
-0.108877 -0.278323 -0.049758 -0.818596 0.00623 -0.574228
0.040583 -0.349025 0.001788 -0.939226 -0.126025 0.306938
0.068611 -0.083112 -0.125324 -0.272965 -0.437402 -0.856302
0.003075 -0.223312 0.097696 0.621638 -0.109163 0.773605
-0.068777 0.31605 0.086559 -0.592749 0.018267 0.803382
0.073629 0.4626 -0.139624 -0.368747 0.121459 -0.919751
0.55719 0.094582 0.002145 -0.75206 -0.658853 0.00031
-0.067536 -0.51773 -0.099894 -0.145609 0.109443 -0.982137
0.166023 0.06419 0.088978 0.496407 0.227798 0.81947
0.267476 0.347422 -0.09156 -0.688712 -0.703936 -0.161925
0.203994 -0.254758 -0.024166 0.987594 -0.034252 -0.146101
-0.061471 -0.159483 -0.09766 -0.13325 -0.156581 -0.976533
-0.162391 0.544159 -0.006817 -0.644393 0.760094 0.076181
0.053878 -0.585225 -0.048885 -0.806199 -0.025461 -0.590089
-0.090819 -0.715156 0.013157 -0.27958 -0.522365 0.797811
0.259478 0.393832 -0.137316 -0.33926 -0.1859 -0.918777
-0.125709 -0.618683 -0.003406 -0.919026 -0.062347 0.354519
-0.047215 -0.097385 0.126451 -0.196598 -0.050877 0.979014
0.203555 -0.057661 0.051793 0.88357 0.081055 0.458997
-0.137448 -0.4244 0.006591 -0.996869 0.025818 0.062981
0.088059 -0.328627 -0.094929 -0.445621 -0.004631 -0.893594
0.350395 0.395899 -0.116758 0.876451 -0.214073 -0.392819
-0.099665 -0.826996 0.02381 -0.867244 0.475848 0.12884
-0.25878 0.425732 -0.052668 -0.731068 0.636846 -0.239615
0.240333 0.418108 -0.009953 0.204743 -0.505744 0.823008
-0.054625 0.336636 0.098417 -0.409666 -0.12448 0.903392
0.112964 -0.074924 0.1174 0.026518 -0.318491 0.938071
0.198389 0.368137 -0.05655 0.996254 -0.073656 -0.029232
-0.112273 0.255258 -0.017544 -0.99876 0.037693 -0.007319
-0.011953 -0.8273 -0.122509 0.597241 -0.68937 -0.397824
-0.336114 0.245781 0.007008 0.191452 -0.129668 0.968183
-0.006613 0.231025 0.1224 -0.371082 0.121495 0.92057
-0.012091 -0.025916 -0.136605 -0.079825 -0.256298 -0.962674
-0.173359 0.489708 -0.079316 -0.484817 0.352143 -0.799662
-0.553679 0.052123 0.031699 0.826232 -0.56007 -0.040425
0.183072 -0.485947 0.04974 0.864128 -0.092106 0.489503
-0.381228 0.225496 -0.073718 -0.114506 -0.298066 -0.945365
-0.334501 0.333959 -0.039149 -0.676604 0.735575 0.031753
0.142184 0.438433 0.072822 0.436839 0.135284 0.888043
-0.060066 -0.820668 0.084779 -0.188245 0.933549 0.304382
0.170577 0.168518 -0.057747 0.88749 0.045864 -0.442375
0.078494 -0.34656 -0.087176 -0.680973 -0.05457 -0.729005
0.056982 -0.336919 0.044532 -0.716327 -0.18657 0.671826
0.429886 0.20629 -0.086066 -0.467691 -0.883595 0.007897
0.0758 0.403501 0.096255 0.136463 0.212233 0.967198
0.187717 0.006682 -0.070075 0.83845 0.135101 -0.526484
0.092678 0.517315 -0.133228 -0.104942 0.393243 -0.911609
-0.109057 0.298292 0.027244 -0.957041 0.003598 0.289276
0.114609 -0.869787 0.052894 -0.004137 -0.999642 -0.024199
0.20543 0.407278 -0.081618 0.653127 -0.650535 -0.001758
-0.395548 0.222869 -0.069188 -0.32669 -0.233377 -0.913449
0.119733 -0.391438 0.068494 -0.349379 -0.201464 0.914463
-0.047394 0.014682 -0.136631 -0.259844 -0.281124 -0.921681
0.020041 -0.504933 0.009213 0.851123 -0.065748 0.520003
0.141553 -0.172149 0.099214 0.161685 -0.276968 0.946305
0.095932 0.715612 -0.035571 0.859019 -0.454631 -0.215807
-0.197342 0.362578 0.005048 0.376041 -0.700718 0.596754
0.460534 0.196712 -0.005707 -0.724683 -0.328387 0.538554
0.357986 0.277451 -0.056202 -0.65617 -0.548116 0.516205
0.501266 0.189576 0.005867 -0.319394 0.609549 0.698658
0.1791 0.378825 0.039986 0.789471 -0.151311 0.594206
0.165682 0.043368 0.095375 0.479717 0.207561 0.84614
0.163868 0.134768 0.068788 0.676485 0.15948 0.718273
-0.0251 -0.391574 0.082539 0.341917 -0.223116 0.912455
0.372651 0.355953 -0.110308 0.698281 0.671823 -0.234428
-0.397206 0.185957 -0.041537 0.389319 -0.870047 -0.300765
0.109658 -0.823423 0.095176 -0.218484 0.94611 0.235764
0.578262 0.060957 0.00293 -0.927738 -0.371742 0.02727
0.205104 -0.551092 -0.029046 0.986384 -0.053709 -0.135199
0.067574 -0.405035 -0.071746 -0.728674 -0.025091 -0.683925
-0.322357 0.342543 -0.019618 -0.64002 0.704152 0.294277
-0.117527 -0.780955 -0.071757 -0.94232 -0.052773 -0.325663
0.091072 0.492369 -0.138051 -0.169235 0.256503 -0.950341
0.156857 -0.416198 0.07313 0.003376 -0.085837 0.994082
-0.329508 0.260762 -0.084117 0.0154 -0.478144 -0.877618
0.094643 -0.865756 0.058666 -0.614922 -0.780104 -0.065575
0.295698 0.412419 -0.141884 0.077168 0.296363 -0.948076
0.101006 0.402463 -0.145917 0.006957 0.001789 -0.999736
0.506629 0.181618 0.011077 -0.076805 0.34734 0.868598
0.201411 -0.220666 0.038226 0.952656 0.02773 0.302666
0.263773 0.357163 -0.046995 -0.619949 -0.662999 0.414339
0.271375 0.389332 -0.020458 -0.199269 -0.404279 0.890243
0.01875 -0.059282 0.121382 0.280982 -0.185689 0.928641
-0.019758 0.55007 0.038456 0.041675 0.838562 0.533922
0.099057 -0.674226 0.034664 -0.001639 0.082913 0.994951
0.160622 -0.844451 -0.075919 0.977399 -0.032001 -0.205425
-0.375803 0.273337 -0.083609 -0.326093 0.195264 -0.923335
