0.153804 -0.849327 -0.094378 0.868018 -0.067118 -0.487117
-0.095592 -0.622832 -0.099103 -0.464127 0.100198 -0.879558
-0.014835 0.681438 -0.024184 -0.814798 -0.48208 -0.315938
0.052414 0.016452 -0.157232 -0.14488 -0.319927 -0.934792
0.103707 -0.257381 -0.098686 -0.201826 0.027842 -0.975939
0.05291 0.274958 -0.131912 -0.375469 -0.075008 -0.922721
-0.125684 -0.180529 0.08326 -0.822088 0.007468 0.567654
0.092765 -0.852983 -0.019733 -0.801025 -0.563675 0.14927
0.171477 0.467478 -0.138059 0.162674 0.064952 -0.984186
0.106643 -0.47171 0.039774 -0.662059 -0.043721 0.748029
0.14623 -0.379811 0.075888 -0.012854 -0.064306 0.994888
0.379212 0.316406 -0.048149 0.276823 0.420572 0.863725
0.33785 0.414298 -0.063093 0.765936 0.484135 0.422031
0.126301 -0.614505 0.036208 -0.055148 0.136612 0.986284
0.024097 -0.15541 -0.028521 -0.117851 -0.238249 -0.843319
0.053476 -0.401606 -0.055959 -0.764761 -0.013528 -0.644114
0.162372 -0.198657 0.09159 0.24402 -0.145805 0.957516
-0.009338 -0.304978 -0.06933 0.704353 -0.129944 -0.697597
0.035593 0.865631 -0.038024 -0.033771 0.956978 -0.27054
-0.565392 0.049535 0.052184 -0.950847 0.228545 0.178167
-0.105127 0.380209 0.062011 -0.731775 -0.206671 0.648235
0.009719 -0.792942 -0.094235 0.950802 -0.023118 -0.297042
0.053795 0.771104 -0.116049 0.4075 -0.046669 -0.911087
0.131604 0.017756 0.11813 0.368887 0.22323 0.900979
0.155613 -0.579215 0.04164 0.089317 -0.12451 0.987695
0.08575 0.675001 -0.008028 0.915345 -0.395687 0.018687
-0.067215 0.178341 -0.090047 -0.501508 -0.072932 -0.859798
0.137501 -0.48282 -0.106033 0.211917 0.069135 -0.971907
0.205427 -0.263602 -0.001855 0.999673 -0.000341 -0.023327
0.024945 -0.196523 0.056444 0.95982 0.009093 0.279503
0.117981 0.055943 0.110423 0.33746 0.229441 0.911801
-0.461051 0.135101 0.023469 0.67435 -0.725191 0.13844
0.213855 -0.119888 0.017284 0.99288 -0.062204 0.089878
0.086688 -0.337727 0.068406 -0.427073 -0.222343 0.876303
-0.126356 -0.277719 0.066213 -0.961705 -0.093394 0.251631
0.004304 0.118911 -0.127683 -0.11578 0.368319 -0.921948
-0.119788 -0.056996 -0.0671 -0.845633 -0.119114 -0.520121
0.165297 -0.501067 -0.094867 0.605283 -0.010402 -0.793785
0.183069 0.255368 -0.001587 0.999881 -0.009962 0.002747
0.132527 -0.494361 -0.107976 0.113034 0.042616 -0.992168
0.093859 0.467924 -0.144573 -0.119487 0.090649 -0.988619
-0.018108 0.709024 0.053695 -0.884153 -0.16473 0.43332
-0.096914 0.477361 0.064016 -0.213253 0.169668 0.959733
0.272576 0.504532 -0.061516 0.711363 0.702741 -0.005789
-0.047167 -0.859713 -0.040334 0.203954 -0.978026 0.029588
0.035837 0.458048 -0.127757 -0.135373 0.042473 -0.989425
0.154007 -0.480022 -0.099927 0.441291 0.087803 -0.892994
0.20802 -0.04192 -0.017451 0.972778 0.0094 -0.230953
-0.022983 -0.249473 -0.087205 0.465899 0.015711 -0.883077
-0.50506 0.099128 0.027581 0.211951 -0.805821 -0.535523
-0.072438 -0.050422 -0.116742 -0.463358 -0.324311 -0.821681
0.155193 -0.78272 0.029042 0.453511 -0.254266 0.843624
0.159863 -0.164735 -0.08863 0.571901 -0.075732 -0.814734
0.221495 0.404937 -0.115603 -0.688911 -0.510907 -0.508416
0.019811 -0.346062 -0.029012 0.910164 -0.02554 -0.412566
-0.128191 -0.55083 -0.060673 -0.91675 0.070196 -0.391021
-0.101151 -0.072406 0.105621 -0.608846 0.041632 0.792154
0.122408 0.452769 -0.146604 0.070534 0.025502 -0.996777
0.056608 -0.397047 0.017803 -0.682637 -0.341062 0.646222
0.206934 -0.203116 0.006442 0.997943 -0.047471 0.041901
0.138245 -0.285108 -0.087764 0.540414 -0.06266 -0.837823
-0.271588 0.272033 -0.042205 0.725619 -0.685068 0.048994
0.080869 -0.540066 0.021466 -0.691818 0.018744 0.721747
0.069122 0.154619 -0.121558 -0.007761 0.168618 -0.983206
-0.136971 -0.188305 0.003483 -0.986002 -0.090831 -0.136653
-0.121694 -0.456745 -0.054841 -0.771402 0.13561 -0.621447
0.032786 0.113298 -0.134772 -0.121775 0.403043 -0.9055
-0.084219 0.250031 0.077602 -0.6582 0.045548 0.751202
0.030712 -0.035258 0.130554 -0.361347 -0.226155 0.89914
0.054384 -0.043804 -0.138259 -0.294502 -0.345367 -0.887682
0.062311 0.474689 0.078844 0.099932 0.392213 0.913088
-0.088505 0.452642 -0.123786 -0.346622 -0.038946 -0.935817
0.150678 -0.408734 0.073492 -0.122566 -0.086074 0.986124
0.127748 -0.600943 -0.100799 -0.051465 -0.163094 -0.978131
0.092994 -0.866482 0.103104 -0.501825 -0.863321 0.012425
0.070226 -0.647854 -0.059821 -0.716966 -0.134636 -0.683961
0.587669 0.063402 0.046042 0.772054 -0.330177 0.469522
0.054177 0.651504 -0.062794 0.448139 0.016218 -0.887553
-0.057726 -0.339431 -0.088184 -0.163403 -0.044792 -0.980814
0.008006 0.588679 0.01989 -0.462826 0.122998 0.876763
-0.293635 0.373466 -0.053192 -0.879249 0.448449 -0.116403
0.22105 0.394589 -0.058974 -0.76019 -0.627513 0.148374
0.090556 0.700841 -0.013043 0.946526 -0.295429 -0.011917
0.209169 -0.112078 0.038891 0.945059 -0.016032 0.326455
0.138515 0.45899 -0.144714 0.115028 0.034315 -0.992719
0.045322 0.42942 -0.130809 -0.35064 0.046411 -0.932391
0.098104 -0.601861 -0.089473 -0.591968 -0.092277 -0.797494
0.121673 0.199262 0.101017 0.557659 0.036561 0.828846
-0.135282 -0.549777 -0.038049 -0.990005 -0.0662 -0.101619
-0.345495 0.291303 -0.089833 -0.296521 0.120256 -0.94443
-0.276612 0.40666 -0.054601 -0.671401 0.730406 -0.124957
0.177076 0.28327 -0.041427 0.933453 -0.140752 -0.32939
0.108768 0.406236 0.089817 0.203315 0.127159 0.970726
-0.021782 0.074791 0.127118 -0.331757 0.195066 0.920465
0.156694 -0.500653 -0.099821 0.473612 -0.002825 -0.880303
0.220682 0.41993 -0.00983 -0.158689 -0.821869 0.524927
-0.015644 -0.809007 0.029019 0.871188 0.348319 0.345685
-0.081389 -0.680654 -0.107306 -0.32432 0.077869 -0.940573
-0.025543 -0.78105 0.028899 0.625055 0.5651 0.533327
0.024511 -0.663085 -0.017216 0.896838 -0.18913 0.374172
-0.067374 -0.410065 0.089063 0.132075 -0.169598 0.976344
0.030324 0.738298 0.102695 -0.331721 0.31827 0.862968
0.242831 0.480185 -0.12484 0.35069 0.430891 -0.831445
0.640311 0.023019 0.07699 0.091638 -0.986991 0.0821
-0.064313 0.157654 -0.092899 -0.345849 0.246879 -0.901996
-0.047077 -0.006579 0.137984 -0.334975 -0.054144 0.915299
-0.130013 -0.599546 -0.037274 -0.996734 -0.061472 0.038589
-0.485011 0.167893 0.025764 -0.649874 0.745208 0.130071
-0.506858 0.114554 0.008888 -0.132369 -0.7372 -0.66019
-0.103138 -0.86084 0.096778 -0.630921 -0.728469 0.065031
-0.257447 0.427133 -0.017932 -0.751627 0.624967 0.210845
0.198205 -0.006712 0.057048 0.877291 -0.067104 0.464782
0.185615 0.303917 -0.028772 0.926533 -0.316343 -0.195937
0.095174 0.744596 -0.072387 0.922731 -0.217644 -0.299949
0.011012 0.125725 -0.125791 -0.111461 0.43629 -0.892395
0.189948 0.560586 -0.069465 0.395789 0.845547 -0.32667
0.245609 0.368143 -0.069649 -0.700339 -0.710467 0.058795
-0.282638 0.355221 0.006003 -0.53813 0.167627 0.82221
0.073849 0.573858 -0.104691 -0.056975 0.634022 -0.770517
0.049612 0.401984 -0.134401 -0.358241 0.032585 -0.931293
0.158659 0.282009 0.058723 0.735139 0.014415 0.677204
0.053412 0.565518 0.021732 0.298224 0.183533 0.927807
-0.037915 -0.856081 -0.042404 0.544893 -0.833058 0.061257
-0.039181 -0.748916 -0.126734 0.211511 0.429502 -0.877096
-0.378147 0.296857 -0.038055 -0.716562 0.695641 0.044615
0.105074 0.160936 0.111743 0.488668 0.045619 0.865853
0.050995 0.694344 -0.077934 0.216433 -0.599749 -0.769591
0.088325 0.83129 -0.056669 0.884758 0.420319 -0.176387
-0.129185 0.074394 -0.007432 -0.981981 0.157894 -0.022854
0.457399 0.274293 -0.054384 0.592236 0.71772 0.363624
0.055596 0.70005 0.085174 0.54158 0.00912 0.836889
0.192993 -0.106066 0.073038 0.782504 -0.01808 0.62053
0.030929 0.327276 0.118937 0.042713 0.197275 0.978943
-0.030525 0.597181 -0.062496 -0.551437 0.792925 -0.253888
-0.121676 -0.76004 -0.061745 -0.950801 -0.198026 -0.229083
0.177568 0.194701 -0.038035 0.92815 0.026852 -0.370994
-0.098938 -0.838948 -0.07748 -0.961837 -0.179518 -0.198184
0.111701 0.015287 -0.149083 0.47148 -0.027792 -0.880717
-0.08775 -0.562044 -0.098775 -0.37579 0.057876 -0.923608
-0.027553 0.813877 0.015947 -0.805861 0.216198 0.548662
0.16354 -0.232655 -0.078972 0.539848 -0.127457 -0.831602
0.162306 -0.205871 -0.083212 0.593266 -0.130389 -0.79424
-0.071035 -0.056532 0.122094 -0.364707 -0.03724 0.929517
-0.032987 0.833224 -0.049539 -0.719919 0.622978 -0.291588
0.402217 0.230775 -0.05444 -0.602925 -0.718224 0.345021
0.085014 0.016148 -0.158246 0.145864 -0.129081 -0.980084
0.114399 -0.589912 -0.099615 -0.335805 -0.149051 -0.926997
0.013229 -0.373047 -0.03934 0.750848 0.023752 -0.659749
-0.183906 0.521865 -0.04024 -0.691943 0.659595 -0.288128
-0.530607 0.073625 0.076537 0.20592 -0.854616 0.463119
0.034915 -0.31142 -3e-05 -0.955405 -0.059548 0.28844
-0.328491 0.253047 0.00631 0.164998 -0.07383 0.981323
0.620933 0.057858 0.016926 -0.674308 -0.571618 -0.434745
-0.102323 -0.539463 0.050107 -0.842052 -0.06152 0.535799
-0.042093 -0.695076 -0.110292 0.349324 0.281179 -0.892732
-0.556381 0.06979 0.012132 -0.901511 0.407346 -0.102231
-0.135785 -0.081214 0.061225 -0.945069 0.008927 0.322493
0.162192 -0.707439 -0.073312 0.72948 -0.021981 -0.682664
0.064302 -0.346782 -0.072695 -0.77453 -0.075684 -0.627796
0.183017 -0.505738 0.044642 0.83269 -0.141163 0.534405
-0.415655 0.221333 0.014097 -0.148543 0.247613 0.953629
0.205399 -0.301157 -0.008406 0.991607 -0.009876 -0.123847
0.510444 0.158809 -0.030303 -0.581339 -0.78389 -0.199263
0.173086 0.248169 -0.048164 0.90924 0.019933 -0.413537
0.205111 -0.181878 0.027755 0.970619 -0.014786 0.232109
0.205328 0.471178 0.02381 0.511738 0.097115 0.851275
-0.018631 -0.216125 -0.084108 0.533609 0.013637 -0.845415
0.185488 0.425175 -0.130421 0.199327 -0.346849 -0.916381
-0.114494 -0.367256 0.084883 -0.777045 -0.006068 0.626973
0.252589 0.432072 -0.138072 -0.141073 0.113966 -0.979745
-0.046991 -0.833862 0.129193 0.443614 0.82482 0.308464
-0.135598 -0.24049 0.028702 -0.998974 -0.042522 0.008596
-0.393502 0.190098 0.013366 0.567138 -0.419181 0.634898
-0.393766 0.239381 0.011194 -0.037558 0.185891 0.98123
0.105162 0.790083 -0.024198 0.996575 0.053809 -0.000296
0.387677 0.342053 -0.090754 0.698286 0.709663 0.059406
0.080067 0.333079 -0.143558 -0.139386 -0.046262 -0.988027
0.02614 0.493989 -0.123253 -0.090184 0.051403 -0.992702
-0.109053 -0.304407 -0.050438 -0.802767 0.034286 -0.595265
0.209583 -0.14002 0.024788 0.962852 -0.217564 0.156974
0.027381 -0.638527 -0.021158 0.99435 -0.029829 0.077074
0.084106 0.601687 -0.075548 0.291683 0.704739 -0.644353
-0.398867 0.267531 -0.067214 -0.86473 0.348537 -0.357531
0.150152 -0.570843 0.042736 0.008467 -0.119952 0.99242
-0.411454 0.175018 0.021803 0.584415 -0.489061 0.549919
0.06028 -0.658037 -0.044998 -0.83459 -0.159638 -0.526662
0.043679 0.384649 -0.132231 -0.402903 -0.007254 -0.912845
0.105996 -0.05979 0.120997 0.10744 -0.174583 0.975235
-0.120826 -0.497777 0.02816 -0.81019 -0.241753 0.533923
0.202537 -0.177119 0.036548 0.947101 -0.04892 0.316424
0.142422 0.581764 -0.062537 0.255351 0.95446 -0.091948
0.193176 0.503454 0.020908 0.308993 0.269616 0.910999
0.02579 0.159362 -0.117682 -0.101903 -0.049248 -0.99285
0.197645 -0.534265 0.007674 0.952498 -0.044616 0.301067
0.055788 0.782931 -0.115332 0.391996 0.025152 -0.9186
0.103567 0.563152 0.010596 0.321282 0.712981 0.60627
0.010109 0.036521 -0.151614 -0.162716 0.161255 -0.972454
-0.048196 -0.76334 0.021302 0.218247 0.668007 0.705903
0.099057 -0.674226 0.034664 -0.001639 0.082913 0.994951
-0.068622 -0.115596 0.120883 -0.211302 -0.034252 0.97667
-0.010608 0.381968 0.106379 -0.00424 0.063808 0.997887
0.074149 -0.729635 0.034562 0.004851 -0.200951 0.96957
0.05856 -0.287608 -0.067571 -0.81529 0.002413 -0.578961
0.010028 -0.659876 -0.065909 0.583936 0.175443 -0.792358
-0.109292 0.288809 0.025713 -0.966698 -0.05776 0.248464
0.139259 -0.058415 0.112509 0.315148 -0.006282 0.948544
0.109451 0.072027 0.112798 0.50994 0.137878 0.848524
-0.206946 0.451561 0.036085 -0.554694 0.270568 0.786184
-0.02492 0.052378 -0.141503 -0.227598 0.278519 -0.932628
-0.00242 0.175782 0.129002 -0.151399 -0.001911 0.986447
-0.124554 0.083264 -0.039337 -0.940154 0.109741 -0.321779
-0.178522 0.418158 -0.09541 0.048621 0.050059 -0.996235
0.181672 0.203607 -0.025247 0.978313 0.027979 -0.195114
0.184901 0.370655 0.026942 0.894746 -0.168138 0.412775
-0.044771 -0.454442 -0.092754 0.211483 0.149896 -0.963419
0.055012 0.337345 -0.135349 -0.39352 -0.028287 -0.918856
0.047025 0.657662 -0.064655 0.189294 -0.102551 -0.975481
-0.425458 0.16395 0.024953 0.522039 -0.79486 0.295983
0.548282 0.112258 0.003972 -0.948945 -0.3143 0.022893
0.151799 0.075897 -0.107247 0.678567 0.240406 -0.69199
-0.042145 0.373585 0.105171 -0.22105 0.063813 0.968609
0.622336 0.074889 0.018689 0.858549 0.482554 -0.162398
0.149904 -0.841731 0.169895 0.640076 0.660677 0.360109
0.21207 0.43659 0.019015 0.574328 -0.288938 0.75737
0.176383 0.473179 0.038698 0.586499 0.255978 0.766953
0.199846 -0.603811 -0.03226 0.997331 -0.063062 -0.031614
0.188581 -0.730168 -0.036789 0.696818 -0.218598 -0.667972
0.454213 0.21923 -0.087162 0.702749 -0.264005 -0.659736
-0.129187 0.405053 -0.070868 -0.881419 -0.376027 -0.24551
-0.206883 0.48665 -0.050891 -0.695619 0.516104 -0.498736
0.172437 0.309338 -0.069776 0.840138 -0.291987 -0.456138
0.106388 0.752021 -0.008401 0.95697 0.226185 0.168483
0.150553 0.427823 0.069592 0.677283 0.10723 0.727531
-0.108675 -0.698182 -0.090487 -0.70201 -0.060138 -0.708925
-0.40545 0.214956 0.014982 0.1587 0.186415 0.963585
0.045126 0.145352 0.130906 0.126117 0.016502 0.991692
0.191328 0.060232 0.058163 0.795496 0.3232 0.510663
-0.123017 0.406424 0.049664 -0.785416 -0.448779 0.411609
0.170577 0.168518 -0.057747 0.88749 0.045864 -0.442375
0.571853 0.086552 0.058804 -0.752867 -0.312056 0.558068
-0.135239 -0.220512 0.054072 -0.988233 -0.052523 0.14111
0.315512 0.428793 -0.124896 0.473881 0.636208 -0.608704
-0.106941 -0.550969 0.040313 -0.850743 -0.093106 0.516551
0.097504 -0.721439 -0.087502 -0.697357 0.017043 -0.707874
0.201604 -0.02319 0.05314 0.890146 0.065418 0.450429
0.177666 -0.229079 -0.070311 0.588487 -0.043336 -0.806675
-0.059665 -0.147604 -0.099824 -0.125843 -0.178264 -0.971229
0.099735 0.74345 -0.049045 0.969436 -0.155396 -0.189001
0.155243 -0.294652 -0.0745 0.583017 -0.038414 -0.811231
0.127706 -0.152837 -0.108924 0.278775 -0.203619 -0.937042
0.162906 -0.838767 0.098688 0.759645 0.648136 0.045387
0.188313 -0.407545 -0.057685 0.79091 0.023299 -0.610953
0.119546 -0.867713 0.01346 -0.051704 -0.993023 -0.096618
-0.029988 0.105452 0.121743 -0.425069 0.183571 0.885364
-0.00976 -0.803055 -0.134167 0.709128 -0.122904 -0.692435
0.143364 -0.865589 0.00868 0.19331 -0.977278 -0.068215
-0.191922 0.481554 0.038274 -0.661489 0.212947 0.718635
0.018864 -0.630812 0.003695 0.802151 -0.045824 0.593067
-0.1282 -0.150989 0.078702 -0.887733 0.019233 0.45845
-0.105616 -0.818875 -0.063095 -0.874819 -0.459186 -0.030788
-0.119813 0.312754 -0.031483 -0.996402 -0.083221 0.013422
0.029927 0.547356 -0.114116 -0.089663 0.381158 -0.919898
0.02146 0.056159 -0.148661 -0.214777 0.297698 -0.930014
0.048113 -0.135364 -0.0864 -0.649966 -0.302722 -0.694521
-0.015218 0.602032 -0.071172 -0.399754 0.73981 -0.53818
0.148883 0.549469 -0.109712 0.251197 0.653315 -0.713781
0.129721 0.399048 -0.140575 0.363949 -0.174862 -0.914421
0.149809 -0.723625 -0.08516 0.701928 0.039511 -0.710744
0.186537 0.087521 0.054409 0.897378 0.154813 0.410269
-0.018868 -0.46403 -0.080884 0.664609 0.103327 -0.732802
-0.071101 0.3372 0.087095 -0.519745 -0.15402 0.840005
0.171983 -0.674413 -0.066377 0.683244 -0.20884 -0.699012
-0.114543 -0.60594 0.021407 -0.90106 0.042945 0.428416
-0.107197 0.05275 -0.082315 -0.804088 0.184378 -0.561881
0.05498 0.191864 -0.115784 -0.239947 -0.030902 -0.960734
-0.331334 0.336026 -0.027994 -0.682491 0.720491 0.112711
-0.147507 0.389985 -0.032305 0.743739 -0.665265 -0.05792
-0.015318 0.295922 -0.131334 0.020356 0.034311 -0.999053
-0.040419 0.331641 -0.127566 -0.205055 0.008783 -0.976846
-0.00708 -0.155197 -0.077339 0.732402 -0.095443 -0.673719
0.179384 0.219025 0.036226 0.932234 0.129287 0.334702
0.190004 -0.28828 0.064276 0.841429 -0.029682 0.52663
0.415935 0.314555 -0.095124 0.692589 0.713004 -0.093355
0.017153 -0.264617 -0.04348 0.870896 -0.085559 -0.47815
0.395778 0.256785 -0.036724 -0.361249 -0.129599 0.912399
0.2062 -0.024958 -0.025566 0.972042 0.023135 -0.231221
-0.134253 -0.4284 0.026609 -0.96544 -0.02366 0.252951
0.143251 -0.664615 0.029554 0.142839 -0.158438 0.976863
0.019313 -0.487547 -0.032063 0.92007 0.025921 -0.389411
0.203944 -0.078624 -0.036462 0.93367 0.067392 -0.351058
0.191024 0.382389 -0.0987 0.696573 -0.486871 -0.522068
-0.105567 -0.561353 0.041195 -0.878948 -0.060147 0.472188
-0.560629 0.050934 0.074315 -0.467192 -0.567429 0.502944
-0.02884 -0.397776 -0.076135 0.431518 0.079701 -0.894265
-0.039121 -0.841991 0.127714 0.866358 0.252311 0.420509
-0.007258 0.597004 0.0063 -0.695653 0.209803 0.684062
0.01457 -0.184897 -0.051098 0.831764 0.066583 -0.550993
0.150766 -0.625312 0.028272 0.346767 -0.184477 0.914283
-0.388049 0.284763 -0.024905 -0.681361 0.697973 0.21221
-0.14013 0.007005 0.018659 -0.955992 -0.286461 -0.033263
0.146962 0.418622 0.073297 0.531481 0.084434 0.842367
-0.08262 0.493635 0.061911 -0.259014 0.418612 0.869195
0.091747 0.32733 0.104165 0.259324 0.091927 0.961241
0.044 -0.509228 -0.029605 -0.996795 -0.009305 0.018902
0.092948 0.289338 -0.140113 0.114194 -0.06987 -0.990974
0.087911 -0.497563 -0.093169 -0.593661 -0.022831 -0.803209
-0.140009 -0.108433 0.046008 -0.945343 0.001551 0.325917
0.004229 -0.666754 -0.071596 0.535166 0.192861 -0.822
0.103305 -0.785392 0.045895 -0.144904 0.593894 0.783646
-0.070574 -0.637866 0.038085 0.390418 -0.248066 0.886382
0.02244 -0.405874 0.004215 0.975273 -0.18411 0.113096
-0.0651 -0.362208 0.098329 0.139934 -0.16965 0.975479
-0.017239 0.81728 0.034806 -0.826053 0.362399 0.427926
0.044054 0.869667 -0.023893 0.1217 0.969578 -0.176618
0.086585 0.142055 0.120873 0.338429 0.06105 0.938421
0.03686 -0.119467 0.081196 0.641543 -0.576308 0.496313
-0.024403 0.764067 0.040104 -0.860014 0.141246 0.489777
0.02054 -0.285086 -0.031607 0.949531 -0.065777 -0.305314
0.043484 0.58639 -0.095437 -0.010759 0.560008 -0.828137
0.051883 -0.262755 0.053581 -0.804067 -0.101372 0.58355
0.063353 0.680636 0.080527 0.61933 0.114367 0.775524
0.04229 -0.35943 -0.037519 -0.876795 -0.038993 -0.474656
0.34777 0.385491 -0.116369 0.94692 0.135696 -0.152564
0.089509 -0.171894 0.094166 -0.43579 -0.131794 0.889871
0.393078 0.293995 -0.128683 0.170279 0.100946 -0.972173
-0.041998 0.28452 -0.12749 -0.323757 -0.025456 -0.942035
0.196553 -0.264007 0.054789 0.896909 -0.058496 0.437763
0.065147 -0.70992 -0.03625 -0.801212 -0.283559 -0.526349
-0.570956 0.038927 -0.001246 -0.967718 0.24039 -0.053614
-0.001897 0.371207 -0.128649 0.065249 -0.019564 -0.997525
-0.053411 0.374818 0.100807 -0.444517 0.087075 0.891315
-0.19197 0.480807 -0.071518 -0.549508 0.454428 -0.700183
0.18106 0.276257 -0.027675 0.969226 -0.056953 -0.231783
0.021784 -0.744558 -0.0516 0.98035 -0.173592 -0.044073
0.049048 -0.528802 -0.011555 -0.829055 0.006236 0.558505
0.200771 -0.485995 -0.009882 0.98467 0.122191 0.115589
-0.073924 -0.815757 0.06348 -0.386588 0.749169 0.502037
0.199184 -0.004434 -0.044882 0.950407 0.074091 -0.301584
0.063141 0.250253 0.122464 0.251008 0.060843 0.966014
-0.112062 0.271628 -0.003097 -0.999679 0.000733 0.023809
0.058819 0.620097 0.021849 0.599814 -0.197668 0.774785
-0.048951 0.263087 -0.122906 -0.502699 -0.091259 -0.859514
-0.014147 -0.678093 0.025133 0.190378 -0.0418 0.97299
-0.04001 0.550775 0.033332 -0.201067 0.7017 0.683244
-0.035748 0.519346 -0.120318 -0.109117 0.302853 -0.945981
-0.012032 0.791781 0.060417 -0.892415 0.177262 0.413411
0.179312 0.073669 -0.071885 0.817567 0.193455 -0.542072
-0.134879 -0.206211 0.058552 -0.975772 -0.034779 0.207256
0.01458 0.148898 -0.115069 -0.147209 0.215929 -0.961231
-0.054816 -0.537109 0.055596 0.373734 -0.17273 0.911215
-0.118086 -0.474427 0.044312 -0.822331 -0.267219 0.502239
0.196935 -0.640289 -0.050514 0.925075 -0.079075 -0.345282
0.194147 -0.36822 0.040715 0.932171 -0.062014 0.356499
0.193329 0.068252 -0.047598 0.915286 0.124026 -0.38283
-0.021981 0.706028 0.038705 -0.962821 -0.194174 0.179064
-0.491165 0.160616 -0.008794 -0.789094 0.610451 -0.062566
0.172029 -0.198015 0.088915 0.381977 -0.11627 0.916143
-0.110568 -0.812054 -0.03642 -0.849472 -0.513598 0.115807
-0.037273 0.315636 -0.128505 -0.185775 0.033694 -0.981169
0.126423 -0.503352 0.050809 -0.53014 -0.122739 0.83849
-0.044473 -0.775704 -0.139786 -0.025612 0.439699 -0.894017
-0.027587 0.525879 0.056143 -0.147609 0.539879 0.828215
0.360498 0.320603 -0.044583 0.217082 0.277859 0.934805
0.006572 -0.367633 0.063494 0.794043 -0.163087 0.584898
-0.000299 -0.488135 0.038551 0.66647 -0.226691 0.709915
0.033857 -0.046071 -0.129814 -0.263004 -0.487712 -0.832089
-0.104681 0.352124 -0.094134 -0.653585 -0.197977 -0.730154
0.031468 0.37184 0.107977 0.0476 0.199027 0.977979
-0.08637 -0.025901 0.113583 -0.536556 0.051083 0.841979
-0.08446 -0.107151 -0.093841 -0.563816 -0.159159 -0.808511
-0.114607 0.449888 0.062224 -0.150008 0.026791 0.987718
0.019194 0.863678 0.013428 -0.091472 0.994067 0.047933
-0.083933 0.307514 0.076435 -0.631094 -0.029827 0.768972
-0.124027 -0.298885 0.07009 -0.9701 -0.120437 0.209483
-0.071443 0.231708 0.088478 -0.547548 0.068098 0.832961
0.04644 -0.395459 -0.04709 -0.880836 0.025729 -0.462738
0.513139 0.189487 0.01729 -0.476308 0.022938 0.800425
0.098948 -0.458955 0.033302 -0.68217 -0.077064 0.724842
0.503456 0.162783 -0.0128 -0.606773 -0.794679 0.005082
0.203638 -0.007854 0.044902 0.928476 0.032143 0.366043
0.06574 0.862886 -0.018157 0.371135 0.923647 -0.030867
-0.133693 0.040891 -0.026627 -0.95926 0.158568 -0.230057
0.114531 0.58524 -0.028237 0.40145 0.785702 0.467038
0.187116 0.327587 -0.051056 0.856976 -0.357078 -0.371543
0.199879 -0.196587 0.043612 0.951651 -0.024906 0.305726
-0.037671 0.145687 -0.10535 -0.238646 0.392009 -0.885012
0.107996 0.201147 -0.115961 0.445572 -0.374153 -0.811032
0.329632 0.292422 -0.078679 -0.672417 -0.722152 0.156921
-0.039793 -0.793769 -0.149968 0.004484 0.274762 -0.952592
0.087519 -0.758797 -0.071434 -0.80943 0.133608 -0.570913
0.10722 -0.779027 0.039738 -0.009384 0.787704 0.608282
0.196858 -0.708303 -0.028008 0.973289 -0.010029 -0.200592
0.15795 -0.339054 -0.072632 0.635413 0.012568 -0.772017
-0.047976 -0.855181 -0.134235 0.150747 -0.675462 -0.707059
0.188223 -0.044895 0.075397 0.767027 0.029182 0.640894
0.068519 0.216702 0.12432 0.342404 0.09699 0.934502
0.026855 0.381302 0.106211 0.056747 0.181229 0.981408
0.150324 0.189672 -0.082481 0.742875 0.06049 -0.666096
0.077595 -0.767281 -0.05819 -0.847133 0.224677 -0.480699
-0.070526 0.571637 -0.074364 -0.467521 0.7315 -0.492241
-0.100571 -0.525693 -0.088191 -0.557917 0.110601 -0.82202
-0.106709 -0.503539 -0.079593 -0.628002 0.128323 -0.766478
0.302736 0.43215 -0.027738 0.615433 0.326721 0.708867
0.079719 0.787796 -0.099184 0.687536 0.079661 -0.721334
0.065931 -0.125819 -0.104019 -0.514104 -0.221737 -0.82828
0.232385 0.436013 0.006558 0.544483 -0.346041 0.745834
-0.031084 -0.1247 -0.100923 0.39292 -0.22789 -0.890833
0.120451 -0.402363 0.066815 -0.316071 -0.201869 0.926188
0.026247 -0.685603 -0.036512 0.985865 -0.068989 0.125168
-0.115428 0.395196 -0.097785 -0.689212 -0.248479 -0.6781
0.088198 -0.693439 0.035923 -0.096499 0.088202 0.989626
0.189638 0.172786 0.019216 0.964509 0.187118 0.171991
-0.09449 0.428044 0.071323 -0.640598 0.096036 0.761632
-0.005077 -0.107535 -0.090909 0.620997 -0.40195 -0.668931
0.154108 0.119801 -0.088406 0.74777 0.218726 -0.625834
-0.085872 -0.766003 -0.117007 -0.708502 0.18703 -0.676904
0.025974 -0.486396 -0.016683 0.96114 0.051424 -0.253037
0.134174 -0.809743 0.059782 0.386711 0.726271 0.562489
-0.060341 0.23085 0.095289 -0.557539 0.093824 0.823507
-0.036626 0.4442 0.090944 -0.172844 0.251942 0.950607
-0.0317 0.020905 0.133576 -0.314321 0.216777 0.923251
-0.093534 0.497246 0.0587 -0.078212 0.301631 0.949482
0.168295 0.172645 0.059591 0.731268 0.086785 0.676085
0.160154 -0.750576 -0.073989 0.863971 0.133411 -0.480977
-0.085997 -0.14791 0.115175 -0.295324 0.013711 0.95523
-0.245669 0.44501 -0.038418 -0.760434 0.643373 -0.082364
0.196526 0.07877 0.028942 0.903614 0.387282 0.177554
0.157253 -0.858329 0.168881 0.726265 -0.384495 0.497933
-0.122894 -0.224269 0.085893 -0.861304 -0.044678 0.506119
-0.021535 0.817115 0.023775 -0.866823 0.261246 0.423136
0.102507 0.596909 -0.040806 0.587362 0.770804 0.229612
-0.074068 -0.012577 0.123259 -0.420822 -0.429745 0.7828
-0.037852 0.787254 -0.034911 -0.995272 0.076332 -0.041884
0.127339 -0.178376 -0.105533 0.205718 -0.10385 -0.97009
0.152574 0.227796 -0.082315 0.801468 -0.11861 -0.58588
0.010762 -0.486389 0.027206 0.775169 -0.155125 0.612143
-0.121857 -0.041394 -0.066889 -0.853454 -0.087288 -0.513394
0.232136 0.465726 -0.132112 0.157802 0.246241 -0.952849
0.170719 -0.270879 -0.067017 0.579833 -0.197011 -0.790432
-0.032896 -0.617756 -0.095137 0.475306 0.016206 -0.879182
-0.236765 0.434528 -0.071452 -0.529059 0.544873 -0.649725
-0.127251 0.141427 -0.016698 -0.97523 0.096366 -0.188497
0.177738 -0.204949 -0.0713 0.592493 -0.10484 -0.798377
0.175939 -0.360112 0.070673 0.232304 -0.099997 0.966959
0.634708 0.044059 0.097189 0.930293 0.250762 0.229614
-0.224429 0.339482 -0.076797 0.497782 -0.658859 -0.561412
0.17457 -0.165912 -0.075954 0.707419 -0.05095 -0.704669
-0.128279 -0.337218 0.008172 -0.99993 -0.004266 0.003438
0.216977 0.472081 0.018542 0.283635 0.012207 0.954981
0.190416 0.018669 -0.064802 0.903766 -0.018277 -0.423227
-0.110269 -0.739572 -0.00914 -0.33523 0.314938 0.87692
0.213332 -0.068848 0.025612 0.987422 0.037473 0.142591
0.197608 0.113091 0.013974 0.955465 -0.236471 0.159872
0.090422 0.138792 -0.123138 0.215767 0.328236 -0.918141
0.049234 -0.583924 -0.016536 -0.904251 -0.095459 0.416027
0.216287 0.404441 -0.101555 -0.823449 -0.489928 -0.1565
0.083102 -0.434047 0.027485 -0.672909 -0.354409 0.648768
-0.189228 0.51909 -0.031684 -0.70677 0.682802 -0.181863
-0.344567 0.229436 0.005247 0.372716 -0.398214 0.825338
-0.024739 -0.407848 0.078556 0.439541 -0.198989 0.873746
0.035925 0.156015 0.13145 0.041749 0.058329 0.996954
-0.040079 -0.863925 0.052514 0.051168 -0.998593 -0.004738
0.087443 -0.293274 -0.094513 -0.362613 0.018267 -0.923318
0.143455 -0.356881 -0.085245 0.611544 0.079887 -0.786882
-0.080646 -0.403568 0.091665 0.10843 -0.210888 0.969879
-0.045378 -0.26092 0.108506 0.204953 -0.220478 0.953472
0.063623 0.131657 0.129071 0.151307 0.023719 0.987333
-0.108218 0.063161 -0.077701 -0.826217 0.123671 -0.54933
-0.080097 -0.668356 -0.106999 -0.236044 0.029478 -0.969241
0.02449 -0.356047 0.031654 0.938072 -0.158133 0.303676
-0.105058 -0.838419 0.067923 -0.709533 0.698556 0.091266
-0.030064 0.276341 0.11118 -0.351054 0.027767 0.934682
-0.540185 0.095723 0.078231 -0.725607 0.654341 0.202656
-0.089374 -0.8264 0.077377 -0.444074 0.871225 0.161708
-0.1363 -0.223053 0.034796 -0.999063 -0.034326 0.019861
0.190428 0.138786 -0.022376 0.81977 0.041745 -0.567722
0.043686 -0.339745 0.020895 -0.976069 -0.077811 0.197547
-0.173359 0.489708 -0.079316 -0.484817 0.352143 -0.799662
-0.095544 -0.659891 -0.101335 -0.502162 -0.021293 -0.864298
0.006215 -0.082825 -0.096215 0.367249 -0.632314 -0.676317
0.081779 0.122523 -0.130655 0.151417 0.399424 -0.900527
0.160504 -0.406764 -0.082828 0.551901 0.094619 -0.827823
0.164328 -0.825786 -0.036434 0.769667 -0.638017 0.021533
-0.004846 0.741597 -0.101968 -0.524842 -0.415056 -0.74239
0.064752 -0.312078 0.059476 -0.720599 -0.0866 0.687899
-0.125113 -0.524204 0.013864 -0.845021 -0.123701 0.519629
-0.050272 0.185367 0.104126 -0.485544 0.030046 0.873367
0.392542 0.247544 -0.117321 -0.593317 -0.542525 -0.591146
-0.139024 -0.174737 0.00167 -0.948124 -0.215828 -0.226629
-0.03742 0.78959 -0.021747 -0.994581 0.07294 0.070959
0.027817 -0.191356 0.044605 0.968355 -0.03004 0.242964
-0.120173 0.48309 -0.10676 -0.436955 0.18589 -0.878691
-0.206658 0.33826 -0.03013 0.615236 -0.780135 0.099288
0.208849 -0.148736 -0.014527 0.966844 -0.247671 -0.045672
-0.042974 -0.770342 0.02851 0.139453 0.687581 0.651549
0.071288 -0.756219 -0.040836 -0.855932 0.238294 -0.456483
0.059177 -0.43227 0.0047 -0.634188 -0.222741 0.739616
0.125026 0.262584 -0.12574 0.633314 -0.12155 -0.763825
-0.030975 0.031058 -0.144737 -0.148432 0.076653 -0.985114
-0.016625 -0.773338 0.002145 0.684631 0.552177 0.471868
0.005882 -0.172101 -0.06182 0.774275 0.04224 -0.631095
0.090639 -0.840812 -0.094614 -0.976837 0.021648 -0.20895
0.015472 0.804219 0.075886 -0.340022 0.395315 0.853189
-0.027148 0.084264 -0.133222 -0.256536 0.314713 -0.912888
0.017459 0.284106 0.123423 -0.093854 0.14338 0.984447
-0.115627 0.321257 0.004277 -0.976267 -0.05645 0.208057
0.094369 -0.611353 0.027804 -0.429321 -0.000959 0.896566
-0.074047 -0.863493 0.014719 -0.020283 -0.999661 -0.014126
-0.012679 -0.767032 -0.119036 0.644851 0.436347 -0.625752
0.500503 0.214889 -0.067269 0.171193 -0.289334 -0.925686
0.052277 0.4389 -0.133762 -0.399348 0.014734 -0.91513
0.047772 -0.369661 -0.047792 -0.851632 -0.00827 -0.523359
-0.127162 -0.399811 0.04866 -0.959196 0.095106 0.259265
-0.139817 -0.138179 0.046157 -0.948586 -0.014275 0.315815
-0.088619 -0.80748 0.03342 -0.843197 0.393865 0.363138
0.036174 -0.301646 0.003619 -0.820889 -0.051563 0.513095
0.012122 -0.472222 0.028714 0.797611 -0.111896 0.592073
-0.021477 0.425695 0.098496 -0.102873 0.241887 0.963794
0.039315 -0.203617 0.023654 -0.975866 -0.098285 0.194846
0.019608 -0.168392 0.078905 0.943568 -0.107895 0.308333
-0.107066 -0.702004 0.011351 -0.721891 -0.410374 0.55403
0.061011 -0.500214 -0.066655 -0.738622 -0.025677 -0.673473
0.007747 0.816843 -0.106376 -0.317246 0.579746 -0.747358
-0.111696 0.354277 -0.087644 -0.741493 -0.207137 -0.637508
0.0734 0.704862 -0.071741 0.600782 -0.551574 -0.574383
-0.082458 0.431372 0.080216 -0.586402 0.128621 0.799272
-0.26098 0.285336 -0.030665 0.70635 -0.673087 0.214892
0.026602 -0.341834 0.027281 0.987668 -0.065104 0.135315
-0.049043 0.589577 -0.055948 -0.260383 0.948857 -0.093199
0.310932 0.330137 -0.126969 -0.447447 -0.522197 -0.724124
0.137468 0.066956 0.104438 0.456222 0.225131 0.82952
0.13178 0.341981 -0.129018 0.580295 -0.157267 -0.799014
-0.136337 -0.409349 -0.003457 -0.991417 0.090668 -0.078956
0.074799 -0.72704 -0.045568 -0.903954 -0.130545 -0.406294
0.095362 -0.374123 -0.097164 -0.4368 -0.060099 -0.893439
0.561299 0.093315 0.038292 -0.829007 -0.514272 0.213675
-0.173364 0.534346 -0.030011 -0.627063 0.766827 -0.13255
-0.081423 0.19172 0.086085 -0.627533 0.011594 0.77826
0.568457 0.095378 0.055792 -0.788269 -0.151677 0.58188
-0.128328 0.118139 0.020485 -0.972992 0.073414 0.213974
-0.023787 -0.315675 0.093693 0.28904 -0.067193 0.951416
0.110805 -0.767856 -0.098039 -0.469921 0.385783 -0.789514
0.082392 0.843602 0.009493 0.871628 0.475475 0.107559
-0.075111 -0.863793 0.093678 -0.043934 -0.998946 0.008777
0.166976 -0.159963 -0.083664 0.622321 -0.087956 -0.773744
0.163524 0.303411 0.054551 0.652692 -0.005672 0.757314
0.174869 -0.810518 -0.031785 0.931437 -0.353348 0.04644
-0.036539 -0.371266 0.089893 0.206563 -0.149094 0.966691
0.015994 -0.249672 -0.04798 0.855989 -0.081027 -0.50977
-0.001523 0.468671 -0.127881 0.129967 0.046877 -0.990324
0.154124 0.215859 -0.077868 0.791107 -0.069748 -0.606673
-0.069796 -0.703366 0.016169 0.252777 -0.329017 0.909755
0.160622 -0.844451 -0.075919 0.977399 -0.032001 -0.205425
0.088699 -0.419428 -0.091383 -0.584025 0.00109 -0.808987
-0.131203 -0.387646 -0.010075 -0.955069 0.271439 -0.092998
-0.089085 -0.830726 0.108493 -0.46617 0.860522 0.139525
0.000853 0.6871 0.07162 -0.747654 -0.056095 0.6606
0.398964 0.295728 -0.044217 0.206065 0.352631 0.911294
-0.116636 0.356252 0.023283 -0.938185 -0.20414 0.278665
0.153893 -0.652071 -0.08509 0.533874 -0.155492 -0.830966
0.064642 -0.186891 -0.087726 -0.63321 -0.220237 -0.73895
-0.388261 0.280162 -0.069907 -0.652313 0.608585 -0.450396
0.201622 0.559001 -0.045687 0.257759 0.958617 0.041492
-0.133451 -0.453718 -0.03637 -0.897479 0.143109 -0.410623
0.009393 0.470537 0.086131 0.032568 0.484899 0.873123
-0.020112 -0.801956 0.036225 0.924365 0.274787 0.263993
0.089205 -0.253537 -0.092925 -0.450763 0.043185 -0.891391
0.018569 0.761411 0.077193 -0.745513 -0.059942 0.624469
0.187456 0.130699 -0.028693 0.847817 0.20014 -0.488599
0.614973 0.059239 0.029986 -0.742695 -0.639248 -0.186444
0.586544 0.053785 0.041427 -0.039802 -0.6098 0.634075
0.016082 -0.725496 -0.019885 0.858262 -0.003773 0.507684
-0.128095 -0.208258 -0.018472 -0.907679 -0.100161 -0.406732
-0.103582 -0.626992 -0.095084 -0.550349 0.075971 -0.829956
0.08603 -0.017109 -0.154456 0.036277 -0.23446 -0.971165
0.236379 0.478559 0.006083 0.585348 -0.029823 0.807498
-0.112379 -0.701236 0.00185 -0.849764 -0.391012 0.344305
-0.167753 0.376434 -0.062577 0.661474 -0.6842 -0.306641
-0.136374 -0.030124 0.048208 -0.984648 0.069194 0.153357
-0.028518 -0.626515 -0.092678 0.538415 0.002805 -0.841764
0.155353 0.039563 0.100435 0.457005 0.308872 0.831856
-0.103415 -0.725212 -0.004468 -0.668469 -0.337975 0.653452
0.020152 -0.107536 0.105506 0.541181 -0.379107 0.744638
-0.121675 0.391336 0.037026 -0.942323 -0.249056 0.218604
0.197004 -0.554975 0.006941 0.945233 0.011221 0.326023
-0.113284 0.506598 -0.103731 -0.440084 0.355371 -0.814959
0.027392 -0.598662 -0.024697 0.994474 0.036142 -0.059696
0.055707 -0.1924 -0.076897 -0.746109 -0.22091 -0.62749
0.079113 -0.749013 0.024069 0.074226 -0.378018 0.917819
0.002264 -0.259097 0.091882 0.54874 -0.197624 0.809418
-0.054199 -0.82793 0.131694 0.530605 0.805285 0.229208
0.001237 -0.75101 -0.095371 0.75293 0.129773 -0.644648
0.117801 -0.692367 -0.094897 -0.112137 0.061247 -0.990813
-0.062718 0.212104 0.096511 -0.468047 0.093793 0.878313
0.137114 -0.705642 0.01938 0.327496 -0.404124 0.853451
0.180624 -0.582128 -0.077113 0.751672 -0.049348 -0.656729
-0.179558 0.35783 -0.037629 0.633728 -0.764969 -0.097588
0.109524 -0.869404 -0.052499 -0.009876 -0.996761 0.078547
0.162549 0.334341 -0.097871 0.701037 -0.3143 -0.63964
0.097643 -0.007237 0.129397 0.282573 -0.250304 0.925065
0.097825 0.312297 -0.141863 0.210923 -0.097604 -0.968013
-0.122384 -0.41817 0.060527 -0.896186 -0.130966 0.421692
-0.344854 0.322657 -0.067749 -0.580669 0.777171 -0.234571
-0.142382 0.417653 0.038565 -0.411379 -0.799844 0.413292
0.101424 0.2181 -0.128035 0.326929 -0.364562 -0.870626
-0.109424 0.25139 -0.063031 -0.930845 -0.107527 -0.345907
0.111465 -0.28969 0.082426 -0.054626 -0.074345 0.995533
0.175001 -0.187633 -0.074972 0.642881 -0.010676 -0.765602
-0.097835 -0.753075 -0.105379 -0.756828 -0.087804 -0.641558
-0.179968 0.448419 0.043354 0.010096 -0.216792 0.973647
-0.102912 -0.120725 -0.075653 -0.709261 -0.096787 -0.696033
-0.138804 -0.01781 -0.000593 -0.992894 0.091941 -0.04693
0.067291 0.777615 -0.109493 0.513295 0.008022 -0.857933
0.107794 0.260276 -0.135778 0.340075 -0.091515 -0.932184
0.020828 -0.402507 -0.021335 0.96849 -0.093375 -0.225165
-0.118712 -0.273675 0.088748 -0.861803 -0.046174 0.497569
-0.124712 -0.757433 -0.043625 -0.939215 -0.339128 0.004073
-0.229506 0.393232 0.026584 -0.259339 -0.2468 0.931263
-0.020359 -0.182432 0.117052 0.465801 -0.11775 0.876798
-0.072504 -0.801959 0.051564 -0.425506 0.768693 0.462342
0.049015 -0.145859 -0.083387 -0.724692 -0.222321 -0.650432
0.030241 -0.281771 0.015614 0.989397 -0.092682 0.111024
-0.480074 0.130503 -0.008291 0.311481 -0.790769 -0.521938
0.23247 0.382799 -0.054876 -0.687295 -0.692995 0.216661
0.330798 0.425252 -0.115352 0.586158 0.631802 -0.497422
0.171189 -0.812944 -0.080219 0.810848 -0.501578 -0.25519
-0.044155 -0.431485 0.079613 0.236532 -0.226544 0.944018
0.102203 -0.750654 -0.090005 -0.670772 -0.093669 -0.725836
-0.138865 -0.450486 -0.002555 -0.993885 -0.007471 0.067317
-0.187012 0.357035 -0.013634 0.523351 -0.778975 0.338778
-0.352078 0.228676 -0.070549 0.339816 -0.593724 -0.72849
-0.152807 0.550416 -0.024476 -0.441653 0.890331 -0.094634
0.115529 0.28042 -0.133877 0.476909 -0.04345 -0.874472
0.149867 -0.108008 -0.11049 0.579515 -0.168241 -0.795153
-0.087602 0.121069 0.081595 -0.643786 0.109913 0.751629
0.044505 0.574165 -0.103144 -0.054869 0.523072 -0.848369
0.182697 -0.473409 0.053117 0.875865 -0.107694 0.468195
-0.291288 0.37024 -0.069066 -0.854723 0.41723 -0.293211
-0.094274 -0.863159 0.101013 -0.099645 -0.991147 0.02323
0.043434 -0.327772 0.023634 -0.987551 -0.038006 0.149651
0.172424 0.395175 -0.119781 0.333859 -0.448492 -0.827332
0.184976 -0.38788 -0.059294 0.705186 0.144657 -0.691785
0.048382 0.394275 0.101926 0.12465 0.316092 0.939563
0.015997 -0.660379 0.001999 0.823696 -0.194721 0.529197
0.087908 -0.805666 0.043819 -0.754894 0.112341 0.637767
0.031869 0.351786 0.113364 0.006048 0.160774 0.986643
-0.058361 0.112947 -0.110795 -0.460261 0.314591 -0.829995
0.033223 0.704861 0.093485 0.001216 -0.364872 0.919574
0.078393 -0.058291 0.121653 -0.005203 -0.373128 0.927056
-0.036508 0.733564 -0.033976 -0.865172 -0.361906 -0.328082
-0.100213 -0.180639 -0.067952 -0.737433 -0.062335 -0.671839
0.058436 -0.166602 -0.087053 -0.64761 -0.186447 -0.738282
0.194342 0.102718 0.011119 0.937768 -0.296158 0.161213
0.05437 0.329432 0.114563 0.205354 0.187192 0.960264
-0.019837 -0.371386 -0.070644 0.668211 -0.081716 -0.738779
0.117577 0.147599 0.105024 0.519202 0.0308 0.854082
0.187717 0.006682 -0.070075 0.83845 0.135101 -0.526484
-0.126039 -0.737222 -0.060028 -0.974743 -0.031782 -0.21369
0.119682 0.019611 -0.145243 0.451197 0.009135 -0.891809
-0.255966 0.316069 -0.083596 0.595628 -0.424602 -0.679287
0.108269 -0.232465 0.089793 -0.037053 -0.147785 0.987943
0.0206 -0.61025 -0.045848 0.762964 0.128209 -0.63232
-0.121283 -0.28613 -0.029481 -0.830399 0.031672 -0.554689
0.204133 -0.302672 0.025794 0.968837 -0.036066 0.235275
0.165026 0.497141 -0.133522 0.16082 0.295526 -0.941004
0.015094 -0.775188 -0.080912 0.906545 0.049572 -0.410958
-0.079365 -0.863637 0.077979 -0.051301 -0.998623 0.002045
0.18015 -0.551679 0.038755 0.634311 -0.179662 0.747303
0.197269 0.03715 -0.047516 0.952356 0.062928 -0.296462
-0.231132 0.366374 0.01718 0.168374 -0.327792 0.926311
-0.357128 0.315222 -0.055675 -0.664797 0.739527 -0.077267
-0.134964 -0.472986 0.012343 -0.929726 -0.101107 0.332172
-0.201096 0.506662 -0.007466 -0.762688 0.641995 0.076476
0.032674 0.462471 0.087449 0.142434 0.348276 0.924511
0.200051 -0.564546 -0.045506 0.972543 -0.040013 -0.22784
0.096893 0.568002 0.005377 0.165896 0.745498 0.638465
0.175101 0.301432 0.038196 0.949014 0.013599 0.314345
-0.129259 0.074182 0.003355 -0.978035 0.175066 0.008372
0.206089 -0.222962 0.009129 0.998232 -0.042462 0.039641
0.19802 -0.479944 0.004185 0.977418 0.029583 0.203341
0.196601 0.405521 0.006971 0.932315 -0.196553 0.301707
0.053074 -0.71433 -0.000982 -0.991051 -0.089486 -0.085404
0.127665 -0.355485 -0.095657 0.404695 0.074301 -0.911415
-0.037632 -0.240991 -0.091642 0.195435 0.044775 -0.978894
0.023399 -0.394903 -0.015398 0.947863 -0.105824 -0.29917
-0.078555 -0.361347 -0.079929 -0.444812 -0.019547 -0.895322
-0.008262 -0.805517 0.000126 0.929604 0.137887 0.341007
-0.127041 0.515067 -0.093441 -0.372212 0.452391 -0.810245
0.170522 0.456092 0.047198 0.638963 0.149397 0.754508
-0.007937 -0.711936 -0.092577 0.560534 0.314327 -0.765947
0.108279 0.179325 0.109046 0.545914 0.050763 0.83612
0.552548 0.1034 0.024015 -0.922212 -0.36336 0.122016
0.082782 0.65 -0.005331 0.978974 -0.056829 0.195392
-0.330505 0.308442 0.000234 -0.365574 0.225473 0.90093
0.152179 0.168652 -0.08251 0.747517 0.056357 -0.661107
0.08751 -0.514177 -0.092433 -0.612779 -0.031437 -0.788213
0.014594 -0.456959 -0.038674 0.83193 0.075887 -0.549582
-0.018315 0.848013 -0.037896 -0.552638 0.804063 -0.215974
-0.117493 0.205938 0.0381 -0.918403 0.152745 0.362329
-0.111946 0.280002 0.00361 -0.998009 -0.030885 0.04946
-0.121567 0.433528 -0.108638 -0.49249 -0.209586 -0.844203
-0.103203 -0.804702 -0.003451 -0.848022 -0.394954 0.347348
0.021938 0.12503 -0.127435 -0.123546 0.421487 -0.898344
0.175011 -0.011937 -0.096175 0.829675 0.05559 -0.553809
-0.359303 0.275581 -0.087573 -0.175571 0.019798 -0.977083
-0.092178 -0.121104 -0.085195 -0.650302 -0.0905 -0.753928
0.128869 -0.829731 0.163231 0.17811 0.915845 0.344583
-0.042097 0.153697 0.112506 -0.518979 0.073005 0.85116
0.198521 -0.572564 -0.051198 0.956401 -0.024273 -0.278591
0.014599 -0.234274 -0.052612 0.834019 -0.059341 -0.546936
0.11874 0.081698 0.105277 0.34909 0.085302 0.926953
-0.336114 0.245781 0.007008 0.191452 -0.129668 0.968183
-0.076334 -0.828844 -0.130847 -0.78723 -0.011028 -0.615573
0.112474 -0.266017 -0.099421 0.059413 -0.01082 -0.990307
-0.284842 0.335129 -0.095386 -0.175317 0.16605 -0.966634
0.096644 -0.767095 -0.085544 -0.773935 0.230703 -0.57085
0.043113 -0.316985 0.022903 -0.990283 -0.019751 0.134644
0.190404 -0.694347 0.000858 0.703418 -0.34935 0.616064
0.154074 -0.092006 0.106685 0.485229 0.002862 0.873919
0.175529 -0.798193 -0.014923 0.920643 -0.338717 0.180614
0.348408 0.371849 -0.067248 0.700043 0.567143 0.42525
0.01145 -0.546216 0.012695 0.68227 -0.137426 0.717306
-0.035165 -0.486231 0.061308 0.338993 -0.335972 0.878241
0.063616 0.359337 0.106544 0.196587 0.191142 0.961456
0.174499 0.512733 -0.126999 0.142625 0.416601 -0.894983
-0.238011 0.454612 -0.021114 -0.847928 0.524065 0.069921
0.099265 -0.804803 0.055527 -0.601306 0.462433 0.634963
0.019804 -0.435166 0.017419 0.951401 0.026622 0.297493
0.106272 -0.734403 -0.094501 -0.462811 -0.029812 -0.884893
0.059463 -0.316945 0.053108 -0.70311 -0.125092 0.696398
0.132759 0.009337 -0.138725 0.548671 0.107239 -0.828383
0.065002 0.570391 -0.106598 -0.07193 0.577569 -0.812566
0.041485 -0.305161 -0.041602 -0.871572 -0.018909 -0.489496
-0.029789 0.715643 -0.013729 -0.946934 -0.301646 -0.079186
-0.048111 0.589831 -0.046369 -0.172487 0.980983 0.004007
0.195808 -0.315244 -0.03133 0.852116 -0.018166 -0.521892
-0.103884 0.069489 0.089285 -0.487386 0.287359 0.822273
-0.140748 0.4597 0.060301 -0.20148 -0.111504 0.972534
0.161935 0.493019 0.04254 0.453016 0.391813 0.795738
0.089211 0.168819 0.118513 0.421051 0.052406 0.903155
0.322448 0.321158 -0.126759 -0.417165 -0.508842 -0.740898
0.190426 0.358042 0.006216 0.95791 -0.107315 0.263193
-0.084591 0.130979 0.084143 -0.669862 0.024042 0.741965
0.031223 -0.26885 -0.025781 -0.596384 -0.243697 -0.762576
0.103371 -0.385516 -0.100341 -0.296381 -0.048284 -0.948678
-0.136606 0.030804 0.042451 -0.966048 0.16441 0.191743
0.104981 0.792363 -0.035313 0.987225 0.11682 -0.028909
0.203906 -0.570266 -0.018248 0.975377 -0.155492 0.116828
0.154052 -0.826133 0.075745 0.505983 0.847483 0.148557
0.251575 0.369323 -0.049385 -0.658379 -0.653617 0.371681
0.061221 0.800717 -0.110878 0.453958 0.2459 -0.849387
0.099146 -0.275161 -0.09815 -0.245781 0.031214 -0.96635
-0.116945 0.079494 0.064816 -0.872041 0.290108 0.391405
0.042628 0.740618 0.097671 0.774202 0.267576 0.560181
0.05761 0.31627 -0.135641 -0.38005 -0.031488 -0.924377
-0.021488 -0.842526 -0.035094 0.918738 -0.391358 -0.006844
0.192373 -0.503541 -0.063563 0.852276 0.013753 -0.522716
0.199721 -0.231124 0.044662 0.947819 0.03567 0.316455
-0.545653 0.086002 0.01458 -0.254414 0.684991 -0.552594
-0.156642 0.379561 -0.033453 0.712205 -0.698315 -0.056047
-0.026765 0.468065 -0.130458 0.086394 0.080868 -0.992839
0.173566 -0.341962 0.07242 0.232203 -0.043108 0.96415
-0.106169 0.406672 0.065215 -0.502001 -0.012797 0.860315
-0.121639 -0.080637 -0.059081 -0.802573 -0.124531 -0.582857
0.153949 0.337372 -0.107828 0.671521 -0.255316 -0.695399
0.174416 0.489272 -0.134585 0.103865 0.257175 -0.959241
0.03356 0.514888 0.059719 0.091477 0.502284 0.859369
-0.077027 -0.861911 -0.065368 -0.043771 -0.997748 0.048327
0.023191 -0.198424 -0.032437 0.797085 0.054346 -0.503291
-0.23603 0.314588 -0.047954 0.748451 -0.656605 -0.084785
0.518964 0.212973 -0.02893 0.481884 0.822039 0.30019
-0.047557 -0.050483 0.128886 -0.160152 -0.07243 0.984167
0.295778 0.427649 -0.135317 0.271055 0.432752 -0.856766
0.084623 0.012888 0.134227 0.301003 0.248481 0.915731
0.185242 -0.774266 -0.012763 0.935505 -0.33765 0.097196
0.110094 0.464985 0.075095 0.228171 0.371085 0.899429
-0.119026 -0.635042 -0.083143 -0.724093 0.050687 -0.683075
0.500426 0.228854 -0.049307 0.64277 0.765544 -0.001478
0.013903 0.643856 -0.059799 -0.384694 0.121578 -0.910384
-0.136947 -0.103231 -0.028383 -0.937735 -0.054575 -0.342829
0.001852 0.794605 0.073735 -0.5164 0.362195 0.771307
-0.017448 -0.333028 -0.073425 0.697037 -0.084546 -0.71185
-0.060246 -0.567149 0.051266 0.346393 -0.185119 0.9195
-0.124504 -0.328561 0.050311 -0.981982 -0.022903 0.186634
-0.522837 0.119902 0.040539 -0.793133 0.60685 -0.042995
0.083688 0.114127 0.123506 0.426605 0.064564 0.900385
-0.112266 -0.337538 -0.04918 -0.796748 0.077413 -0.598255
0.182893 0.242717 -0.008162 0.999582 -0.012815 -0.022171
0.036857 0.440613 0.091544 0.159497 0.184007 0.968588
-0.095299 -0.167605 -0.074522 -0.702261 -0.113303 -0.70235
0.205728 0.411316 -0.105129 0.613151 -0.698014 -0.323688
0.060381 -0.603539 -0.002986 -0.713704 -0.120825 0.687403
-0.134305 -0.494274 -0.040794 -0.920444 0.051979 -0.376893
-0.115284 -0.707025 -0.016367 -0.898985 -0.246374 0.308869
0.07605 -0.568191 0.017206 -0.69774 -0.008397 0.716202
0.167292 -0.69554 0.012927 0.38649 -0.502484 0.772851
0.039486 -0.244707 0.010229 -0.353262 -0.083387 0.820741
-0.232954 0.382502 0.0223 -0.138344 -0.289173 0.944615
-0.126875 -0.610168 -0.00829 -0.981208 0.023794 0.189093
-0.115901 -0.492881 -0.068326 -0.748174 0.097749 -0.655672
-0.117825 -0.138415 0.095073 -0.771682 0.079454 0.626378
0.045035 -0.217176 0.049761 -0.938892 -0.082927 0.316654
0.122375 -0.064849 -0.134537 0.237639 -0.28489 -0.927916
0.46704 0.188534 -0.038715 -0.482483 -0.869872 -0.060344
-0.076024 -0.249179 -0.085837 -0.564411 -0.021814 -0.825169
-0.115941 -0.335113 0.087194 -0.830892 -0.085438 0.546716
0.051401 -0.064438 -0.127511 -0.344461 -0.391126 -0.853229
0.354748 0.372997 -0.084339 0.719923 0.659435 0.21141
0.085559 -0.750127 -0.066704 -0.864723 0.035426 -0.500165
0.548963 0.113674 0.019949 -0.918438 -0.366243 0.12073
0.46957 0.255021 -0.031808 0.342502 0.673068 0.628405
0.063984 0.260335 -0.135014 -0.314552 -0.088841 -0.943349
0.199465 -0.60904 -0.019281 0.997591 -0.061595 0.028278
-0.163924 0.446425 -0.093492 -0.231142 0.137379 -0.962944
0.205847 -0.231098 -0.008317 0.998028 -0.060833 -0.014484
0.088929 -0.560058 0.028513 -0.542858 -0.021492 0.837759
0.205672 -0.285266 0.005108 0.99973 0.020149 0.00954
-0.290801 0.386155 -0.036536 -0.99404 0.051077 0.088857
-0.098901 -0.717357 0.006405 -0.564663 -0.593561 0.568181
-0.371685 0.303057 -0.046736 -0.688433 0.725076 -0.011166
0.003898 -0.039275 0.133192 0.176268 -0.307309 0.931721
0.181891 -0.656375 -0.064055 0.635271 -0.266604 -0.724386
0.026064 -0.651682 -0.046074 0.965939 0.054223 -0.2438
0.096612 -0.832979 0.111802 -0.6608 0.728941 0.144789
0.145422 -0.572319 -0.10246 0.297198 -0.098351 -0.949071
-0.105778 -0.586729 0.041585 -0.93562 0.031209 0.350495
0.191662 -0.604719 -0.06305 0.792952 -0.026735 -0.607841
0.035762 0.257364 -0.126056 -0.10605 -0.057587 -0.990966
-0.004834 -0.336845 0.080145 0.632676 -0.070632 0.769092
0.292705 0.367873 -0.021838 0.058166 -0.498472 0.845546
0.197564 0.073538 -0.034445 0.953585 0.105205 -0.268283
0.062491 0.82541 -0.095923 0.316594 0.692051 -0.642719
0.199556 -0.089044 0.062744 0.876891 -0.019222 0.479503
0.175177 -0.859614 0.077893 0.912912 -0.360451 -0.006477
-0.019974 0.608783 -0.049179 -0.728034 0.65515 -0.170969
0.213198 -0.088549 -0.009892 0.982438 0.044099 -0.17018
-0.108986 -0.099337 -0.071629 -0.768149 -0.119024 -0.628771
-0.020408 -0.392787 -0.07057 0.618424 0.058184 -0.782585
0.195277 -0.079241 -0.056472 0.861047 0.013588 -0.508317
-0.003653 -0.720929 0.006126 0.779756 -0.12337 0.612867
-0.018275 0.619242 -0.029792 -0.940434 0.281554 -0.011447
0.428274 0.293354 -0.054046 0.415356 0.695784 0.583784
-0.081785 -0.762742 0.01978 -0.300139 -0.262275 0.910491
-0.069855 0.380375 0.092757 -0.565483 -0.030375 0.82229
-0.075184 0.467486 -0.127677 -0.235551 0.056555 -0.968636
0.196085 -0.572613 0.011389 0.926483 -0.004364 0.369997
-0.082183 0.180658 0.085321 -0.64435 -0.005214 0.764695
0.11065 -0.425699 0.055948 -0.532361 -0.303885 0.788032
0.04568 -0.506477 -0.019095 -0.766091 -0.000546 0.526244
0.568799 0.151166 0.014968 0.740751 0.67146 -0.011365
-0.108545 -0.44961 0.071842 -0.759773 -0.140335 0.634429
-0.031594 -0.850699 -0.047737 0.589551 -0.80331 0.051796
