0.281708 0.373852 -0.021662 -0.321897 -0.286443 0.897757 
0.051092 0.504730 0.064359 0.062061 0.478784 0.875322 
-0.069175 -0.527123 0.063595 0.416205 -0.225858 0.879567 
0.203310 -0.096280 -0.040536 0.881911 0.058199 -0.467166 
-0.144334 -0.105719 0.005244 -0.999275 -0.003739 -0.031664 
0.088380 -0.093258 -0.125572 -0.186614 -0.392685 -0.899648 
0.066576 0.012147 0.139158 0.179896 0.137611 0.972392 
-0.004403 0.110868 0.130471 -0.222827 0.204225 0.951256 
-0.094899 -0.116153 0.112046 -0.363387 0.058836 0.928643 
-0.135239 -0.220512 0.054072 -0.988233 -0.052523 0.141110 
0.088870 -0.470707 -0.093923 -0.564515 0.039698 -0.824341 
-0.144193 -0.081493 0.011774 -0.999838 0.009944 0.005869 
-0.309801 0.239177 -0.031544 0.548438 -0.835056 0.029370 
0.620952 0.049360 0.081417 -0.827718 -0.554565 0.016418 
-0.292475 0.376110 -0.036595 -0.898734 0.407189 0.056084 
0.097504 -0.721439 -0.087502 -0.697357 0.017043 -0.707874 
-0.050085 -0.296802 -0.091408 -0.035195 -0.088176 -0.992790 
0.337521 0.391049 -0.134666 0.569476 0.010265 -0.816245 
0.158728 -0.677244 0.024623 0.299107 -0.265465 0.915533 
0.330496 0.295452 -0.069153 -0.649427 -0.650121 0.392056 
0.097309 0.816862 -0.020934 0.939117 0.338254 0.012266 
-0.063510 -0.007642 -0.129949 -0.253920 -0.078596 -0.962301 
-0.100518 0.200333 0.069438 -0.693176 -0.011309 0.719621 
-0.132495 -0.528182 -0.004240 -0.880023 -0.199140 0.430971 
0.192487 -0.595121 -0.062325 0.804321 -0.026466 -0.593416 
0.099616 -0.138325 0.102760 -0.561146 -0.053838 0.825844 
-0.022539 0.831649 0.015931 -0.720763 0.282282 0.629825 
-0.012679 -0.767032 -0.119036 0.644851 0.436347 -0.625752 
0.095255 0.351227 -0.144948 0.045731 -0.040663 -0.996817 
-0.005005 -0.014928 0.136508 -0.026468 -0.614097 0.776174 
-0.125051 -0.355380 0.054041 -0.982469 0.065302 0.174038 
0.110983 0.061909 -0.142562 0.500986 0.193601 -0.842892 
-0.034192 0.316199 0.104808 -0.527109 0.125237 0.837699 
0.308334 0.420857 -0.030459 0.802659 0.176514 0.564545 
-0.092021 -0.570508 -0.097189 -0.437329 0.046694 -0.896394 
0.019282 -0.215065 0.073027 0.958379 -0.028620 0.280518 
-0.153779 0.513706 -0.079501 -0.467923 0.484805 -0.735947 
0.254636 0.360757 -0.100865 -0.640014 -0.741684 -0.193780 
-0.234344 0.450698 -0.057117 -0.661194 0.593319 -0.458196 
0.148750 -0.164024 0.100028 0.251720 -0.265265 0.930390 
0.180047 0.310361 0.021580 0.900995 0.013732 0.427352 
-0.318238 0.296030 0.004994 -0.152892 0.072565 0.984939 
-0.169892 0.370735 -0.052413 0.675674 -0.691787 -0.253370 
0.182200 -0.319100 -0.048114 0.753644 -0.017893 -0.656956 
-0.012928 -0.257063 0.100492 0.444643 -0.210731 0.870501 
0.012122 -0.472222 0.028714 0.797611 -0.111896 0.592073 
0.368300 0.257683 -0.071836 -0.729487 -0.645921 0.222735 
0.369101 0.355778 -0.077290 0.668046 0.651146 0.358767 
-0.108481 0.516157 0.051376 0.010604 0.473071 0.880828 
0.052264 -0.460535 -0.055632 -0.796051 0.034491 -0.603182 
-0.053369 0.172128 0.103228 -0.507447 0.065257 0.858796 
0.229232 0.513093 -0.111498 0.458643 0.578778 -0.673368 
-0.031688 0.750031 -0.064317 -0.885241 -0.360492 -0.293704 
-0.049207 -0.603300 -0.101746 0.318868 0.032084 -0.946516 
-0.010837 0.374827 -0.129135 0.026144 -0.017464 -0.999409 
0.157227 0.075062 0.088070 0.225264 0.296358 0.925288 
-0.065049 0.393197 0.095114 -0.361778 0.048197 0.929749 
0.628610 0.048276 0.015195 -0.850807 -0.383643 -0.330941 
0.198019 -0.248754 -0.044199 0.881070 -0.142311 -0.447249 
-0.439803 0.219833 0.001444 -0.647026 0.634498 0.403689 
0.136548 -0.869288 -0.094419 0.185246 -0.967915 -0.124098 
0.155259 -0.752217 -0.083019 0.809988 0.191853 -0.549983 
0.537876 0.130350 -0.000267 -0.751517 -0.659485 -0.003121 
-0.046878 -0.210500 0.118265 0.093314 -0.196601 0.975959 
-0.530607 0.073625 0.076537 0.205920 -0.854616 0.463119 
0.438426 0.252095 -0.114379 0.571989 -0.233926 -0.781353 
0.168643 -0.799473 0.006434 0.901300 -0.169187 0.365018 
0.207256 -0.188893 -0.023477 0.996928 -0.016140 -0.076037 
0.261024 0.354544 -0.096019 -0.644804 -0.735024 -0.190305 
0.045358 -0.245097 0.044156 -0.912959 -0.057627 0.372139 
-0.082358 -0.863482 0.055180 -0.036709 -0.999247 -0.001984 
0.078968 -0.082586 -0.128128 -0.190867 -0.416526 -0.888681 
-0.030936 -0.826743 -0.143144 0.316624 -0.388502 -0.863307 
0.203577 -0.324833 -0.016094 0.945768 0.034972 -0.315177 
-0.050447 0.355808 -0.124898 -0.343045 -0.031346 -0.938744 
-0.073187 -0.723629 -0.120932 -0.327305 0.230487 -0.910586 
-0.009290 0.674827 0.048510 -0.817875 -0.454286 0.329073 
-0.106795 0.527270 0.044555 -0.016804 0.577041 0.816269 
-0.081246 0.004992 0.119844 -0.457322 0.222807 0.859079 
0.084119 0.410989 0.092935 0.160103 0.262095 0.950815 
0.000640 -0.809706 -0.114691 0.873495 -0.170934 -0.437075 
0.152196 0.417958 -0.136213 0.248832 -0.224054 -0.941651 
0.065659 0.081731 -0.148877 -0.057802 0.323255 -0.942945 
0.052843 -0.452247 -0.002990 -0.735877 -0.032684 0.671235 
-0.051773 -0.380656 -0.084144 0.118669 -0.148510 -0.977724 
0.295543 0.459976 -0.034557 0.740453 0.328911 0.582393 
0.136287 0.447382 0.073800 0.393789 0.242607 0.879507 
-0.115899 -0.420439 0.071305 -0.756409 -0.252207 0.602878 
0.021873 0.247038 0.127698 -0.028127 0.033375 0.998973 
-0.046669 -0.651832 -0.103470 0.368194 0.078343 -0.926271 
0.604974 0.099082 0.071316 0.572550 0.685630 0.291023 
0.047938 -0.016228 -0.148039 -0.308527 -0.352244 -0.883576 
-0.097140 -0.412323 -0.065384 -0.558660 0.107106 -0.819449 
-0.031527 -0.048120 -0.126918 -0.047883 -0.446136 -0.893240 
0.200207 0.553799 -0.021455 0.387633 0.782629 0.483662 
-0.003388 0.762915 -0.111053 -0.510967 -0.198933 -0.834485 
-0.130602 -0.393539 0.028212 -0.954623 0.216226 0.196219 
-0.433430 0.232351 -0.035552 -0.753486 0.638936 -0.132070 
0.024273 -0.121494 -0.053986 -0.508026 -0.535546 -0.497178 
0.205202 -0.213178 -0.037025 0.980823 -0.029339 -0.184701 
0.039486 -0.244707 0.010229 -0.353262 -0.083387 0.820741 
-0.049462 0.437928 -0.130352 -0.087892 -0.108227 -0.990068 
0.015519 -0.382630 -0.036988 0.823506 0.020009 -0.566571 
0.005280 -0.389175 0.060320 0.777857 -0.174876 0.602337 
-0.060336 -0.426201 0.083943 0.184373 -0.239630 0.953003 
0.175256 0.338525 0.037586 0.879777 -0.050040 0.471763 
0.142440 -0.395890 -0.092610 0.519104 0.133571 -0.843902 
0.257329 0.374286 -0.035858 -0.546418 -0.558739 0.622434 
0.264826 0.408613 -0.013791 -0.074483 -0.241055 0.966728 
-0.300499 0.326577 0.004771 -0.257570 0.178044 0.948663 
0.355386 0.286084 -0.119688 -0.527867 -0.541468 -0.651203 
-0.040854 0.385606 -0.128435 -0.141192 -0.032360 -0.988306 
-0.252073 0.430052 -0.058421 -0.674184 0.645230 -0.356557 
0.037326 0.002414 0.143581 0.079024 -0.078132 0.982347 
0.116783 -0.281298 0.083079 -0.026686 -0.064148 0.997568 
-0.027360 0.446686 0.092137 -0.190837 0.309720 0.930756 
0.198857 -0.563738 0.001824 0.959111 0.004118 0.282585 
-0.415655 0.221333 0.014097 -0.148543 0.247613 0.953629 
0.197887 0.059170 -0.038337 0.959562 0.077922 -0.269251 
-0.016924 0.016897 -0.144210 -0.189055 -0.313063 -0.929180 
0.123469 -0.566572 0.041561 -0.229365 -0.162877 0.958995 
-0.082777 -0.792161 -0.128590 -0.700500 0.107360 -0.698866 
-0.109475 -0.855772 0.045601 -0.751708 -0.656365 -0.012427 
0.010994 -0.245771 -0.056003 0.794351 -0.088702 -0.600511 
0.161749 -0.787460 0.020919 0.520915 -0.490462 0.667892 
0.085886 -0.575851 -0.083674 -0.650133 -0.114216 -0.751123 
-0.297708 0.252438 -0.015671 0.697483 -0.661546 0.275237 
-0.038107 0.589498 -0.071578 -0.339909 0.881934 -0.290908 
0.209472 0.547425 -0.084326 0.333878 0.786410 -0.515330 
0.191852 0.501197 -0.129534 0.080243 0.327224 -0.939963 
0.145065 -0.445426 -0.098892 0.394769 0.176736 -0.901140 
0.127510 -0.285652 -0.093784 0.401261 -0.026096 -0.915258 
0.066738 -0.164357 -0.094484 -0.623962 -0.153636 -0.765292 
0.333820 0.288231 -0.093413 -0.670683 -0.725095 -0.147822 
-0.267078 0.301396 -0.084521 0.571607 -0.432647 -0.691489 
0.206617 0.484376 -0.132163 0.171560 0.208465 -0.962741 
0.200120 -0.438656 -0.020322 0.998118 -0.048394 -0.026609 
-0.030839 -0.831547 0.088418 0.823408 0.506600 0.246140 
-0.074328 -0.234912 0.112851 -0.103076 -0.086357 0.990450 
-0.316004 0.239653 -0.005265 0.692946 -0.572986 0.418891 
-0.073628 0.371983 -0.117157 -0.449675 -0.117479 -0.884892 
0.201316 -0.353761 0.023314 0.953440 -0.134376 0.269411 
0.110914 0.551535 -0.118557 0.167129 0.568285 -0.802282 
0.128689 -0.869383 -0.100344 0.108759 -0.981569 -0.142926 
0.089285 0.694863 0.011057 0.984329 -0.157861 0.050172 
-0.044697 0.344086 0.102329 -0.158261 -0.107982 0.980707 
0.196270 0.088592 -0.029430 0.946925 0.253450 -0.187640 
0.297227 0.368352 -0.138769 -0.170314 -0.408275 -0.896334 
-0.461662 0.171430 -0.041411 -0.560683 0.431702 -0.706402 
0.608147 0.071764 0.012449 -0.274394 -0.707029 -0.623968 
-0.128382 0.440219 -0.106211 -0.496937 -0.157640 -0.850585 
-0.057871 0.184893 -0.096313 -0.529121 -0.182419 -0.826880 
0.141400 0.102552 -0.108701 0.672582 0.297916 -0.677125 
0.062878 0.839271 0.046761 0.581629 0.487165 0.650955 
-0.049178 -0.863475 0.019704 0.046989 -0.998038 -0.037137 
0.197529 -0.018432 0.060567 0.863048 0.093484 0.493864 
0.113971 -0.485696 -0.106181 -0.211874 0.034497 -0.974156 
-0.094590 0.409125 -0.114707 -0.339991 -0.205423 -0.917421 
-0.040431 -0.515364 0.054862 0.409776 -0.284203 0.866329 
0.382248 0.286059 -0.038541 0.044140 0.278441 0.931250 
0.075403 -0.584100 0.015610 -0.702677 -0.089873 0.705559 
0.205672 0.051071 0.006516 0.987291 0.144337 0.016307 
0.181812 -0.622562 0.017854 0.277926 -0.010106 0.955596 
-0.335488 0.247571 -0.076475 0.079043 -0.395765 -0.893096 
0.291121 0.329401 -0.089853 -0.663176 -0.746229 -0.026182 
0.166863 -0.063543 0.096866 0.630746 0.035453 0.774335 
0.093811 0.362089 -0.145369 0.005302 -0.030914 -0.999460 
-0.103632 -0.366231 0.096598 -0.540005 -0.125532 0.815730 
0.168516 -0.863060 0.071800 0.295482 -0.944000 -0.011117 
-0.109083 0.560143 0.006731 -0.143771 0.863794 0.481121 
-0.105921 -0.280863 0.102427 -0.621137 -0.036397 0.774445 
-0.011953 -0.827300 -0.122509 0.597241 -0.689370 -0.397824 
0.085679 -0.686233 -0.074319 -0.755948 -0.005915 -0.654184 
-0.054633 0.205547 -0.104421 -0.528815 -0.311004 -0.789195 
0.082424 -0.194514 0.089483 -0.406079 -0.066142 0.909761 
-0.100767 0.120183 0.070876 -0.704889 0.156184 0.685800 
-0.505060 0.099128 0.027581 0.211951 -0.805821 -0.535523 
0.133262 -0.826319 0.141038 0.235313 0.965877 0.087421 
0.202537 -0.177119 0.036548 0.947101 -0.048920 0.316424 
-0.057185 -0.861096 -0.040008 0.085399 -0.995725 -0.006737 
-0.103766 0.390187 0.065506 -0.642273 -0.125525 0.754693 
0.057069 -0.429917 -0.059454 -0.767196 0.007846 -0.641097 
-0.319367 0.326852 -0.086292 -0.379710 0.490142 -0.784556 
0.164236 -0.798702 0.015752 0.823457 0.386877 0.409984 
0.018514 -0.439599 -0.030185 0.930318 0.029552 -0.364110 
-0.040667 -0.038029 0.131537 -0.182828 -0.036064 0.981268 
-0.016464 -0.423379 0.070963 0.554337 -0.210474 0.803559 
-0.022071 -0.846588 0.050030 0.985197 0.035750 0.062664 
0.100329 0.765375 0.009803 0.955011 -0.075571 0.277397 
-0.552477 0.080768 0.024191 -0.747583 0.644614 -0.108192 
-0.062003 -0.862770 0.134395 0.039031 -0.990549 0.116539 
0.088106 -0.834549 -0.010082 -0.975373 -0.124753 0.005223 
0.021809 -0.457929 0.012597 0.899251 -0.029787 0.435342 
-0.000032 0.253928 0.122338 -0.372984 0.064475 0.925589 
0.059830 -0.243848 0.065839 -0.732229 -0.140601 0.666098 
0.026717 0.859559 -0.060307 -0.091852 0.875127 -0.470163 
-0.049230 0.541236 -0.108650 -0.304757 0.455445 -0.835784 
-0.027293 -0.799583 -0.147585 0.443012 0.109085 -0.882716 
0.070904 -0.573911 -0.069102 -0.695229 -0.124370 -0.707774 
0.306684 0.380212 -0.143250 0.025590 -0.179719 -0.980943 
-0.018923 0.682500 0.013427 -0.938199 -0.323944 0.025813 
0.008420 -0.660421 0.011711 0.726637 -0.160070 0.666125 
0.590984 0.122108 0.035866 0.727253 0.685714 0.010974 
0.018374 -0.405393 -0.031504 0.941499 -0.027448 -0.331894 
0.387123 0.336719 -0.071889 0.577487 0.697333 0.415215 
0.039479 -0.213691 0.019329 -0.457080 -0.259188 0.675037 
-0.043695 0.576698 -0.087572 -0.394284 0.661283 -0.635537 
-0.358720 0.305419 -0.013687 -0.500232 0.727771 0.461273 
0.163621 -0.351647 -0.068138 0.654110 0.079029 -0.752180 
0.165026 0.497141 -0.133522 0.160820 0.295526 -0.941004 
-0.041219 -0.419929 0.081463 0.237244 -0.188196 0.952750 
-0.194329 0.350891 -0.016571 0.567267 -0.762230 0.308182 
0.140870 -0.690450 0.024819 0.235630 -0.342101 0.907247 
-0.126469 -0.416810 0.051556 -0.924235 -0.058792 0.375468 
-0.002535 -0.181786 0.107455 0.610779 -0.077066 0.787985 
-0.496267 0.153238 -0.014937 -0.773013 0.610855 -0.152421 
0.025357 -0.374965 -0.011460 0.975513 -0.032481 -0.205101 
0.553619 0.128914 -0.017813 0.369936 0.056919 -0.885668 
-0.010879 -0.366529 -0.062300 0.714342 -0.093618 -0.693301 
0.196289 -0.386376 0.032068 0.942281 -0.031272 0.333303 
-0.031001 0.376564 0.106095 -0.047646 0.060079 0.997019 
0.028007 0.793740 -0.119002 -0.090000 0.247091 -0.961936 
-0.117125 -0.643622 0.019335 -0.896180 -0.060291 0.439133 
0.021965 0.173863 -0.116730 -0.004115 0.212992 -0.973957 
0.046377 -0.536567 -0.039889 -0.902495 -0.027424 -0.423306 
-0.297475 0.317573 -0.096828 -0.104429 0.131167 -0.983781 
-0.141844 -0.070220 0.036397 -0.970127 0.027729 0.234366 
-0.553210 0.052441 0.046769 0.825041 -0.562370 -0.014871 
-0.113584 0.021129 0.091883 -0.803250 0.157402 0.573569 
-0.017633 0.686698 0.039941 -0.890556 -0.348741 0.266654 
0.202146 0.402630 -0.095885 0.900263 -0.398274 -0.155587 
-0.102868 0.256204 0.056453 -0.906515 0.081130 0.403962 
0.099497 0.799866 -0.058165 0.936723 0.228967 -0.250023 
-0.002050 -0.456770 -0.061808 0.739570 0.095527 -0.666121 
-0.368049 0.200968 -0.039478 0.619822 -0.771077 -0.139808 
0.109837 -0.529372 -0.104886 -0.344292 -0.020763 -0.937935 
-0.131563 -0.576334 -0.028737 -0.968538 -0.138301 0.204316 
-0.500047 0.151017 0.025628 -0.746345 0.665483 0.005464 
0.102103 0.549354 0.025479 0.391582 0.635262 0.664345 
-0.035696 0.741034 -0.041770 -0.893746 -0.261455 -0.362467 
-0.066533 0.534261 -0.106620 -0.275116 0.450819 -0.848502 
0.048334 0.536955 0.043617 0.000046 0.744075 0.666950 
0.014511 0.442244 -0.126989 0.030713 0.002637 -0.999276 
-0.154484 0.386235 -0.006643 0.636002 -0.693045 0.335017 
-0.151811 0.421512 0.037929 -0.407594 -0.502440 0.759281 
-0.162391 0.544159 -0.006817 -0.644393 0.760094 0.076181 
-0.027653 -0.718005 0.027303 0.082372 -0.104803 0.959313 
-0.293004 0.261409 -0.011478 0.786550 -0.443341 0.407107 
0.027312 0.224720 -0.125557 0.043509 -0.067265 -0.996352 
0.639031 0.023566 0.025692 -0.384012 -0.892877 -0.199351 
0.120968 -0.418839 -0.102863 0.078209 0.051801 -0.989084 
-0.310764 0.302134 0.005442 -0.111553 0.064201 0.991296 
0.400977 0.226017 -0.100367 -0.549359 -0.813586 -0.167101 
0.093508 0.478125 -0.143216 -0.162075 0.194768 -0.964113 
0.159042 0.088390 0.083292 0.327915 0.280750 0.899731 
-0.383443 0.215467 0.011815 0.170523 0.020912 0.983315 
-0.226859 0.357266 0.011746 0.306288 -0.429093 0.848649 
0.136003 -0.305680 0.081557 0.055549 -0.055396 0.996356 
-0.006283 -0.553017 0.028142 0.602535 -0.153497 0.780141 
-0.015560 0.230040 0.118577 -0.458595 0.115348 0.881095 
0.503122 0.194458 -0.057605 0.188698 -0.409666 -0.891290 
0.198817 -0.039184 -0.050023 0.943274 -0.008583 -0.329713 
-0.025160 0.717802 0.039867 -0.942677 -0.162720 0.283651 
-0.042507 0.135737 -0.109189 -0.323693 0.452389 -0.829904 
-0.072202 0.013092 0.121657 -0.352779 0.287832 0.888404 
0.103567 0.563152 0.010596 0.321282 0.712981 0.606270 
0.187116 0.327587 -0.051056 0.856976 -0.357078 -0.371543 
0.105375 -0.556567 -0.100972 -0.464098 -0.121448 -0.875933 
0.185188 -0.493880 0.044538 0.861303 -0.114563 0.494355 
-0.087532 -0.251831 -0.077470 -0.723571 -0.048963 -0.688402 
0.241270 0.382258 -0.041198 -0.557338 -0.733069 0.389621 
0.045089 -0.534387 -0.020007 -0.954975 0.006862 0.256739 
0.056635 0.429381 -0.135583 -0.311155 0.031831 -0.949300 
-0.350293 0.318742 -0.030164 -0.671219 0.721374 0.167974 
0.019676 -0.094715 0.111265 0.587242 -0.257112 0.766296 
0.368441 0.337174 -0.129673 0.497711 0.251903 -0.824950 
-0.426288 0.165886 -0.038496 0.528264 -0.792950 -0.301751 
0.075347 0.143150 -0.124476 0.088109 0.336548 -0.934814 
-0.040763 0.001167 0.136126 -0.268685 0.398462 0.874251 
0.280265 0.496602 -0.059338 0.718775 0.694009 0.022466 
-0.136610 -0.211690 0.018692 -0.995499 -0.082653 -0.038228 
0.196553 -0.264007 0.054789 0.896909 -0.058496 0.437763 
0.072768 0.245943 0.120359 0.340290 0.068720 0.931883 
-0.050614 -0.862622 -0.115739 0.027550 -0.992432 -0.113744 
0.234343 0.476940 -0.128698 0.204966 0.293330 -0.933450 
0.201219 -0.139050 0.055220 0.908043 -0.079239 0.411027 
-0.068554 -0.412313 -0.081533 -0.288545 0.149507 -0.942746 
0.185512 -0.769438 -0.002064 0.920112 -0.308431 0.228843 
0.049723 0.292000 0.121313 0.123456 0.105020 0.986450 
-0.052039 -0.832879 -0.144466 -0.042991 -0.259385 -0.960307 
0.153278 -0.827624 0.088664 0.475588 0.865039 0.145816 
0.167310 0.405876 -0.126938 0.282292 -0.399096 -0.869938 
0.013492 -0.262101 0.080262 0.801032 -0.124200 0.584649 
-0.110310 -0.426988 0.075548 -0.725799 -0.236821 0.644944 
-0.039262 0.775006 -0.036081 -0.989121 0.110513 -0.076349 
0.056687 -0.358366 -0.061397 -0.796630 -0.051242 -0.602219 
-0.121754 0.539541 -0.076446 -0.360412 0.680278 -0.637725 
-0.431770 0.169373 -0.049957 0.352439 -0.654468 -0.655481 
0.152179 0.168652 -0.082510 0.747517 0.056357 -0.661107 
0.014105 -0.026953 -0.137369 -0.014161 -0.378180 -0.925330 
0.100300 -0.417698 0.052211 -0.556169 -0.331451 0.760924 
0.301130 0.320009 -0.088369 -0.700898 -0.713008 -0.006170 
0.173341 0.311610 0.042472 0.906019 0.049491 0.407677 
-0.124039 -0.161009 -0.038506 -0.818974 -0.171558 -0.547122 
-0.135066 -0.251516 0.031546 -0.996566 -0.075471 0.019417 
0.026286 -0.221219 -0.032410 0.145400 -0.073256 -0.901562 
-0.020312 -0.835608 -0.061702 0.831015 -0.525283 -0.012061 
0.172437 0.309338 -0.069776 0.840138 -0.291987 -0.456138 
0.579133 0.105801 -0.006941 0.575340 0.081704 -0.812990 
-0.137836 0.558213 -0.018374 -0.334353 0.939459 -0.009506 
-0.081185 -0.826807 0.098573 -0.235821 0.961079 0.116881 
0.196088 -0.183612 -0.056194 0.770471 0.016422 -0.634317 
0.098672 0.197237 -0.118378 0.320599 -0.432339 -0.837433 
0.538321 0.129973 0.009362 -0.762595 -0.645686 0.029840 
0.077402 -0.292300 -0.088076 -0.581414 0.007526 -0.813370 
0.168071 -0.481647 -0.091766 0.664791 0.063042 -0.743710 
0.131916 -0.427590 0.066269 -0.350811 -0.083786 0.931167 
0.356134 0.306346 -0.041735 -0.108835 -0.065726 0.970075 
-0.077686 -0.531136 0.066060 0.394957 -0.203432 0.895863 
0.172531 0.261580 -0.048843 0.898342 -0.016192 -0.436671 
0.108260 0.431841 -0.146395 -0.016944 -0.038789 -0.998809 
0.129855 -0.128191 -0.115053 0.322414 -0.269252 -0.905988 
0.058298 0.645941 0.032832 0.598317 -0.409007 0.684999 
-0.018856 -0.832695 -0.117537 0.493290 -0.857499 -0.122782 
0.094202 -0.694834 -0.082392 -0.684082 0.020431 -0.729019 
0.047091 0.156603 0.130363 0.121419 0.039586 0.991801 
0.160156 0.574160 -0.064241 0.277446 0.952727 -0.115243 
-0.031174 -0.282920 -0.089237 0.362810 -0.077165 -0.928407 
-0.018987 0.164218 0.123282 -0.442801 -0.014764 0.894722 
0.165122 -0.812324 -0.095729 0.864378 -0.101228 -0.481703 
0.057232 -0.027636 0.131523 0.053844 -0.167295 0.982927 
0.301224 0.320416 -0.099513 -0.695203 -0.709929 -0.104082 
-0.058207 -0.208581 -0.092244 -0.135181 -0.064930 -0.985479 
0.051325 -0.556063 -0.046995 -0.857937 -0.036951 -0.512360 
0.192205 0.394368 0.017749 0.959872 -0.098344 0.258044 
-0.005766 -0.247716 0.098828 0.484426 -0.205521 0.849461 
0.082045 0.705526 -0.059100 0.780833 -0.475192 -0.401759 
-0.131322 0.407529 0.011867 -0.559579 -0.671973 0.228504 
-0.080845 -0.593684 -0.102568 -0.139302 0.026622 -0.989331 
0.214383 -0.109195 0.013450 0.998441 -0.010499 0.049132 
0.043113 -0.316985 0.022903 -0.990283 -0.019751 0.134644 
0.187625 -0.151716 -0.065124 0.686984 -0.054505 -0.724439 
0.081440 0.730642 -0.083862 0.686398 -0.418906 -0.593565 
0.050570 -0.329669 -0.055938 -0.823277 -0.034263 -0.565812 
0.197004 -0.554975 0.006941 0.945233 0.011221 0.326023 
0.116657 -0.837680 0.174804 -0.471750 0.498284 0.698206 
-0.134253 -0.428400 0.026609 -0.965440 -0.023660 0.252951 
0.172394 0.397370 0.050518 0.676487 -0.054036 0.734030 
0.142191 -0.383460 -0.090343 0.558079 0.163116 -0.813554 
0.196899 0.090330 -0.018015 0.975531 0.199059 -0.071073 
-0.014992 -0.505056 -0.082624 0.690496 0.067265 -0.720088 
0.062870 0.247454 -0.133096 -0.367853 -0.148128 -0.917715 
0.548963 0.113674 0.019949 -0.918438 -0.366243 0.120730 
0.041401 0.869072 0.005420 0.070260 0.970751 0.183088 
0.113936 -0.832822 -0.117696 -0.270419 0.006127 -0.947457 
0.138645 -0.192974 0.095989 0.046447 -0.151054 0.986855 
0.204784 -0.017691 0.045463 0.907220 0.102507 0.402371 
-0.083628 0.042555 0.105480 -0.451443 0.165906 0.872070 
0.347770 0.385491 -0.116369 0.946920 0.135696 -0.152564 
0.195223 -0.297391 0.051066 0.891812 -0.096141 0.441926 
-0.056665 -0.093273 -0.109894 -0.229268 -0.195598 -0.950430 
-0.160407 0.468802 -0.091595 -0.374563 0.157768 -0.913431 
0.082635 -0.548157 -0.084620 -0.699424 -0.087576 -0.709287 
-0.095556 0.091359 0.084556 -0.548248 0.078371 0.818375 
0.179656 -0.302228 0.073170 0.396262 -0.033830 0.917262 
0.273278 0.424230 -0.140814 0.013820 0.106871 -0.994081 
-0.027148 0.084264 -0.133222 -0.256536 0.314713 -0.912888 
-0.126451 -0.537217 -0.062267 -0.876795 0.087988 -0.471941 
-0.104750 -0.233901 -0.057855 -0.844563 -0.040807 -0.533747 
-0.024645 0.838909 -0.052232 -0.563301 0.763016 -0.314495 
0.015031 -0.544859 -0.045663 0.841722 0.044196 -0.537918 
0.033872 0.864128 0.023692 -0.048134 0.985730 0.152920 
-0.190718 0.515706 0.005854 -0.689276 0.693340 0.208226 
-0.570230 0.032539 0.067467 0.037286 -0.153798 0.859404 
-0.089488 -0.334060 0.104527 -0.087072 -0.077944 0.991090 
-0.026935 0.252530 0.112452 -0.277288 0.011763 0.960681 
0.069969 0.278952 0.119019 0.362229 0.126368 0.922154 
0.187866 0.182113 0.016670 0.931160 0.320450 0.166745 
0.039784 0.124647 0.132322 0.081694 0.062899 0.994376 
-0.262095 0.373478 0.017331 -0.303795 0.096116 0.944195 
0.243330 0.451850 -0.000582 0.353364 -0.137953 0.918791 
-0.127134 -0.704066 -0.040948 -0.979547 0.027789 0.186669 
0.053795 0.771104 -0.116049 0.407500 -0.046669 -0.911087 
-0.077335 -0.811680 -0.131099 -0.710299 -0.154006 -0.686530 
-0.007344 0.030307 0.137313 -0.158911 0.158321 0.974504 
0.201002 -0.498077 -0.037257 0.981138 0.083055 -0.170160 
-0.471056 0.127615 0.034185 0.740797 -0.650911 0.165092 
-0.020268 0.709292 -0.045081 -0.938817 -0.298570 -0.170256 
-0.134128 -0.567231 -0.039507 -0.994838 -0.075763 -0.028558 
0.605658 0.100892 0.039835 0.835292 0.547533 0.003513 
-0.088037 -0.280998 0.108651 -0.112792 -0.076951 0.989258 
0.199376 0.070858 0.024256 0.971350 0.209609 0.105907 
0.095378 -0.611981 -0.086361 -0.582198 -0.082344 -0.808492 
0.046224 -0.598881 -0.033534 -0.985628 -0.035188 -0.114923 
0.001007 -0.805240 -0.025015 0.921553 -0.170728 0.347229 
-0.139533 -0.030025 0.027360 -0.969473 0.190302 0.145630 
0.350302 0.410051 -0.096447 0.744673 0.666413 0.003755 
-0.089057 -0.301185 -0.072694 -0.675121 -0.037922 -0.736093 
0.069369 0.594625 -0.086901 0.130811 0.689369 -0.712238 
0.040039 0.021345 -0.157352 -0.162101 -0.330566 -0.920733 
0.349053 0.376219 -0.077132 0.676021 0.679886 0.282712 
-0.008815 -0.723477 -0.098002 0.584616 0.301020 -0.752450 
0.208120 -0.055507 -0.018038 0.969355 0.041723 -0.241059 
-0.043274 0.177408 -0.102645 -0.468587 -0.278295 -0.834053 
0.049228 -0.128208 0.063816 -0.197137 -0.120481 0.904154 
0.402217 0.230775 -0.054440 -0.602925 -0.718224 0.345021 
-0.119653 -0.372054 0.076257 -0.938603 -0.017860 0.339778 
-0.035129 0.801236 -0.064915 -0.987596 -0.004116 -0.147566 
0.320022 0.447686 -0.069642 0.743009 0.641738 0.177656 
-0.039694 -0.701950 0.018212 -0.404379 0.130391 0.896673 
0.014391 -0.143765 -0.051377 0.834931 -0.120209 -0.535002 
0.020594 -0.682127 -0.063032 0.710762 0.123378 -0.688495 
0.054612 0.081923 0.129270 0.031890 -0.016846 0.995628 
-0.081497 -0.829569 0.119276 -0.317714 0.928786 0.170961 
-0.000207 -0.352000 0.074364 0.722402 -0.081375 0.686659 
0.292722 0.397407 -0.144793 -0.049295 0.062421 -0.994536 
0.351463 0.408063 -0.106503 0.744243 0.658568 -0.100563 
0.123351 0.231533 -0.118450 0.616035 -0.321202 -0.718484 
-0.050004 0.506039 -0.122523 -0.118966 0.294962 -0.947674 
0.079098 0.441995 -0.142758 -0.293757 -0.006038 -0.954821 
-0.051863 0.274104 -0.122309 -0.458556 -0.052591 -0.886676 
0.071082 0.677889 0.072829 0.816711 -0.134333 0.516437 
-0.125115 0.459917 -0.108136 -0.491062 0.093795 -0.865783 
0.366219 0.284874 -0.125365 -0.323721 -0.383562 -0.864013 
-0.052559 0.078240 -0.125983 -0.388371 0.204300 -0.898434 
0.132994 0.095954 -0.118376 0.610336 0.259366 -0.747251 
0.110957 -0.526511 0.039582 -0.520071 -0.017752 0.852238 
-0.005724 -0.797396 -0.009104 0.867851 0.011109 0.492957 
0.003644 0.146437 0.129864 -0.123042 0.021410 0.992097 
0.075243 0.803635 -0.100477 0.675589 0.197434 -0.710013 
0.017416 0.710343 0.088150 -0.724576 -0.218603 0.625486 
-0.023261 -0.147156 0.123625 0.208948 -0.101447 0.972224 
0.416151 0.283536 -0.124918 0.341263 0.210870 -0.915679 
-0.248686 0.302025 -0.058900 0.749418 -0.606776 -0.261999 
0.081170 0.595264 -0.083455 0.161136 0.861048 -0.448179 
0.378860 0.274433 -0.039543 -0.433688 -0.252220 0.857885 
-0.111972 0.384548 0.055815 -0.740843 -0.295086 0.601902 
0.206370 -0.035365 -0.025156 0.975235 0.010219 -0.219076 
-0.006296 -0.346847 0.080850 0.623977 -0.055580 0.774906 
-0.257447 0.427133 -0.017932 -0.751627 0.624967 0.210845 
0.071846 0.669097 0.048745 0.735165 -0.673200 0.055234 
0.021949 0.332382 -0.125912 0.002394 0.001265 -0.998671 
-0.058240 -0.203115 0.119453 -0.133348 -0.139784 0.976466 
0.138386 -0.189006 -0.100753 0.449535 -0.084731 -0.889109 
0.584866 0.047819 0.006952 -0.847747 -0.529603 -0.000922 
0.084106 0.601687 -0.075548 0.291683 0.704739 -0.644353 
-0.081638 -0.519154 -0.096903 -0.295264 0.090866 -0.948838 
0.038938 -0.161815 -0.061066 -0.862570 -0.261691 -0.431479 
0.583640 0.129814 0.039788 0.748174 0.660525 0.055574 
0.193176 0.503454 0.020908 0.308993 0.269616 0.910999 
-0.094335 -0.767233 0.008614 -0.619205 -0.327418 0.694751 
-0.102929 -0.848383 -0.021000 -0.814775 -0.507588 -0.209561 
0.007205 -0.138717 -0.062719 0.804074 -0.123513 -0.581474 
0.021460 0.056159 -0.148661 -0.214777 0.297698 -0.930014 
0.131575 -0.866138 -0.008490 0.065052 -0.996899 -0.022855 
-0.118499 -0.302007 0.087171 -0.867812 -0.039336 0.486965 
0.139871 0.389860 0.078877 0.512287 0.041673 0.857754 
0.179156 -0.583233 0.030325 0.596242 -0.297700 0.745345 
0.076495 -0.600844 -0.071120 -0.684283 -0.047823 -0.727527 
-0.067264 0.066059 -0.121457 -0.521178 0.214142 -0.824649 
-0.564455 0.055823 0.036318 -0.962490 0.259563 0.002210 
0.083789 -0.047885 -0.143725 -0.084063 -0.368315 -0.924960 
0.089347 -0.541928 -0.091450 -0.639364 -0.093472 -0.762336 
-0.080909 -0.029012 -0.117445 -0.585150 -0.181876 -0.790181 
-0.028143 0.843772 -0.026097 -0.633015 0.767413 -0.096682 
0.216287 0.404441 -0.101555 -0.823449 -0.489928 -0.156500 
0.075014 0.616214 -0.064251 0.415001 0.611570 -0.666103 
-0.134790 0.015640 -0.032742 -0.965427 -0.003730 -0.250480 
0.110081 -0.826257 0.119689 -0.263387 0.962929 0.033449 
-0.013477 0.010702 0.139029 -0.206118 0.194023 0.958295 
-0.099939 -0.741683 -0.001076 -0.630085 0.464618 0.609456 
0.081801 -0.094374 0.096890 -0.498033 -0.393028 0.764909 
-0.115260 -0.777022 -0.014273 -0.869037 -0.041652 0.490772 
0.166971 0.161603 -0.064390 0.841609 0.018937 -0.538109 
-0.128420 -0.293380 -0.003518 -0.996922 -0.016818 -0.069349 
-0.374776 0.203802 -0.059974 0.447624 -0.691477 -0.562759 
-0.423649 0.211257 -0.054589 -0.528132 0.061940 -0.846837 
0.336722 0.403223 -0.052633 0.740318 0.128949 0.591608 
0.030203 -0.291120 -0.005236 0.990317 -0.104869 -0.066227 
-0.372090 0.228992 0.010463 0.090373 -0.015038 0.995276 
-0.027579 0.800411 -0.086905 -0.884085 0.054877 -0.459156 
0.026602 -0.341834 0.027281 0.987668 -0.065104 0.135315 
0.018585 0.183305 -0.115326 0.113812 0.020910 -0.991020 
0.185822 -0.736016 -0.004812 0.091381 0.494522 0.850316 
-0.121277 0.215742 -0.002815 -0.970176 0.221103 -0.037209 
0.447327 0.211963 -0.093569 0.838070 -0.119481 -0.529108 
-0.293635 0.373466 -0.053192 -0.879249 0.448449 -0.116403 
0.290134 0.330630 -0.078228 -0.614164 -0.784536 0.058994 
0.198038 -0.098629 0.065176 0.861293 -0.028873 0.501947 
0.133267 -0.852641 -0.117246 0.556130 -0.076085 -0.808772 
-0.023960 -0.087624 0.128462 0.038589 -0.055794 0.997315 
0.109410 -0.864140 -0.016793 -0.378230 -0.922066 0.061803 
-0.127166 -0.298459 0.049419 -0.989773 -0.107246 0.085616 
-0.120435 0.338364 -0.055400 -0.998171 -0.039925 -0.042468 
0.184050 0.192301 0.018817 0.974517 0.192431 0.094315 
0.167507 -0.820752 -0.020350 0.810535 -0.583139 0.048311 
-0.065023 -0.059123 -0.116460 -0.307026 -0.317676 -0.894769 
0.478342 0.234616 -0.011375 -0.100901 0.574166 0.780195 
-0.506858 0.114554 0.008888 -0.132369 -0.737200 -0.660190 
-0.059302 0.549271 -0.101118 -0.363196 0.517816 -0.774344 
-0.442590 0.194187 0.017715 -0.232677 0.503413 0.827760 
0.315512 0.428793 -0.124896 0.473881 0.636208 -0.608704 
0.629084 0.035874 0.078653 -0.862138 -0.479766 0.004097 
-0.106156 -0.813748 -0.020903 -0.899017 -0.352622 0.211938 
0.180191 0.389284 0.041413 0.773303 -0.152634 0.613198 
-0.018275 0.619242 -0.029792 -0.940434 0.281554 -0.011447 
0.035917 0.062504 -0.149854 -0.185920 0.267492 -0.945039 
0.129862 -0.662475 -0.094203 0.104770 -0.048977 -0.989235 
0.188774 -0.328283 0.060298 0.871851 -0.094887 0.477113 
-0.115276 0.428834 0.062197 -0.267216 -0.002889 0.962236 
-0.024057 0.794982 -0.094485 -0.775329 0.029830 -0.621612 
-0.106901 0.268807 0.036579 -0.982689 0.040446 0.179374 
0.123023 0.354112 0.089788 0.388312 0.054861 0.919605 
-0.126727 -0.300397 -0.018320 -0.974177 0.018410 -0.214196 
-0.135282 -0.549777 -0.038049 -0.990005 -0.066200 -0.101619 
0.052209 -0.053218 -0.133086 -0.352836 -0.432335 -0.829631 
-0.006039 -0.263391 0.095541 0.464687 -0.211873 0.858617 
0.197524 0.137057 -0.012314 0.825206 0.098903 -0.543099 
0.049443 0.118837 0.131344 0.127832 0.127551 0.982249 
-0.095592 -0.622832 -0.099103 -0.464127 0.100198 -0.879558 
0.064746 0.861076 -0.039109 0.441953 0.868263 -0.188841 
0.065226 0.174532 -0.119202 -0.024573 0.110309 -0.991475 
-0.402496 0.182273 0.018193 0.620379 -0.500855 0.495298 
-0.119065 0.335122 -0.007570 -0.987225 -0.103898 0.119107 
0.018751 -0.557920 -0.039884 0.914902 0.048241 -0.397884 
-0.136591 0.029838 -0.020327 -0.977355 0.113062 -0.174090 
-0.132606 -0.573939 -0.048114 -0.959448 -0.080261 -0.249875 
-0.559759 0.046771 0.002936 0.964851 -0.163260 -0.178648 
-0.083703 0.015863 -0.120137 -0.631850 -0.082574 -0.768654 
0.043686 -0.339745 0.020895 -0.976069 -0.077811 0.197547 
-0.142263 0.022532 0.005161 -0.987872 0.068728 -0.093911 
-0.098534 -0.561501 -0.093140 -0.513216 0.056473 -0.856297 
-0.112170 0.253827 -0.029868 -0.998126 0.048498 -0.012729 
0.117405 -0.793407 0.050917 0.115162 0.546659 0.828544 
-0.144997 0.427672 -0.093092 -0.118981 -0.462659 -0.864129 
-0.501942 0.094580 0.066107 0.691287 -0.654640 0.277621 
-0.131243 -0.059835 -0.045197 -0.888661 -0.036974 -0.456417 
0.166826 0.224531 -0.061279 0.869363 -0.014138 -0.493761 
-0.002044 0.375049 0.107556 -0.111162 0.184452 0.975241 
0.204672 0.012973 0.045744 0.967303 0.022494 0.243859 
-0.029988 0.105452 0.121743 -0.425069 0.183571 0.885364 
0.007294 0.788804 0.080020 -0.405969 0.253682 0.873095 
-0.124027 -0.298885 0.070090 -0.970100 -0.120437 0.209483 
-0.031534 -0.704441 0.023630 -0.719039 0.089849 0.667766 
-0.127991 -0.585625 -0.015987 -0.977568 -0.044606 0.205516 
0.026108 -0.115778 -0.065983 -0.899462 -0.302708 -0.311797 
-0.108194 0.162603 0.057449 -0.807327 -0.005596 0.589649 
0.077169 0.608833 -0.070366 0.325364 0.675894 -0.660619 
0.212011 0.554446 -0.037187 0.582024 0.747509 0.300483 
-0.124499 0.205006 0.014178 -0.901084 0.388825 0.178123 
0.065506 0.664790 0.062032 0.630132 -0.762854 0.141481 
-0.127941 -0.613609 -0.065991 -0.963014 0.007045 -0.242443 
0.158693 -0.697745 -0.077195 0.698590 -0.026132 -0.714485 
-0.070995 -0.001457 -0.128315 -0.420807 -0.052613 -0.903207 
-0.035704 -0.785466 -0.144988 0.148016 0.467484 -0.864349 
0.195461 -0.411916 0.031624 0.949777 -0.063215 0.305927 
-0.090921 -0.577417 0.059343 -0.309660 -0.133919 0.892452 
0.174454 0.424955 0.049051 0.546658 0.070234 0.833338 
-0.186855 0.366689 0.002419 0.496774 -0.677052 0.541861 
0.012199 0.645259 0.029982 -0.607411 -0.345256 0.713416 
-0.422690 0.172072 -0.046019 0.482247 -0.720365 -0.495899 
-0.012503 -0.508325 0.042682 0.587838 -0.233309 0.774549 
0.083389 -0.587555 0.022927 -0.699455 -0.073580 0.710621 
0.133848 -0.552133 0.046261 -0.213110 -0.175643 0.957612 
0.063707 -0.739497 -0.022761 -0.860483 0.011105 -0.505434 
-0.092803 0.068392 0.095294 -0.459413 0.291380 0.837260 
0.151580 -0.818514 0.053126 0.692857 0.642189 0.297787 
-0.073454 -0.601783 -0.104027 -0.087455 0.046400 -0.993240 
0.130633 -0.256663 0.084953 0.101393 -0.119586 0.987548 
-0.036641 0.085117 -0.130291 -0.267148 0.264479 -0.925816 
-0.077036 -0.863555 0.035722 -0.038052 -0.999238 -0.005908 
-0.128274 -0.617936 -0.020297 -0.994183 -0.037469 0.097944 
0.024037 0.839191 0.060829 -0.212563 0.599995 0.769168 
0.388845 0.251667 -0.042855 -0.601165 -0.419574 0.679636 
0.113274 -0.051361 -0.140544 0.198420 -0.363783 -0.909470 
-0.412861 0.171809 0.012615 0.681454 -0.726342 0.076297 
0.119706 -0.186015 -0.105912 0.066075 -0.098573 -0.990999 
0.187011 0.316614 -0.041020 0.879336 -0.342749 -0.329590 
0.185856 -0.189884 0.080527 0.674824 -0.059113 0.731112 
0.047772 -0.369661 -0.047792 -0.851632 -0.008270 -0.523359 
0.282812 0.446369 -0.130146 0.336611 0.520263 -0.782835 
0.513139 0.189487 0.017290 -0.476308 0.022938 0.800425 
-0.127176 -0.309934 -0.016930 -0.982472 0.011029 -0.178303 
0.578262 0.060957 0.002930 -0.927738 -0.371742 0.027270 
-0.109205 -0.611322 0.034450 -0.902774 -0.001669 0.429765 
-0.471371 0.136940 -0.014183 0.291309 -0.863309 -0.410848 
0.005127 0.394141 0.104844 0.047245 0.145917 0.987541 
0.124704 -0.842821 0.179914 -0.177981 0.427850 0.882407 
0.064566 0.542384 -0.121654 -0.140027 0.310440 -0.939076 
0.608113 0.096235 0.015804 0.774649 0.617007 -0.118426 
0.206102 0.445987 -0.132541 0.058446 -0.173591 -0.980887 
-0.128459 -0.350986 -0.001385 -0.999153 0.037326 -0.011860 
0.027498 -0.343875 0.007591 0.998847 -0.047642 0.002386 
0.151879 -0.193412 0.095007 0.160597 -0.135897 0.975254 
-0.113174 0.051783 -0.072710 -0.862839 0.151585 -0.480901 
-0.083001 -0.820608 0.067298 -0.381827 0.867806 0.297060 
0.001831 -0.195469 0.102776 0.615997 -0.100810 0.781229 
0.199721 -0.231124 0.044662 0.947819 0.035670 0.316455 
0.084546 0.706861 0.059693 0.830318 -0.136281 0.538779 
-0.131895 -0.237957 -0.003902 -0.936132 -0.037094 -0.349405 
0.029287 0.426954 0.095735 0.133385 0.186081 0.973053 
-0.060889 0.337485 -0.120163 -0.421036 -0.022687 -0.906376 
-0.109329 -0.854396 0.018437 -0.722344 -0.687753 -0.071147 
0.153804 -0.849327 -0.094378 0.868018 -0.067118 -0.487117 
0.021699 -0.300541 -0.023650 0.936041 -0.025379 -0.350664 
-0.128254 0.170986 0.011905 -0.994913 -0.024579 0.081321 
0.018665 -0.146783 -0.042315 0.907007 -0.119575 -0.401528 
0.177936 -0.784563 -0.071340 0.866866 0.169356 -0.435475 
0.174686 0.200750 0.048096 0.787401 0.059261 0.612616 
-0.141371 0.021615 0.026853 -0.968056 0.151203 0.186951 
0.130584 0.241890 -0.115816 0.692955 -0.202696 -0.690909 
-0.040583 0.082233 0.119462 -0.350701 0.101808 0.928070 
-0.180905 0.360235 -0.050617 0.646663 -0.726756 -0.231404 
-0.069040 0.147151 -0.094432 -0.491628 0.302609 -0.811701 
0.123327 0.580447 -0.026754 0.266304 0.892248 0.340178 
-0.062292 0.554207 0.022294 -0.187543 0.743349 0.641962 
0.177564 -0.077556 0.088533 0.599919 0.073991 0.777727 
0.205306 0.471361 -0.133875 0.083347 0.060967 -0.993082 
0.250698 0.362834 -0.080833 -0.698836 -0.715229 -0.001262 
-0.570265 0.026472 0.018718 -0.102365 -0.987950 0.041202 
0.110048 -0.869239 0.118226 0.010970 -0.998565 0.050382 
-0.075764 -0.834577 0.148092 -0.300748 0.887165 0.321412 
0.117838 -0.749815 0.028796 -0.142815 -0.375631 0.906511 
0.644670 0.023963 0.062290 0.879600 -0.437024 0.059053 
-0.137943 -0.065182 -0.026831 -0.963388 0.005479 -0.267388 
-0.120793 -0.380307 0.071092 -0.972169 -0.031926 0.226382 
0.205768 -0.299256 0.009408 0.999247 0.005861 0.028963 
-0.094000 -0.355442 -0.070298 -0.789316 0.042217 -0.576611 
0.199937 -0.458430 -0.028532 0.999214 0.002459 -0.033975 
0.489134 0.194083 -0.058471 -0.107403 -0.461129 -0.878424 
0.191174 0.406147 0.027175 0.949922 -0.104133 0.288004 
-0.046229 -0.415402 -0.084537 0.145065 0.268733 -0.951371 
0.182976 0.219729 -0.004960 0.999665 0.020690 -0.009118 
0.042087 -0.239746 -0.043240 -0.895917 -0.068340 -0.438121 
0.174353 -0.613000 0.021230 0.372766 -0.232270 0.894228 
0.085313 0.245543 -0.137025 -0.037416 -0.128106 -0.990717 
0.201244 0.014815 0.055007 0.917833 0.075976 0.386387 
0.006901 -0.814482 -0.053975 0.885178 -0.376619 0.248877 
-0.294626 0.365387 -0.015017 -0.769088 0.558887 0.292124 
-0.091912 -0.820153 -0.109476 -0.837773 -0.274555 -0.471725 
0.111529 0.244151 -0.131363 0.479520 -0.217464 -0.848539 
0.027197 -0.223758 0.046293 0.974138 -0.027233 0.224151 
0.093361 0.054919 0.121669 0.336383 0.130460 0.930734 
0.221172 0.395036 -0.100302 -0.549597 -0.795695 -0.139447 
0.158906 0.116982 0.076660 0.575583 0.176429 0.797391 
-0.075248 0.325318 0.082923 -0.541535 -0.089830 0.834867 
0.420735 0.274742 -0.038844 0.056223 0.456851 0.886543 
-0.073945 -0.800159 -0.137148 -0.644950 -0.133085 -0.744266 
-0.096150 0.059145 0.096196 -0.426261 0.233712 0.873371 
-0.091400 -0.854551 -0.104960 -0.830017 -0.286475 -0.372510 
0.090688 -0.780573 -0.085520 -0.781362 0.311149 -0.537562 
0.087443 -0.293274 -0.094513 -0.362613 0.018267 -0.923318 
0.082769 0.663998 0.000173 0.986722 -0.064722 0.147375 
-0.067938 -0.669256 -0.109271 -0.068168 0.100333 -0.989636 
-0.118564 -0.420664 -0.044166 -0.779893 0.232030 -0.576773 
-0.044595 -0.477146 0.067210 0.288495 -0.259622 0.921308 
0.200989 0.071831 -0.000091 0.972524 0.230678 0.030004 
-0.136337 -0.409349 -0.003457 -0.991417 0.090668 -0.078956 
-0.136011 0.557766 -0.028627 -0.367304 0.917158 -0.115508 
0.071433 -0.047664 0.126795 0.046685 -0.404309 0.912633 
0.057764 0.556742 0.024071 0.203677 0.499828 0.840517 
0.083164 -0.766964 -0.067219 -0.840301 0.217613 -0.496031 
0.120780 0.563709 -0.002271 0.346228 0.719422 0.600636 
-0.105701 0.549739 -0.075071 -0.442977 0.680288 -0.582868 
0.072270 -0.205465 -0.088313 -0.515367 -0.220848 -0.825616 
0.000830 -0.759377 -0.017838 0.530797 -0.283974 0.784392 
0.022427 0.815124 -0.110921 -0.095450 0.544249 -0.827529 
-0.067288 -0.864200 0.076068 -0.021705 -0.999688 -0.001253 
0.142861 -0.371413 -0.087569 0.587798 0.124088 -0.799284 
-0.091869 -0.856921 -0.046506 -0.629303 -0.759892 0.080640 
0.180173 -0.683957 -0.052951 0.713923 -0.236883 -0.657727 
-0.122946 -0.380001 0.058501 -0.983651 -0.025738 0.176039 
-0.144295 -0.093384 0.010764 -0.999877 0.012485 0.000811 
-0.125445 -0.020156 -0.062302 -0.871919 -0.003771 -0.488872 
0.182432 0.227216 0.011230 0.998733 0.013592 0.045834 
0.075529 0.833037 -0.077747 0.585412 0.636626 -0.501685 
-0.060367 0.563447 0.010878 -0.120429 0.791229 0.598430 
0.171179 -0.460121 0.064704 0.400066 -0.109466 0.908078 
0.165529 0.003098 0.101046 0.631248 -0.250780 0.717709 
-0.024797 0.065001 0.127749 -0.284451 0.149038 0.945595 
0.616946 0.076656 0.007422 0.531911 -0.093747 -0.826642 
0.200688 -0.211201 -0.048559 0.823592 -0.027220 -0.564557 
-0.240874 0.435318 0.007248 -0.735295 0.505686 0.450927 
0.014277 0.300316 -0.128021 0.113292 0.040005 -0.992719 
-0.014407 -0.467825 0.056949 0.601648 -0.231550 0.764029 
0.208849 -0.148736 -0.014527 0.966844 -0.247671 -0.045672 
0.097040 0.183134 0.114171 0.399529 0.040285 0.915756 
0.165571 0.309316 -0.081759 0.714121 -0.253101 -0.607343 
0.193000 -0.084702 0.073212 0.699362 0.021163 0.710315 
-0.136793 0.013114 0.052071 -0.962641 0.080172 0.240379 
0.424330 0.245485 -0.119240 0.299516 -0.372091 -0.874353 
-0.167034 0.519464 0.035171 -0.513233 0.596656 0.614202 
0.083577 0.687247 0.049254 0.903462 -0.363040 0.219951 
-0.045315 -0.862361 0.004747 0.136035 -0.986971 -0.068217 
-0.053094 -0.406512 0.087142 0.207786 -0.179274 0.961299 
-0.034202 -0.819358 0.068164 0.579618 0.667336 0.409759 
0.625344 0.064172 0.095202 0.698331 0.621021 0.318905 
-0.061213 0.331820 0.093086 -0.619673 -0.061174 0.781884 
-0.140094 -0.135697 -0.012975 -0.922812 -0.095157 -0.372992 
0.059522 0.522866 0.052900 0.040466 0.530197 0.846083 
0.020759 -0.606788 0.001274 0.748013 0.023228 0.660138 
0.100132 -0.644314 -0.087442 -0.538198 -0.081887 -0.836817 
0.165158 0.415192 -0.131179 0.287153 -0.374089 -0.881727 
0.084904 0.649101 -0.017095 0.990873 -0.046884 0.060758 
0.059583 -0.769496 0.009583 -0.991814 0.044830 0.108627 
0.051196 -0.566210 -0.046051 -0.843206 -0.036003 -0.535861 
0.088630 -0.825940 0.040850 -0.961076 -0.197973 0.125894 
0.084920 -0.448049 -0.089108 -0.639335 0.055434 -0.766321 
0.171474 -0.294767 -0.061635 0.675936 -0.108298 -0.728750 
0.205111 -0.181878 0.027755 0.970619 -0.014786 0.232109 
0.066510 0.097009 -0.143759 -0.002100 0.329735 -0.941435 
0.004675 0.504388 0.068717 0.034087 0.476354 0.877035 
0.090118 0.123165 0.120589 0.374152 0.028387 0.926805 
0.165215 0.122142 -0.073506 0.805248 0.201251 -0.554417 
0.061495 0.785628 0.079582 0.515254 0.141380 0.801787 
0.193515 -0.594133 0.014587 0.788727 -0.055115 0.606087 
0.192991 -0.683257 -0.040202 0.789342 -0.154584 -0.592064 
-0.404821 0.206767 -0.061721 -0.207797 -0.297868 -0.929164 
-0.270449 0.413677 -0.037477 -0.745779 0.665636 0.009317 
-0.006400 -0.755172 -0.012091 0.462148 -0.382003 0.783915 
0.106299 0.504240 0.056190 0.306645 0.484043 0.817184 
-0.213841 0.489424 -0.035068 -0.732789 0.612347 -0.281409 
0.199984 -0.129569 0.059600 0.899415 -0.039069 0.435197 
-0.255793 0.386459 0.017800 -0.378741 0.138031 0.911422 
-0.110088 0.276089 -0.066429 -0.962934 -0.063628 -0.250570 
0.079002 0.272677 -0.138869 -0.116481 -0.068759 -0.990174 
-0.040284 0.746630 -0.020028 -0.993273 0.020610 0.057494 
-0.400577 0.274100 -0.042781 -0.763255 0.643339 -0.011385 
0.201110 -0.331886 0.030899 0.935691 -0.055112 0.348041 
0.193390 0.370918 -0.083943 0.782789 -0.451645 -0.427457 
0.132376 -0.530285 0.049546 -0.365766 -0.174885 0.913429 
0.098725 -0.137404 -0.115173 -0.151293 -0.247013 -0.953195 
-0.189507 0.370771 -0.083019 0.477063 -0.646642 -0.582582 
-0.106169 0.406672 0.065215 -0.502001 -0.012797 0.860315 
-0.057089 -0.769795 0.028574 -0.030116 0.547237 0.823655 
-0.121729 -0.649486 -0.080288 -0.808751 0.006882 -0.587541 
0.359397 0.307485 -0.131606 -0.098337 -0.243004 -0.962558 
0.284527 0.459338 -0.022127 0.691369 0.217444 0.688316 
0.078774 0.047511 -0.157274 0.133572 0.292193 -0.945472 
-0.545487 0.071996 0.016140 0.791461 -0.412015 -0.444998 
-0.097363 -0.792941 -0.109907 -0.797989 0.040954 -0.597553 
-0.080145 0.481898 -0.124051 -0.325937 0.229242 -0.915816 
0.199295 -0.470387 -0.040265 0.995802 0.012110 -0.084943 
0.196688 -0.626695 -0.001024 0.968585 -0.089519 0.228121 
-0.097692 0.465004 -0.120439 -0.329597 0.074808 -0.940832 
-0.135797 0.001669 -0.027883 -0.987669 0.043303 -0.143525 
-0.082670 -0.494723 0.077329 0.460056 -0.151037 0.869896 
0.626014 0.041555 0.055647 -0.828182 -0.559497 -0.031779 
-0.325949 0.271146 -0.089216 -0.019090 -0.372554 -0.926193 
-0.116435 0.104353 -0.049771 -0.842556 0.130260 -0.517957 
-0.287759 0.361214 -0.083605 -0.645439 0.424343 -0.630854 
-0.015867 0.080776 -0.136113 -0.155270 0.216243 -0.963908 
0.129890 0.103092 0.101116 0.521359 0.108737 0.845898 
-0.099175 0.453690 0.065553 -0.372487 0.068528 0.918342 
0.111759 -0.399008 0.063918 -0.428314 -0.172147 0.884727 
-0.080599 -0.274047 0.109655 -0.030830 -0.101156 0.992870 
0.016111 -0.044394 -0.128428 0.050758 -0.549419 -0.832668 
0.196955 -0.148852 0.063164 0.892701 -0.094559 0.440450 
0.433232 0.300146 -0.096598 0.617161 0.739389 -0.256570 
0.015091 -0.301771 0.069761 0.802531 -0.166202 0.572267 
0.225187 0.395285 -0.110376 -0.744371 -0.542393 -0.386266 
0.032606 0.297505 0.122167 0.051186 0.097960 0.993805 
0.095945 0.599177 -0.072918 0.424294 0.821711 -0.347676 
-0.119808 -0.781983 -0.031436 -0.992290 -0.040749 0.108652 
0.039275 -0.279517 0.008080 -0.957034 -0.009581 0.289235 
0.128163 -0.819450 0.085782 0.140185 0.946972 0.275658 
-0.081154 -0.232109 -0.083199 -0.576691 -0.034157 -0.815363 
0.331393 0.389769 -0.051194 0.891583 -0.238912 0.370247 
0.202460 -0.096306 0.056738 0.852629 -0.042944 0.518678 
0.187959 -0.625408 -0.065826 0.716910 -0.093781 -0.689921 
-0.080329 0.381297 0.083939 -0.670969 -0.056089 0.739062 
-0.048860 0.251844 -0.121683 -0.515601 -0.098447 -0.851109 
0.468688 0.261713 -0.049181 0.669134 0.731248 0.125348 
0.044282 -0.406834 -0.040118 -0.974813 -0.016715 -0.209013 
0.107567 -0.825932 0.106362 -0.280568 0.946991 0.131807 
-0.473191 0.159148 -0.040461 -0.373784 0.222625 -0.876734 
0.080346 0.417607 -0.143355 -0.221017 0.037626 -0.973668 
0.146866 -0.829829 0.118907 0.406896 0.901482 0.126165 
0.173843 -0.395815 0.069584 0.496751 -0.022621 0.863866 
0.086147 -0.672896 0.032755 -0.344988 0.217896 0.911394 
-0.136679 -0.212934 0.029766 -0.996742 -0.075549 0.002950 
-0.041194 0.030581 0.128595 -0.319396 0.165845 0.928827 
0.062013 -0.209866 0.074060 -0.681164 -0.091230 0.726385 
-0.099107 -0.022469 0.105018 -0.616902 0.024309 0.780425 
-0.248159 0.440201 -0.047377 -0.717582 0.649631 -0.246022 
0.093634 0.708484 0.008902 0.704842 -0.698439 0.065613 
0.344016 0.382968 -0.128857 0.817646 0.078695 -0.564368 
0.152295 -0.253473 -0.082496 0.501706 -0.111888 -0.857708 
0.158975 -0.860353 0.005160 0.492748 -0.830044 -0.187341 
0.056375 -0.717288 -0.014134 -0.936670 -0.181164 -0.298006 
0.189602 -0.015187 0.071464 0.770997 0.118310 0.623967 
-0.137154 -0.142111 0.054586 -0.971483 0.002346 0.236855 
0.231192 0.458675 0.011153 0.728168 0.012852 0.682302 
-0.090816 -0.471046 0.079325 -0.238843 -0.155097 0.946168 
0.216977 0.472081 0.018542 0.283635 0.012207 0.954981 
-0.144128 -0.085301 0.002801 -0.999068 0.010884 -0.036018 
-0.021077 -0.526533 -0.089588 0.593361 0.040882 -0.800865 
0.081009 0.739030 -0.089561 0.662254 -0.388179 -0.640725 
0.146602 -0.867431 0.031062 0.181917 -0.977362 -0.104541 
0.156283 -0.845602 0.163527 0.812668 0.459866 0.345005 
0.070348 -0.705876 -0.045835 -0.814596 -0.254912 -0.520706 
0.089200 0.688605 0.003715 0.982088 -0.168590 0.066516 
-0.013267 -0.806639 0.019389 0.941045 0.207401 0.258147 
0.413177 0.217922 -0.067911 -0.643429 -0.756584 0.111054 
0.087816 0.529351 -0.129080 -0.053505 0.214658 -0.974443 
-0.358171 0.272612 0.005709 0.020140 0.232696 0.971943 
0.042814 -0.400801 -0.021115 -0.994339 -0.096524 0.009708 
-0.030939 0.597243 -0.033896 -0.677807 0.710749 0.168695 
-0.039585 0.040455 0.127583 -0.338944 0.163776 0.923265 
0.519531 0.170551 -0.042648 0.275642 -0.371169 -0.879914 
0.053092 0.374492 -0.135730 -0.333254 -0.016268 -0.942090 
0.205567 -0.369559 -0.003248 0.997747 0.001053 0.054723 
0.331693 0.352783 -0.041299 0.388920 0.182906 0.897234 
-0.080189 0.568112 -0.070755 -0.478861 0.713347 -0.508818 
0.008883 -0.705882 -0.008497 0.768380 -0.183800 0.612479 
0.136515 -0.293224 0.082250 0.057085 -0.056873 0.996425 
0.112976 0.444794 0.081395 0.198010 0.206355 0.957549 
-0.009875 -0.639967 -0.077687 0.661974 0.038138 -0.748322 
0.164617 -0.104586 -0.098402 0.722324 -0.127230 -0.679115 
-0.032803 0.214395 -0.121246 -0.326100 -0.300028 -0.893583 
-0.279825 0.365155 0.005786 -0.671789 0.179929 0.713466 
-0.116270 -0.117828 0.095325 -0.728169 0.045170 0.683665 
0.004551 0.493121 -0.124145 0.159785 0.122792 -0.978194 
0.169775 -0.133633 -0.085257 0.711923 -0.164153 -0.682506 
-0.084916 -0.470630 -0.089791 -0.451397 0.109457 -0.885011 
-0.252991 0.294724 -0.029141 0.709611 -0.672231 0.208613 
0.100312 0.334886 -0.143734 0.205813 -0.085680 -0.973062 
