0.098422 0.811119 -0.028614 0.934491 0.332709 -0.012894 
-0.107593 0.089527 0.075971 -0.764814 0.234569 0.595497 
-0.055009 -0.440676 0.080023 0.199476 -0.221943 0.953373 
0.076063 0.627366 -0.055146 0.649983 0.443308 -0.605004 
-0.026906 0.053097 0.128676 -0.232643 0.113620 0.965498 
-0.343703 0.309370 -0.084873 -0.450919 0.461179 -0.762867 
-0.056114 -0.403460 0.088292 0.183018 -0.165331 0.968920 
0.018618 -0.270035 0.069615 0.926675 -0.057599 0.370779 
0.184318 -0.713167 -0.044924 0.668629 -0.076262 -0.737867 
0.168662 -0.505549 -0.091809 0.666533 -0.016876 -0.744978 
-0.009917 0.453717 0.092337 -0.072678 0.370694 0.925348 
-0.002470 -0.491449 -0.067354 0.774856 0.072496 -0.627927 
0.000448 0.088810 -0.136699 -0.132922 0.212278 -0.968020 
0.001702 0.595311 -0.084995 -0.184267 0.559163 -0.806929 
-0.033884 0.732410 -0.039173 -0.848090 -0.369748 -0.361382 
-0.038059 0.760225 -0.014232 -0.989700 0.008693 0.120349 
0.155337 0.052908 0.095974 0.300057 0.326114 0.889954 
-0.142787 -0.166784 0.014193 -0.988567 -0.127206 -0.040626 
0.204687 -0.084481 -0.035654 0.914264 0.061792 -0.396536 
0.022658 0.320368 -0.126093 0.012822 0.035800 -0.998808 
0.261477 0.474925 -0.006200 0.516963 0.180892 0.829610 
-0.077685 -0.019968 -0.121692 -0.561165 -0.150391 -0.813451 
-0.328673 0.257005 -0.082045 0.032338 -0.500222 -0.865061 
0.174275 -0.200784 -0.074511 0.623946 -0.096488 -0.774450 
0.057460 -0.422179 -0.060006 -0.760610 -0.010738 -0.649007 
0.104635 -0.622048 -0.091441 -0.499767 -0.084617 -0.861513 
0.096852 0.154544 -0.117609 0.292639 0.240883 -0.924714 
-0.127503 0.159952 0.013322 -0.985331 -0.068009 0.142211 
0.003729 0.720481 -0.093899 -0.484222 -0.547613 -0.682312 
0.603909 0.104534 0.037882 0.846666 0.531907 -0.001282 
-0.068513 -0.142925 0.121282 -0.209718 -0.006834 0.975321 
0.072285 0.701067 0.072891 0.645678 -0.069860 0.759355 
-0.042826 -0.771987 0.030192 0.102911 0.794876 0.542538 
-0.110286 -0.697063 0.010136 -0.777106 -0.329881 0.533389 
0.180497 0.200883 0.037984 0.958912 0.043328 0.276709 
0.120211 -0.869909 0.072628 -0.004050 -0.999955 0.006749 
-0.103644 0.448953 -0.118959 -0.360682 -0.040285 -0.929479 
0.136014 -0.368829 -0.092390 0.586721 0.098785 -0.803458 
0.205681 -0.307376 -0.004262 0.995691 -0.009095 -0.081739 
-0.097137 0.222193 0.070910 -0.635370 0.117215 0.762950 
-0.034468 0.579910 -0.005124 -0.273866 0.734343 0.614089 
0.015919 0.628180 0.026195 -0.476146 -0.250506 0.839803 
0.165520 0.184149 0.061347 0.759364 0.087111 0.644014 
0.214988 0.543175 -0.086751 0.338778 0.761110 -0.551605 
0.000979 -0.150794 -0.068414 0.787781 -0.088408 -0.608754 
0.191434 0.100779 -0.037317 0.941355 0.189169 -0.276011 
-0.496990 0.154350 0.019571 -0.762089 0.647189 0.002309 
-0.029256 -0.749076 0.001743 0.479191 -0.419548 0.749165 
-0.313464 0.353984 -0.043331 -0.674770 0.735985 -0.033903 
0.078648 -0.046689 -0.143549 -0.138317 -0.378264 -0.914932 
-0.420945 0.165513 -0.022166 0.638326 -0.759776 -0.117580 
-0.010376 0.126628 -0.122488 -0.172749 0.409747 -0.895319 
-0.028529 -0.796727 0.046693 0.625199 0.591489 0.508072 
-0.087534 0.480578 -0.121826 -0.310226 0.180361 -0.932722 
-0.103876 -0.822152 -0.020724 -0.984864 -0.100812 0.051367 
-0.068556 -0.726861 0.014473 -0.350343 0.379628 0.854731 
-0.369488 0.303871 -0.059090 -0.698224 0.690953 -0.173802 
0.046049 -0.447494 -0.044433 -0.933966 0.018929 -0.342700 
0.151777 0.488671 0.049827 0.361887 0.484276 0.789273 
0.105149 -0.295494 0.081336 -0.149108 -0.113985 0.979624 
-0.034544 0.778499 0.011037 -0.976724 0.053222 0.200195 
0.063751 0.241159 -0.132302 -0.344719 -0.160682 -0.924599 
0.085533 -0.368476 0.057096 -0.501776 -0.274926 0.819786 
0.033389 0.562606 0.026066 0.085220 0.094550 0.991104 
0.046443 -0.486298 -0.046496 -0.898930 -0.026974 -0.430419 
0.039394 -0.202417 -0.037214 -0.794142 -0.241321 -0.451475 
-0.159777 0.442337 -0.094585 -0.123403 0.027033 -0.990097 
0.067357 -0.019842 -0.152275 -0.178930 -0.308572 -0.931459 
-0.051012 -0.482367 -0.096924 0.097098 0.110055 -0.987755 
0.625750 0.072417 0.037551 0.872597 0.483901 -0.025454 
0.011882 0.520345 -0.121709 0.002844 0.166172 -0.985908 
0.066226 0.150385 -0.122004 -0.038887 0.252437 -0.963694 
0.515325 0.214631 -0.062941 0.274479 0.162212 -0.806381 
-0.134520 0.401572 -0.025996 -0.024061 -0.948258 -0.002567 
-0.121149 -0.700266 -0.076213 -0.823529 -0.129715 -0.550554 
-0.012624 0.208690 0.123062 -0.495756 0.148227 0.854618 
-0.007286 -0.575876 -0.075731 0.727365 -0.059127 -0.683436 
-0.102034 -0.829876 0.018921 -0.825392 0.556737 0.085560 
-0.106294 -0.479588 -0.075939 -0.681663 0.117128 -0.722178 
-0.047579 0.233042 -0.119485 -0.553779 -0.191193 -0.809766 
0.195777 -0.510604 -0.058369 0.869070 0.023541 -0.488497 
-0.036721 -0.168869 -0.093313 0.371004 -0.067598 -0.925138 
-0.031551 -0.590337 0.030910 0.365330 -0.279094 0.886747 
0.069309 -0.768808 -0.043812 -0.867330 0.209209 -0.450066 
-0.012591 -0.721158 -0.099610 0.547934 0.313982 -0.773753 
0.066245 -0.691554 -0.045312 -0.796425 -0.157905 -0.583100 
0.018998 0.016417 0.142162 0.008010 0.122477 0.992111 
0.175174 -0.232383 -0.071771 0.565286 -0.077863 -0.819971 
0.012431 -0.618810 0.010834 0.647709 0.090305 0.753259 
-0.109369 -0.748881 -0.088562 -0.838522 0.055056 -0.541575 
-0.066220 -0.296557 -0.088429 -0.333240 -0.097588 -0.933790 
-0.026159 0.777985 -0.089347 -0.829472 -0.079632 -0.548688 
0.142249 -0.167389 0.100615 0.221501 -0.320305 0.919333 
-0.047316 0.560355 0.019328 -0.229090 0.768850 0.596366 
0.183366 0.201143 -0.004662 0.993063 0.084137 -0.016765 
0.043319 0.550404 -0.114590 -0.153390 0.418785 -0.894091 
-0.184124 0.519062 -0.044945 -0.667041 0.637550 -0.378095 
0.002611 -0.801425 -0.111251 0.928155 -0.038978 -0.360746 
-0.132943 -0.029213 0.060704 -0.902488 0.117905 0.412509 
0.099141 -0.857387 -0.010672 -0.685682 -0.720872 -0.004208 
0.116991 -0.580136 0.037051 -0.257520 -0.208982 0.943084 
0.187437 0.164470 -0.025531 0.876588 0.134863 -0.461545 
0.206732 -0.158027 -0.029082 0.992285 -0.017916 -0.115640 
0.324532 0.386297 -0.038537 0.836484 -0.137369 0.524752 
0.070620 -0.458479 0.008147 -0.603541 0.012608 0.792012 
-0.175363 0.497427 -0.073675 -0.551239 0.419367 -0.720115 
0.143560 0.212964 -0.090480 0.783288 -0.137560 -0.597159 
-0.036621 0.188850 0.111880 -0.523552 0.085477 0.847450 
0.281040 0.488497 -0.038337 0.718890 0.599838 0.350344 
0.137317 -0.793525 -0.113907 0.282429 0.327868 -0.895744 
0.251329 0.522894 -0.076408 0.632497 0.685765 -0.342807 
-0.046738 -0.522997 -0.099847 0.196786 0.052561 -0.978958 
-0.083406 -0.777094 -0.123133 -0.655383 0.238520 -0.715166 
-0.195357 0.407988 -0.097091 -0.019844 0.086523 -0.995203 
0.124978 0.086962 0.103485 0.195893 0.031640 0.978893 
0.177684 0.284925 -0.040557 0.923246 -0.166408 -0.342527 
0.071448 -0.622810 -0.065579 -0.663810 -0.076837 -0.743481 
0.037290 0.229555 0.128263 0.022237 0.040982 0.998771 
0.026500 -0.350958 0.024195 0.986967 -0.073921 0.136462 
0.133123 0.173297 0.095779 0.558268 0.020720 0.827577 
-0.119045 -0.666777 -0.084145 -0.800890 -0.023224 -0.597427 
0.164450 -0.470159 -0.093533 0.523003 0.127958 -0.841405 
0.398924 0.234412 -0.111425 -0.637335 -0.471972 -0.595894 
-0.556209 0.051133 0.073894 0.367512 -0.765672 0.286363 
-0.449326 0.188693 -0.042188 -0.578038 0.320143 -0.748496 
0.003089 -0.481520 0.037147 0.690539 -0.186650 0.695637 
0.228619 0.547398 -0.057687 0.623771 0.766431 -0.094575 
-0.059971 0.369236 -0.121903 -0.345362 -0.071631 -0.935630 
0.120280 -0.870133 -0.071231 0.024219 -0.999495 0.020159 
-0.046526 -0.633432 0.028868 0.358320 -0.208427 0.909416 
-0.143456 -0.093861 0.030589 -0.990910 0.025827 0.130334 
-0.282652 0.382521 -0.004362 -0.892479 0.126400 0.422476 
0.006528 -0.316205 -0.049979 0.760369 -0.045534 -0.647732 
0.370845 0.255173 -0.095936 -0.720102 -0.639749 -0.256333 
0.035839 0.069495 0.134389 0.129601 0.096405 0.984981 
0.051994 -0.674224 -0.019559 -0.988968 -0.051445 -0.120624 
0.190086 -0.166338 -0.061953 0.697733 -0.006648 -0.715804 
-0.297684 0.255767 -0.071080 0.453025 -0.758429 -0.462811 
-0.038489 0.348746 0.104896 -0.146000 -0.139306 0.978146 
-0.131114 -0.406572 -0.022287 -0.901355 0.068673 -0.427081 
0.302673 0.357119 -0.034405 0.110800 -0.516733 0.837924 
0.009236 -0.230086 0.091465 0.764811 -0.106440 0.630269 
-0.097950 -0.453010 0.080526 -0.313544 -0.136822 0.924282 
0.104139 -0.095798 -0.126701 -0.020906 -0.317658 -0.946734 
0.015268 -0.531250 -0.044167 0.837005 0.047011 -0.544928 
-0.122863 0.562111 -0.007032 -0.457055 0.841398 0.277603 
-0.245329 0.395567 0.021153 -0.396286 0.043123 0.915338 
-0.222635 0.421688 0.032008 -0.516413 0.067362 0.850798 
-0.137714 0.002377 -0.003548 -0.994256 -0.070744 -0.058980 
0.116860 -0.816709 0.078601 -0.065840 0.936263 0.343672 
0.149210 -0.037404 0.108712 0.597583 -0.009385 0.801024 
0.011870 0.750796 -0.115118 -0.317445 -0.345536 -0.880301 
0.146920 -0.039809 -0.129014 0.636544 -0.180919 -0.748963 
0.355636 0.372719 -0.086386 0.721802 0.666262 0.183686 
-0.091176 0.559922 0.011028 -0.092310 0.799976 0.591572 
0.199892 -0.461682 -0.031139 0.999038 -0.000397 -0.043687 
-0.391103 0.185351 -0.009924 0.605375 -0.795444 0.012736 
-0.060540 -0.385933 -0.083350 -0.102541 -0.121514 -0.983102 
-0.159071 0.525806 -0.066003 -0.472415 0.637883 -0.603563 
0.346296 0.320466 -0.133514 -0.098636 -0.232664 -0.964987 
0.088675 -0.339872 0.068794 -0.423553 -0.234313 0.874756 
0.143275 -0.092082 0.111542 0.302100 -0.032477 0.947258 
0.262355 0.365831 -0.037950 -0.606368 -0.529754 0.590331 
-0.006197 -0.103299 -0.094621 0.580508 -0.394371 -0.710025 
-0.087866 -0.166866 0.114550 -0.287026 -0.050274 0.956445 
0.022838 -0.301807 0.053087 0.892233 -0.070241 0.445269 
-0.046008 -0.016371 -0.133709 -0.242860 -0.137096 -0.959947 
0.348079 0.399475 -0.122700 0.825224 0.089111 -0.530798 
0.097885 0.744582 0.020605 0.977134 -0.078221 0.189808 
-0.003550 -0.189636 -0.072628 0.632275 0.012907 -0.774500 
-0.111103 0.032469 -0.083127 -0.835702 0.162735 -0.522345 
0.256028 0.396079 -0.019976 -0.189783 -0.457454 0.867486 
0.162525 -0.781494 0.026832 0.404949 -0.383055 0.826748 
0.152443 0.242992 -0.085617 0.845838 -0.101556 -0.523147 
-0.284534 0.369313 -0.082111 -0.753493 0.349258 -0.551939 
0.179630 0.370706 -0.100563 0.577220 -0.481846 -0.658856 
0.110875 0.243845 0.104391 0.412426 0.058884 0.905643 
-0.109998 -0.142463 0.103146 -0.686962 0.063706 0.723383 
-0.105505 -0.819073 -0.055153 -0.883577 -0.443419 -0.008822 
0.631647 0.046304 0.103264 0.576645 0.227708 0.551480 
0.147285 0.322645 0.069309 0.765640 0.012550 0.642091 
-0.263232 0.402539 -0.080627 -0.440677 0.590480 -0.673805 
0.071294 0.132570 0.127808 0.270059 0.023537 0.960768 
0.034753 0.005952 -0.150632 -0.190022 -0.232559 -0.953257 
-0.555402 0.069124 0.001609 -0.945136 0.194305 -0.165291 
0.237174 0.535069 -0.029733 0.691559 0.641371 0.320456 
0.022379 -0.240990 0.060085 0.931345 -0.008332 0.361088 
-0.137806 0.516819 -0.086976 -0.410775 0.493629 -0.766045 
-0.037161 0.802118 -0.021590 -0.994393 -0.066259 0.068459 
0.070313 0.832256 -0.084537 0.471342 0.682604 -0.558360 
0.024608 0.593024 0.026235 -0.202300 0.017531 0.975114 
0.051383 -0.227275 0.059678 -0.817497 -0.137883 0.555816 
0.078025 -0.165837 -0.101546 -0.417645 -0.224403 -0.880302 
-0.050419 0.539746 -0.109029 -0.306457 0.463582 -0.831005 
0.191606 -0.593217 -0.063533 0.793722 -0.028497 -0.606733 
0.164797 -0.142266 -0.088459 0.667388 -0.152900 -0.728493 
-0.038308 0.267193 0.108144 -0.483768 0.062885 0.872203 
0.183248 -0.558687 0.033721 0.685502 -0.154868 0.707123 
-0.002581 0.663550 -0.046677 -0.807568 -0.101370 -0.579940 
-0.022121 -0.309960 -0.080714 0.600392 -0.112960 -0.790001 
0.023069 -0.657249 -0.010692 0.865516 -0.186831 0.463925 
0.165247 0.150711 0.065200 0.708451 0.078868 0.701299 
0.075102 0.835151 0.037958 0.746325 0.348754 0.563676 
-0.121402 -0.389818 0.067531 -0.974645 0.004135 0.221360 
0.136212 0.307780 -0.119821 0.712477 -0.071008 -0.696733 
0.052069 -0.330507 -0.057965 -0.810880 -0.033840 -0.582867 
-0.066720 0.574424 -0.008710 -0.152761 0.901659 0.400493 
0.152861 0.083704 0.086901 0.415354 0.286562 0.845864 
0.195414 -0.721050 -0.007998 0.956616 0.013390 0.287339 
0.188210 -0.258029 -0.055826 0.735481 -0.188343 -0.650405 
0.153533 0.285136 -0.092302 0.857693 -0.117593 -0.500253 
0.564098 0.086577 0.006892 -0.795657 -0.604379 0.016621 
0.330133 0.335353 -0.040217 0.063526 -0.163753 0.973843 
0.424939 0.224786 -0.039665 -0.202733 -0.408817 0.869764 
-0.128315 -0.647586 -0.062312 -0.997419 -0.013090 -0.069530 
-0.092067 -0.399255 -0.069219 -0.559098 -0.077693 -0.825145 
0.116810 0.397317 0.089178 0.290807 0.101232 0.951355 
0.265746 0.497465 -0.095157 0.615910 0.582134 -0.530722 
0.058828 -0.349764 0.042389 -0.701130 -0.259575 0.663515 
0.143346 -0.635554 0.029578 0.256617 0.013367 0.962114 
-0.110266 -0.616874 0.032192 -0.895629 0.006438 0.444443 
0.127041 -0.783698 0.041499 0.191170 0.549659 0.797070 
0.001497 -0.725423 -0.000710 0.771616 -0.053486 0.633235 
-0.190124 0.409946 0.029482 0.237683 -0.352062 0.904058 
-0.008704 0.168773 -0.114344 -0.239601 -0.211599 -0.945266 
-0.075597 -0.103126 -0.100608 -0.561059 -0.146139 -0.814765 
0.037789 -0.203656 0.023569 0.556398 -0.254368 0.783489 
0.142578 0.549949 -0.111172 0.250769 0.623930 -0.739751 
0.089539 -0.085109 0.105458 -0.283784 -0.522755 0.795877 
0.359108 0.272612 -0.060461 -0.687175 -0.626113 0.351969 
0.174331 -0.615950 -0.078807 0.604473 -0.118415 -0.787553 
0.211778 0.515337 0.010821 0.268923 0.398720 0.875678 
-0.024709 0.748525 -0.080578 -0.813215 -0.316094 -0.482678 
-0.363919 0.285496 0.001368 -0.195920 0.436928 0.874034 
0.206621 0.038258 0.004199 0.998718 0.046902 -0.010415 
0.160330 -0.114507 -0.100337 0.650640 -0.183257 -0.736145 
-0.090818 0.164530 -0.073090 -0.797390 0.170234 -0.544812 
-0.036624 -0.553119 0.043836 0.396602 -0.206902 0.893870 
-0.540970 0.096562 0.067504 -0.724125 0.685475 0.071661 
-0.105716 -0.213017 0.105573 -0.538487 -0.055855 0.832381 
0.098520 -0.151039 0.100883 -0.532994 -0.079838 0.841329 
0.583470 0.130422 0.031410 0.760666 0.648524 0.022445 
0.101370 -0.520780 -0.101852 -0.457326 -0.021265 -0.887056 
0.178260 0.080247 -0.071149 0.821368 0.202050 -0.533086 
-0.145177 0.412437 0.028811 0.015341 -0.833696 0.501740 
0.191341 0.410989 0.028313 0.925228 -0.172147 0.328188 
-0.065121 -0.606290 0.043008 0.442384 -0.204873 0.872595 
0.059990 0.773235 -0.113348 0.439258 -0.025309 -0.897572 
0.106180 -0.062021 0.120692 0.089790 -0.176975 0.977974 
0.113681 -0.258253 0.086022 0.057200 -0.257174 0.962269 
-0.058409 -0.056461 -0.119484 -0.227958 -0.323969 -0.917313 
0.193095 0.162819 0.004958 0.879892 0.462029 0.013316 
0.200159 -0.406263 0.016848 0.953843 -0.099525 0.282948 
-0.472672 0.173762 0.030864 -0.332184 0.849650 0.342078 
-0.015846 0.692679 0.049349 -0.806032 -0.337243 0.480724 
0.146993 -0.399014 -0.090311 0.537513 0.119887 -0.834293 
0.006527 -0.347699 -0.047358 0.741452 -0.064993 -0.667596 
0.097512 0.170780 0.114639 0.415090 0.052238 0.907902 
-0.127306 -0.445655 -0.044207 -0.828647 0.209555 -0.518736 
0.099104 -0.339751 -0.099472 -0.237550 0.011585 -0.965425 
0.164003 -0.537818 -0.094419 0.568536 -0.034982 -0.821861 
-0.197154 0.485295 0.031967 -0.675366 0.269805 0.685859 
0.287244 0.488871 -0.071480 0.708247 0.688228 -0.140986 
0.054238 -0.151612 -0.087670 -0.703705 -0.185055 -0.683458 
0.148538 -0.814502 0.051509 0.602397 0.666703 0.422298 
-0.100302 -0.713053 -0.098787 -0.716428 0.050420 -0.695294 
-0.159616 0.474444 -0.090929 -0.389117 0.185580 -0.901992 
-0.120797 -0.052136 0.084159 -0.773001 0.046470 0.632512 
0.085926 -0.241722 0.084404 -0.313918 -0.153833 0.936001 
0.029066 0.869147 -0.013764 -0.288224 0.945088 -0.003750 
0.096694 -0.627727 0.027032 -0.651625 -0.200383 0.724611 
-0.145222 0.409232 -0.078953 0.450050 -0.698910 -0.538581 
-0.570664 0.028297 0.028693 -0.387098 -0.735773 0.071466 
-0.225680 0.418304 -0.088486 -0.302573 0.404327 -0.858996 
0.176935 -0.636468 0.020106 0.388552 0.029150 0.918791 
-0.000376 0.418995 -0.128603 0.089339 0.021811 -0.995676 
0.116224 -0.867935 -0.034694 -0.051148 -0.992176 0.112259 
-0.097769 -0.570679 -0.094109 -0.505213 0.039657 -0.861898 
-0.125234 -0.081895 -0.053514 -0.802535 -0.144861 -0.577274 
-0.071003 0.554213 -0.091944 -0.412038 0.594385 -0.690394 
0.556361 0.162567 0.040474 0.334382 0.704745 0.438232 
0.181370 -0.227603 0.077496 0.653403 -0.191835 0.731635 
0.040256 0.716851 -0.099492 0.159556 -0.779984 -0.566994 
-0.062069 -0.451284 -0.093388 -0.049443 0.161057 -0.983851 
-0.117221 0.117062 -0.045397 -0.864842 0.084833 -0.494604 
-0.071805 0.511625 -0.116842 -0.285672 0.444502 -0.847949 
-0.107731 -0.333164 0.097208 -0.675227 -0.083528 0.732196 
0.057907 -0.554764 0.000425 -0.723595 0.012627 0.689936 
-0.124860 -0.649670 -0.022196 -0.949272 -0.150832 0.268626 
0.025023 -0.021088 -0.140468 -0.168088 -0.410743 -0.894532 
-0.026966 -0.596920 -0.091856 0.524798 -0.023532 -0.847659 
0.183140 0.267274 -0.006348 0.999646 -0.009022 -0.019801 
0.062718 0.550710 0.026787 0.074410 0.608921 0.783208 
0.056960 -0.583243 -0.052894 -0.773376 -0.048748 -0.631065 
0.015658 0.696428 -0.079337 -0.283539 -0.639881 -0.713677 
0.397376 0.301018 -0.126288 0.178374 0.175323 -0.965247 
0.046813 -0.128127 0.063623 0.013132 -0.300903 0.903481 
-0.000699 0.096930 0.134124 -0.279638 0.057133 0.954740 
-0.138994 -0.448172 -0.004363 -0.995394 0.017810 0.028460 
-0.056947 -0.112852 0.123041 -0.221565 -0.022843 0.974400 
-0.074074 -0.002658 0.126210 -0.498047 0.127107 0.819416 
0.056827 0.814800 0.070550 0.454715 0.484444 0.743310 
0.117589 -0.473348 -0.106450 -0.125976 0.068267 -0.989115 
0.631179 0.050158 0.005976 -0.898277 0.013395 -0.296593 
-0.119481 0.550220 0.021258 -0.114838 0.827157 0.547996 
0.068164 -0.100648 0.082259 -0.310453 -0.411652 0.800954 
0.050839 -0.614889 -0.041296 -0.891350 -0.114413 -0.430620 
0.088653 0.051775 -0.153889 0.219858 0.235657 -0.945061 
0.144149 -0.072406 -0.121541 0.578441 -0.212696 -0.786112 
-0.257037 0.359693 0.018550 -0.060196 -0.186287 0.979781 
0.051198 0.512929 -0.127093 -0.190623 0.147253 -0.969097 
-0.127159 -0.227018 -0.017161 -0.916470 -0.043608 -0.395771 
0.023008 -0.077832 -0.099741 -0.326531 -0.668698 -0.663864 
0.183349 0.504973 0.024390 0.387550 0.332635 0.858985 
0.186052 -0.679457 0.010456 0.602800 -0.211658 0.766305 
0.055903 0.329204 -0.135376 -0.395844 -0.028683 -0.917856 
0.042908 -0.291209 -0.044711 -0.854935 -0.019021 -0.517734 
0.433350 0.257130 -0.119342 0.452700 -0.172995 -0.873292 
0.179124 0.381641 0.040698 0.778849 -0.155113 0.607161 
0.022155 -0.229636 -0.035981 0.957088 -0.019275 -0.287809 
0.197995 0.371221 -0.032355 0.997986 -0.030281 0.053024 
0.068742 0.271703 -0.137230 -0.226607 -0.066603 -0.970228 
0.062975 -0.386912 0.030336 -0.701205 -0.352475 0.619448 
0.261645 0.474411 -0.119404 0.426385 0.523264 -0.735861 
0.207691 0.453302 -0.133595 0.031564 -0.097575 -0.994046 
0.067989 -0.732959 0.034229 -0.026771 -0.238365 0.946309 
0.176208 0.543945 -0.103978 0.281138 0.687041 -0.669526 
-0.013788 -0.660156 0.025397 0.053979 0.034240 0.987892 
-0.044746 -0.719381 -0.118209 0.427136 0.191568 -0.882263 
0.554314 0.106855 -0.023364 -0.343670 0.312545 -0.730963 
0.107773 0.291151 0.103017 0.351658 0.085370 0.930589 
-0.117270 0.182138 0.041765 -0.863148 0.024389 0.504103 
0.052113 -0.188984 0.066876 -0.783904 -0.097449 0.610533 
0.603713 0.100101 0.071776 0.507162 0.688156 0.358376 
-0.103820 0.392281 0.065852 -0.633994 -0.109016 0.764993 
-0.109373 -0.316845 -0.050924 -0.799750 0.051978 -0.598031 
0.057037 -0.736913 -0.000873 -0.963886 -0.220011 -0.139293 
0.096997 -0.545181 0.032628 -0.456490 0.006026 0.888992 
0.141877 0.450327 -0.144313 0.147633 -0.026920 -0.988293 
-0.133563 0.526744 0.043257 -0.131895 0.588047 0.797280 
-0.107150 -0.378444 0.092009 -0.660299 -0.093804 0.744884 
-0.104787 0.068944 -0.082185 -0.824608 0.145083 -0.546456 
0.177895 0.270429 0.029950 0.935174 0.094772 0.338072 
0.050266 0.630514 0.029201 0.342735 -0.388584 0.846798 
0.137855 -0.280461 0.082723 0.054267 -0.048738 0.997263 
0.162011 -0.274790 -0.072409 0.562659 -0.158339 -0.811199 
-0.013828 0.714557 -0.069829 -0.729248 -0.521481 -0.439345 
0.059955 -0.074248 -0.126398 -0.324348 -0.400646 -0.856621 
0.081965 0.802845 0.050444 0.867193 0.239523 0.430484 
0.032410 0.847921 -0.079788 -0.024506 0.856059 -0.500510 
-0.033052 -0.858811 0.112732 0.785042 -0.484153 0.355311 
-0.100086 -0.792488 0.009195 -0.726889 0.142567 0.633162 
0.178029 -0.790294 -0.007210 0.847001 -0.480102 0.223040 
0.300194 0.440215 -0.124711 0.457295 0.579979 -0.673605 
0.165560 -0.841097 0.040594 0.836352 0.547790 -0.004420 
-0.042358 0.586805 -0.074785 -0.441278 0.772913 -0.447244 
-0.040532 0.236262 0.107913 -0.486663 0.022362 0.872372 
0.132149 0.522652 -0.129750 0.111357 0.396011 -0.910004 
-0.045927 -0.092880 -0.110686 0.006976 -0.204712 -0.978429 
-0.103808 -0.856451 0.000552 -0.658944 -0.717455 -0.218255 
-0.059323 0.208392 0.098468 -0.484683 0.086873 0.869256 
0.199315 0.402691 -0.105155 0.831004 -0.439289 -0.334476 
-0.050982 0.479204 -0.129528 -0.051309 0.138359 -0.988820 
0.100581 0.776014 0.010954 0.960069 0.003717 0.269110 
0.020424 -0.729112 -0.032070 0.963454 -0.041996 0.263302 
0.139021 0.462942 0.067340 0.350004 0.319748 0.879334 
-0.078191 0.333962 0.082586 -0.589423 -0.099762 0.800231 
-0.107108 -0.758664 0.005533 -0.650524 -0.289308 0.653500 
-0.122691 -0.294117 0.077071 -0.954510 -0.064086 0.288529 
0.180010 -0.019736 -0.089198 0.824840 0.024010 -0.562746 
-0.090238 0.043366 -0.107508 -0.707422 0.237562 -0.665445 
0.106625 0.063307 0.115284 0.515406 0.105997 0.850132 
-0.087041 -0.517036 0.073056 -0.245165 -0.199278 0.915725 
-0.104434 -0.191228 -0.062067 -0.814907 -0.044977 -0.577656 
0.164166 -0.690386 -0.072212 0.724328 -0.044609 -0.687753 
-0.120107 -0.293350 -0.031800 -0.821187 0.042355 -0.569047 
0.561950 0.158835 0.009501 0.730953 0.681897 -0.022238 
-0.071077 0.236454 0.088465 -0.545198 0.048217 0.835784 
-0.012808 0.804168 -0.102215 -0.562393 0.278889 -0.776801 
-0.123868 0.365504 -0.029210 -0.947114 -0.317021 -0.013289 
-0.028136 0.519602 -0.120888 -0.073392 0.254142 -0.963851 
-0.061990 -0.863885 0.037368 -0.006305 -0.999821 -0.017635 
-0.054263 -0.298529 0.104685 0.186598 -0.117130 0.975031 
0.202843 -0.118011 -0.044294 0.870517 0.044772 -0.489933 
0.138712 -0.761804 0.023854 -0.091581 0.333702 0.921973 
0.262723 0.439218 -0.009319 0.142941 -0.050562 0.984019 
-0.106638 0.264095 0.039427 -0.981330 0.058493 0.181649 
-0.364893 0.241217 -0.079706 0.026704 -0.355299 -0.932075 
0.062220 -0.268845 0.064559 -0.727301 -0.114224 0.676650 
-0.397191 0.243204 -0.073341 -0.479672 -0.121523 -0.868437 
0.162097 0.049023 -0.104956 0.717148 0.253761 -0.649012 
-0.037139 -0.215407 -0.091022 0.189500 -0.015232 -0.980272 
0.150745 0.356075 0.068923 0.682304 -0.109381 0.722647 
-0.115510 0.229782 0.025397 -0.958014 0.241102 0.144549 
-0.025732 -0.850548 0.081977 0.984586 -0.033905 0.159929 
0.153864 0.570690 -0.025907 0.335399 0.781803 0.519483 
0.037044 0.863170 -0.050121 0.012091 0.971130 -0.231525 
0.464853 0.195226 -0.000890 -0.691309 -0.198682 0.636566 
0.192602 -0.427686 0.038417 0.959423 -0.071776 0.272531 
-0.050313 0.588584 -0.032706 -0.336235 0.887544 0.251572 
0.168617 0.014890 -0.102353 0.790476 0.009789 -0.597403 
0.029195 -0.283868 0.021907 0.988582 -0.054686 0.137238 
0.151718 -0.637883 -0.089151 0.457783 -0.149008 -0.875719 
-0.177462 0.363154 -0.050725 0.646797 -0.725589 -0.234577 
0.012472 0.626729 -0.064606 -0.318467 0.392606 -0.856830 
0.077079 0.184223 -0.118627 0.090386 -0.105463 -0.985174 
-0.120966 0.093945 0.047336 -0.956368 0.012981 0.290940 
0.044536 0.478414 -0.128192 -0.195652 0.064865 -0.978315 
-0.017949 -0.806316 -0.141484 0.608494 -0.117523 -0.781276 
-0.071581 0.477071 0.072944 -0.242626 0.357500 0.899648 
-0.070389 -0.862447 -0.019514 -0.000578 -0.999113 -0.041712 
0.084776 0.313975 0.106745 0.358763 0.086108 0.926633 
-0.362243 0.307442 -0.025107 -0.619031 0.749706 0.227595 
-0.425731 0.161820 0.007584 0.536450 -0.840590 0.044638 
-0.089948 0.113744 0.081692 -0.595960 0.380474 0.704897 
0.195317 -0.209042 0.055513 0.942420 -0.040156 0.331806 
0.186104 -0.298683 0.068527 0.708892 -0.076345 0.696139 
-0.015319 0.406672 0.104325 -0.034437 0.157190 0.986653 
0.152387 0.338951 -0.109902 0.668971 -0.242821 -0.702167 
-0.308220 0.346411 -0.076328 -0.565164 0.632636 -0.522747 
0.049245 -0.584312 -0.016624 -0.904174 -0.094371 0.416454 
0.043494 0.440036 0.090804 0.104127 0.182178 0.977124 
0.334851 0.288779 -0.075667 -0.646929 -0.705792 0.269684 
0.033996 0.091552 -0.142065 -0.150645 0.230474 -0.961194 
0.075501 -0.528458 0.016387 -0.679995 -0.004851 0.733084 
-0.084278 0.025366 0.112001 -0.456674 0.309529 0.832254 
-0.394148 0.223119 0.012777 0.109083 0.069046 0.991404 
0.006814 0.049906 0.138475 -0.054442 0.005867 0.997145 
0.121113 -0.869419 0.106712 -0.002458 -0.999680 0.020027 
0.575898 0.132523 -0.000797 0.565941 0.381426 -0.722883 
-0.100325 0.427104 0.066216 -0.482802 0.081490 0.865280 
0.184853 0.085327 0.058740 0.869844 0.172363 0.459069 
0.019998 -0.463126 0.015812 0.908601 -0.051712 0.414097 
-0.078639 -0.762371 0.020686 -0.178969 -0.328013 0.917128 
-0.141698 -0.142058 -0.007113 -0.947541 -0.100613 -0.300872 
0.079344 0.017906 -0.158866 0.071197 -0.140870 -0.986060 
0.119480 -0.556108 -0.106341 -0.210834 -0.106454 -0.969309 
0.020381 0.780030 -0.120164 -0.101200 0.076412 -0.991142 
-0.055035 -0.864296 0.076314 -0.000003 -0.999994 0.001465 
-0.126281 -0.566184 -0.002701 -0.930921 -0.123662 0.337973 
0.075592 -0.495560 0.015477 -0.642707 0.048021 0.764521 
-0.196172 0.456556 -0.082414 -0.370945 0.407119 -0.832714 
0.088131 0.760110 -0.089869 0.807688 -0.127002 -0.572653 
0.006510 0.489496 -0.124253 0.165954 0.137436 -0.974930 
-0.379063 0.275903 -0.081459 -0.407279 0.312009 -0.852213 
0.149936 -0.868226 0.081237 0.370232 -0.923718 0.000292 
0.202916 -0.300439 0.030370 0.943763 -0.047561 0.327033 
0.206421 0.008707 0.035212 0.993159 -0.005635 0.110127 
0.451272 0.240756 -0.020748 -0.139326 0.432004 0.879963 
0.144214 0.145473 0.086474 0.689144 0.032381 0.723836 
-0.023998 -0.502034 -0.090201 0.565654 0.077758 -0.820897 
-0.015823 0.168964 0.124907 -0.491015 -0.029705 0.870597 
-0.018510 0.321933 0.112201 -0.233798 0.121573 0.957907 
0.532145 0.147162 0.027527 -0.646079 -0.197343 0.722703 
0.072554 0.358407 -0.142707 -0.289367 -0.017566 -0.954941 
-0.078172 0.130809 -0.093122 -0.626338 0.185200 -0.757073 
-0.049609 -0.042144 0.129279 -0.195673 -0.047847 0.979256 
0.196361 -0.618750 0.002915 0.950264 -0.114482 0.278152 
-0.087948 -0.671809 -0.104837 -0.377008 0.004815 -0.922044 
0.149637 0.077339 -0.109159 0.682196 0.253022 -0.685560 
0.005716 0.549946 0.031818 0.063153 0.685727 0.718625 
0.076207 -0.484418 -0.082445 -0.701402 0.006670 -0.712722 
-0.253851 0.373604 -0.097351 -0.108095 0.125334 -0.983863 
0.071645 -0.028325 0.130850 0.073180 -0.117233 0.989867 
0.096838 0.373468 0.097150 0.197348 0.081994 0.976059 
0.070651 -0.302356 -0.082918 -0.684925 -0.019276 -0.727690 
0.308437 0.322967 -0.058434 -0.524989 -0.657000 0.535331 
0.223245 0.413134 -0.018988 -0.489261 -0.642277 0.583427 
0.149618 0.290203 0.068524 0.785876 0.045774 0.616387 
-0.113357 -0.111382 0.097703 -0.650512 0.067410 0.736272 
0.579539 0.059594 -0.022170 -0.896205 -0.417059 -0.139918 
0.071707 0.659624 -0.049356 0.736631 0.034332 -0.670980 
-0.036045 -0.627305 -0.097057 0.471883 0.019166 -0.880697 
0.040464 -0.313753 0.010987 -0.976648 -0.021207 0.212955 
0.003994 -0.760079 -0.093437 0.793166 0.135715 -0.591886 
-0.491219 0.098408 0.040311 0.704068 -0.677993 -0.070108 
-0.003487 -0.453238 0.050499 0.751304 -0.171948 0.636964 
-0.165973 0.517631 0.037954 -0.508593 0.559709 0.653290 
0.027406 0.036313 -0.154729 -0.186335 0.184135 -0.963889 
-0.003472 -0.458110 -0.063581 0.735635 0.104211 -0.669201 
-0.077887 -0.546746 -0.100638 -0.253167 0.089991 -0.963203 
-0.133252 0.542164 -0.066750 -0.394350 0.728248 -0.559806 
-0.121759 -0.335887 0.067186 -0.985289 0.009181 0.169840 
0.295312 0.458378 -0.033620 0.736465 0.297817 0.601584 
0.185776 0.162341 0.036258 0.870937 0.177352 0.456009 
-0.016218 -0.526998 0.040504 0.426890 -0.187012 0.867703 
-0.072976 0.437161 -0.126693 -0.238696 -0.148349 -0.958674 
0.198610 -0.621755 -0.047268 0.985508 -0.011567 -0.160006 
0.032927 0.134117 0.132347 0.064412 0.015988 0.997625 
0.192246 0.002404 -0.061026 0.932468 0.068133 -0.345148 
0.016269 -0.738224 -0.074333 0.860792 0.003720 -0.503466 
0.157602 -0.309775 0.077675 0.279291 -0.059513 0.958194 
0.444094 0.198767 -0.058543 -0.569132 -0.810311 0.066829 
0.119934 -0.023793 0.120899 0.348295 -0.023808 0.937008 
0.163493 -0.814913 0.024453 0.876379 -0.273137 0.356977 
-0.196400 0.513904 -0.016107 -0.673488 0.734435 0.034419 
-0.513591 0.124715 0.006792 -0.860578 0.029451 -0.463901 
-0.190683 0.358871 -0.005511 0.489197 -0.720682 0.490122 
0.169306 -0.436705 0.068153 0.438386 -0.097093 0.893436 
0.068957 -0.815530 -0.003178 -0.956917 -0.239465 0.150009 
0.146246 -0.587812 0.041164 -0.050123 -0.139868 0.985147 
0.177234 0.470745 -0.137023 0.131833 0.065495 -0.988672 
-0.512305 0.128419 0.080502 -0.707474 0.563428 0.383830 
0.103195 -0.588749 -0.094546 -0.493116 -0.112913 -0.861192 
-0.171200 0.383715 0.008151 0.463989 -0.644052 0.606987 
-0.061921 -0.793771 0.046791 -0.325621 0.403565 0.851547 
0.141951 0.112693 0.089725 0.709672 0.061696 0.701038 
-0.037537 -0.472126 0.066551 0.262848 -0.262935 0.928115 
-0.022939 -0.245596 -0.087129 0.462917 0.013059 -0.884762 
-0.095089 -0.640810 -0.101118 -0.474814 0.053022 -0.878171 
0.110283 0.542758 0.026065 0.412597 0.562672 0.715037 
-0.122674 -0.563410 -0.072811 -0.749122 0.097634 -0.654891 
0.347784 0.352946 -0.135243 0.294577 0.123347 -0.943079 
0.307128 0.462234 -0.081770 0.731588 0.673722 -0.086080 
0.054702 -0.515968 -0.057941 -0.827417 -0.077823 -0.556134 
0.146391 0.253899 0.076522 0.749758 0.063157 0.658520 
0.085785 0.259452 0.112836 0.399492 0.065320 0.914331 
0.382664 0.242180 -0.065464 -0.666620 -0.709343 0.226183 
-0.094316 -0.336954 -0.068477 -0.647573 0.063915 -0.758859 
0.122375 0.069827 -0.133578 0.539027 0.242369 -0.806082 
0.089616 -0.650319 -0.078809 -0.634239 -0.064604 -0.770205 
0.180420 0.345078 -0.080079 0.788210 -0.377923 -0.484494 
-0.128959 -0.533388 0.001993 -0.917940 -0.155168 0.363290 
0.360562 0.352896 -0.060842 0.609950 0.538513 0.579605 
0.347758 0.409458 -0.077807 0.837502 0.426435 0.303788 
0.438054 0.203367 -0.113929 0.155461 -0.195580 -0.825318 
0.177458 -0.496495 0.054055 0.654356 -0.191594 0.727578 
-0.067773 -0.862237 -0.115807 -0.089906 -0.986462 -0.126881 
0.615174 0.072775 0.094189 -0.274704 0.397163 0.718379 
0.074481 -0.169383 0.086351 -0.524343 -0.043023 0.850093 
0.485286 0.243123 -0.032275 0.695548 0.711605 0.094849 
-0.102632 0.134580 -0.069092 -0.830767 0.134610 -0.538585 
0.055166 -0.650894 -0.038768 -0.870314 -0.160042 -0.464773 
-0.128042 -0.680974 -0.051294 -0.997815 0.001230 0.050101 
0.089188 0.738665 0.052456 0.926954 0.027936 0.363088 
-0.110512 -0.014197 0.093557 -0.771293 -0.107406 0.622042 
-0.084199 -0.305799 0.106656 -0.026127 -0.065908 0.996713 
-0.042899 0.441465 -0.131265 -0.038234 -0.096012 -0.993882 
-0.120408 0.334403 -0.031868 -0.999762 -0.009272 0.019232 
-0.136843 -0.009315 0.035897 -0.993537 0.024734 0.109389 
0.129553 0.275055 -0.123614 0.652995 -0.076019 -0.752360 
-0.138028 -0.483137 -0.001830 -0.961721 -0.077330 0.254197 
-0.016660 -0.648529 -0.084104 0.648444 0.044943 -0.759873 
-0.099948 0.012470 -0.103429 -0.788256 0.011079 -0.593680 
-0.002697 -0.406796 0.063816 0.728840 -0.205749 0.651206 
0.163353 0.521443 -0.124268 0.194241 0.507513 -0.839062 
0.166643 -0.048607 -0.105755 0.793900 -0.156667 -0.586773 
0.145577 -0.417467 0.071700 -0.226780 -0.099979 0.967507 
0.107280 0.461064 -0.146302 -0.047803 0.080661 -0.995319 
0.188598 -0.135207 -0.065301 0.730025 -0.040257 -0.681855 
0.107965 -0.689270 -0.091452 -0.405080 0.078447 -0.908221 
0.016501 -0.422164 0.027904 0.909805 -0.094339 0.393798 
-0.037322 0.834795 -0.019995 -0.770999 0.630947 0.000861 
-0.108574 0.356676 0.045173 -0.850758 -0.266511 0.452583 
0.086778 -0.120816 0.095301 -0.557652 -0.084051 0.825071 
-0.063858 -0.612667 -0.104638 0.060102 0.064066 -0.995293 
0.180774 0.047389 -0.079282 0.827428 0.206530 -0.520309 
-0.129991 0.025262 0.061459 -0.865569 0.188018 0.463233 
-0.080295 -0.073258 -0.104734 -0.534030 -0.237275 -0.811274 
0.204601 -0.405548 -0.017126 0.981304 -0.124724 -0.139064 
0.029543 0.275754 0.125368 0.031539 0.176670 0.982726 
-0.014562 -0.220370 0.109095 0.454404 -0.188575 0.870213 
0.151730 -0.568241 -0.100044 0.467589 -0.075089 -0.879220 
-0.215171 0.339398 -0.066112 0.532069 -0.745622 -0.395261 
-0.106100 0.232750 -0.058543 -0.792859 -0.368058 -0.485236 
0.138281 -0.265777 -0.089554 0.504685 -0.091114 -0.856914 
0.015903 0.198366 -0.119106 0.183429 -0.366152 -0.910119 
-0.036519 -0.770268 -0.136629 0.187680 0.470927 -0.857518 
0.145433 -0.734365 -0.090101 0.726810 0.213450 -0.634690 
-0.432242 0.223408 -0.047631 -0.665058 0.261773 -0.687682 
0.125585 0.438574 0.079740 0.281365 0.209451 0.934725 
-0.117083 0.302451 -0.049031 -0.939125 -0.288759 -0.182317 
-0.041364 -0.730955 0.027338 -0.018599 -0.075924 0.961597 
-0.360996 0.214088 -0.059597 0.441318 -0.682331 -0.576166 
-0.111725 0.271869 -0.054829 -0.995020 -0.048731 -0.085552 
0.061102 -0.069989 0.116958 -0.012399 -0.550481 0.833737 
0.048874 0.578622 -0.100328 -0.020648 0.590347 -0.806673 
0.183505 0.308010 0.013013 0.948118 -0.039351 0.311101 
0.088718 0.772955 0.051186 0.899101 -0.036069 0.410755 
-0.222991 0.458303 -0.061531 -0.583444 0.619745 -0.523506 
0.153708 0.387333 0.068608 0.690354 -0.011301 0.722979 
0.205715 -0.369227 -0.011113 0.998482 0.012555 -0.026199 
0.033752 0.156136 -0.118124 -0.102667 -0.048506 -0.992978 
0.004480 -0.356781 0.068741 0.750211 -0.115278 0.650799 
0.085445 -0.856938 0.121204 -0.911367 0.211772 0.261963 
-0.200784 0.481452 -0.063112 -0.629734 0.489521 -0.602916 
0.205083 -0.259681 0.021858 0.997642 0.015922 0.064419 
-0.075127 -0.379188 0.096444 0.135951 -0.212781 0.967530 
0.426233 0.287566 -0.118207 0.499944 0.430056 -0.749202 
0.311233 0.431900 -0.039072 0.806994 0.209751 0.547962 
-0.392728 0.254918 0.006441 -0.245936 0.390755 0.885698 
0.085616 0.563951 0.010412 0.210915 0.643376 0.728149 
-0.105733 -0.728598 -0.008095 -0.627331 -0.140811 0.739820 
-0.098605 0.140762 0.070363 -0.690736 0.124157 0.712274 
0.138669 -0.608015 -0.098701 0.205665 -0.147322 -0.964960 
-0.000750 0.514074 0.064436 0.041436 0.444739 0.894461 
-0.024003 0.376788 -0.129246 -0.020920 -0.025381 -0.999432 
0.246513 0.367649 -0.066200 -0.693504 -0.708079 0.115981 
-0.115935 0.127959 0.048985 -0.863050 0.100636 0.492117 
0.153517 -0.836124 0.138460 0.619129 0.769495 0.153347 
-0.093661 -0.859028 -0.097872 -0.741655 -0.597358 -0.266387 
-0.209724 0.338212 -0.021508 0.580090 -0.774013 0.248103 
-0.080966 -0.825237 0.084704 -0.190478 0.965342 0.148162 
0.104717 0.756730 -0.020649 0.986432 0.153917 0.006344 
-0.110383 0.191165 -0.042537 -0.852916 0.093196 -0.510115 
-0.000287 -0.186754 0.105283 0.603920 -0.072801 0.793706 
0.198644 0.031943 -0.043078 0.960592 0.043756 -0.273740 
0.200919 -0.584735 -0.033925 0.992680 -0.044849 -0.110278 
-0.161089 0.464164 0.055018 -0.303033 -0.116760 0.944443 
-0.017906 -0.617793 0.022589 0.122100 -0.125366 0.983966 
0.181020 0.230522 -0.026601 0.966839 0.006892 -0.239116 
0.198518 -0.540562 -0.053079 0.935670 -0.011038 -0.351216 
-0.008810 -0.775381 -0.121909 0.657732 0.476632 -0.582081 
0.198134 0.397957 -0.005977 0.974660 -0.150405 0.162395 
0.430790 0.298899 -0.064807 0.498091 0.789779 0.351802 
0.021819 0.125605 -0.127144 -0.124466 0.430000 -0.894017 
0.148693 -0.236563 -0.087164 0.511238 -0.160708 -0.844258 
0.165350 0.222375 0.056639 0.720752 0.054964 0.690999 
0.139389 -0.011186 -0.137118 0.627226 0.064346 -0.775741 
0.110420 0.124993 -0.120919 0.431647 0.313509 -0.845209 
0.176150 -0.393832 0.068370 0.550585 -0.029223 0.827936 
0.079406 0.597116 0.002539 0.743435 0.083248 0.662257 
0.093664 -0.470263 0.028156 -0.667170 0.022897 0.744412 
0.240196 0.444188 -0.135289 -0.078135 0.124796 -0.986791 
-0.101239 0.491280 0.059836 -0.023729 0.227405 0.972650 
0.446724 0.206998 -0.023526 -0.825945 -0.429761 0.358798 
0.279343 0.337222 -0.088161 -0.630450 -0.766942 -0.104131 
-0.040095 0.080122 0.119933 -0.325009 0.112587 0.936486 
-0.127319 0.075088 -0.031916 -0.972752 0.103887 -0.198766 
0.109579 0.227044 -0.127220 0.500159 -0.315443 -0.806351 
0.033566 0.798416 0.081477 -0.002419 0.223913 0.973489 
0.057536 -0.384824 -0.061184 -0.775317 -0.020041 -0.631097 
0.165525 0.180835 -0.064952 0.829432 0.055260 -0.551954 
-0.139027 -0.087316 -0.022713 -0.947922 -0.012755 -0.317595 
-0.363817 0.211642 0.004561 0.434770 -0.433006 0.771839 
-0.452305 0.143523 0.021614 0.612701 -0.772827 0.160994 
0.179734 0.441888 0.043650 0.501704 0.129953 0.855097 
0.079939 0.214122 -0.128438 -0.044208 -0.355700 -0.932598 
-0.032460 -0.134724 0.124461 -0.001035 -0.072078 0.997182 
0.166288 -0.846391 0.010038 0.980413 0.099106 -0.102626 
-0.009789 -0.254936 0.099345 0.451286 -0.212020 0.866642 
0.099181 0.750916 -0.058591 0.965262 -0.164536 -0.200200 
0.134403 0.361201 -0.131734 0.562501 -0.222392 -0.795695 
-0.080589 0.227329 -0.087764 -0.714383 -0.327168 -0.618104 
0.030286 -0.055713 -0.122515 -0.333251 -0.521847 -0.781524 
-0.035398 0.111198 0.117629 -0.482915 0.191676 0.852216 
-0.116460 -0.395273 -0.046849 -0.760110 -0.145211 -0.632012 
-0.125778 -0.330016 -0.024088 -0.961036 0.007445 -0.270950 
0.083057 -0.210283 0.088154 -0.394043 -0.122550 0.905340 
-0.055127 -0.666690 0.025362 0.217961 -0.263778 0.938531 
0.071300 -0.416391 0.024103 -0.694955 -0.375998 0.612810 
-0.025334 0.338451 -0.128811 -0.046704 0.025402 -0.998406 
0.259971 0.516648 -0.040422 0.731228 0.659819 0.161083 
0.190528 -0.044430 -0.068818 0.885580 -0.053928 -0.460521 
0.027771 -0.622612 -0.022475 0.998673 -0.007163 0.029688 
0.070349 -0.821103 -0.047448 -0.567380 -0.806325 -0.117437 
0.009494 0.346779 0.112882 -0.044852 0.045134 0.997655 
-0.037965 -0.249222 0.109452 0.171720 -0.182770 0.967690 
0.270800 0.445956 -0.134286 0.184562 0.438675 -0.877807 
-0.068343 -0.863715 0.110210 -0.019612 -0.999553 0.022022 
0.205190 -0.277241 -0.011812 0.993729 -0.008439 -0.102909 
0.133935 -0.546644 0.047296 -0.261830 -0.136966 0.953986 
-0.066501 0.285168 0.088014 -0.389762 0.002669 0.909823 
0.021339 -0.426109 -0.010804 0.988026 0.094658 -0.103086 
-0.121716 -0.596218 -0.076570 -0.750198 0.047886 -0.658113 
-0.069315 0.443417 0.085319 -0.323459 0.285032 0.900444 
0.225720 0.388228 -0.089807 -0.722709 -0.689039 -0.047240 
0.083639 0.346740 0.104187 0.269395 0.127925 0.954021 
-0.129119 -0.618847 -0.033635 -0.998731 -0.025226 0.041019 
0.069691 0.233641 0.122224 0.283731 0.081700 0.955275 
-0.124388 -0.599815 -0.002154 -0.942085 0.070756 0.325622 
-0.011211 0.635214 -0.033640 -0.925094 0.222782 -0.265402 
-0.128443 -0.350226 0.008101 -0.999334 0.034275 0.007053 
-0.091084 -0.297837 -0.070934 -0.700333 -0.032511 -0.712604 
-0.076478 -0.514840 -0.097738 -0.224575 0.090446 -0.969839 
0.207912 0.545506 -0.013267 0.367069 0.714148 0.592966 
0.182722 -0.555740 -0.076017 0.735855 -0.032603 -0.676299 
0.132782 0.407167 -0.141189 0.395680 -0.195791 -0.896116 
0.031403 -0.177416 0.038824 0.676193 -0.378895 0.608809 
0.143221 0.028825 -0.128711 0.665082 0.094245 -0.740415 
-0.102264 0.518558 -0.102854 -0.344811 0.477112 -0.804594 
0.180841 0.125124 0.052564 0.801435 0.138411 0.577034 
0.067917 0.702081 -0.074245 0.522879 -0.560383 -0.639737 
-0.112761 -0.850996 0.042608 -0.951257 -0.247854 -0.004726 
0.192453 -0.132146 0.073830 0.854296 -0.004325 0.517215 
0.089356 0.708269 0.048533 0.954670 -0.127689 0.247453 
-0.085763 0.194102 0.082580 -0.634802 0.009266 0.772502 
0.020350 0.168442 0.130777 -0.024669 0.030028 0.999004 
-0.084322 -0.690446 0.025749 0.127885 -0.392884 0.904072 
0.083190 -0.575436 0.023784 -0.658320 -0.044964 0.747965 
0.035689 0.658774 0.075724 0.042599 -0.981485 0.177102 
0.341944 0.302871 -0.049029 -0.540765 -0.570271 0.617725 
0.078605 0.592466 -0.087312 0.131488 0.862878 -0.457350 
0.081769 -0.820664 0.030771 -0.796483 -0.490306 0.327104 
-0.020072 -0.496841 0.051265 0.488827 -0.260249 0.830635 
-0.131257 -0.053036 -0.045667 -0.900119 -0.038980 -0.433253 
0.105131 0.778888 -0.041826 0.998102 -0.001553 -0.051359 
-0.252589 0.313573 -0.078455 0.642438 -0.452834 -0.617642 
0.193878 -0.361874 -0.045360 0.693418 0.246628 -0.668612 
-0.095465 0.573129 -0.023765 -0.295828 0.947767 0.069792 
-0.128875 -0.149295 -0.034034 -0.856221 -0.134692 -0.497771 
0.150508 -0.862469 -0.021536 0.455085 -0.879261 0.083704 
0.195292 0.134921 0.026033 0.865852 0.025662 0.499155 
-0.071902 0.267220 -0.110634 -0.588260 -0.127377 -0.796708 
-0.074259 -0.578615 0.054767 0.466594 -0.219021 0.856705 
0.001178 0.557707 -0.108219 0.028568 0.500915 -0.863099 
-0.031396 -0.863231 0.047936 0.307995 -0.950221 -0.022336 
-0.128490 -0.300646 -0.000972 -0.998970 -0.011578 -0.040000 
0.078832 -0.134235 -0.109661 -0.443839 -0.179425 -0.877547 
-0.321012 0.291643 -0.094664 -0.076513 -0.104681 -0.989791 
0.167643 -0.820119 -0.076824 0.822420 -0.557797 -0.104619 
-0.111264 -0.021892 -0.086053 -0.826528 -0.059116 -0.559707 
0.114831 0.332004 -0.137603 0.433427 -0.104492 -0.894485 
0.183741 0.133996 -0.034402 0.863423 0.153880 -0.477690 
-0.520941 0.122228 0.040470 -0.777507 0.627268 -0.030522 
-0.084337 0.077447 -0.103955 -0.643032 0.223586 -0.730419 
-0.112627 -0.471780 0.056730 -0.864477 -0.245299 0.436758 
0.165719 0.254636 0.052883 0.729919 0.083020 0.678250 
-0.175912 0.383581 -0.084439 0.595614 -0.592453 -0.541686 
-0.106131 -0.226836 -0.056128 -0.848142 -0.035930 -0.528418 
0.093634 0.715183 -0.042336 0.839891 -0.482806 -0.246000 
0.062817 -0.000236 0.140944 0.147025 -0.200873 0.966173 
0.016668 -0.591119 -0.047768 0.788731 0.069035 -0.610133 
-0.252219 0.436447 -0.044151 -0.729931 0.657509 -0.172416 
-0.233842 0.325639 -0.007950 0.602080 -0.649833 0.463784 
0.106709 0.197836 -0.115078 0.415094 -0.342877 -0.839249 
-0.105336 -0.248498 0.104203 -0.533127 -0.019288 0.835646 
0.237089 0.515957 -0.102391 0.526721 0.602410 -0.599580 
0.000458 0.238664 0.123886 -0.388142 0.108738 0.914719 
-0.030998 -0.823257 0.069052 0.775086 0.554294 0.281542 
-0.105498 -0.279219 0.102848 -0.597516 -0.037658 0.790031 
0.021932 -0.387240 0.024354 0.940691 -0.159699 0.296437 
0.414580 0.315991 -0.087197 0.680941 0.731231 0.018368 
-0.053033 0.400152 -0.126891 -0.229673 -0.077650 -0.968907 
-0.108544 0.333796 -0.084890 -0.765702 -0.175926 -0.618251 
0.055603 -0.184036 -0.079821 -0.740802 -0.203275 -0.638615 
-0.075568 0.017765 -0.126608 -0.565066 -0.223712 -0.785454 
-0.099603 -0.449382 -0.076524 -0.586224 0.194339 -0.784744 
0.127972 0.565931 -0.008666 0.275686 0.752718 0.597433 
0.161289 0.151268 -0.072326 0.776723 0.044749 -0.627308 
0.095293 0.253558 -0.137588 0.073342 -0.098634 -0.990794 
-0.074580 0.412869 0.088595 -0.515730 0.103544 0.838998 
-0.024907 -0.277146 -0.087153 0.492349 -0.077870 -0.863165 
0.493040 0.189963 -0.056597 -0.043764 -0.449934 -0.888804 
-0.111434 -0.263366 -0.046046 -0.868105 -0.014207 -0.495854 
-0.082630 0.573390 -0.058526 -0.391245 0.861110 -0.311678 
0.165673 0.119267 -0.073698 0.801536 0.217341 -0.553917 
0.082263 -0.567771 -0.081446 -0.681075 -0.126643 -0.719117 
0.007246 0.485670 0.078861 0.016648 0.528940 0.847516 
-0.002243 0.663626 0.036123 -0.681038 -0.721286 0.100141 
-0.125108 -0.734704 -0.064046 -0.902213 -0.020947 -0.421473 
0.205845 0.015920 -0.017179 0.989392 -0.011061 -0.138181 
-0.064159 -0.336681 0.101999 0.188680 -0.139423 0.971935 
0.124304 0.359601 0.089107 0.373425 0.044680 0.926557 
-0.086116 -0.863300 0.056263 -0.025161 -0.999681 -0.001007 
0.106072 -0.724455 0.029024 0.526264 -0.037136 0.844913 
-0.002625 0.020391 -0.148906 -0.191163 -0.398555 -0.887887 
0.116369 -0.049778 -0.140478 0.219039 -0.373465 -0.901013 
0.051767 -0.637518 -0.002936 -0.931159 0.139608 0.333970 
0.187822 -0.766917 -0.024556 0.965099 -0.232563 -0.109788 
-0.054996 -0.825052 0.112080 0.108204 0.988175 0.100051 
-0.111694 -0.780395 -0.085134 -0.902277 0.011554 -0.430716 
0.000153 -0.611258 -0.067569 0.691881 0.040376 -0.720806 
0.030987 0.504223 0.066481 0.107814 0.494148 0.862627 
0.058751 -0.271333 -0.067596 -0.807343 0.008473 -0.590003 
0.042261 0.624318 -0.070303 0.131331 0.474175 -0.870217 
-0.087190 0.343127 -0.105063 -0.574570 -0.104614 -0.811656 
-0.039428 0.536493 0.046195 -0.205305 0.598334 0.774388 
0.134102 0.489861 -0.140904 0.147243 0.351792 -0.923452 
-0.049608 0.129083 -0.109143 -0.414796 0.388212 -0.821917 
0.076752 -0.798282 -0.070798 -0.894640 0.134731 -0.423078 
-0.063211 0.101616 -0.112188 -0.478474 0.290555 -0.828547 
-0.003357 -0.791436 -0.012014 0.828544 -0.072838 0.548759 
-0.066801 -0.739452 -0.125109 -0.014952 0.061121 -0.996338 
0.095358 0.211988 0.113492 0.358693 0.080330 0.929677 
-0.504199 0.095466 0.072737 0.730733 -0.498921 0.424827 
0.329019 0.436911 -0.096931 0.755444 0.617312 -0.191409 
-0.123202 -0.122387 -0.050033 -0.790363 -0.109559 -0.602514 
0.099782 -0.797735 0.051758 -0.382868 0.428085 0.806836 
0.152687 0.517104 0.030980 0.125939 0.754570 0.613625 
0.150125 -0.835219 -0.103720 0.646778 -0.236236 -0.720743 
-0.014949 -0.079148 0.127998 0.110759 -0.059083 0.991594 
-0.232839 0.318053 -0.047371 0.732822 -0.675502 -0.076222 
0.178565 -0.466486 0.059925 0.639071 -0.136626 0.751774 
0.394503 0.300459 -0.044937 0.209838 0.378749 0.900447 
-0.214126 0.490817 -0.032005 -0.750109 0.619167 -0.223247 
-0.120130 -0.180542 0.091920 -0.812819 0.001715 0.582444 
0.276660 0.344225 -0.056102 -0.432889 -0.789690 0.432156 
0.007792 -0.325058 0.072686 0.652925 -0.209197 0.727951 
-0.538758 0.093537 0.025736 -0.376407 0.765072 -0.480168 
0.206711 -0.144585 0.038655 0.966019 -0.138667 0.217276 
0.116430 0.588192 -0.036027 0.365697 0.866007 0.324884 
0.133667 -0.207288 -0.100265 0.351923 -0.171918 -0.918920 
0.068956 0.168428 0.127296 0.301458 0.031630 0.949650 
-0.090098 -0.848631 0.146128 -0.837989 0.051268 0.479732 
-0.103928 -0.817847 -0.085848 -0.874453 -0.431621 -0.215159 
-0.391483 0.192796 -0.050910 0.204399 -0.872654 -0.416289 
0.118195 0.517626 0.042228 0.290331 0.611075 0.735342 
0.005316 -0.385236 -0.048689 0.648705 0.093804 -0.754853 
-0.085164 0.400340 -0.116635 -0.400679 -0.184736 -0.897308 
0.053999 0.115194 -0.135918 -0.027568 0.391904 -0.919482 
-0.077648 -0.230707 -0.085502 -0.549288 -0.028616 -0.835011 
-0.111581 -0.539818 0.034378 -0.862241 -0.077310 0.499400 
-0.130268 -0.220017 0.070982 -0.928294 -0.061845 0.366178 
0.145215 0.025080 0.110911 0.447733 0.179886 0.874337 
0.104635 -0.305371 -0.099500 -0.047341 0.015956 -0.992774 
0.190749 -0.527182 0.026991 0.905050 -0.058068 0.417925 
-0.135241 -0.023932 -0.036532 -0.968538 0.032235 -0.240649 
-0.044289 -0.851147 -0.137215 0.245236 -0.507729 -0.819638 
0.053155 -0.709389 0.011971 -0.992102 0.007801 0.115359 
0.019799 0.203762 0.129548 -0.015400 0.067226 0.997541 
-0.048108 -0.327620 -0.089093 0.038884 -0.059263 -0.995718 
-0.021438 0.605924 -0.028476 -0.807820 0.480458 0.226350 
-0.010991 0.300582 -0.131052 0.061253 0.046788 -0.996378 
0.037627 0.866767 0.015590 -0.052891 0.958227 0.270426 
0.135035 0.243602 -0.111288 0.758284 -0.165206 -0.629222 
0.019633 -0.562064 -0.038405 0.912553 0.057758 -0.404187 
-0.563740 0.059084 0.030881 -0.931259 0.347051 -0.008073 
-0.268434 0.324233 0.007807 0.220959 -0.235999 0.945786 
0.203978 -0.178962 0.032209 0.954319 -0.030986 0.296074 
-0.001353 0.787249 0.074576 -0.554998 0.227461 0.793318 
-0.107015 0.310049 0.033346 -0.952849 0.049255 0.297879 
0.043046 0.316823 0.119351 0.129348 0.134658 0.981079 
0.086916 -0.199508 -0.096900 -0.381100 -0.216353 -0.898790 
0.071338 -0.363769 -0.079153 -0.662993 -0.075205 -0.741915 
-0.031272 0.718298 -0.004954 -0.884136 -0.444211 -0.108535 
0.046117 -0.545608 -0.039155 -0.917805 -0.018725 -0.395551 
