0.014037 -0.409192 -0.038984 0.819839 -0.033903 -0.571382 
-0.002385 -0.483544 0.042022 0.661253 -0.212585 0.718633 
-0.535501 0.102364 0.066634 -0.742870 0.664065 0.073520 
0.177563 -0.142596 -0.075837 0.708805 -0.090019 -0.699569 
0.134968 0.578421 -0.081490 0.380463 0.762454 -0.516649 
-0.065155 -0.565454 -0.103276 -0.031610 0.027453 -0.998443 
0.187510 0.022249 -0.070912 0.860187 0.000251 -0.509107 
0.016905 0.471196 0.085309 0.060333 0.501199 0.861751 
0.224491 0.528493 -0.003621 0.411859 0.631718 0.654100 
0.160270 -0.797648 -0.100220 0.677402 0.154546 -0.715868 
-0.106401 0.393757 -0.104959 -0.552581 -0.235565 -0.798483 
-0.047353 0.093004 -0.123747 -0.449074 0.299748 -0.841572 
0.113742 -0.870472 -0.084638 0.014269 -0.999804 0.002142 
0.043664 -0.446204 -0.027078 -0.998197 -0.011797 0.020111 
-0.087003 -0.434180 0.085039 -0.099828 -0.238820 0.962364 
0.087980 0.837706 -0.001522 0.869098 0.469229 0.057680 
0.067755 -0.025191 -0.150734 -0.202110 -0.351094 -0.912035 
0.201594 -0.487904 -0.019087 0.987998 0.146956 0.014158 
-0.123479 -0.238339 -0.023877 -0.889586 -0.019870 -0.456159 
-0.012128 0.671477 0.006509 -0.917837 -0.388728 0.060629 
-0.073670 -0.341663 0.102946 0.149392 -0.120874 0.981193 
0.180182 -0.735143 -0.042296 0.717959 -0.229855 -0.654454 
-0.118375 -0.651178 0.014865 -0.945495 -0.091505 0.309917 
0.094429 -0.521157 -0.096878 -0.566392 -0.035867 -0.823114 
0.142375 0.448776 -0.144183 0.153861 -0.038815 -0.987007 
0.119749 -0.023914 -0.147136 0.298130 -0.131951 -0.944413 
0.014766 0.124417 0.131636 -0.104764 0.004893 0.993685 
0.213788 -0.072574 0.022482 0.995134 0.015663 0.093433 
-0.003149 0.168361 0.128837 -0.172938 -0.003703 0.982352 
0.074565 0.850583 -0.051085 0.610817 0.739806 -0.278560 
0.157635 -0.380425 0.075072 0.141851 0.004053 0.988552 
0.548926 0.112780 0.016815 -0.924371 -0.359559 0.092449 
-0.068096 0.504096 -0.120736 -0.182549 0.300066 -0.935090 
0.024227 -0.440063 0.002403 0.969168 0.171223 0.134747 
0.161846 0.185376 0.065401 0.749243 0.043601 0.660372 
0.005885 0.854557 -0.058813 -0.344002 0.854108 -0.387423 
-0.397887 0.188201 0.017676 0.644235 -0.240948 0.700228 
0.319218 0.433093 -0.117102 0.533817 0.660032 -0.528524 
0.021000 -0.408288 0.013055 0.981271 -0.110110 0.153048 
0.044224 -0.404382 -0.006082 -0.971689 -0.093436 0.195827 
0.016590 -0.580681 0.004214 0.669069 -0.003516 0.739396 
-0.528851 0.096833 0.085138 -0.684892 0.086933 0.667479 
-0.242580 0.438162 0.000816 -0.763168 0.508558 0.397919 
-0.047989 -0.699782 0.015556 -0.254548 -0.132778 0.950994 
0.144675 0.269202 0.076915 0.755054 0.069782 0.651904 
-0.021278 0.707797 0.043582 -0.958601 -0.149913 0.231903 
0.196465 0.359053 -0.023403 0.980724 -0.101027 0.166300 
-0.140068 -0.122990 -0.015909 -0.918572 -0.082530 -0.386093 
-0.063594 -0.465004 -0.095125 -0.057488 0.114753 -0.990453 
-0.350914 0.311779 -0.014191 -0.532230 0.589634 0.604349 
-0.072722 -0.730772 0.014103 -0.412906 0.386051 0.822815 
-0.030983 -0.136582 -0.097842 0.375366 -0.246091 -0.893332 
0.183410 0.421788 0.042660 0.652049 -0.016917 0.755989 
-0.112626 0.279538 -0.042681 -0.995352 -0.090387 -0.024989 
0.119667 -0.349169 -0.098805 0.303140 0.065179 -0.947483 
-0.046969 0.103990 0.112865 -0.481908 0.180551 0.857304 
0.048206 -0.418744 -0.049127 -0.792966 -0.038037 -0.607472 
-0.178428 0.528845 0.002890 -0.659915 0.726287 0.187948 
-0.119203 0.462397 -0.111009 -0.443517 0.102240 -0.889856 
0.214745 0.547291 -0.080758 0.380972 0.803960 -0.448095 
0.127367 0.588055 -0.052362 0.402372 0.886236 0.115121 
0.212610 -0.052941 0.024724 0.978394 0.050824 0.191932 
0.166455 -0.845946 0.124503 0.846919 0.513971 0.115671 
-0.100596 0.273405 0.060474 -0.814802 -0.008796 0.573122 
0.095510 0.788248 0.023414 0.904394 0.135591 0.403405 
-0.093203 0.354421 0.065861 -0.743324 -0.187206 0.641257 
-0.070306 -0.646797 0.035672 0.354970 -0.233496 0.905148 
-0.259388 0.305579 -0.080166 0.637925 -0.412900 -0.646188 
-0.034749 -0.633921 0.025139 0.259545 -0.121377 0.957207 
0.205703 0.002408 -0.018790 0.982548 0.070649 -0.163221 
-0.089765 0.434478 -0.121134 -0.262558 -0.163876 -0.950710 
0.317336 0.315213 -0.058510 -0.542977 -0.642928 0.539618 
0.199132 0.398473 -0.013783 0.977141 -0.184151 0.101383 
-0.006843 -0.562767 -0.076657 0.748716 -0.059976 -0.659951 
-0.034833 -0.863576 0.058088 0.198242 -0.970922 0.000182 
0.025015 -0.657763 -0.050440 0.905494 0.109249 -0.364868 
-0.106579 0.310478 -0.080908 -0.798635 -0.130963 -0.586731 
0.003340 -0.777238 -0.102644 0.851799 0.244023 -0.460775 
-0.032369 0.049301 0.127886 -0.235358 0.131987 0.960697 
0.090774 0.721237 0.044121 0.984552 -0.005763 0.173907 
0.018142 -0.733938 -0.024838 0.935382 -0.062380 0.345729 
0.017872 0.227245 -0.126501 0.102518 -0.026637 -0.993889 
-0.137632 -0.458012 -0.023141 -0.979064 0.048708 -0.196376 
-0.080529 -0.042644 0.118111 -0.520195 -0.021171 0.852695 
0.524261 0.147391 0.017644 -0.722443 -0.602986 0.310542 
0.139132 -0.481618 -0.105517 0.243176 0.071920 -0.965399 
-0.102342 -0.524654 -0.086833 -0.597490 0.109289 -0.792764 
-0.114078 -0.079897 -0.069233 -0.770621 -0.132833 -0.623208 
0.200048 -0.180806 -0.049854 0.854283 0.017456 -0.516659 
-0.092699 0.380649 0.072848 -0.645870 -0.130153 0.749441 
-0.270547 0.409517 -0.012028 -0.729703 0.582009 0.342676 
-0.120025 0.096694 -0.045797 -0.891845 0.165351 -0.417972 
-0.046110 -0.557634 -0.101057 0.333334 -0.001358 -0.942645 
-0.045890 -0.815043 0.069020 0.203144 0.877731 0.422369 
-0.024509 -0.197676 0.116964 0.339457 -0.200177 0.917736 
0.068491 -0.536096 -0.071663 -0.746693 -0.061075 -0.661710 
-0.128427 -0.378222 0.018289 -0.991638 0.080853 0.047290 
0.148589 0.288259 -0.101650 0.787674 -0.126009 -0.602827 
0.198493 0.410020 0.003273 0.900440 -0.321584 0.258035 
-0.115115 -0.011680 -0.080020 -0.849416 -0.001639 -0.527490 
-0.064463 0.098055 -0.112664 -0.498062 0.276113 -0.821211 
0.158846 0.218106 0.064535 0.772973 0.071129 0.630353 
0.481816 0.180601 -0.048352 -0.449515 -0.778548 -0.353066 
0.198744 -0.563677 -0.051346 0.949663 -0.022514 -0.304037 
-0.070062 -0.444559 0.081696 0.128896 -0.169032 0.977092 
0.100980 0.726510 -0.003550 0.991862 -0.004268 0.098285 
0.361852 0.279829 -0.119329 -0.517179 -0.547292 -0.652820 
-0.106282 0.217760 -0.048657 -0.823633 -0.217613 -0.520327 
-0.102720 -0.501782 -0.082966 -0.599297 0.131149 -0.789657 
0.211342 -0.093266 -0.018833 0.943897 0.068815 -0.319049 
0.042165 -0.298157 0.016888 -0.976732 -0.007821 0.210666 
-0.155378 0.481158 -0.091318 -0.403217 0.207220 -0.890580 
0.054080 0.585048 0.021240 0.371787 0.005627 0.928239 
-0.058064 -0.069971 -0.114916 -0.217500 -0.264180 -0.939406 
-0.369965 0.304636 -0.047029 -0.688118 0.725480 -0.005161 
-0.185496 0.514498 0.019991 -0.666428 0.618077 0.415182 
-0.061178 0.356428 -0.120711 -0.371783 -0.045941 -0.927087 
0.205177 -0.262134 0.020231 0.997837 0.009739 0.060583 
-0.263733 0.331275 0.008840 0.059171 -0.256944 0.960837 
-0.065773 -0.340493 -0.085860 -0.305749 -0.043242 -0.950970 
0.191093 -0.131651 -0.062745 0.747838 -0.021913 -0.663392 
0.300311 0.410475 -0.142147 0.117853 0.297452 -0.946608 
0.043056 0.868472 0.007860 0.124709 0.956015 0.224927 
0.103444 0.583944 -0.018819 0.418198 0.716887 0.554596 
0.149664 -0.675121 0.027119 0.179613 -0.171313 0.967972 
0.029602 -0.123242 -0.069378 -0.877598 -0.289208 -0.379661 
0.203545 -0.406951 0.005999 0.934777 -0.192780 0.286733 
0.096668 0.096361 -0.139063 0.315922 0.350812 -0.878994 
-0.292664 0.268906 -0.080601 0.467048 -0.536220 -0.698627 
-0.020802 -0.265630 -0.085364 0.616254 -0.054250 -0.785622 
-0.434996 0.217139 -0.046831 -0.578997 0.207932 -0.785420 
0.038696 0.474282 -0.127203 -0.164892 0.061110 -0.984365 
0.425494 0.221586 -0.041686 -0.331364 -0.512198 0.761324 
-0.026582 0.575249 0.003067 -0.300120 0.686695 0.653640 
0.060929 0.058299 -0.154008 -0.086306 0.232896 -0.967543 
0.187481 0.327688 0.007115 0.948488 -0.124562 0.291172 
-0.070385 0.392624 -0.120706 -0.286610 -0.105033 -0.952199 
0.105312 0.782178 -0.029294 0.999915 0.008679 -0.004826 
0.331590 0.428323 -0.069021 0.802327 0.516686 0.291168 
0.108701 0.077801 -0.139497 0.512431 0.253128 -0.820183 
-0.027610 -0.828927 0.065791 0.938052 0.283723 0.180255 
-0.082685 0.031967 -0.119354 -0.668618 0.255404 -0.698175 
0.042592 0.165856 -0.119176 -0.079914 0.086626 -0.990398 
0.205934 -0.153157 0.035244 0.964106 -0.167211 0.191126 
-0.258165 0.421003 -0.005559 -0.714230 0.579994 0.386632 
0.016175 -0.231328 0.080586 0.864856 -0.056695 0.492631 
0.190718 0.172431 0.001521 0.985233 0.168628 -0.013607 
-0.124467 0.059068 0.055192 -0.888148 0.284224 0.356002 
0.020164 -0.094783 0.110937 0.590307 -0.260202 0.762950 
-0.029128 0.736971 0.021337 -0.987133 -0.067075 0.143162 
-0.087808 -0.843984 -0.113047 -0.917759 -0.014346 -0.396389 
-0.328747 0.246678 -0.075325 0.112964 -0.595387 -0.787548 
-0.098585 -0.839603 -0.078359 -0.965722 -0.164622 -0.192467 
-0.112885 0.428933 -0.111868 -0.427040 -0.205017 -0.879875 
0.242406 0.479294 0.002562 0.453841 -0.030714 0.888791 
0.224640 0.401472 -0.117410 -0.694153 -0.525389 -0.487726 
0.414993 0.294047 -0.121419 0.437188 0.422026 -0.788617 
-0.036317 0.756144 -0.052285 -0.966016 -0.159759 -0.196327 
0.205906 -0.523697 -0.020846 0.995558 0.023971 0.014772 
0.014532 -0.153564 0.094720 0.800602 -0.143568 0.579479 
-0.110127 -0.811173 -0.076960 -0.866998 -0.455718 -0.166705 
0.044222 0.262648 0.125922 0.149982 0.109486 0.980485 
0.157932 -0.526648 -0.098218 0.507083 -0.031250 -0.860616 
-0.113600 -0.513599 -0.074128 -0.737238 0.122525 -0.664294 
0.080621 0.628930 -0.048230 0.814000 0.367503 -0.436530 
0.013564 0.734944 -0.108503 -0.275498 -0.476893 -0.832613 
-0.047545 -0.232258 -0.092284 0.070246 0.036366 -0.996000 
-0.045461 -0.498324 -0.097788 0.176779 0.091285 -0.979113 
0.144218 0.521682 -0.128267 0.181071 0.418343 -0.889536 
0.141742 0.491921 0.051179 0.283839 0.531654 0.797643 
-0.309380 0.297908 -0.095995 -0.027055 -0.123776 -0.990298 
0.205569 -0.277795 -0.001312 0.999692 0.020590 -0.004909 
0.129453 -0.160062 -0.107292 0.284696 -0.140030 -0.946440 
-0.115790 0.137999 -0.044527 -0.862660 0.138589 -0.483022 
-0.130666 -0.239155 -0.006688 -0.937387 -0.029774 -0.346822 
0.170047 0.549768 -0.100334 0.296700 0.726349 -0.619570 
-0.116005 0.161950 0.044658 -0.861053 0.023293 0.507511 
0.552124 0.128351 -0.018489 0.242992 -0.020578 -0.895702 
0.147364 -0.828601 0.109761 0.348988 0.921572 0.161676 
-0.104359 -0.821371 -0.058354 -0.934187 -0.330909 -0.019715 
-0.114393 0.511633 -0.101066 -0.379285 0.358786 -0.836882 
0.035863 0.302229 -0.127976 -0.146571 0.016882 -0.987395 
-0.029595 -0.276071 0.102150 0.287920 -0.269858 0.917213 
-0.073045 -0.253194 -0.087705 -0.487256 -0.014694 -0.867549 
-0.051613 -0.622086 -0.103424 0.188159 0.049437 -0.980134 
-0.019261 0.690236 0.034754 -0.952267 -0.249454 0.154089 
-0.301037 0.254695 -0.072780 0.374283 -0.777453 -0.479543 
0.113615 -0.865817 -0.023643 -0.214026 -0.957954 0.152156 
-0.512762 0.083229 0.077436 0.744041 -0.618818 0.210533 
0.042867 -0.205499 0.042245 -0.981541 -0.053856 0.182669 
0.086588 -0.824443 0.033091 -0.770004 -0.583830 0.130141 
0.137074 0.275375 -0.115786 0.782670 -0.077932 -0.617348 
0.176971 -0.363064 -0.059176 0.658637 0.200577 -0.720553 
0.626642 0.068054 0.019565 0.897673 0.401936 -0.118210 
0.101398 -0.149299 0.102944 -0.519207 -0.110975 0.846724 
0.125618 -0.466942 0.055053 -0.584313 -0.102025 0.804383 
0.046566 -0.228671 0.050670 -0.893964 -0.097260 0.432440 
0.183377 -0.224748 -0.065978 0.539886 -0.018397 -0.830600 
-0.027398 -0.545646 -0.094064 0.426725 0.000155 -0.904222 
0.104770 0.431001 0.086031 0.262429 0.280304 0.922732 
-0.241396 0.329942 0.002856 0.437495 -0.578714 0.685838 
-0.466301 0.129930 0.015399 0.689567 -0.719600 0.026564 
0.012552 0.413977 0.100258 0.166975 0.225839 0.959600 
-0.134672 0.465584 0.061708 -0.072842 -0.066582 0.992574 
-0.106640 -0.153187 -0.064715 -0.780285 -0.148855 -0.606578 
0.199216 -0.445476 -0.037607 0.994197 0.026596 -0.101494 
-0.128792 -0.050788 -0.051861 -0.905153 -0.056389 -0.421042 
0.014192 -0.294212 -0.043130 0.815112 -0.083781 -0.571782 
0.146786 -0.337062 0.078707 0.152255 -0.050675 0.986293 
0.162658 0.284146 0.054715 0.707994 -0.012193 0.705835 
-0.093164 0.115206 0.078389 -0.587968 0.367645 0.716620 
-0.326138 0.306777 -0.093429 -0.315243 0.250870 -0.913166 
-0.095640 -0.249136 -0.068412 -0.742814 -0.056233 -0.667054 
0.107713 0.344562 -0.142203 0.350423 -0.108758 -0.925698 
0.172526 -0.708758 -0.059363 0.814085 -0.027007 -0.580006 
0.196591 -0.267451 -0.040374 0.858510 -0.186818 -0.472926 
0.314467 0.433162 -0.043573 0.783959 0.238341 0.572306 
0.040931 -0.383837 -0.031032 -0.969072 -0.109159 -0.217643 
-0.242497 0.440619 -0.057386 -0.658523 0.614754 -0.431008 
-0.550845 0.057345 0.070249 0.760817 -0.622029 0.067290 
0.072927 -0.158273 -0.100356 -0.530577 -0.220971 -0.816899 
0.170141 -0.813280 -0.004640 0.928784 -0.320823 0.172322 
0.177154 0.353845 0.036219 0.827053 -0.111952 0.548604 
-0.066044 -0.298494 0.106166 0.099150 -0.097191 0.990060 
-0.089502 0.143589 -0.080186 -0.651661 0.217140 -0.726254 
-0.127987 -0.635455 -0.065769 -0.979452 -0.008307 -0.175325 
-0.099839 -0.510761 0.056777 -0.856615 -0.144378 0.491824 
-0.042162 -0.467437 -0.093936 0.182321 0.127493 -0.974697 
-0.014533 0.688916 -0.036215 -0.804610 -0.438936 -0.382351 
-0.142397 -0.171411 0.019244 -0.979276 -0.189777 0.025611 
-0.087594 -0.751226 0.019597 -0.566347 0.314195 0.736566 
0.566358 0.149796 0.041212 0.482533 0.599551 0.549214 
-0.143290 -0.042623 0.000307 -0.995773 0.064946 -0.050677 
0.291489 0.329547 -0.097586 -0.677632 -0.726555 -0.098445 
-0.124754 -0.693437 -0.072011 -0.887123 -0.112916 -0.445705 
-0.491307 0.122519 0.070246 0.753749 -0.321686 0.560737 
0.547197 0.145961 -0.021928 0.565075 -0.017429 -0.818488 
0.175699 -0.758967 -0.048674 0.846709 0.268054 -0.452986 
-0.110329 -0.502711 0.043440 -0.825613 -0.221194 0.516926 
-0.017207 -0.439769 -0.076534 0.714200 0.074876 -0.695524 
-0.181688 0.376433 -0.082376 0.531823 -0.667962 -0.517196 
-0.005143 -0.806936 -0.008797 0.940528 0.046788 0.330625 
0.035132 -0.149276 0.055578 0.772576 -0.387336 0.495214 
-0.261815 0.352986 0.015530 -0.297295 -0.326773 0.894642 
0.184951 -0.654263 -0.062003 0.653520 -0.260067 -0.709907 
0.195567 0.390722 -0.100603 0.892834 -0.354601 -0.276727 
0.182984 -0.179599 -0.068032 0.599880 0.013046 -0.799416 
0.140271 -0.613149 -0.097556 0.244034 -0.141740 -0.958857 
0.090265 -0.058233 -0.139863 -0.052692 -0.378966 -0.922696 
-0.111882 0.277205 0.004337 -0.998430 -0.014809 0.046624 
-0.045564 0.408582 -0.128575 -0.126166 -0.050194 -0.990365 
0.054858 0.403304 0.098580 0.095935 0.213810 0.971376 
-0.032329 0.142998 -0.108246 -0.211393 0.457772 -0.860241 
0.036828 0.634305 -0.066723 -0.032595 0.243453 -0.967318 
-0.008847 0.607611 0.002211 -0.791672 0.097075 0.590891 
0.166317 -0.853770 0.143287 0.918092 0.141772 0.221970 
-0.129606 -0.130159 0.073417 -0.879916 0.039365 0.473398 
0.094754 0.112499 0.119485 0.388497 0.079522 0.916434 
-0.262339 0.384138 -0.092647 -0.376494 0.367744 -0.849034 
0.191547 0.007392 -0.061435 0.926145 0.049758 -0.370931 
0.081622 0.273712 0.113478 0.422414 0.098080 0.899907 
0.017674 -0.716338 -0.070364 0.893731 0.065072 -0.441939 
0.264719 0.355876 -0.107584 -0.547020 -0.758331 -0.350297 
0.164606 -0.154578 -0.086443 0.653777 -0.108956 -0.748478 
0.177953 0.223876 -0.036050 0.936440 0.004421 -0.350280 
0.091947 -0.768886 -0.080612 -0.772728 0.239834 -0.577204 
0.172842 -0.726750 -0.056661 0.823875 -0.151208 -0.545998 
0.015512 -0.343592 -0.037611 0.808054 -0.043062 -0.586988 
-0.427594 0.208584 0.015157 -0.204173 0.250853 0.941600 
-0.094571 -0.526208 0.064370 -0.765457 -0.086771 0.625514 
-0.021331 -0.599189 0.026786 0.191366 -0.120697 0.973874 
0.306046 0.428606 -0.130769 0.382732 0.544919 -0.745729 
0.159790 -0.172422 0.096175 0.251060 -0.168827 0.950782 
-0.007547 0.432616 0.098070 -0.019063 0.207699 0.977559 
-0.011849 -0.640538 -0.079472 0.667079 0.034659 -0.744161 
-0.128643 -0.360718 -0.008842 -0.999261 0.012369 -0.031609 
-0.082431 0.101407 0.094125 -0.595457 0.186314 0.779992 
-0.006536 0.740550 -0.100152 -0.603594 -0.400877 -0.686521 
-0.133563 -0.038143 0.062429 -0.897468 0.126615 0.421601 
-0.024401 -0.764315 -0.127922 0.466157 0.443040 -0.763069 
-0.080037 0.208253 0.085955 -0.610761 0.104689 0.784584 
0.038892 -0.275482 -0.037587 -0.879947 -0.000138 -0.473502 
-0.155806 0.531124 -0.062966 -0.400151 0.652301 -0.643448 
0.109621 0.382436 -0.144738 0.179469 -0.040973 -0.982670 
-0.074804 0.147923 -0.090419 -0.559827 0.259163 -0.786664 
0.157541 -0.029835 -0.120004 0.724993 -0.066122 -0.685138 
-0.099638 -0.756153 -0.102986 -0.729641 -0.079906 -0.676267 
0.097353 -0.418240 -0.096648 -0.465562 0.024990 -0.882703 
0.013101 -0.387944 0.047828 0.862816 -0.165354 0.476445 
0.564976 0.148168 -0.006574 0.720473 0.204833 -0.638745 
0.205395 -0.258743 -0.000652 0.999775 0.003898 -0.019630 
0.012203 0.455178 0.091506 0.065945 0.320741 0.944341 
-0.029243 -0.184609 -0.089784 0.384953 -0.022646 -0.921240 
0.220038 0.482434 0.017596 0.304313 0.072997 0.944741 
0.177269 0.149746 0.052388 0.757747 0.101543 0.644094 
-0.017624 0.717703 -0.065975 -0.823993 -0.426025 -0.343886 
0.048599 0.665145 -0.065341 0.237233 -0.171185 -0.949458 
0.004776 0.429684 -0.127688 0.091316 0.030033 -0.994982 
0.033846 0.122687 0.132653 0.227750 0.024820 0.912407 
-0.312418 0.241722 -0.006958 0.640360 -0.670674 0.351524 
0.199448 -0.010228 0.054902 0.897797 0.019835 0.436686 
0.046625 0.184951 -0.114820 -0.167428 0.188955 -0.965560 
-0.128145 -0.321356 0.021129 -0.998430 -0.015543 0.049895 
-0.040281 0.122496 0.113528 -0.475825 0.024150 0.877477 
0.092734 0.450890 -0.145293 -0.142283 0.018676 -0.989402 
0.071351 0.471814 0.079316 0.099264 0.399713 0.909050 
-0.130457 -0.072891 0.070174 -0.847464 0.022712 0.530350 
0.444979 0.196591 -0.075903 -0.111588 -0.970515 -0.082357 
0.139703 -0.438290 -0.099817 0.391331 0.155055 -0.906815 
0.226628 0.392036 -0.046777 -0.681224 -0.655123 0.326593 
-0.074186 -0.863926 0.064471 -0.041570 -0.999066 -0.003209 
-0.327999 0.230456 -0.052032 0.423862 -0.842982 -0.325048 
0.143505 -0.136525 0.107876 0.259891 -0.164427 0.950058 
-0.275015 0.406963 -0.059595 -0.653532 0.729519 -0.194411 
0.069174 0.682116 0.075596 0.708458 0.014989 0.698430 
0.234998 0.509653 0.002725 0.646236 0.360609 0.669754 
-0.085382 -0.262265 0.110447 -0.143441 -0.055956 0.987769 
0.198742 -0.168492 0.052674 0.962435 -0.082741 0.256551 
-0.066334 -0.462987 0.077023 0.290646 -0.222325 0.930392 
-0.092879 -0.562249 0.060397 -0.598822 -0.101698 0.788413 
-0.055249 -0.859617 0.147355 0.348643 -0.790501 0.481057 
0.000506 -0.116471 -0.079678 0.750680 -0.298657 -0.588517 
-0.128836 -0.288784 0.027135 -0.996452 -0.079494 0.022228 
0.179519 0.312025 0.022622 0.907130 0.008983 0.418454 
0.109467 -0.332961 -0.100114 0.083956 0.024339 -0.995971 
0.172717 -0.191649 -0.076897 0.646440 -0.048375 -0.760735 
0.054057 0.538278 0.042221 -0.019653 0.734275 0.677980 
-0.012977 0.083151 -0.136034 -0.148434 0.213196 -0.965598 
-0.041162 -0.424464 0.080558 0.237724 -0.197950 0.950563 
0.189931 0.338096 -0.053414 0.930627 -0.271948 -0.235139 
0.382259 0.244921 -0.060422 -0.729544 -0.615168 0.297377 
0.049689 -0.285064 -0.055114 -0.819730 0.007347 -0.572524 
-0.022793 -0.708599 -0.102032 0.539528 0.197290 -0.818323 
0.063801 -0.198621 0.076994 -0.660741 -0.079996 0.746173 
0.094179 -0.394281 -0.094660 -0.481240 -0.054719 -0.873730 
0.204341 -0.133776 -0.042101 0.904724 -0.003101 -0.421075 
0.149795 -0.867998 0.063016 0.373468 -0.924121 -0.028459 
0.081019 0.401277 0.095925 0.140193 0.198705 0.969126 
0.200385 -0.580708 -0.039411 0.988985 -0.045524 -0.139520 
0.088412 0.809684 -0.082917 0.823597 0.277271 -0.484619 
0.041706 0.079577 0.131886 0.123602 0.089035 0.983773 
0.083318 -0.855513 0.087157 -0.948030 -0.056298 -0.015268 
0.098617 0.759193 0.016780 0.989004 -0.004645 0.146743 
0.095739 -0.713685 -0.085328 -0.721716 0.043019 -0.690285 
-0.053335 -0.646896 0.029085 0.319317 -0.183416 0.929405 
0.543898 0.153605 0.035262 -0.543990 0.125403 0.829597 
-0.101843 0.094626 0.081140 -0.617843 0.115630 0.772061 
0.142424 0.305237 0.076628 0.753045 0.046195 0.656076 
0.086623 -0.827056 -0.061635 -0.703448 -0.665424 -0.049524 
0.005603 -0.339925 0.070233 0.687089 -0.155517 0.707515 
-0.006847 0.853135 0.023323 -0.523846 0.792535 0.311650 
0.195449 0.143423 0.025214 0.855162 0.094092 0.505422 
-0.429533 0.169712 -0.048170 0.431494 -0.704166 -0.544669 
0.096891 -0.245099 0.086962 -0.201270 -0.151348 0.965463 
0.113652 -0.713988 0.025943 0.468777 -0.219993 0.849648 
0.202254 0.032498 0.047592 0.928979 0.134762 0.343436 
-0.095326 -0.320701 0.104606 -0.209731 -0.049196 0.971204 
0.020137 0.723515 0.093257 -0.848771 -0.006672 0.521609 
-0.029603 0.759882 0.025338 -0.956532 -0.059930 0.275917 
-0.062656 -0.861304 -0.045622 0.029335 -0.999425 0.008427 
-0.242382 0.402319 -0.090725 -0.261507 0.428996 -0.861904 
0.171492 0.024189 0.094449 0.596652 0.144761 0.788952 
0.162777 0.161830 -0.070450 0.770024 0.024062 -0.637305 
-0.104865 -0.345507 -0.059295 -0.759458 0.082964 -0.644951 
-0.089253 -0.822581 0.062549 -0.665928 0.724088 0.173587 
0.194000 -0.186531 0.064581 0.946511 -0.081793 0.309307 
0.094072 -0.122839 -0.117254 -0.312337 -0.225994 -0.922569 
0.162566 0.046019 0.096359 0.411850 0.257360 0.873235 
0.203676 0.043680 -0.019681 0.963061 0.096462 -0.246141 
0.198838 -0.405801 -0.038714 0.947479 -0.054905 -0.314697 
0.108539 -0.869521 0.044265 -0.050769 -0.993398 -0.046546 
0.073286 0.240884 0.120551 0.338136 0.072772 0.934365 
0.001039 -0.633526 -0.068573 0.629860 0.070782 -0.772916 
0.017541 -0.542261 0.006826 0.888617 -0.087057 0.446282 
-0.079704 0.165121 -0.082001 -0.572673 0.139556 -0.806584 
0.159102 -0.120377 0.104270 0.440893 -0.051089 0.893555 
-0.034997 0.078801 -0.132841 -0.273757 0.341247 -0.899072 
-0.366978 0.233571 0.010073 0.061828 -0.018400 0.997382 
-0.039362 -0.261328 0.107223 0.187029 -0.193314 0.962986 
-0.124678 -0.756021 -0.035500 -0.941252 -0.316659 0.105927 
0.116410 0.058716 -0.139902 0.489943 0.210207 -0.845462 
0.114077 0.556045 -0.114533 0.194343 0.598756 -0.776730 
-0.029284 0.108319 0.121325 -0.417643 0.209606 0.883463 
0.161528 0.548029 0.002151 0.169002 0.719747 0.672628 
0.054218 -0.562235 -0.003737 -0.816735 -0.004561 0.575880 
0.109355 0.729186 -0.019627 0.665909 -0.492283 -0.435411 
-0.195942 0.462661 -0.079407 -0.441998 0.428315 -0.786538 
-0.130794 -0.526289 -0.051362 -0.864829 0.047398 -0.496671 
-0.365284 0.305843 -0.026776 -0.651454 0.725531 0.215275 
-0.100526 -0.541993 0.052515 -0.847320 -0.064872 0.526994 
-0.066629 0.374878 -0.120119 -0.338351 -0.082454 -0.937227 
0.174220 -0.512893 -0.086449 0.695664 -0.019186 -0.718032 
0.125484 0.269736 0.095067 0.550153 0.048551 0.833174 
-0.426596 0.239928 -0.015504 -0.718809 0.690705 0.078264 
0.327056 0.299316 -0.068182 -0.615924 -0.607357 0.500290 
0.123393 0.446880 -0.146544 0.083497 -0.016670 -0.995860 
0.157013 -0.729932 -0.078260 0.752282 -0.002578 -0.657810 
0.287196 0.347621 -0.120800 -0.583415 -0.516761 -0.621469 
-0.051600 0.384398 -0.126007 -0.207446 -0.050990 -0.974932 
0.043456 -0.269765 0.031939 -0.984945 -0.027190 0.161257 
-0.124438 -0.324952 0.051415 -0.982379 -0.040283 0.180689 
0.514170 0.218386 -0.034562 0.399014 0.864906 0.299862 
-0.104610 0.159175 -0.058688 -0.883207 0.124182 -0.425536 
-0.128299 -0.526576 0.006766 -0.904439 -0.121961 0.407573 
0.157627 -0.804504 0.032241 0.737548 0.420382 0.522993 
-0.446511 0.165409 -0.051665 -0.068388 -0.502159 -0.796289 
-0.115551 -0.520043 0.029471 -0.843651 -0.075521 0.529946 
0.081078 0.483603 -0.138270 -0.257944 0.221888 -0.938160 
-0.097547 0.557642 0.013815 -0.064533 0.825822 0.558297 
0.184940 0.456771 -0.136135 0.147866 -0.033819 -0.988187 
-0.168460 0.412414 -0.094117 0.192706 -0.162686 -0.964473 
0.007994 -0.652765 0.013785 0.700468 -0.138367 0.699705 
0.046169 -0.599938 -0.033187 -0.987415 -0.043139 -0.101776 
-0.019354 0.266835 0.114430 -0.304853 0.025183 0.950860 
0.138443 -0.824131 0.094885 0.212498 0.962147 0.166657 
-0.126186 -0.303992 0.052254 -0.983077 -0.125571 0.127811 
-0.129182 0.109703 -0.012378 -0.983817 -0.054651 -0.163858 
0.173790 -0.759211 0.019216 0.564119 0.144023 0.803694 
-0.118131 0.430203 0.061503 -0.232046 -0.043772 0.969632 
-0.040587 -0.404895 0.084156 0.272046 -0.201806 0.940675 
-0.015154 -0.120481 -0.093198 0.580553 -0.260592 -0.770465 
0.105143 -0.315883 0.078734 -0.256192 -0.119058 0.956547 
-0.000685 -0.305140 0.083312 0.461319 -0.198021 0.864328 
0.117929 -0.656806 -0.094305 -0.175888 -0.057682 -0.981359 
-0.064639 -0.844033 0.161996 0.413468 0.150063 0.866038 
-0.502870 0.147550 0.017894 -0.791299 0.611074 -0.016917 
0.117830 0.040592 -0.144354 0.478644 0.191206 -0.856375 
-0.034881 -0.854107 -0.050588 0.609954 -0.781147 0.099149 
-0.251748 0.436516 -0.021611 -0.769090 0.611980 0.178032 
0.042917 0.860350 -0.058212 0.098840 0.891101 -0.427898 
0.136118 0.418185 0.078893 0.476748 0.108157 0.868896 
0.029575 0.829130 -0.099296 -0.009718 0.686813 -0.724847 
-0.337671 0.277667 -0.090505 -0.092535 -0.225328 -0.968215 
0.172065 0.375658 -0.109614 0.470762 -0.777690 -0.384997 
-0.021525 -0.710657 0.027100 0.318126 -0.076991 0.914579 
0.200438 -0.422025 -0.028049 0.986158 -0.046932 -0.156099 
-0.569327 0.029635 0.047585 0.441517 -0.743047 0.026772 
-0.129233 -0.284493 0.006327 -0.996178 -0.074647 -0.034621 
-0.214981 0.412849 -0.093305 -0.196786 0.263758 -0.943784 
0.179073 0.292529 0.026344 0.940213 0.005500 0.339666 
0.009254 0.826565 -0.098809 -0.257269 0.662704 -0.700711 
-0.036565 0.774360 -0.057118 -0.990604 0.031613 -0.131575 
0.532152 0.210788 -0.024857 -0.427961 0.852522 0.248889 
0.084961 0.079204 0.122971 0.501366 0.046091 0.862746 
-0.022207 -0.083956 0.128543 0.043598 -0.050776 0.997458 
0.074390 0.761738 -0.103802 0.596847 -0.154102 -0.783033 
-0.043616 0.063119 0.121144 -0.420111 0.165268 0.889044 
-0.107581 -0.775447 -0.003102 -0.749038 0.111985 0.650899 
-0.115666 0.210216 0.041708 -0.943340 0.134006 0.299837 
0.021585 -0.321907 -0.025069 0.923546 0.016006 -0.382730 
0.362675 0.297412 -0.041549 -0.229917 -0.067498 0.956127 
-0.184457 0.440697 -0.091364 -0.144943 0.239532 -0.959760 
0.093852 -0.256099 -0.095333 -0.393378 0.049015 -0.917984 
-0.109583 0.477488 -0.113254 -0.432498 0.163292 -0.886644 
0.175425 0.176436 -0.046599 0.918871 0.064865 -0.388996 
0.101632 0.075101 0.116230 0.456711 0.211034 0.863153 
0.063039 -0.553540 -0.063713 -0.737882 -0.056605 -0.672221 
-0.101723 -0.454861 -0.076295 -0.631489 0.157239 -0.758976 
0.054159 -0.706365 -0.014877 -0.950078 -0.207920 -0.223881 
-0.103369 0.531743 -0.093331 -0.410801 0.577652 -0.705291 
0.117862 0.082973 0.105277 0.366222 0.060187 0.924434 
-0.029370 0.060361 -0.138118 -0.187021 0.218545 -0.956772 
-0.018151 0.284439 0.114362 -0.244439 0.023256 0.968831 
0.402951 0.326812 -0.097576 0.699256 0.704207 -0.096768 
-0.121185 -0.674646 -0.016069 -0.973280 -0.049184 0.220324 
-0.234378 0.339371 -0.083991 0.436133 -0.578263 -0.688554 
-0.037314 0.267544 0.108576 -0.454783 0.059909 0.886877 
-0.043290 0.482338 0.076238 -0.186425 0.450684 0.871764 
0.143699 -0.869482 0.084578 0.150039 -0.981933 0.004431 
-0.072916 -0.801324 0.049717 -0.437415 0.761945 0.460796 
0.160536 0.250404 -0.072164 0.877179 -0.025685 -0.478902 
0.188321 -0.412932 0.051870 0.883566 -0.044644 0.461887 
0.017331 -0.637844 0.005049 0.812769 -0.067735 0.573898 
-0.073559 -0.863200 0.001091 -0.012266 -0.999233 -0.034631 
0.019413 0.651846 0.041234 -0.455447 -0.667383 0.556034 
-0.106741 -0.119649 0.104480 -0.645426 0.051566 0.759026 
-0.134118 0.060863 0.013595 -0.917492 0.373761 0.060829 
0.234142 0.403882 -0.018615 -0.224637 -0.584510 0.771670 
0.205618 0.539814 -0.096099 0.274522 0.737528 -0.616795 
-0.063568 0.199661 0.097041 -0.451870 0.060679 0.889570 
0.003539 0.184842 0.129577 -0.087529 0.021184 0.995669 
-0.556448 0.073732 0.036871 -0.898128 0.438975 -0.011705 
0.041652 -0.383094 -0.011222 -0.983194 -0.107902 0.144916 
-0.179089 0.395901 -0.093655 0.352342 -0.277705 -0.892753 
-0.138662 -0.060916 0.046108 -0.968143 0.045842 0.245693 
-0.122573 -0.340079 0.063298 -0.986544 0.030328 0.159205 
0.084714 -0.719021 -0.071203 -0.886190 -0.093650 -0.450455 
-0.029817 -0.627731 -0.093467 0.520198 0.004931 -0.853607 
-0.333510 0.223976 -0.035366 0.478324 -0.874531 -0.074690 
0.075919 0.827202 0.040408 0.831331 0.324974 0.448175 
0.026340 -0.567579 -0.018621 0.982687 0.068199 -0.005988 
0.357290 0.317249 -0.133451 0.012032 -0.134199 -0.989431 
0.094834 0.754698 0.037185 0.928044 -0.052548 0.353443 
-0.130490 -0.455509 0.029908 -0.897206 -0.173855 0.404401 
-0.086775 0.547404 0.027346 -0.039461 0.748044 0.662259 
0.121654 0.486644 0.060797 0.253615 0.529555 0.808740 
-0.044986 0.199400 0.106599 -0.481212 0.011452 0.875705 
0.157836 0.231148 -0.075279 0.790455 -0.078248 -0.606538 
0.014434 0.666502 0.084165 -0.609378 -0.486565 0.592453 
0.153577 -0.364271 -0.078550 0.614781 0.145996 -0.774615 
-0.070997 -0.055628 -0.115706 -0.373657 -0.300113 -0.875251 
-0.101313 0.095298 -0.079647 -0.768046 0.189669 -0.611489 
-0.016472 -0.348859 -0.070601 0.654679 -0.090379 -0.749892 
-0.126032 -0.369112 0.045351 -0.987460 -0.060035 0.143857 
-0.130909 -0.109837 0.069979 -0.870460 -0.017821 0.491690 
-0.046644 -0.605155 -0.100848 0.357509 0.034497 -0.933140 
-0.347088 0.214471 -0.014473 0.627666 -0.763420 0.137316 
-0.061999 -0.064275 0.124964 -0.309438 -0.060209 0.948759 
0.088063 -0.833599 -0.037681 -0.952921 -0.198942 -0.009355 
0.403068 0.226883 -0.064874 -0.592414 -0.788381 0.164346 
0.047970 0.287122 -0.130710 -0.316642 -0.039703 -0.947432 
-0.012593 0.568608 0.015260 -0.297132 0.608366 0.730175 
0.408229 0.221530 -0.102638 -0.574806 -0.801634 -0.135074 
0.003712 -0.557194 -0.063584 0.782688 -0.016930 -0.622064 
0.200213 -0.522510 -0.046157 0.959721 0.035463 -0.278254 
0.133507 0.430345 -0.144238 0.163424 -0.098682 -0.981514 
-0.459025 0.177726 0.028522 0.007486 0.748010 0.663160 
0.019379 0.332327 -0.126204 0.039534 0.005718 -0.997053 
-0.001964 0.308287 0.116324 -0.304407 0.178114 0.933422 
-0.078051 -0.070115 -0.106992 -0.518781 -0.238651 -0.819424 
-0.337033 0.325034 -0.012499 -0.586058 0.629171 0.501238 
0.019928 0.843075 -0.084073 -0.199334 0.744439 -0.636072 
-0.515615 0.122152 0.085495 -0.097909 0.821376 0.526351 
0.194365 0.119208 0.028233 0.915300 -0.045071 0.395902 
-0.036291 -0.648344 -0.097920 0.501468 0.058248 -0.863040 
0.115801 -0.408616 -0.102566 -0.050413 0.047382 -0.995018 
0.081553 -0.007986 0.134437 0.247894 -0.363055 0.896978 
-0.018578 0.809068 0.037558 -0.895497 0.248733 0.363174 
-0.030964 0.723081 0.008682 -0.989855 0.043393 0.115625 
0.560629 0.120912 0.050434 -0.511514 0.079549 0.833848 
0.179728 0.042091 0.082214 0.749078 0.231166 0.620388 
0.047202 -0.370690 0.019166 -0.838914 -0.177945 0.512409 
-0.032835 0.761270 -0.071782 -0.901565 -0.222025 -0.350254 
0.031684 0.380469 -0.128914 -0.147356 -0.021875 -0.988113 
0.119696 0.150920 0.103753 0.528598 0.030797 0.848065 
-0.018617 0.837919 -0.062605 -0.517131 0.727889 -0.449948 
0.032056 0.725405 -0.105315 -0.030497 -0.575045 -0.799961 
0.102393 -0.098657 -0.125689 -0.059303 -0.342677 -0.936494 
-0.111005 -0.136203 -0.063574 -0.769883 -0.121243 -0.625820 
0.077949 -0.490212 0.017142 -0.639471 0.053787 0.766861 
-0.001942 -0.748339 -0.098515 0.752437 0.147193 -0.641531 
0.029734 0.104053 0.135622 -0.021880 0.091464 0.992107 
0.042267 0.115759 -0.134898 -0.083684 0.403122 -0.911031 
0.180377 0.273025 0.021772 0.967063 0.044750 0.247196 
0.358150 0.366019 -0.076999 0.664357 0.678378 0.311019 
0.085841 -0.309567 0.072850 -0.354002 -0.129322 0.926098 
0.036479 0.033243 -0.157192 -0.201261 0.168586 -0.960153 
0.097058 -0.862966 0.028525 -0.651234 -0.722045 -0.202345 
0.200709 0.014250 0.056413 0.912375 0.063967 0.398149 
-0.077322 -0.824658 0.083024 -0.155770 0.965705 0.192718 
0.077314 -0.263518 -0.086842 -0.535650 0.045880 -0.842984 
0.197535 0.558184 -0.029653 0.267556 0.932585 0.228027 
0.442251 0.271458 -0.040208 0.222131 0.611666 0.758082 
0.084105 -0.430034 -0.087516 -0.659646 -0.001682 -0.750688 
0.182616 0.541380 0.001690 0.246170 0.656811 0.712497 
-0.117412 -0.634323 -0.085146 -0.709515 0.060737 -0.699524 
0.014213 -0.432721 0.029873 0.850729 -0.082115 0.518350 
0.173870 0.301750 0.041563 0.921155 0.008665 0.378712 
-0.112181 0.259808 -0.000503 -0.999579 0.025579 0.009969 
0.177439 -0.445309 0.063869 0.532009 -0.066233 0.838024 
0.015124 0.192595 -0.117193 0.197652 -0.178405 -0.963736 
0.171010 -0.622258 0.020843 0.336455 -0.024944 0.932508 
0.214426 -0.103052 0.000553 0.999286 0.007648 -0.033993 
-0.060592 -0.257999 0.111125 0.075058 -0.125583 0.989007 
0.013532 0.620712 0.022975 -0.570111 -0.155520 0.805046 
0.199700 -0.244774 -0.042121 0.893488 -0.158440 -0.415789 
0.034784 -0.112385 -0.085918 -0.782662 -0.340078 -0.520691 
-0.111604 -0.850854 0.077809 -0.963808 -0.128593 0.120179 
0.151676 -0.075515 -0.115257 0.658751 -0.160417 -0.734729 
-0.127523 -0.276624 -0.013767 -0.975169 -0.028422 -0.214268 
0.076583 -0.751841 -0.049717 -0.879698 0.137709 -0.452265 
0.204547 -0.544164 -0.012771 0.979159 -0.046834 0.195200 
0.379357 0.323535 -0.127857 0.444145 0.277291 -0.851237 
0.062649 -0.743362 0.032508 -0.228133 -0.475799 0.836088 
0.082294 0.142024 0.122496 0.390884 0.070929 0.914831 
0.327100 0.439332 -0.095792 0.703788 0.673170 -0.211893 
-0.462562 0.150893 0.050981 0.589440 0.048026 0.732320 
0.103398 0.425091 -0.146164 -0.039680 -0.020609 -0.998687 
0.074811 0.237058 -0.134579 -0.168595 -0.182553 -0.966138 
0.178983 0.186883 0.043278 0.861240 0.078398 0.500311 
-0.089561 0.336050 0.068641 -0.872296 -0.016657 0.487201 
0.189952 0.414803 -0.125077 0.390340 -0.462384 -0.794090 
-0.104265 -0.118361 -0.074314 -0.719549 -0.092741 -0.685312 
0.576400 0.069134 0.029227 -0.859138 -0.498213 0.114136 
0.038882 0.816493 0.075176 0.063043 0.470505 0.878897 
0.177580 0.305788 -0.054545 0.885535 -0.286864 -0.363260 
0.364372 0.264272 -0.067845 -0.758241 -0.619678 0.196792 
0.001406 0.039002 0.137384 -0.155085 0.075901 0.984087 
0.082165 0.670114 -0.030632 0.984730 -0.012655 -0.167590 
0.185609 0.072674 0.061719 0.834082 0.153918 0.529083 
-0.244745 0.346437 0.013440 0.178301 -0.351596 0.914910 
0.205643 -0.317696 -0.002477 0.995783 -0.014547 -0.080998 
0.187933 0.565715 -0.044957 0.333084 0.930760 0.083525 
0.075776 0.438046 -0.141441 -0.348307 -0.005840 -0.936620 
0.202959 0.424820 0.020498 0.667647 -0.587237 0.455109 
-0.033514 0.806700 0.008258 -0.936535 0.079164 0.334186 
-0.038438 0.038273 -0.142370 -0.295191 0.224054 -0.926745 
0.199430 -0.607623 -0.016027 0.996792 -0.067243 0.039841 
-0.065157 -0.545897 0.057819 0.345659 -0.181195 0.920580 
0.485476 0.187692 0.013053 -0.272663 -0.009652 0.837323 
-0.061807 0.113143 0.101961 -0.509957 0.268861 0.811174 
0.075075 -0.800713 0.022765 -0.892333 -0.183828 0.411215 
-0.154954 0.398771 -0.077166 0.659017 -0.604708 -0.446291 
0.066192 0.487466 0.072310 0.078253 0.489919 0.866386 
0.067263 0.779810 -0.109525 0.510421 0.016331 -0.859557 
0.023650 0.813774 -0.112141 -0.082582 0.492507 -0.862129 
-0.043205 0.586169 -0.074660 -0.500216 0.715016 -0.480008 
0.054932 0.599471 -0.084985 0.095770 0.631290 -0.769408 
-0.122184 0.361424 -0.058705 -0.974868 -0.201492 -0.072451 
0.205664 -0.331002 0.010425 0.996009 -0.019293 0.066570 
0.144506 0.115218 0.087000 0.707963 0.029246 0.705138 
-0.037764 0.509030 -0.123037 -0.082293 0.292048 -0.952605 
-0.278168 0.345414 0.008647 -0.310093 -0.029681 0.943771 
-0.108860 -0.369105 -0.057456 -0.713064 0.036708 -0.699663 
0.053041 0.507370 0.062864 0.063999 0.475548 0.877199 
0.005498 -0.816020 -0.093001 0.916040 -0.317168 -0.238237 
-0.127127 -0.570387 -0.066234 -0.904312 0.038261 -0.413089 
0.051015 0.437591 -0.133142 -0.426777 0.015660 -0.903295 
0.336903 0.387190 -0.135054 0.547027 0.018143 -0.833646 
-0.246210 0.416058 -0.079795 -0.420242 0.563429 -0.709153 
0.097391 0.791379 -0.071065 0.935647 0.087396 -0.337008 
0.139722 -0.342432 -0.087284 0.614148 0.038488 -0.786710 
-0.121457 -0.584975 0.004655 -0.928560 -0.009820 0.369898 
0.018034 -0.451110 0.021998 0.895617 -0.024012 0.442200 
0.054758 0.207832 -0.120922 -0.189744 -0.400260 -0.896415 
0.112316 -0.189758 0.097522 -0.053503 -0.126518 0.989801 
-0.086640 -0.669691 -0.105516 -0.340974 0.006160 -0.938021 
-0.096639 0.327286 0.054373 -0.874486 -0.049443 0.481059 
-0.128134 -0.194325 -0.022339 -0.899457 -0.109410 -0.422970 
-0.151673 0.415693 0.032786 -0.170453 -0.697224 0.658048 
0.065072 -0.783094 -0.038830 -0.921951 0.086460 -0.377256 
-0.407310 0.264357 -0.048073 -0.786247 0.597081 -0.145854 
-0.347032 0.224750 0.004201 0.407482 -0.493266 0.760819 
-0.085076 -0.491149 -0.092482 -0.436378 0.140347 -0.887864 
0.100925 -0.867343 -0.041220 -0.467537 -0.858863 0.191097 
-0.105711 0.259248 0.046465 -0.973562 0.068383 0.216662 
0.133166 -0.542492 0.047668 -0.305806 -0.139758 0.940931 
-0.140226 0.432081 -0.096877 -0.376598 -0.373807 -0.840547 
-0.067205 -0.234520 0.113507 -0.056692 -0.109891 0.991952 
-0.122945 -0.383593 0.057611 -0.981829 0.005459 0.188509 
0.118495 -0.868754 -0.042806 -0.013466 -0.996743 0.076991 
0.015470 0.023151 -0.153742 -0.183601 -0.209894 -0.959508 
-0.279785 0.321073 0.008313 0.000540 -0.079624 0.995678 
0.120164 -0.865492 0.150222 -0.069971 -0.986305 0.148791 
-0.061742 -0.368103 -0.085511 -0.182070 -0.088423 -0.976612 
-0.136792 0.017457 -0.022394 -0.985022 -0.009667 -0.169388 
0.061581 0.086840 0.129937 -0.037211 -0.056913 0.995662 
-0.005650 0.613301 -0.064317 -0.498063 0.618777 -0.606852 
-0.107763 0.170037 0.058303 -0.812415 -0.021064 0.582644 
-0.034810 0.788488 0.006251 -0.985510 0.049470 0.159518 
0.156048 -0.093577 -0.107891 0.665092 -0.129922 -0.732776 
0.109523 -0.779825 0.040732 0.045995 0.760404 0.644349 
0.005011 -0.264046 -0.060511 0.773890 -0.115576 -0.622578 
0.092494 -0.197664 0.092870 -0.252562 -0.098699 0.959564 
0.021691 0.018718 0.141862 0.013123 0.144297 0.988598 
0.070265 -0.304095 0.066059 -0.588218 -0.102910 0.801901 
0.207724 -0.022169 0.037616 0.954997 0.062628 0.287796 
-0.072862 0.434560 0.085959 -0.530157 0.194522 0.824396 
-0.118020 0.231663 0.004783 -0.933182 0.335899 0.089015 
0.635119 0.054393 0.062939 0.906096 0.420927 0.039741 
0.076446 0.662543 0.020094 0.807213 -0.362354 0.458701 
-0.128720 0.128023 -0.010705 -0.990878 0.097448 -0.082087 
0.126230 0.510555 0.045534 0.264001 0.590796 0.760958 
-0.111986 0.366499 0.045027 -0.854536 -0.296582 0.423593 
-0.430812 0.193892 -0.052656 -0.353945 0.113169 -0.925843 
-0.120627 -0.658471 -0.001122 -0.980514 -0.145832 0.128284 
-0.036487 0.020014 -0.142415 -0.221984 -0.336916 -0.906129 
0.081338 -0.509710 0.021037 -0.637358 0.037979 0.769522 
0.350026 0.400642 -0.118858 0.817773 0.030713 -0.507603 
-0.007401 -0.040815 0.133661 0.017942 -0.205382 0.972913 
-0.121593 -0.469382 -0.057386 -0.781521 0.111952 -0.613525 
0.100881 -0.443975 -0.099853 -0.458859 0.047710 -0.886645 
0.177877 -0.633935 -0.073106 0.602248 -0.154786 -0.782875 
0.035856 -0.223851 0.018944 0.835180 -0.183956 0.516930 
0.252672 0.462794 -0.001615 0.339885 -0.096400 0.930234 
-0.548054 0.086271 0.073124 -0.884575 0.451639 0.101734 
-0.083132 0.237384 0.079334 -0.622652 0.079615 0.778037 
-0.074326 0.518524 -0.112790 -0.261718 0.422293 -0.867638 
-0.094960 -0.860120 -0.071718 -0.466146 -0.826871 0.054689 
0.584905 0.112254 -0.000126 0.584237 0.167433 -0.791700 
-0.127581 -0.711594 -0.043146 -0.991382 0.012802 0.103921 
0.179121 -0.745338 0.005627 0.308922 0.733111 0.600765 
-0.065051 0.011765 0.124591 -0.340631 0.362480 0.866674 
0.049463 0.755200 0.080792 0.786816 0.172018 0.589728 
-0.136070 -0.510338 -0.035450 -0.980920 0.009943 -0.165044 
0.205486 0.023028 -0.019950 0.984824 0.029906 -0.164384 
0.185212 -0.769569 -0.000247 0.917820 -0.309332 0.240944 
0.302104 0.468581 -0.077804 0.788271 0.611672 -0.062463 
-0.123092 -0.357860 0.064530 -0.975516 -0.003860 0.215663 
0.189145 -0.494403 0.036568 0.921863 -0.044570 0.382935 
0.047625 0.524951 0.052730 0.094011 0.525630 0.845122 
0.110999 -0.519243 -0.105427 -0.315112 -0.009531 -0.947125 
0.180471 0.035792 -0.083042 0.843075 0.091308 -0.527816 
-0.066366 -0.861953 -0.028189 0.020397 -0.998493 -0.047591 
-0.127085 -0.082893 -0.050291 -0.820236 -0.111904 -0.557087 
0.585098 0.128696 0.031955 0.753933 0.656415 0.019467 
0.007001 0.144179 -0.116435 -0.108793 0.418501 -0.895947 
0.113392 -0.186302 -0.105930 -0.027495 -0.118609 -0.990490 
0.135560 -0.024580 0.114634 0.374755 -0.011930 0.926874 
0.616900 0.072550 0.095845 0.056033 0.538736 0.801592 
-0.108267 -0.252565 -0.051317 -0.828481 -0.021860 -0.559528 
0.283736 0.447905 -0.018573 0.673786 0.170606 0.718916 
0.594659 0.117065 0.014916 0.809569 0.554428 -0.156932 
0.021499 -0.295861 -0.025267 0.939516 -0.040599 -0.339465 
0.204975 -0.334849 -0.011225 0.982586 0.041010 -0.165106 
0.061989 0.269866 -0.135116 -0.331820 -0.069171 -0.940225 
0.068189 -0.613360 -0.063116 -0.685872 -0.026130 -0.727138 
-0.111805 -0.606977 0.028265 -0.919301 0.019128 0.392797 
0.121686 -0.434023 0.060071 -0.493518 -0.263568 0.828703 
-0.104985 -0.792112 0.003238 -0.815310 -0.007386 0.562244 
-0.414183 0.254669 -0.030794 -0.765684 0.642967 0.014175 
0.047165 -0.509028 -0.015131 -0.525475 0.003007 0.841457 
-0.129977 -0.242111 0.067143 -0.947762 -0.053010 0.313368 
0.082399 0.176280 0.120809 0.388597 0.034522 0.920647 
-0.028538 0.724031 -0.044869 -0.839396 -0.453255 -0.285027 
0.244098 0.519361 -0.091885 0.560847 0.640823 -0.523600 
0.075565 -0.771389 -0.056552 -0.862634 0.211849 -0.459231 
0.192897 -0.506457 0.024017 0.940543 -0.025423 0.337832 
0.093492 0.710201 -0.032430 0.818933 -0.535081 -0.200293 
-0.044193 -0.071381 0.128343 -0.121484 -0.057256 0.990425 
-0.193358 0.385122 0.020883 0.223564 -0.456998 0.859892 
-0.002687 0.705374 -0.074411 -0.621066 -0.549780 -0.557019 
0.044010 -0.481886 -0.034091 -0.995358 0.000215 -0.049501 
-0.088970 -0.863261 0.039363 -0.027332 -0.999552 -0.006882 
-0.017862 0.847381 -0.041489 -0.542834 0.803752 -0.242076 
-0.059465 -0.006397 0.133471 -0.349549 0.037989 0.893376 
-0.047678 -0.518940 -0.099774 0.168157 0.067079 -0.982827 
0.119306 -0.540877 -0.107498 -0.190568 -0.036587 -0.978618 
-0.079931 -0.279071 -0.081636 -0.609129 -0.048171 -0.791264 
0.148679 -0.535866 0.052834 -0.094305 -0.266987 0.958226 
0.147003 -0.789635 -0.108414 0.439801 0.344555 -0.826067 
0.120684 0.203958 -0.109401 0.575210 -0.293007 -0.763628 
-0.018955 0.136224 0.123692 -0.452048 0.019186 0.890223 
0.181566 0.504685 -0.129035 0.083708 0.339515 -0.936051 
-0.122245 0.363426 -0.003186 -0.964924 -0.241300 0.078246 
-0.045278 0.053219 -0.135841 -0.349434 0.232003 -0.905171 
0.108695 -0.679697 -0.090992 -0.389766 0.062315 -0.918028 
0.205628 -0.388134 -0.001157 0.996236 0.003596 0.081657 
0.185529 0.047774 -0.070003 0.867871 0.157185 -0.471176 
-0.132479 -0.492089 0.010564 -0.846063 -0.204110 0.492232 
-0.054969 0.493395 0.067687 -0.172732 0.445705 0.877896 
0.068049 0.742644 -0.102701 0.558814 -0.365936 -0.736183 
-0.021557 -0.807736 0.047381 0.904274 0.268645 0.298434 
-0.120956 0.477183 0.061463 0.020263 0.031317 0.997527 
-0.012503 0.440475 -0.129638 0.090673 -0.017770 -0.995588 
-0.122413 -0.119380 0.085412 -0.850915 0.030576 0.524099 
0.137891 0.206112 0.089717 0.673995 0.061395 0.735935 
0.116057 -0.316518 -0.098608 0.261890 0.026827 -0.962288 
0.113924 -0.427794 -0.103113 -0.119446 0.044468 -0.987241 
0.021162 -0.434643 -0.017926 0.968723 0.112657 -0.212099 
0.062346 -0.628791 -0.055920 -0.722997 -0.130661 -0.676859 
0.033974 -0.129256 0.075301 0.794332 -0.410237 0.438880 
0.153419 0.173767 0.075625 0.723060 0.037325 0.689750 
0.013847 -0.025772 -0.137835 -0.019456 -0.370723 -0.928412 
0.126864 -0.405193 0.067856 -0.263079 -0.204193 0.942853 
-0.142292 -0.076799 0.034615 -0.976767 0.014832 0.205942 
0.110328 -0.256885 0.086405 0.019103 -0.190598 0.981230 
-0.496393 0.145125 0.070547 -0.205624 0.762439 0.541154 
-0.323419 0.343775 -0.051908 -0.687561 0.714328 -0.120492 
-0.005546 -0.267599 0.094273 0.476550 -0.214734 0.851582 
0.097341 -0.868142 -0.092202 -0.508948 -0.830850 -0.098975 
-0.413690 0.170858 -0.002129 0.657648 -0.753276 -0.007075 
0.088547 -0.416623 0.042654 -0.642707 -0.341870 0.685440 
-0.533128 0.105752 0.049102 -0.799918 0.586629 -0.083600 
0.478759 0.250905 -0.066684 0.789820 0.597180 -0.118585 
-0.116289 -0.737553 -0.074850 -0.785827 0.003842 -0.609979 
0.112130 0.508473 -0.136588 -0.008290 0.208670 -0.976441 
0.132454 -0.870000 0.070636 0.013081 -0.999891 -0.003897 
0.165580 -0.823987 -0.058528 0.766305 -0.641822 -0.028041 
-0.456573 0.142308 0.031418 0.674437 -0.706006 0.197938 
-0.105537 0.004132 0.104098 -0.662998 0.085315 0.740666 
0.024294 -0.580007 -0.033328 0.906571 0.130801 -0.393534 
0.099854 -0.504139 -0.101209 -0.541327 -0.018740 -0.840514 
0.057335 0.077676 -0.149551 -0.131612 0.309960 -0.940420 
-0.028699 0.103048 -0.127505 -0.215437 0.279028 -0.935614 
0.192577 0.052907 -0.053962 0.908419 0.121612 -0.399849 
0.109318 0.514174 0.049138 0.301927 0.542189 0.783057 
0.091919 -0.221738 0.089280 -0.236193 -0.139856 0.957883 
0.141912 0.449800 0.070657 0.495775 0.266486 0.822609 
-0.021951 -0.400455 -0.072556 0.556935 0.114743 -0.821034 
0.019144 -0.207353 0.074438 0.954029 -0.025109 0.297021 
-0.017116 -0.501216 -0.084252 0.679400 0.078970 -0.729304 
-0.009526 0.721998 -0.083855 -0.628790 -0.540110 -0.556324 
-0.119472 0.347578 -0.070920 -0.967885 -0.115738 -0.217356 
0.098406 0.725325 -0.040649 0.942230 -0.266775 -0.192252 
0.069432 -0.807358 0.006276 -0.903964 -0.267707 0.329977 
0.093043 -0.847386 -0.102410 -0.870471 -0.021005 -0.476179 
0.411836 0.318322 -0.083365 0.677605 0.730615 0.069699 
0.169996 -0.196472 0.089805 0.344657 -0.104610 0.930672 
-0.381465 0.292779 -0.033453 -0.711717 0.695502 0.091822 
0.222572 0.532079 -0.096492 0.391516 0.691064 -0.606090 
-0.317158 0.233849 -0.032088 0.653842 -0.756072 -0.003567 
0.119857 -0.869194 0.118246 -0.003953 -0.999376 0.033693 
-0.028515 0.246739 0.112161 -0.280181 0.019280 0.959722 
0.158251 -0.565314 -0.096413 0.507297 -0.058437 -0.859638 
-0.019568 0.724047 0.054296 -0.861787 -0.055966 0.501988 
0.007010 -0.628580 0.016709 0.571353 0.063816 0.814451 
0.092392 -0.770111 0.021002 -0.247007 0.818626 0.515764 
0.142269 -0.114402 0.110737 0.217841 -0.058007 0.971823 
-0.032362 0.226592 0.111839 -0.321802 0.054480 0.944347 
-0.061309 -0.584439 0.047426 0.375967 -0.273277 0.884693 
0.349915 0.275679 -0.092011 -0.642648 -0.749512 -0.137644 
-0.059440 -0.176109 -0.095423 -0.145806 -0.122174 -0.974780 
0.192162 -0.255938 0.062885 0.801353 -0.020977 0.596498 
-0.330190 0.262084 -0.084839 0.010829 -0.467409 -0.883518 
-0.007514 -0.789641 -0.129832 0.751866 0.280016 -0.593419 
-0.143534 0.525806 0.041793 -0.205801 0.588555 0.779272 
-0.085412 -0.862206 -0.013898 -0.127705 -0.989553 -0.059572 
-0.175429 0.432314 0.037246 0.018100 -0.454486 0.889913 
0.276308 0.485479 -0.025097 0.668514 0.542709 0.505032 
0.185788 -0.287797 -0.048108 0.761332 -0.176904 -0.623180 
0.118558 0.196997 0.103230 0.509188 0.031491 0.858554 
0.058214 -0.323410 -0.066727 -0.795404 -0.023022 -0.605397 
-0.390381 0.200375 -0.060586 -0.013121 -0.671289 -0.731361 
-0.100328 0.113055 -0.075780 -0.753937 0.143983 -0.639586 
0.151654 -0.712982 -0.083141 0.679709 0.004044 -0.733376 
0.158382 -0.859448 -0.082287 0.822655 -0.479992 -0.286799 
0.159523 0.488748 0.045243 0.461628 0.413807 0.776102 
-0.126565 -0.280338 0.064411 -0.969534 -0.073837 0.229179 
0.074514 -0.470426 -0.080160 -0.710143 0.036612 -0.703091 
-0.026401 -0.514400 -0.092476 0.504909 0.056081 -0.858896 
0.133789 -0.551142 -0.107811 0.135877 -0.064103 -0.986381 
0.177966 -0.419230 0.065218 0.611100 -0.084345 0.782353 
0.000615 -0.690080 0.010971 0.817419 -0.185864 0.544014 
0.138301 -0.745510 -0.097576 0.393480 0.170282 -0.888339 
0.443649 0.222846 -0.022246 -0.831449 -0.205486 0.503940 
0.056043 -0.010464 0.136696 0.034447 -0.380242 0.922407 
