-0.014192 -0.309697 0.0897 0.439525 -0.13061 0.888189
-0.128085 0.38924 -0.004644 -0.993259 -0.098448 0.038343
0.177745 0.278834 0.029268 0.937893 0.009934 0.3449
0.169945 -0.854025 0.127715 0.895115 0.176381 0.185734
0.413546 0.216627 -0.087619 -0.61099 -0.790949 -0.024467
-0.042553 -0.342133 -0.087635 0.218893 -0.071304 -0.967606
0.187295 -0.069515 -0.071601 0.824718 -0.029339 -0.564694
0.041712 -0.136915 0.058042 -0.088778 -0.531095 0.806929
0.121362 -0.863524 -0.116382 0.151681 -0.638394 -0.733743
0.055237 0.745107 -0.110622 0.406493 -0.299854 -0.861179
0.166156 0.392142 0.056056 0.690853 -0.002176 0.722689
-0.118119 0.343126 0.006969 -0.976638 -0.142031 0.16103
0.112327 0.590307 -0.037537 0.390197 0.865915 0.304519
0.06574 0.862886 -0.018157 0.371135 0.923647 -0.030867
0.168734 -0.064643 -0.100046 0.780216 -0.08055 -0.62028
-0.118578 0.308094 -0.017529 -0.97982 -0.160159 0.095715
-0.128923 0.07337 -0.017796 -0.982966 0.15194 -0.063234
0.189505 0.317605 -0.029875 0.981107 -0.163022 -0.079423
0.195378 -0.011818 -0.056688 0.879557 0.071191 -0.469982
0.138477 0.373309 -0.131504 0.594772 -0.165578 -0.786531
-0.089011 -0.095945 0.113301 -0.401642 0.010712 0.915197
-0.108922 -0.123072 -0.06788 -0.766904 -0.083405 -0.636252
0.035343 -0.319041 -0.021568 -0.992146 -0.016567 -0.119747
-0.073081 0.270444 -0.110212 -0.612868 -0.10678 -0.781256
-0.136175 -0.429834 0.016928 -0.986504 -0.012746 0.161321
0.070029 0.850404 -0.059065 0.48205 0.764465 -0.426691
-0.118456 -0.517935 -0.069342 -0.752235 0.13649 -0.643877
0.03511 -0.134826 -0.072078 -0.8372 -0.313887 -0.446591
-0.109424 0.25139 -0.063031 -0.930845 -0.107527 -0.345907
0.201133 0.126344 -0.002059 0.934048 -0.243754 -0.194788
0.064065 -0.046016 -0.140204 -0.293671 -0.413928 -0.861525
0.000207 -0.13963 0.112197 0.576359 -0.157382 0.801865
0.508916 0.222385 -0.04915 0.456142 0.860117 0.056471
0.088093 -0.863584 0.094362 -0.588652 -0.8069 -0.012287
0.194576 -0.186031 0.062696 0.950465 -0.085166 0.296536
-0.071379 -0.77394 -0.131133 -0.500383 0.351038 -0.789879
-0.181003 0.470186 -0.082905 -0.380702 0.312707 -0.869075
0.103721 0.483363 0.068063 0.225755 0.471476 0.851158
0.196531 -0.387132 -0.045984 0.899055 0.00259 -0.43694
0.609806 0.066718 0.022047 -0.481255 -0.840783 -0.229356
-0.120022 -0.588914 0.00846 -0.927265 0.006691 0.374048
0.106303 0.324242 -0.140386 0.400844 -0.098885 -0.910726
0.129862 -0.662475 -0.094203 0.10477 -0.048977 -0.989235
-0.132393 -0.199947 -0.01101 -0.904178 -0.111123 -0.412355
-0.103138 -0.86084 0.096778 -0.630921 -0.728469 0.065031
0.055495 -0.271341 0.056489 -0.730403 -0.125126 0.671322
0.070972 -0.441215 -0.075526 -0.710521 0.023563 -0.703208
-0.143532 0.529193 -0.07382 -0.453567 0.616416 -0.642198
0.599678 0.112319 0.03566 0.75002 0.661087 0.002264
0.087351 0.340582 0.104018 0.262978 0.111884 0.957869
0.364828 0.268539 -0.056537 -0.627356 -0.606389 0.483031
-0.284842 0.335129 -0.095386 -0.175317 0.16605 -0.966634
0.156835 0.09206 -0.096087 0.724333 0.219676 -0.653476
0.356109 0.373391 -0.105892 0.739028 0.66818 -0.053997
-0.048427 0.098499 -0.12141 -0.43131 0.289814 -0.854195
0.140762 0.194842 0.087868 0.697464 0.046645 0.71506
0.021601 0.398444 -0.128123 -0.035037 0.001285 -0.999041
-0.040196 0.74585 -0.02975 -0.991682 -0.018482 -0.088411
0.171477 0.467478 -0.138059 0.162674 0.064952 -0.984186
0.097595 0.117105 0.117586 0.466138 0.05401 0.882111
0.568056 0.080695 0.018987 -0.871522 -0.483834 0.026385
-0.146244 0.511245 -0.085468 -0.434865 0.441382 -0.783985
-0.042316 -0.641358 -0.100792 0.436457 0.054065 -0.897371
0.213244 -0.050861 0.020002 0.991246 0.033149 0.112901
0.181202 0.360377 0.031163 0.879398 -0.155164 0.450032
0.081919 -0.727647 -0.061454 -0.923346 -0.107977 -0.367197
0.175412 0.415372 0.048933 0.593998 0.00252 0.803283
0.090849 -0.552042 -0.091225 -0.659869 -0.118571 -0.741785
-0.062003 -0.86277 0.134395 0.039031 -0.990549 0.116539
-0.027734 0.223534 -0.125521 -0.200184 -0.199726 -0.958956
0.054001 -0.484759 -0.058796 -0.796947 -0.000964 -0.602757
0.005118 -0.493617 0.031631 0.686276 -0.184937 0.703214
0.246607 0.428149 -0.007247 0.457714 -0.354839 0.812663
-0.120206 0.329635 -0.051395 -0.997571 -0.044465 -0.047076
0.023756 0.562822 0.02669 -0.015908 0.10788 0.993543
-0.056624 -0.798845 -0.146789 -0.358062 0.068957 -0.923434
0.014108 -0.523097 -0.045127 0.847816 0.051073 -0.527414
0.325617 0.44178 -0.092768 0.709661 0.684411 -0.158468
0.037853 0.722848 -0.104028 0.0925 -0.699577 -0.660079
0.009298 0.678172 -0.064121 -0.489925 -0.417981 -0.763542
-0.288298 0.380554 -0.066385 -0.898619 0.313124 -0.2827
-0.120457 -0.664295 -0.007087 -0.977033 -0.156245 0.144268
-0.135406 0.412217 -0.078033 -0.184049 -0.82584 -0.381119
-0.100213 -0.180639 -0.067952 -0.737433 -0.062335 -0.671839
0.207731 -0.182129 -0.004616 0.9999 -0.002647 0.004083
0.19675 -0.337882 0.04039 0.905318 -0.078632 0.417332
0.517967 0.179338 -0.047062 0.412032 -0.418005 -0.808195
0.086585 0.142055 0.120873 0.338429 0.06105 0.938421
-0.252073 0.430052 -0.058421 -0.674184 0.64523 -0.356557
-0.00205 -0.45677 -0.061808 0.73957 0.095527 -0.666121
-0.019835 -0.248248 0.105258 0.305264 -0.177175 0.934243
-0.074896 0.197408 0.090746 -0.576984 0.065434 0.812947
0.24333 0.45185 -0.000582 0.353364 -0.137953 0.918791
-0.526307 0.088939 0.026352 0.214491 -0.132127 -0.879401
-0.057104 -0.252028 -0.092953 -0.154101 0.020314 -0.98491
-0.122771 -0.093692 0.0832 -0.80807 0.034664 0.587433
0.10168 0.205943 -0.122083 0.349524 -0.440251 -0.826257
-0.056606 0.167017 -0.093917 -0.398297 0.032919 -0.908537
-0.113769 0.086876 -0.061726 -0.870107 0.165548 -0.464074
0.083021 0.13169 -0.127437 0.152621 0.323452 -0.933152
-0.2921 0.29227 -0.092593 0.233037 -0.376246 -0.895982
-0.109111 0.078627 0.080562 -0.675439 0.406622 0.612156
0.088966 0.569795 -0.108527 0.043139 0.639542 -0.76638
0.052339 -0.17131 -0.079625 -0.77278 -0.17752 -0.606757
0.002498 -0.047365 -0.127323 0.044378 -0.554169 -0.830922
-0.030525 0.597181 -0.062496 -0.551437 0.792925 -0.253888
0.378258 0.249784 -0.100103 -0.67521 -0.664446 -0.318492
0.17137 -0.772004 -0.072292 0.752061 0.500512 -0.42726
-0.375882 0.295175 -0.065604 -0.661676 0.645294 -0.377338
0.176807 0.250404 -0.037954 0.93133 0.005128 -0.364118
-0.020877 0.426423 -0.129954 0.041705 -0.020016 -0.998772
0.038795 -0.148838 0.049789 0.094959 -0.478552 0.821564
-0.119026 0.016807 0.085244 -0.815115 0.231475 0.53057
0.120948 0.172946 -0.105538 0.427271 0.078458 -0.900112
0.086302 0.803739 -0.089182 0.774664 0.233622 -0.58425
0.098486 -0.695644 0.035724 0.131058 -0.000181 0.988267
-0.260456 0.286906 -0.059995 0.738148 -0.579775 -0.342214
0.08627 -0.486967 0.023572 -0.555596 0.055267 0.826844
-0.128777 -0.294278 0.017447 -0.998999 -0.038389 0.008875
0.068645 0.452087 0.085733 0.137589 0.335451 0.931542
-0.060341 0.466546 0.079267 -0.202561 0.390859 0.895021
-0.007916 0.631287 0.001336 -0.819469 -0.017043 0.570671
0.590628 0.10478 0.002582 0.544434 0.195539 -0.814417
0.027363 -0.234459 0.043517 0.979693 -0.019076 0.199205
-0.139952 -0.164656 -0.002729 -0.936816 -0.156532 -0.311614
0.101972 -0.795086 0.051786 -0.293341 0.476778 0.82558
0.035697 -0.304275 -0.02608 -0.975468 -0.049378 -0.205723
-0.324006 0.34123 -0.060903 -0.644692 0.727401 -0.226167
-0.120445 -0.700152 -0.027146 -0.88387 -0.118587 0.430056
0.158188 -0.719076 -0.077248 0.711272 -0.019394 -0.701778
-0.1102 -0.230086 -0.04945 -0.855036 -0.030749 -0.516865
-0.11286 -0.354416 -0.05119 -0.768806 0.114186 -0.627551
0.306684 0.380212 -0.14325 0.02559 -0.179719 -0.980943
0.030941 -0.257128 0.023312 0.983135 -0.063429 0.170709
0.191024 0.382389 -0.0987 0.696573 -0.486871 -0.522068
0.075934 0.74369 -0.096836 0.643923 -0.325801 -0.690831
0.066028 0.434819 -0.137975 -0.291357 0.009013 -0.95588
0.13127 0.280915 0.090222 0.635811 0.040751 0.770227
0.12921 0.502598 0.04947 0.256834 0.483213 0.836003
0.023321 -0.29185 0.053602 0.908156 -0.037904 0.416302
0.081023 -0.468601 0.017292 -0.643657 0.062402 0.762623
-0.013783 -0.757831 -0.115046 0.68199 0.337133 -0.647987
-0.127176 -0.309934 -0.01693 -0.982472 0.011029 -0.178303
-0.127457 -0.429955 -0.036727 -0.826321 0.24583 -0.506597
0.151623 -0.86316 0.158451 0.228875 -0.957778 0.157033
0.098951 -0.768314 0.021214 -0.249396 0.804134 0.537685
0.054728 -0.712602 0.021777 -0.95163 0.10305 0.287054
-0.030839 -0.831547 0.088418 0.823408 0.5066 0.24614
0.05144 -0.668126 -0.004943 -0.998368 -0.023936 0.038716
-0.010494 -0.687428 -0.086154 0.65349 0.210402 -0.727064
-0.279849 0.263515 -0.051705 0.70532 -0.706951 -0.036441
-0.036844 0.789984 -0.046157 -0.995444 0.026986 -0.089616
0.143579 0.457108 0.067453 0.443296 0.276726 0.847468
-0.180591 0.399534 -0.094928 0.244147 -0.167255 -0.953109
0.186721 0.410272 0.038226 0.803811 -0.106116 0.580767
0.100624 0.792354 0.006095 0.916076 0.193807 0.346153
0.136293 -0.568252 0.042991 -0.052339 -0.197313 0.977716
0.126513 0.274059 -0.126022 0.619917 -0.077155 -0.780635
0.090896 0.11563 -0.132066 0.220151 0.468796 -0.853181
0.189602 -0.015187 0.071464 0.770997 0.11831 0.623967
0.139583 -0.616655 -0.097238 0.237505 -0.13887 -0.959977
-0.099987 -0.463994 0.077845 -0.564835 -0.321609 0.754785
0.058117 -0.691358 -0.032058 -0.868628 -0.148843 -0.472353
-0.144195 -0.138819 0.011632 -0.999158 -0.025296 -0.022284
-0.482245 0.17172 -0.002797 -0.690746 0.721293 -0.038075
0.197718 -0.054907 0.063413 0.867091 0.043743 0.493108
-0.053369 0.172128 0.103228 -0.507447 0.065257 0.858796
0.072447 -0.407255 0.030178 -0.698628 -0.328385 0.635547
-0.04001 0.550775 0.033332 -0.201067 0.7017 0.683244
0.007396 0.807814 0.070619 -0.499527 0.468687 0.727339
0.055788 0.782931 -0.115332 0.391996 0.025152 -0.9186
0.042169 0.348383 -0.13001 -0.339128 -0.067957 -0.932919
0.084029 -0.146932 0.092521 -0.600893 -0.016914 0.798293
0.343679 0.417861 -0.099217 0.743305 0.667701 -0.024757
-0.022903 0.141533 -0.11146 -0.231412 0.514414 -0.823461
-0.032039 -0.862957 0.08402 0.342552 -0.933372 0.046114
-0.132519 -0.117788 -0.035245 -0.851157 -0.100422 -0.51517
-0.030851 0.064117 -0.13708 -0.156752 0.188561 -0.969455
0.176944 -0.477791 -0.083248 0.698303 0.065937 -0.712535
0.265911 0.431016 -0.139739 -0.020462 0.202442 -0.97716
0.153699 -0.209415 -0.08851 0.55828 -0.164423 -0.812756
0.12945 -0.864855 0.157638 -0.026087 -0.984875 0.168905
-0.123309 0.098729 -0.035807 -0.927834 0.132457 -0.347581
-0.091802 0.511734 -0.110293 -0.310966 0.42358 -0.848789
0.354779 0.330562 -0.045768 0.31529 0.250222 0.913548
0.075058 0.855001 0.008948 0.654664 0.730571 0.193642
0.084743 0.148328 -0.121539 0.145032 0.227483 -0.962589
0.132464 -0.771747 0.033971 -0.038902 0.707778 0.688819
-0.022767 -0.84324 0.062084 0.97819 0.162716 0.08991
0.166119 0.417209 0.055275 0.599131 0.071635 0.794881
-0.102154 0.161231 -0.062358 -0.915896 0.109172 -0.353917
0.206373 -0.048476 -0.025451 0.97224 0.005555 -0.231114
0.008014 0.206002 0.129019 -0.074472 0.066142 0.994979
0.100662 0.150985 0.114322 0.430611 0.060798 0.899946
0.0844 -0.235435 0.085005 -0.250841 -0.111218 0.956997
0.062911 -0.307559 -0.073358 -0.787403 -0.009148 -0.616305
0.08553 -0.826235 -0.06062 -0.554372 -0.829709 -0.057649
-0.124362 -0.593272 -0.002927 -0.943694 0.023131 0.329561
0.0734 0.704862 -0.071741 0.600782 -0.551574 -0.574383
-0.125147 -0.733723 -0.028367 -0.922647 0.069864 0.37577
-0.080646 -0.403568 0.091665 0.10843 -0.210888 0.969879
0.285218 0.362706 -0.02736 -0.131955 -0.628671 0.737077
0.060307 -0.354199 0.042227 -0.708864 -0.267527 0.65252
0.031793 0.637674 0.035972 -0.143334 -0.489822 0.856093
0.212163 0.447217 0.019951 0.485437 -0.025242 0.86749
0.147261 0.403266 0.074118 0.579051 0.032673 0.814418
0.1852 -0.123229 0.083086 0.719672 0.029277 0.693375
-0.010608 0.381968 0.106379 -0.00424 0.063808 0.997887
0.194272 -0.073055 0.070697 0.743454 0.078453 0.663932
-0.134763 -0.163679 -0.018504 -0.908799 -0.132052 -0.385711
0.3659 0.257696 -0.082847 -0.777003 -0.621949 0.023094
-0.113737 0.141001 -0.047397 -0.887879 0.134142 -0.439826
0.098672 0.197237 -0.118378 0.320599 -0.432339 -0.837433
0.114384 0.113027 -0.123725 0.484054 0.379033 -0.78783
0.016392 0.039257 0.138223 0.063376 0.110397 0.991735
0.009294 -0.636673 -0.061943 0.659237 0.11361 -0.742771
-0.039324 -0.195968 -0.09306 0.242662 -0.081416 -0.966344
0.070099 -0.679613 0.02557 -0.408988 0.379195 0.829823
-0.082084 -0.62163 0.048428 0.357044 -0.257411 0.88527
-0.032839 0.723363 -0.004601 -0.94819 -0.196429 0.185824
0.198521 -0.572564 -0.051198 0.956401 -0.024273 -0.278591
-0.356111 0.283544 0.002892 -0.058074 0.298119 0.951553
0.064038 -0.37691 0.036099 -0.704611 -0.286853 0.648808
0.194057 0.396438 -0.108965 0.605445 -0.559009 -0.561379
-0.047077 -0.006579 0.137984 -0.334975 -0.054144 0.915299
0.006814 -0.127064 -0.06636 0.778751 -0.198655 -0.593576
0.10095 0.80023 -0.001106 0.915101 0.323745 0.228527
0.180986 -0.782479 -0.003557 0.899148 -0.381255 0.206693
0.081959 -0.130068 -0.111613 -0.392841 -0.164603 -0.902887
0.162218 -0.051333 0.100136 0.602818 0.004982 0.797588
-0.012928 -0.257063 0.100492 0.444643 -0.210731 0.870501
0.131501 0.254314 -0.118354 0.688033 -0.208096 -0.694451
0.548273 0.149201 -0.020776 0.620137 0.042581 -0.780993
0.534544 0.141587 0.02781 -0.779735 -0.267208 0.525472
0.073249 -0.1265 0.085025 -0.628811 0.022646 0.777138
-0.122701 0.436167 0.061012 -0.10718 -0.085752 0.988684
0.090376 -0.635014 0.020448 -0.674092 0.133468 0.705338
0.162302 0.096536 -0.088195 0.756962 0.257862 -0.598851
-0.118617 -0.455861 0.053251 -0.832462 -0.236736 0.500653
0.088273 -0.462411 0.023301 -0.664252 -0.028979 0.746051
-0.129965 -0.592296 -0.054958 -0.991568 -0.047013 -0.115007
0.145616 -0.747177 0.028766 0.24627 0.78287 0.569065
0.064319 -0.168657 0.079666 -0.613992 -0.029542 0.787362
0.192485 0.563126 -0.053245 0.551342 0.821239 -0.034377
-0.011695 0.715101 -0.073489 -0.687363 -0.544554 -0.475001
-0.464627 0.153344 -0.037958 0.239612 -0.583824 -0.74895
0.201426 -0.210707 0.036978 0.950154 0.001084 0.311312
-0.114855 -0.390509 -0.050049 -0.734377 -0.118404 -0.668198
-0.091273 0.556483 0.016129 -0.042326 0.793082 0.606856
0.016791 -0.252569 0.076682 0.879402 -0.078083 0.457885
-0.016553 -0.161183 0.11872 0.426071 -0.143317 0.890748
0.158631 -0.042357 -0.11698 0.701747 -0.168118 -0.690608
-0.317503 0.263814 0.005537 0.101229 -0.08343 0.988258
0.191621 0.122694 -0.024981 0.857168 0.202766 -0.472762
-0.087706 0.359198 -0.106952 -0.545521 -0.170169 -0.819987
0.108605 -0.119609 -0.120047 -0.017074 -0.189663 -0.980825
-0.272346 0.33467 -0.096384 0.059222 -0.070227 -0.992724
0.185615 0.303917 -0.028772 0.926533 -0.316343 -0.195937
0.049234 -0.583924 -0.016536 -0.904251 -0.095459 0.416027
0.032943 -0.247385 0.018524 0.904197 -0.092715 0.413098
-0.100648 -0.21593 -0.065169 -0.7626 -0.039639 -0.645332
0.132092 0.131917 -0.107583 0.561321 0.239457 -0.787624
-0.022326 0.11924 0.122188 -0.40383 0.075935 0.910192
0.017874 0.622469 0.025672 -0.444378 -0.2039 0.861512
-0.095555 0.55379 -0.077322 -0.404672 0.687302 -0.603131
0.167427 -0.56088 0.042365 0.279155 -0.197664 0.934588
0.193 -0.084702 0.073212 0.699362 0.021163 0.710315
0.135279 0.507151 -0.135999 0.116709 0.266508 -0.955298
-0.102013 0.014334 0.104456 -0.516158 0.23097 0.8238
-0.069855 0.380375 0.092757 -0.565483 -0.030375 0.82229
-0.13634 -0.163468 0.058897 -0.977525 -0.016176 0.203077
0.01199 0.162375 0.130537 -0.072352 0.018884 0.996908
0.032997 0.413072 -0.128908 -0.133278 0.031317 -0.988791
0.153471 0.205369 -0.078217 0.766788 -0.005218 -0.641441
-0.225386 0.466759 -0.046949 -0.68601 0.596241 -0.416571
0.048157 0.528349 0.05115 0.079715 0.546491 0.833029
0.179381 -0.007429 -0.088848 0.820829 0.073279 -0.566262
0.123979 -0.167624 0.103391 0.045885 -0.321403 0.944489
-0.010104 -0.784463 -0.129585 0.687049 0.387032 -0.606426
0.592919 0.11739 0.007383 0.235163 0.832153 -0.430366
-0.006805 0.804452 0.061911 -0.606449 0.437629 0.657509
-0.052899 -0.041447 0.128827 -0.191218 -0.039962 0.980489
0.067714 -0.439345 0.009127 -0.590318 -0.240133 0.767826
0.183163 -0.179913 0.083593 0.67212 -0.088322 0.734008
-0.001984 0.198404 0.128432 -0.16954 0.069822 0.978631
0.391946 0.324871 -0.060778 0.481473 0.636674 0.598978
0.149376 0.204784 0.077896 0.725431 0.070755 0.684459
0.055716 0.360716 -0.136276 -0.335613 -0.027401 -0.941491
-0.110328 -0.170429 -0.056453 -0.798108 -0.103953 -0.593224
-0.103469 -0.693205 0.020054 -0.510756 -0.365549 0.764788
0.238761 0.452755 -0.13394 0.00919 0.14794 -0.987683
0.01233 -0.611785 0.009948 0.636222 0.088396 0.764544
0.0987 0.447967 0.083025 0.144361 0.228611 0.962621
-0.00684 -0.764802 -0.111177 0.734325 0.358326 -0.572932
-0.327234 0.297355 -0.09405 -0.142622 0.006802 -0.98936
-0.097641 -0.057425 0.107127 -0.571501 0.020925 0.81902
-0.098854 -0.857541 -0.009049 -0.613255 -0.758839 -0.216419
0.101254 -0.712611 -0.090492 -0.570536 0.086348 -0.81472
0.182787 0.25743 0.010866 0.998319 0.009056 0.050573
0.102364 0.75654 0.001538 0.931475 0.030818 0.35357
0.06682 -0.077908 0.110179 0.021255 -0.629861 0.775545
0.104038 -0.832618 0.147978 -0.766194 0.594545 0.179613
0.161589 -0.622119 0.024655 0.380438 -0.097556 0.90552
-0.053391 -0.432332 -0.089123 -0.005153 0.229124 -0.972433
0.10026 0.555253 -0.118643 0.112314 0.546364 -0.82873
0.151618 0.377824 0.070264 0.671055 -0.041423 0.740178
-0.094716 -0.824856 0.046235 -0.779782 0.606044 0.152398
0.093634 0.708484 0.008902 0.704842 -0.698439 0.065613
-0.05162 0.384035 -0.125967 -0.200026 -0.048981 -0.97673
-0.183855 0.485651 -0.074413 -0.510115 0.415508 -0.750583
-0.054328 -0.849359 0.15455 0.601127 -0.145888 0.732455
-0.103582 -0.626992 -0.095084 -0.550349 0.075971 -0.829956
0.111405 -0.86433 0.153754 -0.084489 -0.9844 0.152992
-0.00207 -0.719582 -0.091197 0.61408 0.235947 -0.752302
-0.134076 -0.231125 0.055828 -0.977175 -0.080686 0.193577
-0.042366 -0.114539 0.126272 -0.092922 -0.090334 0.988998
0.171814 0.115385 -0.065718 0.792567 0.270199 -0.546421
-0.075764 -0.834577 0.148092 -0.300748 0.887165 0.321412
0.066264 0.648539 -0.055353 0.545777 0.163732 -0.821058
0.313664 0.352377 -0.136648 -0.183823 -0.216259 -0.957017
-0.138947 -0.461989 -0.016166 -0.993166 0.04256 -0.104151
-0.000364 0.861612 -0.026542 -0.440972 0.888572 -0.083352
0.10794 0.230893 -0.129159 0.448547 -0.296672 -0.839617
0.584866 0.047819 0.006952 -0.847747 -0.529603 -0.000922
0.4976 0.167444 -0.005264 -0.645253 -0.760473 0.061052
0.022491 -0.069932 0.118055 0.246723 -0.282287 0.924443
0.447838 0.201347 -0.086877 0.679757 -0.560856 -0.289536
0.366953 0.292866 -0.040249 -0.276237 -0.03815 0.946878
0.206191 0.043324 0.01378 0.995314 0.0858 0.032162
0.25367 0.376972 -0.127566 -0.469287 -0.544835 -0.687952
-0.094751 -0.850124 -0.095116 -0.97074 0.021082 -0.234709
0.079113 -0.749013 0.024069 0.074226 -0.378018 0.917819
-0.222618 0.374714 0.018881 0.097695 -0.418803 0.900676
0.450436 0.28285 -0.059293 0.58073 0.727806 0.336995
0.151197 -0.13996 0.105322 0.312475 -0.152008 0.934734
-0.011169 0.422186 0.100523 -0.045774 0.303261 0.950244
0.580273 0.132576 0.009119 0.778341 0.612145 -0.136843
-0.110859 -0.726644 -0.012583 -0.675576 0.066237 0.724226
0.135353 -0.001265 -0.138896 0.581902 0.120732 -0.803024
-0.056491 0.413614 0.095025 -0.25704 0.215836 0.941451
0.174623 -9.5e-05 -0.095298 0.836081 0.09158 -0.540047
0.080396 -0.221607 -0.089472 -0.469199 -0.09276 -0.877702
0.118597 -0.341531 0.078548 -0.227632 -0.198283 0.946136
-0.043525 -0.863507 0.028076 0.068329 -0.996454 -0.040943
0.087609 -0.791828 -0.087012 -0.820969 0.265072 -0.505123
0.163438 -0.235739 0.083869 0.242418 -0.173199 0.953647
0.573533 0.080886 -0.015937 0.22038 -0.296544 -0.771101
0.080282 -0.702992 -0.065005 -0.845025 -0.095674 -0.524666
-0.084591 0.130979 0.084143 -0.669862 0.024042 0.741965
0.108022 0.086477 -0.137483 0.457388 0.261092 -0.848716
-0.240585 0.36201 0.01749 0.11879 -0.226574 0.965877
0.047995 0.221674 -0.125515 -0.127791 -0.270098 -0.951907
0.07463 -0.247855 -0.084498 -0.590279 -0.000887 -0.804841
0.056982 -0.336919 0.044532 -0.716327 -0.18657 0.671826
-0.024747 -0.846814 -0.118615 0.94537 -0.107016 -0.286364
-0.270171 0.368225 0.013942 -0.578837 0.057118 0.810511
0.162306 -0.205871 -0.083212 0.593266 -0.130389 -0.79424
0.053504 -0.064987 0.11926 0.041685 -0.459316 0.884904
-0.37323 0.2905 -0.075196 -0.536442 0.585702 -0.599765
0.139108 -0.551421 -0.106166 0.259866 -0.048899 -0.961178
0.205819 -0.520144 -0.021957 0.995906 0.038973 -0.019853
0.045707 0.504145 -0.126819 -0.20725 0.06804 -0.97575
-0.08262 0.493635 0.061911 -0.259014 0.418612 0.869195
0.175943 -0.562823 0.038339 0.494342 -0.196711 0.843695
-0.015375 -0.773583 -0.127017 0.589384 0.493787 -0.639184
0.308288 0.321539 -0.060071 -0.546982 -0.659123 0.513069
0.087911 -0.497563 -0.093169 -0.593661 -0.022831 -0.803209
-0.128466 0.393187 -0.052555 -0.970422 -0.163581 -0.010384
0.018707 -0.295449 -0.034463 0.924951 -0.053067 -0.369356
0.041209 0.660454 0.08242 0.11787 -0.955777 0.253366
0.141873 -0.613099 0.035749 0.158772 -0.233258 0.949477
-0.046229 -0.415402 -0.084537 0.145065 0.268733 -0.951371
0.146549 -0.162636 -0.098776 0.539201 -0.09342 -0.836657
-0.197311 0.455914 -0.082199 -0.378025 0.41558 -0.824981
0.036655 0.105015 -0.138634 -0.108076 0.313172 -0.940496
0.295778 0.427649 -0.135317 0.271055 0.432752 -0.856766
-0.14269 -0.135007 0.036825 -0.977529 -0.015917 0.202473
0.110081 -0.826257 0.119689 -0.263387 0.962929 0.033449
0.19802 -0.479944 0.004185 0.977418 0.029583 0.203341
0.188964 -0.038341 -0.072351 0.865328 -0.036836 -0.496961
0.05061 -0.646199 -0.008006 -0.990785 -0.048985 0.115996
-0.005724 -0.797396 -0.009104 0.867851 0.011109 0.492957
0.09106 0.751778 0.046001 0.92668 -0.016858 0.372787
0.150498 -0.805835 -0.11057 0.578689 0.122831 -0.796159
0.093936 0.073021 0.119741 0.342703 0.110993 0.932017
0.022239 -0.274596 -0.027665 0.956846 -0.064564 -0.282886
-0.056446 -0.672157 0.024114 0.209106 -0.323142 0.922513
0.000515 0.417031 0.10146 0.125134 0.274379 0.953298
0.150324 0.189672 -0.082481 0.742875 0.06049 -0.666096
0.023859 -0.593012 -0.003718 0.877897 0.045975 0.467561
-0.108284 -0.480571 0.059075 -0.781629 -0.311279 0.54038
0.095144 0.780379 0.027117 0.914894 0.154173 0.367194
0.087519 -0.758797 -0.071434 -0.80943 0.133608 -0.570913
-0.001385 0.559186 0.024146 -0.163107 0.613382 0.765696
0.215102 0.405243 -0.090222 -0.928297 -0.367291 -0.037838
0.075884 0.308133 -0.141146 -0.199458 -0.095112 -0.97492
-0.110038 -0.797249 -0.088463 -0.916377 -0.081728 -0.386765
0.046525 -0.395198 0.006726 -0.862684 -0.246979 0.432087
0.196358 0.358917 -0.060005 0.917123 -0.34179 -0.1902
-0.127761 0.547946 0.023594 -0.156738 0.81965 0.545561
-0.238325 0.345464 -0.090199 0.323208 -0.472939 -0.817367
-0.024734 0.540798 0.047634 -0.174379 0.613574 0.764984
0.160154 -0.750576 -0.073989 0.863971 0.133411 -0.480977
0.199915 -0.472997 -0.026706 0.998122 0.038012 -0.023155
0.158084 -0.84799 -0.085146 0.936446 -0.065927 -0.339343
0.034332 0.423621 -0.128629 -0.148923 0.047846 -0.986322
0.201674 -0.587399 -0.021578 0.995869 -0.077451 0.002958
0.327548 0.327785 -0.132328 -0.254996 -0.326675 -0.906222
-0.127866 -0.331994 -0.010844 -0.995518 -0.004798 -0.083943
0.013428 -0.754226 -0.079713 0.839121 0.083726 -0.536892
-0.053728 0.50829 0.061166 -0.181863 0.463747 0.866779
0.12036 0.046482 0.112259 0.167672 0.218395 0.943916
0.069583 -0.784124 -0.049953 -0.897064 0.123756 -0.421731
0.104361 0.759917 -0.039481 0.995272 -0.056201 -0.076051
-0.56378 0.03555 0.037135 0.825709 -0.561987 0.033602
-0.001271 -0.118564 0.117611 0.527916 -0.19827 0.821781
-0.094283 -0.681514 0.028646 -0.164714 -0.397129 0.900184
0.093467 -0.225557 0.089153 -0.189094 -0.126756 0.972803
-0.203904 0.504206 -0.018562 -0.749349 0.660942 -0.007909
-0.289532 0.288082 0.001226 0.37178 -0.417683 0.824669
0.05136 -0.078619 0.111202 0.132065 -0.5923 0.792814
-0.020268 0.709292 -0.045081 -0.938817 -0.29857 -0.170256
-0.104261 -0.82418 -0.053921 -0.962905 -0.190687 -0.017053
0.192487 -0.595121 -0.062325 0.804321 -0.026466 -0.593416
-0.143636 -0.123111 0.029742 -0.993873 0.004277 0.107224
-0.105132 -0.778257 -0.096203 -0.843526 0.061505 -0.533334
0.073976 0.625784 -0.057483 0.589237 0.462365 -0.650006
-0.091393 0.044952 -0.105663 -0.705684 0.243771 -0.665105
-0.033527 -0.232295 -0.090164 0.239588 0.025041 -0.969318
-0.012225 -0.474263 -0.075831 0.723293 0.107211 -0.681558
0.447981 0.197409 -0.043424 -0.658346 -0.74569 0.099183
0.170991 0.256611 0.047411 0.744779 0.079365 0.662169
0.121021 -0.807718 0.062952 0.115069 0.764349 0.625619
0.086045 -0.816556 0.042996 -0.870464 -0.131919 0.420372
0.578176 0.093026 0.064389 -0.188227 -0.191686 0.941946
-0.094507 -0.861663 -0.000701 -0.261859 -0.953306 -0.091567
-0.125549 -0.640255 -0.074452 -0.89051 0.008962 -0.443032
-0.038907 -0.293821 -0.091203 0.211894 -0.085219 -0.973038
0.086664 -0.843815 0.026485 -0.99873 -0.026666 -0.024126
0.198409 0.372021 -0.043338 0.999509 -0.0156 0.02527
-0.079236 0.064315 0.104528 -0.541655 0.197225 0.815679
-0.079396 0.56271 -0.078869 -0.461805 0.65501 -0.597489
-0.120302 -0.78449 -0.04121 -0.995683 -0.070517 0.026627
0.173292 -0.141591 0.093444 0.597488 -0.080458 0.797319
-0.013887 -0.47975 0.052879 0.589015 -0.257232 0.76535
0.127173 0.269296 0.093832 0.5929 0.047255 0.803809
0.201316 -0.353761 0.023314 0.95344 -0.134376 0.269411
-0.305487 0.265312 0.003646 0.381283 -0.217279 0.895594
-0.032635 0.504479 -0.124797 -0.058188 0.31184 -0.948209
0.145103 -0.835204 0.161527 0.465257 0.844239 0.255001
0.065194 -0.22094 -0.078802 -0.683374 -0.133781 -0.716599
-0.052525 -0.864288 0.05592 0.002967 -0.999858 -0.006748
-0.103632 -0.366231 0.096598 -0.540005 -0.125532 0.81573
-0.136374 -0.030124 0.048208 -0.984648 0.069194 0.153357
0.065427 -0.787614 -0.040441 -0.915391 0.078206 -0.394421
0.092996 0.541234 -0.125757 -0.022468 0.46595 -0.881001
0.31005 0.408651 -0.140944 0.225829 0.376624 -0.897168
0.095845 -0.322752 -0.098108 -0.304522 0.010749 -0.947878
0.008458 -0.502624 0.026501 0.733564 -0.135334 0.66524
0.089109 0.214692 -0.128687 0.071431 -0.362403 -0.927848
0.044 -0.509228 -0.029605 -0.996795 -0.009305 0.018902
-0.067132 0.051323 0.112761 -0.292751 0.081736 0.949573
0.203944 -0.078624 -0.036462 0.93367 0.067392 -0.351058
-0.06585 -0.716183 -0.120704 -0.152322 0.278059 -0.943151
0.158728 -0.677244 0.024623 0.299107 -0.265465 0.915533
0.158734 -0.083849 -0.107466 0.84016 -0.09607 -0.506063
-0.125394 -0.118546 -0.04774 -0.817821 -0.100582 -0.563457
0.0973 -0.210367 -0.098318 -0.332542 -0.16711 -0.927391
0.029904 -0.164345 0.049746 0.898319 -0.269722 0.341762
0.459119 0.276367 -0.063801 0.709127 0.685619 0.150021
0.042322 -0.22567 0.030172 -0.991192 -0.045292 0.120186
-0.067444 -0.863468 0.125498 -0.003986 -0.999068 0.038397
0.007197 0.092069 -0.136916 -0.154881 0.218278 -0.963317
-0.0252 -0.384773 -0.073894 0.548377 -0.025593 -0.830854
0.063657 0.365798 -0.139215 -0.385463 -0.019582 -0.922074
-0.110088 0.276089 -0.066429 -0.962934 -0.063628 -0.25057
0.204776 0.002624 0.043088 0.961283 -0.059308 0.24868
0.506792 0.206171 -0.061884 0.163263 -0.411588 -0.896333
-0.091813 -0.324368 -0.069896 -0.654526 0.026394 -0.755413
0.329104 0.367296 -0.043284 0.609721 0.183446 0.767825
-0.079237 0.403476 0.085898 -0.649478 0.01786 0.759542
0.087664 -0.298947 0.075091 -0.357612 -0.199457 0.912162
-0.29085 0.278868 -0.003681 0.630767 -0.364216 0.62035
0.012784 -0.213051 -0.055931 0.803666 0.008507 -0.594063
0.02142 0.114821 -0.132364 -0.157921 0.421946 -0.89261
-0.101445 0.141551 -0.068713 -0.756464 0.199345 -0.622174
-0.554938 0.053318 0.012419 0.803127 -0.505258 -0.290498
0.515096 0.200134 -0.057381 0.120297 -0.482401 -0.865313
0.059371 -0.706732 -0.02836 -0.869897 -0.234353 -0.431505
0.11581 0.182612 -0.107535 0.423761 -0.042782 -0.902215
-0.044008 -0.62445 -0.100822 0.39225 0.037005 -0.917172
0.055686 0.812917 -0.108678 0.274983 0.482382 -0.830143
-0.162767 0.380385 -0.005158 0.545054 -0.738022 0.397558
-0.113211 0.072413 -0.068196 -0.8573 0.145515 -0.492213
-0.11317 0.099491 0.064418 -0.843478 0.197837 0.498103
-0.136793 0.013114 0.052071 -0.962641 0.080172 0.240379
0.022182 0.649429 -0.062984 -0.360809 -0.026197 -0.928202
0.181672 0.203607 -0.025247 0.978313 0.027979 -0.195114
0.073854 -0.395047 -0.078357 -0.674152 -0.042273 -0.73734
-0.083975 -0.60336 0.054183 0.375622 -0.22911 0.881674
-0.06229 -0.856193 0.153709 0.266029 -0.753235 0.582258
-0.138779 0.407619 -0.070277 0.236083 -0.680043 -0.634146
0.209978 -0.116528 -0.027419 0.916466 0.032561 -0.397163
0.176634 0.240695 -0.038432 0.9333 0.017006 -0.358104
0.012199 0.645259 0.029982 -0.607411 -0.345256 0.713416
0.096083 -0.391372 -0.096104 -0.461892 -0.07006 -0.881096
0.175245 0.219374 -0.043346 0.927865 -0.009583 -0.37216
0.165046 -0.852092 0.005603 0.9681 -0.162363 -0.165212
0.184073 -0.617837 -0.070425 0.672093 -0.082053 -0.735717
-0.036155 -0.857546 0.120285 0.812474 -0.414061 0.341565
-0.305734 0.354784 -0.06465 -0.630228 0.712037 -0.308214
-0.135282 -0.549777 -0.038049 -0.990005 -0.0662 -0.101619
-0.314546 0.336761 -0.080706 -0.499692 0.605031 -0.617952
0.448502 0.216879 -0.018152 -0.702358 -0.155923 0.679059
0.572806 0.135376 0.050786 0.173015 0.576195 0.535325
0.578673 0.105537 0.064803 -0.345843 0.149932 0.915355
0.160516 -0.154213 -0.089566 0.633464 -0.122715 -0.763712
-0.080972 -0.512492 0.072703 0.208735 -0.212156 0.916634
-0.540782 0.068192 0.079007 0.460119 -0.827439 0.296186
-0.067552 -0.095681 -0.106267 -0.354662 -0.17279 -0.916883
0.089925 0.613166 -0.026584 0.949323 0.24956 0.156017
0.175921 0.290305 -0.04856 0.934587 -0.169576 -0.311848
-0.012032 0.791781 0.060417 -0.892415 0.177262 0.413411
0.02608 -0.38612 -0.002332 0.994486 -0.065089 -0.0397
-0.540185 0.095723 0.078231 -0.725607 0.654341 0.202656
-0.024733 -0.350458 -0.077483 0.555298 -0.113295 -0.822898
-0.114587 0.238633 -0.027165 -0.961523 0.246785 -0.094153
-0.31993 0.285864 -0.093888 -0.03579 -0.208142 -0.976946
0.108504 0.095884 -0.134687 0.470662 0.278462 -0.834076
-0.09449 0.428044 0.071323 -0.640598 0.096036 0.761632
0.028301 0.17264 0.130646 0.014508 0.039146 0.998976
-0.216811 0.470949 0.017683 -0.766564 0.365146 0.520163
0.026085 -0.214727 0.051272 0.957474 -0.027553 0.281493
0.15966 -0.82965 0.053706 0.893773 0.442884 0.06293
-0.009836 -0.335056 -0.06577 0.712812 -0.081083 -0.696621
0.331693 0.352783 -0.041299 0.38892 0.182906 0.897234
0.187199 0.339493 0.011741 0.915115 -0.088443 0.39215
-0.129176 -0.601932 -0.059682 -0.987649 -0.014847 -0.144722
0.231937 0.492259 -0.123512 0.364763 0.42695 -0.827353
0.085304 -0.351101 -0.092997 -0.599166 -0.043335 -0.798869
0.130138 -0.826935 0.1508 0.190079 0.968876 0.136583
-0.025208 -0.454752 0.068448 0.393064 -0.290348 0.869581
0.024992 -0.0485 -0.125701 -0.15013 -0.564816 -0.806278
-0.006854 0.728269 0.067331 -0.561631 0.01022 0.825888
-0.054347 -0.188867 -0.095346 -0.074448 -0.092191 -0.991962
-0.102215 0.431791 -0.117331 -0.411932 -0.108531 -0.903768
0.20515 -0.243615 0.012184 0.999224 -0.002169 0.03683
0.011159 0.756175 0.072282 -0.454047 0.006723 0.876151
0.060528 -0.728559 -0.018774 -0.878 -0.173417 -0.435973
-0.185942 0.524208 -0.01855 -0.699812 0.710579 -0.005411
0.228379 0.494918 0.012457 0.50042 0.12186 0.85246
-0.12845 0.181002 0.005921 -0.99891 0.029951 0.004806
0.169822 -0.818603 -0.044462 0.780021 -0.625429 0.00735
-0.12629 0.11823 -0.024573 -0.949996 0.000175 -0.309964
-0.546921 0.071069 0.088936 0.087694 -0.269423 0.929608
0.01184 0.495042 0.073124 0.04407 0.517631 0.851584
0.166775 -0.744772 0.013138 0.315833 0.818908 0.476787
0.425421 0.235279 -0.113189 0.295052 -0.453369 -0.838229
-0.246618 0.419355 0.011846 -0.707054 0.391978 0.581205
0.032928 -0.229221 -0.034662 -0.490445 -0.075462 -0.84587
-0.138867 -0.015117 0.015648 -0.998294 0.051299 0.026481
0.206369 -0.120167 -0.037181 0.922599 0.018504 -0.383633
-0.135177 0.051548 -0.010339 -0.984413 0.12541 -0.104356
-0.367172 0.280115 -0.084372 -0.346155 0.325645 -0.879627
-0.224449 0.442294 0.024198 -0.712084 0.287011 0.639302
0.194979 0.044558 0.060597 0.82309 0.17826 0.537412
-0.108524 0.22175 -0.047097 -0.833 -0.259411 -0.487456
-0.123701 -0.406011 -0.036151 -0.813186 -0.019923 -0.580342
0.028703 0.868301 -0.02417 -0.250642 0.948864 -0.174697
-0.078284 -0.024434 0.118688 -0.50455 0.036675 0.862234
0.02491 -0.386036 -0.011959 0.972165 -0.047525 -0.214071
0.00569 0.449961 0.093924 0.05857 0.353886 0.932705
0.178446 -0.635549 0.019324 0.36937 0.02549 0.927443
-0.024897 0.582806 -0.003261 -0.490721 0.594032 0.632391
-0.129532 -0.405618 0.04047 -0.966449 0.076055 0.243984
0.454425 0.239659 -0.019743 -0.121768 0.46022 0.876034
-0.124269 -0.728708 -0.065703 -0.867284 -0.037041 -0.486891
-0.009925 -0.829949 -0.008419 0.441941 -0.884368 0.139497
-0.25878 0.425732 -0.052668 -0.731068 0.636846 -0.239615
0.196041 -0.4494 -0.052871 0.888154 0.102644 -0.432368
0.177907 -0.636549 -0.07255 0.604876 -0.162912 -0.778948
0.019806 0.255253 -0.126193 0.115173 -0.051247 -0.990965
-0.121103 0.397397 0.046351 -0.911775 -0.284633 0.294767
-0.081628 -0.430746 0.085842 0.017931 -0.176341 0.979861
0.230185 0.544019 -0.037553 0.608401 0.754657 0.241703
-0.025029 -0.636828 -0.090643 0.573059 0.009096 -0.818116
0.187011 0.316614 -0.04102 0.879336 -0.342749 -0.32959
-0.033066 0.076666 -0.13419 -0.250136 0.275646 -0.925589
-0.335488 0.247571 -0.076475 0.079043 -0.395765 -0.893096
-0.136448 0.03854 0.028985 -0.979273 0.188218 0.070154
-0.02424 -0.848125 0.073444 0.981106 0.016773 0.148499
0.197925 -0.325187 -0.027147 0.876557 0.042419 -0.478152
-0.034435 0.792715 -0.070371 -0.97973 0.013242 -0.199028
0.098788 -0.731575 -0.088611 -0.710164 -0.037843 -0.69267
0.16625 -0.115222 -0.094455 0.729902 -0.153307 -0.664729
-0.0204 -0.547663 -0.089577 0.578207 -0.006643 -0.814597
0.017126 -0.760964 -0.072489 0.96475 0.015288 -0.252792
0.010943 -0.256389 -0.054438 0.793318 -0.103682 -0.599857
0.186719 -0.687905 -0.045842 0.655568 -0.188991 -0.730357
-0.207537 0.498665 -0.003595 -0.757529 0.64051 0.115414
-0.013208 -0.488054 -0.078804 0.694328 0.096355 -0.713155
-0.065847 -0.331924 -0.086265 -0.292088 -0.045089 -0.955213
0.055703 -0.297868 -0.063461 -0.831545 -0.013597 -0.555013
-0.033965 0.4211 0.098024 -0.144252 0.229991 0.962158
0.321333 0.42601 -0.049859 0.736212 0.308947 0.596732
-0.480074 0.130503 -0.008291 0.311481 -0.790769 -0.521938
0.154989 -0.358174 -0.076249 0.628339 0.122615 -0.767734
-0.079832 -0.579242 0.057532 0.369465 -0.188144 0.897564
-0.128602 0.135412 -0.002441 -0.998263 0.045994 -0.017051
0.03033 -0.142832 -0.053842 -0.897663 -0.329135 -0.288103
0.110136 0.382506 0.092217 0.351619 0.098896 0.930592
0.020101 -0.579254 -0.040654 0.850905 0.110385 -0.511228
-0.215625 0.399706 0.031175 -0.155387 -0.323993 0.929235
0.034915 -0.31142 -3e-05 -0.955405 -0.059548 0.28844
0.234118 0.442772 -0.134839 -0.118395 0.046967 -0.990204
0.14244 -0.39589 -0.09261 0.519104 0.133571 -0.843902
0.064436 -0.46795 0.005216 -0.479782 0.057316 0.875369
-0.040982 0.817452 -0.036782 -0.984063 -0.150402 -0.029358
-0.1256 -0.665208 -0.073805 -0.909857 -0.013929 -0.403139
-0.042156 0.059348 -0.135708 -0.315347 0.205813 -0.923246
0.204699 -0.36799 -0.022703 0.983647 0.036231 -0.173226
0.032258 0.612984 -0.076001 -0.059679 0.375105 -0.91775
0.11459 0.137554 0.107419 0.561647 0.026649 0.825591
0.175627 0.119995 -0.056656 0.848178 0.245077 -0.467917
-0.009798 0.692752 -0.052612 -0.805323 -0.412446 -0.416919
-0.12969 -0.235744 0.069181 -0.944388 -0.071906 0.320508
0.193461 0.360317 -0.007549 0.980821 -0.099942 0.166904
-0.011194 -0.106969 0.123957 0.257052 -0.185016 0.948197
-0.067633 -0.863774 0.029184 -0.012545 -0.999836 -0.01212
0.064105 0.583521 0.016721 0.529724 0.056389 0.843908
-0.116516 -0.593578 0.017261 -0.892514 0.01881 0.449965
-0.115132 -0.375628 -0.0509 -0.753343 -0.002853 -0.656846
-0.497096 0.106859 0.074212 0.636585 -0.179674 0.729083
0.145458 0.092894 0.089778 0.658958 0.238845 0.706897
0.405104 0.323883 -0.102248 0.678731 0.702698 -0.199578
-0.056473 -0.582949 -0.103291 0.128778 0.001238 -0.990603
0.102543 -0.532254 0.0353 -0.471914 0.023045 0.881118
0.395778 0.256785 -0.036724 -0.361249 -0.129599 0.912399
-0.136093 -0.149561 0.06095 -0.960632 0.010432 0.276191
-0.103716 0.41019 -0.111722 -0.438929 -0.213688 -0.866658
0.173154 -0.860074 0.048149 0.78374 -0.531877 -0.104331
-0.071191 0.563361 -0.084089 -0.405409 0.628669 -0.660495
0.099833 0.15218 -0.117377 0.326824 0.247724 -0.911489
0.000582 -0.482133 -0.062469 0.838838 0.057619 -0.521368
-0.063234 -0.86279 -0.111645 -0.039435 -0.995378 -0.075345
0.036054 -0.342819 -0.014491 -0.99397 -0.086644 0.009142
-0.14013 0.007005 0.018659 -0.955992 -0.286461 -0.033263
0.034532 -0.31567 -0.009577 -0.998679 -0.032973 0.002815
0.070826 -0.822892 -0.022199 -0.458146 -0.887175 -0.005639
0.008456 -0.14306 0.105034 0.691338 -0.147366 0.704178
-0.288125 0.262603 -0.01994 0.737554 -0.554103 0.383343
-0.200284 0.505855 0.003131 -0.747125 0.642094 0.163016
0.212404 0.42235 -0.005264 0.334293 -0.854714 0.373773
0.123023 0.354112 0.089788 0.388312 0.054861 0.919605
-0.068674 -0.863937 0.040523 -0.022792 -0.99964 -0.012926
0.181708 0.220993 -0.023798 0.982732 0.004314 -0.181087
0.202245 -0.048139 0.053056 0.888602 0.041699 0.45603
0.296014 0.38839 -0.144611 -0.01987 -0.102346 -0.991745
-0.038446 0.017885 -0.140571 -0.226882 -0.48744 -0.842778
0.054277 -0.728162 0.014827 -0.983539 -0.153348 0.079231
-0.018987 0.164218 0.123282 -0.442801 -0.014764 0.894722
-0.065023 -0.059123 -0.11646 -0.307026 -0.317676 -0.894769
0.166863 -0.063543 0.096866 0.630746 0.035453 0.774335
-0.050124 -0.391381 -0.082436 0.157647 -0.094097 -0.97821
-0.011385 -0.831892 -0.054696 0.179404 -0.971893 0.004878
0.373468 0.325023 -0.130176 0.390263 0.190709 -0.894261
0.021173 -0.542793 -0.004104 0.937628 -0.095831 0.330691
-0.117477 0.066826 -0.061043 -0.859166 0.122071 -0.496324
0.113134 -0.868336 -0.039942 -0.048494 -0.992296 0.110421
-0.167034 0.519464 0.035171 -0.513233 0.596656 0.614202
0.349536 0.381051 -0.106467 0.847094 0.504752 0.004792
0.119367 0.426522 0.083352 0.257973 0.177477 0.949019
0.197642 -0.247911 0.052493 0.920274 0.032002 0.387053
0.119056 -0.824524 0.124983 -0.078563 0.994119 0.028226
0.012961 -0.62647 -0.057201 0.684031 0.120311 -0.719378
-0.241876 0.407016 -0.088409 -0.308948 0.474602 -0.823577
0.034169 -0.156178 -0.052678 -0.918622 -0.206511 -0.336619
-0.014992 -0.505056 -0.082624 0.690496 0.067265 -0.720088
0.056219 0.734039 -0.105399 0.3927 -0.405867 -0.824595
0.181891 -0.656375 -0.064055 0.635271 -0.266604 -0.724386
-0.065948 0.089181 0.104235 -0.518003 0.040052 0.846336
-0.071009 -0.824686 0.093252 -0.154301 0.983191 0.09649
-0.27118 0.290588 -0.006501 0.48518 -0.577936 0.653414
-0.128426 0.087833 -0.016087 -0.997468 0.02522 -0.057682
-0.050039 -0.86416 0.087553 0.023385 -0.999541 0.011823
0.182916 0.247543 0.004126 0.999759 -0.012131 0.015891
0.050147 0.24549 0.126249 0.183092 0.068017 0.977494
0.054784 -0.496783 -0.059724 -0.801591 -0.0269 -0.59692
0.040627 -0.226209 -0.041884 -0.9357 -0.015511 -0.350014
0.15898 -0.864192 0.10831 0.255193 -0.963977 0.016088
0.025817 -0.617579 -0.039936 0.934863 0.083492 -0.332206
0.077023 -0.155098 -0.10376 -0.429789 -0.210171 -0.877919
-0.114116 -0.656924 0.022712 -0.856824 -0.130283 0.495921
-0.394703 0.184223 0.004926 0.632647 -0.747186 0.179656
-0.122382 0.106553 0.04118 -0.934194 0.094971 0.342803
0.104331 0.771608 -0.002998 0.984245 -0.04351 0.155444
0.021638 0.735782 0.096639 -0.873846 0.110532 0.442815
-0.027582 -0.180188 -0.089202 0.414255 -0.019617 -0.908463
-0.128874 0.111948 -0.014258 -0.980258 -0.030804 -0.189711
0.095108 0.160294 0.116197 0.492934 0.069378 0.864288
-0.128597 0.050726 0.052034 -0.900797 0.265357 0.341253
-0.1341 -0.139745 0.065732 -0.90119 0.03083 0.419245
0.1808 -0.792988 -0.04276 0.923438 -0.36634 0.025516
-0.002117 -0.263674 -0.069058 0.744396 -0.106466 -0.659015
0.186718 -0.279937 0.068776 0.700122 0.016988 0.708403
0.188313 -0.407545 -0.057685 0.79091 0.023299 -0.610953
-0.050555 0.117331 0.107609 -0.553841 0.076886 0.828194
-0.08556 0.254557 -0.096037 -0.632998 -0.224118 -0.73965
-0.098149 -0.236015 -0.066685 -0.755789 -0.056217 -0.651259
0.186207 0.177137 0.02801 0.920531 0.223675 0.312866
0.173069 0.43255 -0.135453 0.178545 -0.220612 -0.957826
0.095316 -0.341922 -0.098064 -0.343062 0.007164 -0.934817
-0.108403 0.134273 -0.059882 -0.833443 0.119141 -0.539168
0.295049 0.361163 -0.029368 0.117749 -0.73002 0.664843
-0.076126 -0.091923 -0.102512 -0.536904 -0.188365 -0.819083
0.074487 -0.81957 -0.064029 -0.825655 -0.479049 -0.252213
-0.03504 0.83697 -0.009426 -0.779917 0.613182 0.104391
-0.035139 0.327979 0.103248 -0.478722 0.012749 0.870733
0.131985 -0.529839 -0.108351 0.104694 0.017383 -0.992843
-0.116123 -0.481026 -0.066258 -0.745999 0.102617 -0.657539
-0.522837 0.119902 0.040539 -0.793133 0.60685 -0.042995
-0.042346 0.295302 0.102477 -0.546421 0.125141 0.828009
0.011612 0.441889 0.095585 0.095991 0.207629 0.971489
-0.522824 0.073201 0.082324 0.246238 -0.920654 0.177263
-0.128197 -0.643927 -0.043077 -0.996766 -0.053571 0.050284
0.190336 -0.159701 0.077127 0.888008 -0.023301 0.457532
0.199549 -0.347318 -0.030118 0.87542 0.164547 -0.45401
0.167462 0.235831 0.053317 0.72475 0.063972 0.68544
0.153521 0.555425 -0.102056 0.247146 0.654843 -0.712483
0.032493 -0.140125 0.069304 0.810922 -0.390334 0.434915
0.039008 -0.105078 0.095582 0.482706 -0.589514 0.643932
-0.035492 -0.85994 0.004032 0.411944 -0.891674 -0.148438
-0.134315 -0.23946 0.050653 -0.985457 -0.050234 0.155532
0.092384 -0.801288 -0.099202 -0.806802 0.182054 -0.559142
0.130282 -0.201713 0.094743 0.087214 -0.219967 0.971236
0.076843 0.616107 0.004412 0.772587 -0.007985 0.634696
0.180648 0.274488 0.020623 0.970053 0.032507 0.235693
0.207562 -0.15991 -0.010326 0.998024 -0.034178 -0.013119
0.042858 -0.250639 0.02962 -0.993651 -0.008268 0.112069
0.587012 0.046614 0.018263 0.102758 -0.897293 0.029802
0.05473 -0.65245 -0.037551 -0.881083 -0.151323 -0.447888
-0.127095 -0.330183 0.031238 -0.992433 -0.014556 0.121881
0.002238 0.493843 0.073963 0.016154 0.470846 0.88186
-0.030835 -0.847814 0.106518 0.935684 0.10103 0.322678
0.369377 0.297981 -0.130336 -0.077363 -0.196641 -0.971518
0.163379 -0.007414 0.097425 0.631351 -0.143009 0.759752
-0.042068 -0.599684 0.033326 0.432049 -0.21015 0.876752
0.150849 0.57707 -0.041747 0.537276 0.797358 0.204207
-0.068216 -0.459051 -0.094194 -0.143031 0.103225 -0.981181
0.098433 0.766183 0.01924 0.982829 0.014781 0.180769
0.021145 0.836307 -0.091368 -0.159037 0.715193 -0.679902
-0.078333 -0.295703 0.107216 0.036058 -0.091854 0.995003
-0.120943 0.366114 0.014692 -0.966199 -0.205166 0.154583
0.194222 -0.423052 0.033192 0.959124 -0.064018 0.275578
-0.12833 0.56014 -0.034207 -0.438849 0.865358 -0.221578
-0.03742 0.78959 -0.021747 -0.994581 0.07294 0.070959
0.205585 0.023834 0.038967 0.982935 0.059848 0.173289
0.087524 0.692824 0.040955 0.919085 -0.335662 0.136035
-0.112701 -0.458155 -0.065658 -0.720963 0.151745 -0.676034
0.074704 0.260865 0.118527 0.377189 0.057824 0.922099
0.102395 0.771479 -0.057785 0.942188 -0.062992 -0.320523
-0.124409 -0.554747 -0.068766 -0.817618 0.12418 -0.56082
0.138319 -0.215962 -0.096408 0.416742 -0.144921 -0.894466
0.104083 -0.703296 0.034094 0.351157 -0.120587 0.918895
0.032183 0.011887 -0.151727 -0.171225 -0.31551 -0.931058
0.021897 0.646448 0.038198 -0.426709 -0.480855 0.760706
-0.122205 -0.436049 0.054763 -0.860605 -0.14767 0.487193
0.601027 0.087739 0.00396 0.439572 0.108829 -0.885728
0.072706 -0.173637 0.084994 -0.535603 -0.043395 0.843262
0.177085 0.315156 -0.063461 0.862457 -0.305471 -0.399687
-0.440704 0.186406 -0.049528 -0.454437 0.281943 -0.841178
0.157227 0.075062 0.08807 0.225264 0.296358 0.925288
0.248821 0.460945 -0.000502 0.275965 -0.125403 0.952309
0.198763 0.38142 -0.061008 0.999137 -0.040265 0.001293
0.012744 -0.293434 -0.045213 0.79688 -0.092364 -0.595729
0.020251 -0.356049 -0.027385 0.915114 -0.017213 -0.401402
0.063737 -0.801004 -0.028769 -0.92235 -0.366374 -0.099916
0.042916 0.196233 0.129371 0.06145 0.022628 0.997783
-0.032816 -0.143502 -0.096551 0.340009 -0.242039 -0.907539
0.130708 -0.065216 0.114818 0.25832 -0.015972 0.965226
0.010028 -0.659876 -0.065909 0.583936 0.175443 -0.792358
-0.131392 0.029203 0.058089 -0.857574 0.179807 0.480166
-0.050985 0.052075 -0.133594 -0.434363 0.289288 -0.850927
0.635473 0.047775 0.085348 0.917013 0.366717 0.15461
0.326452 0.301176 -0.10793 -0.568382 -0.705082 -0.415294
0.482521 0.246936 -0.058708 0.75577 0.652068 -0.039558
-0.068191 -0.462613 0.077734 0.307331 -0.231172 0.922807
0.026247 -0.685603 -0.036512 0.985865 -0.068989 0.125168
0.19065 -0.512698 0.02928 0.916097 -0.046198 0.3964
0.171953 -0.802051 -0.004583 0.938431 -0.209427 0.239829
-0.347219 0.300768 -0.087049 -0.423513 0.310942 -0.849349
-0.085872 -0.766003 -0.117007 -0.708502 0.18703 -0.676904
0.173847 -0.686887 -0.060296 0.770005 -0.155051 -0.617786
-0.416747 0.250637 -0.020425 -0.749513 0.657994 0.065008
-0.012892 0.181557 0.126453 -0.378366 0.026836 0.920341
-0.042049 -0.361201 -0.085555 0.258792 -0.148795 -0.950027
-0.084331 -0.178318 0.114569 -0.20264 -0.093509 0.97435
0.001871 0.05715 -0.144707 -0.130737 0.193412 -0.972329
0.019276 -0.408324 0.022684 0.969751 -0.091333 0.224682
0.529165 0.17725 0.019331 -0.32419 0.314561 0.859975
-0.355184 0.235932 -0.076332 0.213457 -0.461771 -0.858178
-0.085049 -0.216959 0.112199 -0.19596 -0.033096 0.980036
0.017146 -0.165257 0.087702 0.891693 -0.10626 0.433077
-0.118316 0.353102 -0.077414 -0.933606 -0.145886 -0.322949
0.17655 0.048747 -0.085157 0.819307 0.196127 -0.537873
-0.398867 0.267531 -0.067214 -0.86473 0.348537 -0.357531
0.043429 0.608082 0.025772 0.199707 -0.113289 0.968894
0.190404 -0.694347 0.000858 0.703418 -0.34935 0.616064
0.092449 -0.443877 -0.094268 -0.55261 0.053016 -0.831658
-0.094978 0.184203 -0.066284 -0.728594 0.112823 -0.675231
-0.089301 0.050814 0.101328 -0.463654 0.179164 0.866388
0.183471 -0.314514 0.069246 0.733347 -0.041128 0.676855
0.159863 -0.164735 -0.08863 0.571901 -0.075732 -0.814734
0.035737 0.540467 0.039054 -0.000776 0.706778 0.707018
0.042358 0.301292 0.121115 0.090011 0.105045 0.990215
0.127917 0.304694 0.090794 0.607778 0.074507 0.790148
0.578262 0.060957 0.00293 -0.927738 -0.371742 0.02727
-0.170603 0.371941 -0.009483 0.595477 -0.710148 0.370721
-0.06351 -0.007642 -0.129949 -0.25392 -0.078596 -0.962301
0.195782 -0.119358 -0.057071 0.806067 0.013064 -0.58983
0.207066 0.538158 -0.004473 0.296027 0.669309 0.680453
0.022587 -0.097334 -0.079216 -0.331714 -0.685686 -0.626227
0.173612 0.451073 -0.137763 0.189637 -0.061136 -0.979496
0.065627 -0.014035 -0.153583 -0.173879 -0.251899 -0.950409
0.021596 0.455237 0.090718 0.088903 0.275612 0.956876
0.504499 0.222123 -0.025636 0.743416 0.627487 0.205191
-0.002353 -0.215868 -0.072404 0.617669 0.025336 -0.783163
-0.082278 -0.041431 -0.11333 -0.58247 -0.234046 -0.77694
-0.05375 -0.275699 -0.093011 -0.103086 -0.061968 -0.991227
-0.081576 -0.578662 -0.101703 -0.217514 0.053775 -0.974445
0.093165 -0.826614 0.073349 -0.822425 0.512444 0.1972
0.103756 0.141122 -0.119029 0.345397 0.275201 -0.894871
0.079406 -0.753781 -0.055688 -0.862625 0.161545 -0.474061
0.205227 -0.258616 0.017758 0.998701 0.016653 0.044483
0.185431 -0.41498 0.056502 0.823481 -0.059626 0.563767
-0.066216 -0.832066 0.144547 0.016399 0.926412 0.330308
-0.058408 0.097448 -0.116448 -0.508415 0.301572 -0.806254
0.110671 -0.573546 -0.100753 -0.445071 -0.158523 -0.880971
-0.028692 -0.014084 -0.137039 -0.116108 -0.129066 -0.984743
0.005597 -0.264213 -0.059698 0.774686 -0.116953 -0.621326
-0.003804 -0.480032 0.044365 0.688574 -0.194352 0.698038
0.025441 -0.083938 -0.096265 -0.436814 -0.659923 -0.602702
0.199785 0.550525 -0.084103 0.287516 0.813752 -0.502518
0.30113 0.320009 -0.088369 -0.700898 -0.713008 -0.00617
0.006124 -0.269711 0.087449 0.548973 -0.171636 0.814925
0.205794 -0.355094 -0.005415 0.998652 -0.006752 -0.003499
0.05189 -0.190775 0.066277 -0.787878 -0.09592 0.605826
-0.103766 0.390187 0.065506 -0.642273 -0.125525 0.754693
-0.068242 -0.097443 0.121269 -0.250106 -0.001776 0.968209
0.026367 -0.341726 -0.012432 0.967245 -0.061433 -0.228841
-0.004846 0.741597 -0.101968 -0.524842 -0.415056 -0.74239
-0.053149 -0.641766 -0.105053 0.254236 0.068586 -0.963122
