ply
format ascii 1.0
comment VCGLIB generated
element vertex 834
property float x
property float y
property float z
property float nx
property float ny
property float nz
element face 0
property list uchar int vertex_indices
end_header
0.180648 0.274488 0.020623 0.970053 0.032507 0.235693 
0.144303 -0.703494 -0.088264 0.524079 0.004598 -0.847838 
-0.004132 0.467577 0.087665 -0.02521 0.41186 0.909859 
0.072507 0.483363 0.074041 0.091147 0.444049 0.891117 
0.089234 -0.825917 0.050906 -0.98602 -0.032693 0.130148 
-0.111922 0.245458 0.026988 -0.976559 0.163873 0.133185 
-0.071227 -0.453559 0.080354 0.163313 -0.164652 0.97258 
-0.429269 0.159559 -0.002642 0.519398 -0.853806 0.018608 
0.019928 -0.196613 0.071972 0.964294 -0.016099 0.263793 
0.18151 -0.144007 0.087171 0.636126 -0.012046 0.771128 
-0.040276 -0.392999 -0.080019 0.25492 -0.031592 -0.964958 
0.205421 -0.271778 0.004228 0.999941 0.00327 -0.004064 
0.005975 0.72689 0.073103 -0.504873 0.148891 0.846187 
-0.287164 0.300618 -0.094868 0.206222 -0.283291 -0.933391 
0.108346 -0.799223 -0.114428 -0.44096 0.300727 -0.837615 
0.11476 -0.064517 0.119165 0.162733 -0.124613 0.97095 
-0.071009 -0.824686 0.093252 -0.154301 0.983191 0.09649 
-0.375882 0.295175 -0.065604 -0.661676 0.645294 -0.377338 
0.119367 0.426522 0.083352 0.257973 0.177477 0.949019 
0.063102 0.848911 -0.067781 0.424874 0.759127 -0.49227 
0.206927 -0.103332 0.045828 0.93456 -0.026734 0.354706 
0.02428 0.611886 0.027014 -0.214772 -0.098162 0.968879 
0.187013 -0.587816 -0.069535 0.748875 -0.040744 -0.661249 
0.183088 -0.560936 -0.075391 0.72908 -0.028011 -0.683806 
-0.034328 -0.126 0.125234 0.011221 -0.090735 0.995149 
0.185232 0.159597 0.038514 0.856492 0.172454 0.48529 
-0.116516 -0.593578 0.017261 -0.892514 0.01881 0.449965 
-0.075643 0.194034 -0.085526 -0.691417 -0.082723 -0.717035 
-0.101282 -0.572504 0.049338 -0.827831 0.066628 0.555703 
0.165933 0.03367 0.096829 0.519622 0.146168 0.83821 
-0.245669 0.44501 -0.038418 -0.760434 0.643373 -0.082364 
0.083837 -0.615194 0.018865 -0.729391 -0.235497 0.639933 
0.064038 -0.37691 0.036099 -0.704611 -0.286853 0.648808 
-0.158886 0.428241 0.037766 -0.362566 -0.477147 0.795688 
-0.417636 0.250061 -0.032665 -0.769199 0.638699 -0.004774 
-0.085098 0.224839 -0.081177 -0.714607 -0.338128 -0.609998 
-0.311403 0.322484 -0.092444 -0.341493 0.396033 -0.851169 
0.015091 -0.301771 0.069761 0.802531 -0.166202 0.572267 
0.195742 -0.477583 -0.057385 0.876685 0.032407 -0.473514 
-0.518393 0.09678 0.024239 0.111562 -0.382191 -0.895564 
-0.032839 0.723363 -0.004601 -0.94819 -0.196429 0.185824 
0.175939 -0.360112 0.070673 0.232304 -0.099997 0.966959 
0.10338 -0.006132 -0.153427 0.249844 -0.001242 -0.965227 
-0.006514 -0.794573 -0.130073 0.818448 0.123137 -0.549675 
-0.129296 -0.043182 0.071024 -0.847529 0.055313 0.525335 
-0.099876 -0.605285 -0.094993 -0.477107 0.069707 -0.875191 
-0.033066 0.076666 -0.13419 -0.250136 0.275646 -0.925589 
0.041847 -0.215852 0.030335 -0.986387 -0.069409 0.145777 
-0.403415 0.17813 -0.013547 0.495706 -0.867727 -0.030565 
-0.114522 -0.006534 -0.081066 -0.855286 0.012501 -0.517862 
0.121111 -0.86995 0.067099 -0.004018 -0.999968 0.000345 
-0.02559 0.541288 -0.11409 -0.123716 0.313863 -0.940388 
0.172087 0.556142 -0.011277 0.209356 0.781345 0.586935 
0.171787 -0.5901 0.033181 0.557206 -0.312326 0.766582 
-0.252054 0.417731 -0.074301 -0.530459 0.609347 -0.58619 
-0.51771 0.09205 0.091886 0.322191 -0.084908 0.826334 
0.122043 -0.763249 -0.100967 -0.258465 0.294971 -0.910452 
-0.060066 -0.820668 0.084779 -0.188245 0.933549 0.304382 
0.198726 0.147608 -0.005262 0.947106 0.220946 -0.202242 
-0.024733 -0.350458 -0.077483 0.555298 -0.113295 -0.822898 
-0.204672 0.490591 0.019083 -0.721603 0.507539 0.46551 
-0.112901 0.296058 0.007062 -0.988953 -0.098099 0.109225 
0.303515 0.420063 -0.137055 0.26998 0.451509 -0.848166 
0.126322 -0.219997 -0.099838 0.228769 -0.110843 -0.966139 
0.087814 0.795629 0.042789 0.894962 0.246111 0.358742 
-0.34788 0.213222 -0.033203 0.621904 -0.779201 -0.056969 
-0.003522 0.229612 -0.128313 0.033489 -0.057365 -0.995995 
-0.045431 0.224527 -0.118604 -0.525645 -0.249959 -0.81062 
-0.043083 -0.860496 -0.013146 0.281458 -0.949352 -0.114401 
0.174533 -0.521676 0.049782 0.563809 -0.196748 0.799563 
0.17509 0.150423 0.054986 0.749596 0.088845 0.655784 
-0.026938 -0.83527 0.076583 0.945701 0.298546 0.124659 
-0.12579 0.185826 0.024434 -0.922821 0.109097 0.360563 
-0.128468 -0.30704 -4e-05 -0.999585 -0.010013 -0.026606 
0.010028 -0.659876 -0.065909 0.583936 0.175443 -0.792358 
0.156496 -0.652362 0.028495 0.197483 -0.009389 0.978304 
-0.40344 0.241903 -0.069316 -0.550518 -0.058923 -0.831827 
0.135934 -0.445261 -0.102308 0.270042 0.127941 -0.952031 
0.000778 -0.621909 -0.067724 0.667741 0.063438 -0.741373 
0.024933 0.656079 0.057972 -0.18546 -0.969425 0.152594 
0.522314 0.147067 -0.010841 -0.718257 -0.69545 -0.006904 
0.415424 0.312269 -0.069035 0.642156 0.693625 0.31383 
0.14488 -0.005467 0.110899 0.495538 -0.198073 0.843032 
0.052843 -0.452247 -0.00299 -0.735877 -0.032684 0.671235 
-0.106156 -0.813748 -0.020903 -0.899017 -0.352622 0.211938 
0.203336 -0.251756 0.034693 0.976016 0.042939 0.210479 
0.023917 -0.54835 -0.012356 0.938575 0.022258 0.32166 
0.397166 0.332333 -0.084284 0.687451 0.715286 0.102374 
-0.06857 0.062906 0.11107 -0.355429 0.165388 0.916989 
-0.105921 -0.280863 0.102427 -0.621137 -0.036397 0.774445 
0.458004 0.262542 -0.0962 0.733682 0.239402 -0.633552 
0.198389 0.368137 -0.05655 0.996254 -0.073656 -0.029232 
-0.018072 -0.305372 -0.077695 0.670862 -0.115714 -0.732436 
0.110094 0.464985 0.075095 0.228171 0.371085 0.899429 
-0.096305 -0.285492 0.106765 -0.258062 -0.055118 0.957617 
0.252589 0.432072 -0.138072 -0.141073 0.113966 -0.979745 
0.099643 0.59289 -0.079994 0.352047 0.736793 -0.566989 
0.115869 -0.156681 -0.110643 0.091602 -0.165284 -0.98112 
0.201909 -0.066822 -0.039507 0.929276 0.034359 -0.367062 
-0.012228 0.672091 -0.015576 -0.953744 -0.27862 -0.083309 
0.060989 -0.789528 -0.027975 -0.981138 -0.026643 -0.170638 
0.17291 0.189786 0.05155 0.799141 0.079952 0.595311 
0.612721 0.091072 0.074706 0.734993 0.672519 0.079104 
0.022814 0.867064 -0.015822 -0.533935 0.841136 -0.008487 
0.003415 -0.310264 -0.054119 0.758894 -0.071504 -0.647007 
-0.047871 -0.80773 0.061759 0.304105 0.575355 0.748876 
0.47112 0.194826 -0.054754 -0.232768 -0.622309 -0.739083 
-0.085743 -0.257057 0.110726 -0.158019 -0.040989 0.986504 
-0.209313 0.481082 0.021013 -0.725413 0.432663 0.525945 
-0.030877 0.383463 -0.129129 -0.047559 -0.023607 -0.998563 
0.106865 -0.003247 0.128218 0.317697 -0.215798 0.922936 
0.055766 -0.594483 -0.006396 -0.781583 -0.13364 0.607063 
0.005314 -0.691627 0.002428 0.827142 -0.233186 0.508563 
-0.087301 0.366927 0.075023 -0.710215 -0.12836 0.691875 
-0.095598 -0.742428 -0.107588 -0.749116 0.090388 -0.655263 
0.008381 -0.148669 -0.058947 0.80801 -0.077133 -0.583813 
0.587012 0.046614 0.018263 0.102758 -0.897293 0.029802 
0.173791 0.501914 -0.130566 0.123953 0.314878 -0.940701 
-0.064514 -0.155138 0.121 -0.112716 -0.050248 0.991577 
0.006695 -0.571781 0.011966 0.657999 -0.089764 0.745783 
-0.027695 0.340594 -0.12862 -0.051045 0.012486 -0.998454 
-0.553679 0.052123 0.031699 0.826232 -0.56007 -0.040425 
0.314934 0.395247 -0.143504 0.181238 0.088788 -0.971613 
0.074605 0.834224 0.038905 0.751863 0.35604 0.550242 
0.409425 0.319206 -0.07487 0.649137 0.724805 0.207001 
0.155417 0.532545 0.018294 0.129975 0.657389 0.741775 
0.022185 -0.189762 0.064444 0.953683 -0.028325 0.298202 
-0.111696 0.354277 -0.087644 -0.741493 -0.207137 -0.637508 
-0.264123 0.417027 -0.011849 -0.724464 0.620393 0.284008 
0.116681 -0.788163 -0.112386 -0.219311 0.47247 -0.852442 
-0.02492 0.052378 -0.141503 -0.227598 0.278519 -0.932628 
0.03454 0.672111 0.094611 0.036623 0.17041 0.976299 
-0.00225 -0.409039 -0.058211 0.640156 0.093827 -0.758404 
0.18058 -0.793792 -0.056648 0.899388 -0.379558 -0.049168 
-0.099683 -0.052042 -0.095297 -0.69035 -0.233666 -0.683771 
0.14814 -0.495048 0.062491 -0.287469 -0.197981 0.935319 
-0.023914 0.160831 -0.105907 -0.332831 -0.104645 -0.926744 
0.048991 0.025172 -0.15951 -0.111571 -0.132648 -0.979395 
-0.14269 -0.135007 0.036825 -0.977529 -0.015917 0.202473 
0.099944 -0.295053 -0.098967 -0.182285 0.014394 -0.979883 
0.124263 -0.647372 -0.095368 -0.05492 -0.092587 -0.992743 
0.212605 -0.091806 0.030334 0.970785 -0.006727 0.236643 
0.19513 -0.612459 -0.057656 0.840102 -0.033514 -0.541052 
0.067594 -0.388093 0.034884 -0.690358 -0.328067 0.644402 
0.10109 0.065601 0.118253 0.431878 0.131936 0.890891 
0.200652 -0.242756 0.042917 0.957075 0.040175 0.285144 
0.072573 -0.369121 -0.079665 -0.633098 -0.079089 -0.769494 
-0.127339 0.196438 8.7e-05 -0.986014 0.138888 -0.063883 
0.642154 0.038406 0.036739 0.981216 0.192579 -0.009819 
0.103473 0.516217 -0.134639 -0.037984 0.353261 -0.93298 
-0.136486 -0.419444 0.014816 -0.990576 0.03054 0.12906 
-0.028653 -0.066663 -0.119106 0.02345 -0.369878 -0.928549 
-0.044362 -0.019528 0.130393 -0.21152 -0.27217 0.91385 
0.008456 -0.14306 0.105034 0.691338 -0.147366 0.704178 
-0.082949 -0.825312 0.085001 -0.239557 0.954312 0.148841 
0.249282 0.452229 -0.133631 0.045678 0.290205 -0.954128 
0.166126 -0.49627 0.061474 0.344212 -0.192851 0.911377 
0.052181 -0.407976 0.008017 -0.713901 -0.300062 0.630697 
-0.105176 -0.819001 -0.030977 -0.927078 -0.333421 0.081198 
-0.457225 0.150662 -0.031822 0.347429 -0.828386 -0.435885 
-0.128459 -0.350986 -0.001385 -0.999153 0.037326 -0.01186 
0.180863 -0.367598 0.067039 0.658845 -0.074976 0.731943 
0.058973 0.834553 -0.088799 0.326317 0.694382 -0.6362 
0.001188 -0.694117 -0.080791 0.492092 0.241801 -0.836211 
-0.238325 0.345464 -0.090199 0.323208 -0.472939 -0.817367 
0.166119 0.417209 0.055275 0.599131 0.071635 0.794881 
0.004235 -0.493181 -0.058658 0.797361 0.06079 -0.600366 
0.440057 0.289518 -0.058028 0.406079 0.803944 0.415553 
-0.011242 0.122005 0.127171 -0.343827 0.043905 0.931015 
0.226475 0.513032 0.007996 0.412041 0.486507 0.768999 
0.053092 0.374492 -0.13573 -0.333254 -0.016268 -0.94209 
0.143009 -0.240401 -0.089679 0.495642 -0.148198 -0.855642 
-0.237797 0.330404 -0.078641 0.51767 -0.604261 -0.604178 
-0.113648 0.294589 -0.056481 -0.974135 -0.156952 -0.153087 
-0.125581 -0.3187 -0.024361 -0.952224 0.017703 -0.296628 
0.202919 -0.045049 -0.037289 0.935763 -0.022431 -0.351677 
-0.002232 -0.788516 -0.118864 0.857033 0.220268 -0.462731 
0.183015 -0.325328 0.069179 0.76348 -0.057653 0.642183 
-0.0691 -0.020982 0.1229 -0.375346 -0.100478 0.904043 
0.170685 0.446306 0.048771 0.55374 0.116539 0.822746 
0.190408 -0.564382 0.023558 0.874212 -0.072867 0.477048 
-0.539604 0.088334 0.088307 -0.172538 0.309314 0.715181 
0.489142 0.227486 -0.072314 0.292081 -0.116691 -0.929969 
-0.087832 -0.164235 -0.082145 -0.652298 -0.147833 -0.742897 
-0.051491 0.138096 -0.104347 -0.334489 0.362151 -0.868793 
-0.029014 0.138743 0.119457 -0.404757 0.008852 0.914151 
0.278617 0.486006 -0.029151 0.672295 0.586696 0.44857 
-0.030871 0.127076 0.11868 -0.428491 2.5e-05 0.903497 
-0.014802 0.699553 0.055224 -0.746382 -0.334232 0.572975 
-0.032648 -0.837857 -0.137339 0.52855 -0.452672 -0.705186 
0.42608 0.240009 -0.029579 -0.365163 -0.540657 0.698662 
-0.251374 0.377532 0.019359 -0.13665 -0.007563 0.986581 
0.200978 -0.504476 -0.001391 0.951436 0.056086 0.295391 
-0.545085 0.062401 0.038336 0.550552 -0.831292 -0.059447 
0.075399 -0.205489 0.084698 -0.530383 -0.116918 0.838414 
0.097552 0.519038 0.049595 0.241632 0.54416 0.803275 
0.098741 0.572611 -0.104985 0.112798 0.669959 -0.733724 
0.113936 -0.832822 -0.117696 -0.270419 0.006127 -0.947457 
-0.11317 0.099491 0.064418 -0.843478 0.197837 0.498103 
0.158546 0.071198 -0.101573 0.704124 0.210834 -0.675997 
0.195929 -0.662784 -0.010717 0.953097 0.00161 0.296825 
0.046209 -0.168737 0.059364 -0.890006 -0.039613 0.450057 
0.209583 -0.14002 0.024788 0.962852 -0.217564 0.156974 
0.023877 0.765692 -0.121196 -0.072494 -0.050631 -0.995851 
0.155369 -0.740612 0.012591 0.283751 0.774132 0.565306 
0.162306 -0.205871 -0.083212 0.593266 -0.130389 -0.79424 
0.042894 0.316805 -0.129252 -0.302872 0.00552 -0.947474 
0.14241 -0.20166 0.094132 0.02968 -0.151152 0.982693 
-0.395548 0.222869 -0.069188 -0.32669 -0.233377 -0.913449 
0.027197 -0.223758 0.046293 0.974138 -0.027233 0.224151 
-0.138804 -0.01781 -0.000593 -0.992894 0.091941 -0.04693 
0.104083 -0.703296 0.034094 0.351157 -0.120587 0.918895 
-0.102276 -0.454508 0.078973 -0.597176 -0.142122 0.766933 
-0.289659 0.254197 -0.046824 0.668508 -0.74353 -0.007906 
-0.0651 -0.362208 0.098329 0.139934 -0.16965 0.975479 
0.096693 -0.868006 0.083472 -0.404918 -0.903642 -0.017372 
-0.026414 -0.725786 -0.110179 0.418495 0.358997 -0.832473 
-0.072578 -0.584758 -0.103535 -0.089295 0.036861 -0.994031 
0.119717 -0.865664 0.14906 -0.07196 -0.986651 0.145792 
0.143771 0.577094 -0.034038 0.310664 0.856802 0.398161 
0.205328 0.471178 0.02381 0.511738 0.097115 0.851275 
0.044723 0.114567 -0.135539 -0.073534 0.392741 -0.916534 
0.158418 -0.72078 0.001871 0.546945 -0.176092 0.808575 
0.104643 -0.868131 0.129265 -0.137054 -0.976731 0.138806 
0.199556 -0.089044 0.062744 0.876891 -0.019222 0.479503 
0.016315 -0.305459 -0.038586 0.865499 -0.043413 -0.496933 
0.105598 0.196253 0.110069 0.50582 0.031829 0.859702 
0.101006 0.402463 -0.145917 0.006957 0.001789 -0.999736 
-0.169642 0.530458 0.017634 -0.610319 0.681755 0.402393 
-0.019966 0.50347 -0.125462 0.008812 0.234854 -0.970091 
0.095228 -0.180716 -0.103984 -0.256056 -0.177056 -0.949302 
-0.082273 -0.802204 -0.128508 -0.718696 -0.176828 -0.671282 
0.199769 -0.579402 -0.043632 0.986109 -0.032581 -0.160824 
0.098327 -0.793041 -0.104108 -0.735811 0.3135 -0.596132 
-0.042006 -0.845302 -0.138519 0.330364 -0.372329 -0.857346 
0.20549 -0.257889 0.007053 0.999947 0.006145 0.004068 
-0.014686 0.854328 -0.007336 -0.481107 0.876075 0.02905 
-0.077686 -0.531136 0.06606 0.394957 -0.203432 0.895863 
0.05761 0.31627 -0.135641 -0.38005 -0.031488 -0.924377 
-0.268802 0.322918 -0.093921 0.347761 -0.209539 -0.913068 
-0.186855 0.366689 0.002419 0.496774 -0.677052 0.541861 
0.018031 -0.61959 0.004872 0.765738 0.016392 0.641269 
-0.303354 0.244357 -0.022505 0.659236 -0.722076 0.207996 
-0.030624 0.132336 -0.114963 -0.278269 0.474815 -0.834806 
0.204952 -0.557535 -0.019631 0.988899 -0.071199 0.082674 
0.001125 0.602774 -0.078379 -0.254703 0.660675 -0.704303 
-0.111904 -0.811141 -0.047018 -0.868841 -0.491764 0.039722 
0.175462 -0.214651 0.08382 0.471159 -0.186328 0.857868 
0.045102 -0.152339 -0.075899 -0.775188 -0.243339 -0.579985 
0.002246 0.670533 -0.053679 -0.700285 -0.232423 -0.671436 
0.155732 0.525132 -0.124023 0.215792 0.581107 -0.781875 
0.09819 -0.63571 0.027217 -0.617608 0.149064 0.756729 
-0.0619 -0.644498 0.033102 0.357516 -0.221159 0.907104 
-0.066069 0.480497 0.072594 -0.185172 0.400959 0.895165 
0.01145 -0.546216 0.012695 0.68227 -0.137426 0.717306 
-0.013205 0.799694 0.053182 -0.872787 0.2257 0.429921 
0.052101 -0.686413 -0.014491 -0.996131 -0.043118 -0.070002 
0.018648 -0.206047 0.07701 0.95275 -0.031032 0.301368 
-0.014799 -0.648473 -0.082513 0.651953 0.05033 -0.756547 
0.197718 -0.054907 0.063413 0.867091 0.043743 0.493108 
0.176364 0.520858 -0.121851 0.181818 0.519594 -0.834713 
0.10026 0.555253 -0.118643 0.112314 0.546364 -0.82873 
0.012148 0.736723 -0.109017 -0.30934 -0.471919 -0.82172 
0.124804 -0.753174 -0.100488 -0.181264 0.087684 -0.977673 
0.188268 -0.686702 0.006325 0.64901 -0.258146 0.701449 
0.466742 0.264811 -0.07095 0.81127 0.577926 -0.050905 
0.141943 0.340321 -0.119885 0.662977 -0.173535 -0.727925 
-0.003575 0.169608 -0.115158 -0.145353 -0.161434 -0.970678 
0.157319 -0.835309 0.121019 0.638617 0.75421 0.131952 
0.153734 -0.280578 0.081159 0.173387 -0.082847 0.980579 
-0.060921 0.484914 -0.12785 -0.102165 0.201441 -0.973821 
-0.06309 -0.268651 -0.091039 -0.273214 -0.034834 -0.960228 
-0.021063 -0.073344 -0.115369 0.168925 -0.44014 -0.881151 
0.19339 0.370918 -0.083943 0.782789 -0.451645 -0.427457 
0.091518 -0.253235 0.084441 -0.254247 -0.131898 0.957473 
0.091692 0.604454 -0.021724 0.831462 0.365866 0.376209 
0.132999 -0.393565 0.072225 -0.22586 -0.186321 0.955783 
0.049664 0.220329 0.128041 0.086809 0.055365 0.993616 
-0.107553 0.294855 -0.076696 -0.83688 -0.079472 -0.539509 
0.196939 -0.313684 0.044573 0.90173 -0.065934 0.424236 
-0.054095 0.075104 0.11324 -0.453124 0.124497 0.881355 
-0.104639 0.233116 -0.061363 -0.789389 -0.374397 -0.485979 
-0.12845 0.181002 0.005921 -0.99891 0.029951 0.004806 
0.017126 -0.760964 -0.072489 0.96475 0.015288 -0.252792 
-0.081246 0.004992 0.119844 -0.457322 0.222807 0.859079 
0.060578 0.281256 0.120739 0.18602 0.092786 0.977927 
-0.012032 0.791781 0.060417 -0.892415 0.177262 0.413411 
0.0987 0.447967 0.083025 0.144361 0.228611 0.962621 
-0.105466 0.370534 -0.098599 -0.628246 -0.242625 -0.738618 
0.162587 -0.85189 -0.040683 0.94904 -0.290115 0.079869 
0.087146 -0.278529 -0.09375 -0.431136 0.062135 -0.90003 
0.294322 0.466155 -0.101655 0.588906 0.643597 -0.488651 
0.193558 0.090057 0.018576 0.949535 0.239836 0.165017 
-0.081969 -0.103904 0.116284 -0.426134 0.009471 0.902782 
0.19236 -0.658059 -0.052027 0.783477 -0.272357 -0.55483 
0.194272 -0.073055 0.070697 0.743454 0.078453 0.663932 
0.090433 0.736509 -0.075331 0.822798 -0.325334 -0.463617 
0.238761 0.452755 -0.13394 0.00919 0.14794 -0.987683 
-0.09333 0.195916 0.076013 -0.672915 -0.003888 0.739479 
-0.036503 0.776456 -0.05661 -0.991728 0.041336 -0.12039 
-0.039827 0.773813 -0.024329 -0.994908 0.082145 0.038388 
-0.103451 0.066943 -0.085173 -0.826514 0.146527 -0.543091 
0.110712 -0.034788 -0.14649 0.184815 -0.280214 -0.94107 
0.095212 0.736773 -0.065981 0.896581 -0.292358 -0.325467 
0.117353 0.577147 -0.016912 0.370453 0.735905 0.563127 
0.065627 -0.014035 -0.153583 -0.173879 -0.251899 -0.950409 
0.114384 0.113027 -0.123725 0.484054 0.379033 -0.78783 
0.090544 0.576991 -0.102284 0.138573 0.670491 -0.728463 
0.062639 0.78917 -0.111906 0.48019 0.0533 -0.875442 
0.095445 -0.129874 0.100237 -0.558427 -0.036708 0.828712 
0.543766 0.162907 -0.02396 0.649883 -0.203803 -0.729114 
0.102218 0.03239 0.124439 0.472845 0.33328 0.812464 
0.101877 -0.221808 -0.098833 -0.28156 -0.077082 -0.95621 
-0.560394 0.042009 0.028316 0.887884 -0.450184 -0.015302 
0.602881 0.10508 0.023467 0.898925 0.409387 -0.102156 
0.001195 0.305062 -0.129318 0.143236 0.053158 -0.988173 
-0.041048 0.46295 0.08442 -0.187845 0.438603 0.869035 
-0.096378 -0.425293 0.086019 -0.252152 -0.324373 0.901329 
0.271685 0.424846 -0.010644 0.121913 -0.113966 0.981575 
0.022838 -0.718142 -0.055552 0.972654 -0.023894 -0.224976 
0.182432 0.227216 0.01123 0.998733 0.013592 0.045834 
0.184116 -0.059737 -0.077586 0.847234 -0.048362 -0.528695 
-0.028666 0.731211 -0.053554 -0.887977 -0.342701 -0.284949 
-0.040431 -0.515364 0.054862 0.409776 -0.284203 0.866329 
0.127265 -0.326788 0.080454 -0.028161 -0.071947 0.996437 
0.093487 -0.866849 -0.07517 -0.693609 -0.719076 -0.025526 
0.12477 0.096436 -0.123837 0.596259 0.287603 -0.748751 
0.002681 -0.769233 -0.02062 0.665551 0.025459 0.736437 
0.177907 -0.636549 -0.07255 0.604876 -0.162912 -0.778948 
-0.176497 0.461805 -0.087386 -0.308988 0.272243 -0.91007 
-0.089374 -0.8264 0.077377 -0.444074 0.871225 0.161708 
0.019728 -0.242751 0.068658 0.958701 -0.022437 0.282739 
0.061556 0.01151 -0.157129 -0.17471 -0.239328 -0.951854 
0.153766 0.460323 0.060581 0.59848 0.22678 0.767375 
-0.134285 0.047214 -0.019193 -0.975064 0.119451 -0.182023 
-0.130963 -0.566032 -0.021188 -0.952443 -0.13017 0.272122 
0.167507 -0.820752 -0.02035 0.810535 -0.583139 0.048311 
-0.119629 -0.690412 -0.080435 -0.776294 -0.124266 -0.614309 
-0.129273 0.012411 -0.048286 -0.937241 0.04456 -0.344884 
0.076359 0.006277 0.137849 0.250692 0.051496 0.961261 
0.204642 -0.312986 -0.010949 0.980048 -0.025358 -0.187573 
0.075329 -0.717317 -0.050663 -0.889171 -0.173864 -0.423079 
0.068387 0.155773 0.127756 0.263787 0.031388 0.960765 
0.164894 -0.824311 -0.069531 0.771708 -0.634847 -0.036228 
-0.125043 -0.169282 0.084098 -0.820964 0.003508 0.570828 
0.021602 -0.558595 -0.00517 0.917013 0.050941 0.387353 
0.2117 -0.128828 0.025902 0.965191 -0.155903 0.202832 
0.033147 0.333988 -0.127146 -0.162679 -0.018705 -0.985019 
0.02146 0.056159 -0.148661 -0.214777 0.297698 -0.930014 
0.062574 0.578998 -0.100515 -0.006683 0.657604 -0.752901 
0.080729 -0.559258 0.021829 -0.704863 0.006565 0.709245 
-0.002627 -0.497648 0.038048 0.664908 -0.210363 0.716387 
-0.042874 -0.330274 0.097779 0.231896 -0.095286 0.968006 
0.04208 -0.084568 -0.11186 -0.49668 -0.49138 -0.712418 
0.106189 0.596522 -0.050225 0.488473 0.860292 0.114055 
0.135988 -0.146672 -0.107271 0.402489 -0.220653 -0.886041 
-0.175381 0.523236 0.021511 -0.648927 0.600471 0.403511 
0.149313 -0.866783 -0.044287 0.46763 -0.875647 0.087363 
0.16096 0.20308 -0.069365 0.775317 0.017761 -0.630875 
-0.125147 -0.733723 -0.028367 -0.922647 0.069864 0.37577 
-0.005076 -0.341648 -0.060265 0.713165 -0.067265 -0.697625 
0.126986 -0.869992 -0.073626 0.023489 -0.999615 0.014349 
0.117389 -0.260832 0.08548 0.053524 -0.232981 0.96769 
0.212404 0.42235 -0.005264 0.334293 -0.854714 0.373773 
0.471466 0.258396 -0.077674 0.792886 0.549163 -0.25386 
0.447838 0.201347 -0.086877 0.679757 -0.560856 -0.289536 
-0.113211 0.072413 -0.068196 -0.8573 0.145515 -0.492213 
-0.133086 -0.499557 0.005936 -0.883229 -0.178883 0.429662 
0.19173 -0.649162 -0.056236 0.746701 -0.207626 -0.630378 
-0.255793 0.386459 0.0178 -0.378741 0.138031 0.911422 
0.172029 -0.198015 0.088915 0.381977 -0.11627 0.916143 
-0.06054 -0.455571 0.077225 0.284513 -0.276079 0.917219 
0.007352 0.020121 0.141367 -0.095566 0.166525 0.98097 
0.145724 -0.41461 -0.0924 0.507581 0.106277 -0.854807 
0.04423 -0.533546 -0.030732 -0.995262 -0.011927 -0.082385 
0.508441 0.212568 -0.016529 0.546597 0.695539 0.464145 
-0.119914 0.521524 -0.09259 -0.373355 0.535739 -0.756594 
-0.10379 0.566716 -0.010736 -0.149569 0.972708 0.150333 
-0.111511 0.293578 0.016515 -0.983271 -0.060217 0.170703 
0.206292 -0.223065 -0.014777 0.998072 -0.05711 -0.0216 
0.062104 0.501076 -0.129575 -0.18904 0.094677 -0.977102 
0.066329 -0.48718 -0.072365 -0.719124 0.01013 -0.694621 
-0.491133 0.09862 0.049717 0.76132 -0.619262 0.040781 
0.086334 -0.708065 -0.074948 -0.799976 -0.02624 -0.59689 
0.090188 0.559997 -0.11564 0.011627 0.592998 -0.803747 
-0.001121 -0.515604 0.031754 0.59742 -0.207978 0.774435 
-0.012458 -0.081784 -0.108855 0.296472 -0.48989 -0.81824 
-0.110567 0.361573 0.044435 -0.85886 -0.285999 0.422862 
0.196017 0.388311 -0.00092 0.967846 -0.120215 0.219146 
-0.014822 0.607425 -0.062325 -0.528173 0.690712 -0.490925 
0.356096 0.317682 -0.133558 0.000779 -0.143834 -0.988291 
0.146914 -0.524536 -0.104138 0.367073 -0.009885 -0.929336 
-0.022496 -0.547513 0.039545 0.479725 -0.228616 0.846086 
0.025573 -0.69813 -0.049958 0.980917 -0.0816 -0.138178 
-0.045315 -0.862361 0.004747 0.136035 -0.986971 -0.068217 
0.237349 0.490492 0.005672 0.571648 0.073852 0.813896 
0.161661 0.283654 -0.076917 0.868282 -0.162366 -0.467412 
0.194815 -0.137225 -0.058231 0.76594 -0.028523 -0.642051 
-0.106917 0.288405 0.037613 -0.986415 0.002985 0.163018 
-0.250041 0.439982 -0.0306 -0.744505 0.666179 0.035242 
-0.335595 0.233041 0.0029 0.376383 -0.419907 0.819743 
-0.120285 -0.662883 -0.08239 -0.81176 -0.007445 -0.582837 
0.19065 -0.512698 0.02928 0.916097 -0.046198 0.3964 
-0.06075 -0.825518 0.11481 -0.019852 0.990294 0.105657 
0.135036 -0.835757 -0.114629 0.446674 -0.032305 -0.891155 
-0.11153 -0.810374 -0.070405 -0.888889 -0.430185 -0.109884 
0.225291 0.445315 0.014853 0.428475 -0.221405 0.870899 
-0.246618 0.419355 0.011846 -0.707054 0.391978 0.581205 
0.150678 -0.408734 0.073492 -0.122566 -0.086074 0.986124 
0.132871 0.582305 -0.072328 0.323512 0.912106 -0.246089 
0.05872 0.039693 0.134683 -0.022611 0.209722 0.97722 
0.144682 -0.825866 0.097062 0.293647 0.94107 0.150767 
0.090619 0.277484 -0.139651 0.047366 -0.061753 -0.995364 
0.071721 0.79604 -0.10542 0.600208 0.122996 -0.78798 
0.00643 0.566384 0.023429 -0.30821 0.242478 0.91214 
-0.097766 0.211204 0.071698 -0.6435 0.057232 0.763145 
-0.053486 -0.287806 -0.092166 -0.094471 -0.07422 -0.991188 
0.128499 -0.192219 0.096831 0.083933 -0.152054 0.984722 
-0.475399 0.173946 -0.026534 -0.705338 0.566408 -0.409065 
0.15639 -0.025457 -0.121756 0.726764 -0.031762 -0.685578 
0.199984 -0.129569 0.0596 0.899415 -0.039069 0.435197 
-0.002188 -0.775911 -0.013078 0.769911 0.159639 0.610937 
0.186785 -0.09061 -0.071091 0.8155 -0.071781 -0.574064 
-0.131726 -0.271663 0.02268 -0.970357 -0.239272 -0.02049 
0.025817 -0.617579 -0.039936 0.934863 0.083492 -0.332206 
0.197047 0.153778 0.016412 0.899309 0.35084 0.239095 
0.297227 0.368352 -0.138769 -0.170314 -0.408275 -0.896334 
0.005011 0.736494 0.071404 -0.407412 0.133454 0.899549 
0.067015 -0.093518 0.089131 -0.101313 -0.732691 0.640563 
0.125972 -0.392269 -0.100246 0.300295 0.077042 -0.948958 
-0.367592 0.306544 -0.055453 -0.668409 0.734591 -0.105251 
-0.124991 -0.207767 0.083834 -0.850191 -0.044592 0.524162 
0.119171 -0.556656 0.041755 -0.31015 -0.089307 0.94573 
0.643493 0.030033 0.04525 0.961315 0.096458 0.012676 
-0.52369 0.117479 0.084257 -0.683053 0.696967 0.115224 
0.190135 -0.47625 -0.066741 0.842351 0.048048 -0.535827 
0.00833 0.349883 -0.127158 0.07246 -0.017926 -0.997136 
0.142422 0.581764 -0.062537 0.255351 0.95446 -0.091948 
0.080206 -0.506531 0.019952 -0.63287 0.041185 0.773135 
-0.061476 0.018277 -0.133871 -0.348244 -0.289494 -0.88563 
0.191448 0.168032 -0.001873 0.94846 0.287756 -0.03678 
-0.120833 0.533253 0.039657 -0.061236 0.631897 0.772189 
-0.392028 0.282843 -0.047356 -0.710612 0.702629 -0.031599 
0.071082 0.677889 0.072829 0.816711 -0.134333 0.516437 
-0.168353 0.368874 -0.042547 0.693527 -0.698453 -0.160248 
0.115135 -0.005496 -0.149571 0.411929 0.073507 -0.907213 
-0.113936 0.238052 0.019905 -0.974545 0.208326 0.070512 
-0.129851 -0.246719 -0.008548 -0.948646 -0.017986 -0.314285 
-0.150492 0.394322 0.002493 0.659313 -0.670512 0.336496 
0.213857 -0.116295 -0.012751 0.990043 0.001064 -0.131225 
0.162967 -0.361888 -0.070612 0.621448 0.16893 -0.764439 
-0.383614 0.194599 -0.051368 0.222279 -0.901209 -0.337032 
0.184264 0.482697 -0.135167 0.087879 0.165515 -0.981563 
0.052518 -0.671211 -0.024676 -0.969184 -0.075299 -0.218904 
0.086016 0.483856 -0.139821 -0.285981 0.294484 -0.911387 
0.165039 -0.597111 -0.088806 0.565942 -0.120126 -0.814622 
0.133436 0.311578 0.086523 0.67338 0.058596 0.733261 
-0.095967 0.129836 -0.077417 -0.734004 0.138129 -0.664345 
-0.131308 -0.267282 0.005309 -0.976831 -0.160544 -0.133263 
0.521904 0.204466 -0.00655 0.062203 0.944966 0.320548 
-0.124712 -0.757433 -0.043625 -0.939215 -0.339128 0.004073 
0.212367 -0.107308 -0.018767 0.953279 0.062221 -0.277926 
-0.094722 -0.212198 -0.071829 -0.718339 -0.029225 -0.694953 
-0.494031 0.151152 -0.024612 -0.8115 0.319683 -0.449838 
-0.119529 0.098501 0.051504 -0.924557 0.08213 0.367485 
0.054549 0.58456 -0.096587 0.014498 0.581252 -0.813226 
0.084089 0.660631 -0.021025 0.986181 0.064095 -0.104407 
0.345276 0.382985 -0.08512 0.837335 0.478463 0.260689 
0.137796 -0.867962 0.023067 0.135842 -0.983727 -0.101139 
0.632778 0.038164 0.107831 0.1092 -0.238766 0.938053 
0.091712 -0.853602 0.020378 -0.806335 -0.566029 -0.132492 
-0.126507 0.063895 -0.040625 -0.945913 0.133056 -0.294913 
-0.050908 -0.827517 0.121367 0.424869 0.866796 0.197699 
0.083688 0.114127 0.123506 0.426605 0.064564 0.900385 
0.022978 -0.204384 0.061769 0.946303 -0.035837 0.321066 
0.106272 -0.734403 -0.094501 -0.462811 -0.029812 -0.884893 
0.034689 -0.026409 0.133605 -0.186702 -0.220563 0.939909 
0.150401 0.1568 0.079774 0.706535 0.040966 0.706444 
-0.041078 -0.270593 0.105747 0.170675 -0.16775 0.970881 
0.112562 0.478967 -0.144588 -0.018799 0.146104 -0.988048 
0.276034 0.435493 -0.137553 0.162371 0.328562 -0.925432 
-0.185942 0.524208 -0.01855 -0.699812 0.710579 -0.005411 
0.009053 0.863064 0.014999 -0.177646 0.980451 0.060823 
0.16961 -0.025797 -0.105759 0.826221 -0.02861 -0.560426 
-0.140459 0.450002 -0.100271 -0.481021 -0.034246 -0.87493 
-0.42774 0.185309 -0.053878 -0.105148 -0.029574 -0.956332 
-0.074328 -0.234912 0.112851 -0.103076 -0.086357 0.99045 
0.642296 0.036202 0.025636 0.98453 0.165261 -0.017427 
0.190015 0.349842 -0.066073 0.866651 -0.384136 -0.314849 
0.179631 -0.150886 -0.072749 0.700489 -0.088596 -0.708102 
-0.022231 0.848155 -0.01805 -0.592029 0.804226 -0.02292 
-0.060448 -0.528821 0.059064 0.368828 -0.196976 0.907967 
-0.123735 -0.345434 0.057238 -0.984228 0.06132 0.165427 
0.128165 -0.247163 0.086632 0.111664 -0.153732 0.981534 
-0.143551 -0.107786 -0.005753 -0.98852 -0.023738 -0.141929 
-0.011329 0.67704 -0.036695 -0.958476 -0.145692 -0.227682 
0.008768 -0.729835 -0.083461 0.732333 0.108027 -0.671821 
-0.134055 -0.433474 -0.026449 -0.919873 0.168421 -0.347935 
0.103349 -0.746172 0.027851 -0.049415 -0.406603 0.878405 
-0.10337 -0.827957 -0.004657 -0.97989 0.189362 0.047151 
-0.026073 0.407748 -0.129751 -0.007648 -0.014163 -0.999703 
-0.099141 0.351555 0.058081 -0.765934 -0.248111 0.591189 
0.160911 0.199759 0.06444 0.771515 0.092008 0.628995 
0.101906 0.800527 -0.048641 0.877043 0.430638 -0.192591 
0.315041 0.306895 -0.098873 -0.684986 -0.706445 -0.157983 
0.000794 -0.5386 -0.067383 0.791218 0.030868 -0.610672 
0.086295 -0.860285 -0.062217 -0.668726 -0.741698 0.043115 
0.130449 0.37303 0.085361 0.479244 0.052829 0.875832 
-0.113396 -0.279832 0.095218 -0.726831 -0.051373 0.6845 
0.139238 0.531208 0.024099 0.289659 0.64489 0.70661 
-0.001382 -0.009596 0.143749 0.052632 -0.601696 0.744619 
0.398957 0.327554 -0.072424 0.578885 0.731345 0.354349 
0.088679 -0.835874 -0.040335 -0.998483 -0.045076 0.000311 
-0.077619 0.56163 0.010669 -0.066638 0.778157 0.624492 
0.049612 0.401984 -0.134401 -0.358241 0.032585 -0.931293 
-0.084813 -0.728067 0.009121 -0.436681 -0.182402 0.846775 
-0.029313 0.431597 0.096376 -0.142918 0.230575 0.96249 
0.264717 0.348954 -0.079303 -0.697528 -0.715991 -0.01646 
0.095688 -0.118275 -0.118732 -0.228479 -0.224832 -0.945276 
0.110029 -0.765552 0.022048 -0.284616 0.531488 0.797133 
-0.104261 -0.82418 -0.053921 -0.962905 -0.190687 -0.017053 
-0.108236 0.014878 -0.091106 -0.836586 0.014921 -0.547554 
0.236379 0.478559 0.006083 0.585348 -0.029823 0.807498 
-0.397295 0.275663 -0.025979 -0.698731 0.689221 0.183682 
0.20561 -0.395258 -0.000188 0.993515 -0.02242 0.10818 
-0.107502 -0.090981 0.10126 -0.680789 0.081015 0.727631 
-0.12743 -0.052425 0.074679 -0.818847 0.029794 0.570909 
0.107077 0.595711 -0.066716 0.504934 0.818461 -0.245492 
0.050327 0.65729 0.050942 0.313666 -0.892143 0.298726 
0.191804 -0.182613 0.072219 0.907679 -0.057188 0.406071 
0.180982 0.208287 0.034465 0.972524 0.059604 0.219198 
0.092709 -0.567681 -0.090263 -0.61757 -0.120736 -0.777163 
-0.110215 0.398494 0.061698 -0.647758 -0.174682 0.740186 
0.186032 0.14592 0.041582 0.830513 0.129716 0.53818 
0.07853 0.201073 0.12124 0.372104 0.045142 0.927039 
0.098675 0.777399 -0.068514 0.949294 0.010853 -0.312117 
0.11561 -0.757261 0.02175 -0.170835 -0.265878 0.932807 
-0.012958 -0.542614 -0.083331 0.652499 0.003079 -0.756091 
0.000316 0.076231 -0.13992 -0.174942 0.300301 -0.937411 
-0.021934 -0.814693 0.053376 0.905221 -0.011255 0.365483 
0.203989 -0.368591 0.009033 0.964311 -0.024656 0.256523 
0.104808 -0.284546 -0.09935 -0.084911 0.008954 -0.992125 
0.018309 0.132957 -0.122909 -0.133427 0.45187 -0.881835 
0.057731 -0.6768 -0.035615 -0.856951 -0.124702 -0.500058 
0.025467 -0.020526 0.132002 -0.23314 -0.484362 0.814817 
0.061619 -0.768716 -0.026205 -0.951285 0.087113 -0.277344 
0.164431 0.296041 -0.077596 0.855233 -0.22848 -0.464879 
-0.119065 0.335122 -0.00757 -0.987225 -0.103898 0.119107 
-0.160407 0.468802 -0.091595 -0.374563 0.157768 -0.913431 
0.382627 0.337769 -0.117073 0.654913 0.519507 -0.548602 
0.466494 0.261116 -0.086536 0.77965 0.523999 -0.32504 
0.205804 -0.028964 0.044751 0.930427 0.019945 0.36223 
0.059401 -0.781293 0.010633 -0.989034 -0.117864 0.071356 
-0.135456 -0.422945 -0.015956 -0.962014 0.124125 -0.240647 
-0.104719 -0.292322 -0.055818 -0.799092 0.011234 -0.600773 
-0.027321 0.770006 -0.086093 -0.84297 -0.114377 -0.52375 
-0.050523 -0.862408 -0.005563 0.104704 -0.991955 -0.056369 
0.0243 -0.063183 -0.113811 -0.26835 -0.620977 -0.730894 
-0.034413 -0.087725 -0.111233 0.098819 -0.28233 -0.95314 
-0.020138 -0.446387 0.068292 0.525841 -0.232969 0.811827 
-0.419001 0.166488 -0.012355 0.596266 -0.799438 -0.031389 
-0.151811 0.421512 0.037929 -0.407594 -0.50244 0.759281 
-0.053337 -0.13805 -0.10277 -0.039868 -0.173047 -0.982223 
0.053466 -0.039497 0.130373 0.053537 -0.20125 0.976638 
0.203217 -0.321807 0.026059 0.959086 -0.047339 0.277774 
0.172424 0.395175 -0.119781 0.333859 -0.448492 -0.827332 
-0.174347 0.534718 -0.015808 -0.596855 0.799287 0.016907 
0.010161 -0.695432 -0.006511 0.776309 -0.237531 0.583637 
0.089923 0.275805 0.109885 0.394849 0.107925 0.912336 
-0.042068 -0.599684 0.033326 0.432049 -0.21015 0.876752 
-0.080118 -0.299095 -0.08014 -0.589934 -0.061824 -0.804916 
0.177046 0.405612 0.047217 0.635084 -0.059811 0.769937 
0.627277 0.039426 0.069104 -0.826284 -0.562254 -0.032344 
0.127966 -0.622255 -0.098063 0.00773 -0.118157 -0.989921 
0.167379 -0.844164 0.040553 0.839198 0.54199 -0.022975 
-0.037898 -0.104477 0.127596 -0.052541 -0.07186 0.994596 
-0.02402 -0.787884 -0.142487 0.392813 0.407445 -0.822547 
-0.439292 0.224611 -0.036341 -0.722435 0.628248 -0.236593 
0.025212 0.458196 -0.126606 -0.062626 0.057298 -0.995975 
-0.500503 0.131744 0.083654 0.245355 0.206078 0.929398 
-0.093553 0.032624 0.103708 -0.419492 0.258944 0.869983 
-0.243334 0.30949 -0.017269 0.714836 -0.641908 0.273124 
0.082226 -0.022448 0.130507 0.112737 -0.087205 0.988633 
0.014897 -0.706203 -0.016331 0.801627 -0.139927 0.57948 
0.064235 -0.345166 0.049997 -0.694278 -0.241991 0.675452 
-0.063965 0.507292 0.059871 -0.14437 0.444227 0.884133 
0.186397 -0.573963 0.026707 0.726916 -0.185001 0.659601 
-0.103716 0.41019 -0.111722 -0.438929 -0.213688 -0.866658 
-0.134581 -0.411583 -0.014745 -0.958384 0.083125 -0.269854 
0.162697 0.565745 -0.083255 0.332353 0.805912 -0.48557 
0.198765 -0.129438 -0.052651 0.854372 0.00893 -0.518848 
-0.004856 -0.53552 -0.074785 0.79121 0.032944 -0.610533 
0.18094 -0.525429 0.043449 0.74661 -0.143941 0.645559 
0.131604 0.017756 0.11813 0.368887 0.22323 0.900979 
0.008982 0.573695 -0.100267 -0.062623 0.533513 -0.843305 
-0.011477 0.643059 -0.027852 -0.985059 0.068034 -0.124811 
0.061316 0.684776 -0.066073 0.548163 -0.415586 -0.719918 
-0.478457 0.151134 0.062307 0.220527 0.740547 0.618929 
0.073681 -0.434591 0.016883 -0.704875 -0.309858 0.637687 
0.178908 -0.795957 -0.066323 0.930742 -0.272444 -0.194834 
0.086615 -0.755574 0.015937 -0.038191 -0.769548 0.635685 
-0.122738 0.090782 0.041199 -0.953236 0.028106 0.293097 
0.010078 0.100185 0.135845 -0.075222 0.129221 0.986801 
0.075926 -0.691517 -0.059707 -0.843758 -0.08159 -0.529821 
0.164617 -0.104586 -0.098402 0.722324 -0.12723 -0.679115 
0.180779 0.329196 -0.066957 0.830903 -0.354141 -0.427145 
0.324963 0.399923 -0.139906 0.354186 0.24773 -0.896702 
0.132307 0.450482 -0.145651 0.116621 -0.001472 -0.992771 
0.052212 -0.694877 -0.002797 -0.998639 -0.01665 0.028608 
-0.11441 -0.306292 -0.041825 -0.864637 0.055405 -0.498499 
-0.1282 -0.150989 0.078702 -0.887733 0.019233 0.45845 
-0.087049 0.379285 -0.112031 -0.414421 -0.180833 -0.89163 
-0.14077 -0.089887 0.041763 -0.951586 0.036342 0.304441 
-0.016995 0.311367 -0.130608 0.006016 0.066078 -0.997029 
0.210772 0.412464 -0.071437 -0.115863 -0.983032 0.016038 
0.181708 0.220993 -0.023798 0.982732 0.004314 -0.181087 
-0.204242 0.500239 -0.038143 -0.722145 0.627356 -0.287261 
0.142499 -0.869384 -0.078175 0.186043 -0.97188 -0.024433 
0.219842 0.394718 -0.088719 -0.73358 -0.676031 -0.056132 
0.22172 0.545117 -0.025249 0.523876 0.759395 0.378663 
0.492132 0.172406 0.006131 -0.546225 -0.800394 0.209207 
0.154454 -0.187197 -0.091622 0.610346 -0.057198 -0.789904 
0.102665 0.781156 -0.057867 0.936732 0.017461 -0.337813 
-0.008781 -0.436453 -0.066993 0.736597 0.046804 -0.674584 
-0.070946 0.247228 -0.106576 -0.621406 -0.242121 -0.744844 
-0.089654 0.520145 0.049016 -0.034146 0.49771 0.865218 
-0.017914 -0.274702 0.098021 0.366525 -0.220961 0.902918 
-0.092475 -0.826645 0.068053 -0.576205 0.792169 0.152966 
0.187769 -0.358617 0.057211 0.865923 -0.048466 0.49695 
0.1649 -0.58437 0.03924 0.47325 -0.211109 0.852294 
0.100768 -0.527975 -0.101257 -0.527052 -0.037537 -0.84883 
-0.054936 -0.48116 -0.097314 0.044565 0.111714 -0.992554 
0.16341 -0.117275 0.1026 0.504483 -0.028971 0.862201 
0.15158 -0.818514 0.053126 0.692857 0.642189 0.297787 
0.15022 -0.680964 -0.084938 0.644474 -0.010477 -0.764464 
0.021993 -0.216033 0.062372 0.948435 -0.056236 0.311709 
0.584522 0.065701 -0.02117 0.400165 0.473816 -0.684584 
0.086397 -0.107037 -0.119531 -0.278731 -0.325001 -0.90301 
0.082398 0.212278 0.11936 0.417965 0.084266 0.903018 
-0.115941 -0.335113 0.087194 -0.830892 -0.085438 0.546716 
0.305706 0.429802 -0.130048 0.387884 0.553676 -0.735793 
-0.130536 0.051766 -0.032064 -0.95704 0.13591 -0.255676 
-0.1263 0.154454 0.017334 -0.96501 -0.052133 0.240895 
0.032165 0.202912 -0.118175 0.159933 -0.516171 -0.841109 
0.07622 0.67032 -0.04407 0.790182 -0.111366 -0.60098 
0.135119 -0.866318 0.148742 0.02311 -0.985387 0.167015 
0.185538 -0.372789 0.059757 0.845126 -0.04024 0.532371 
0.069905 0.595605 0.012389 0.625856 0.007995 0.779631 
0.081922 0.847345 0.000367 0.871389 0.484734 0.068199 
0.190006 0.558102 -0.022829 0.285984 0.880835 0.372629 
-0.123196 -0.365004 0.062351 -0.980876 -0.05313 0.185735 
0.165069 -0.843961 -0.008852 0.994979 0.022884 -0.074292 
-0.131203 -0.387646 -0.010075 -0.955069 0.271439 -0.092998 
0.051516 0.063879 0.131446 0.135775 0.112956 0.982575 
-0.570829 0.028771 -0.003031 -0.409352 -0.688613 -0.146925 
-0.050272 0.185367 0.104126 -0.485544 0.030046 0.873367 
-0.119769 -0.341945 0.078116 -0.953035 -0.013212 0.30164 
0.090337 0.787359 0.038072 0.970058 0.126215 0.202605 
0.56719 0.08396 0.036701 -0.85675 -0.495178 0.131507 
0.154074 -0.092006 0.106685 0.485229 0.002862 0.873919 
0.578262 0.060957 0.00293 -0.927738 -0.371742 0.02727 
-0.411777 0.255065 -0.012512 -0.72648 0.664208 0.169198 
0.089321 -0.845326 0.115044 -0.874964 0.457006 0.152345 
-0.02132 -0.2686 -0.085532 0.624586 -0.060697 -0.778354 
0.310405 0.439086 -0.118373 0.491035 0.639553 -0.591214 
0.193209 0.533006 -0.108614 0.239351 0.650956 -0.719675 
0.151691 0.566149 -0.01767 0.210904 0.813268 0.539008 
-0.06484 -0.818354 0.075233 -0.229253 0.897236 0.367636 
0.077242 0.194977 -0.120437 -0.029942 -0.249486 -0.966806 
0.165555 -0.48649 0.063826 0.384213 -0.166832 0.89863 
0.098948 -0.458955 0.033302 -0.68217 -0.077064 0.724842 
0.113822 -0.594479 0.033299 -0.229011 -0.157266 0.959236 
0.313857 0.364004 -0.034028 0.363767 -0.244914 0.882142 
0.015257 -0.069824 -0.106982 0.012963 -0.690587 -0.721606 
-0.087817 -0.818887 0.053415 -0.625074 0.73059 0.242482 
0.00978 -0.738307 -0.012615 0.751241 -0.203796 0.623121 
0.004664 -0.074564 -0.104805 0.329075 -0.629811 -0.697354 
0.177246 -0.382366 -0.065562 0.683901 0.221076 -0.689004 
0.179402 0.510223 0.023602 0.42238 0.444653 0.789215 
-0.1047 -0.631307 0.041121 -0.815145 -0.113736 0.55514 
0.187928 -0.18059 -0.064263 0.636926 0.018891 -0.770187 
0.026607 0.592352 -0.090333 -0.066726 0.591832 -0.803259 
0.104579 0.359977 0.096493 0.28645 0.09015 0.95176 
0.068246 -0.508681 -0.074039 -0.719832 -0.039932 -0.692651 
0.13162 -0.068067 -0.13062 0.379308 -0.273139 -0.882738 
0.024068 -0.236598 -0.030064 0.422184 -0.084907 -0.886368 
-0.358805 0.207981 -0.012873 0.527108 -0.844026 0.085757 
-0.235952 0.31601 -0.022345 0.72288 -0.665827 0.17743 
-0.032867 -0.856307 -0.006745 0.566151 -0.806195 -0.16599 
-0.053411 0.374818 0.100807 -0.444517 0.087075 0.891315 
-0.106795 0.52727 0.044555 -0.016804 0.577041 0.816269 
0.198654 0.385663 -0.039395 0.997155 -0.065056 0.022226 
-0.064458 -0.793162 0.045631 -0.347186 0.514298 0.76929 
0.061837 -0.220755 0.072457 -0.683039 -0.103929 0.722815 
0.062416 -0.654896 0.01274 -0.302206 0.296372 0.90443 
0.205754 -0.087578 0.050135 0.922175 -0.042962 0.378671 
0.096612 -0.832979 0.111802 -0.6608 0.728941 0.144789 
-0.142876 -0.048295 0.023306 -0.994468 0.044308 0.094928 
0.201133 0.126344 -0.002059 0.934048 -0.243754 -0.194788 
0.129939 -0.052821 0.11525 0.317169 -0.044783 0.946353 
-0.06644 -0.113552 -0.10335 -0.298063 -0.151734 -0.940507 
0.171462 -0.43409 -0.079167 0.649837 0.17413 -0.739226 
0.029269 -0.218456 0.037081 0.975547 -0.033587 0.216615 
0.180573 -0.197632 0.084195 0.574797 -0.107579 0.807876 
0.006948 -0.803589 -0.040907 0.879056 -0.326971 0.345008 
-0.315405 0.2971 -0.095592 -0.076086 -0.084678 -0.992276 
-0.562238 0.037852 0.008006 0.903763 -0.419808 -0.019179 
0.014385 0.113566 0.132699 -0.095767 0.281059 0.953927 
0.199257 -0.530225 -0.050527 0.945793 0.009206 -0.322851 
-0.162829 0.522231 -0.066722 -0.517775 0.594865 -0.614388 
0.164877 -0.825256 -0.049373 0.771939 -0.635576 -0.005896 
0.205059 -0.384266 -0.021318 0.987266 0.00061 -0.152758 
-0.040496 -0.862732 -0.090123 0.105726 -0.99239 0.045885 
0.124728 -0.008212 0.119187 0.344256 -0.20405 0.914942 
-0.178475 0.507247 -0.065036 -0.609865 0.476489 -0.632712 
0.142495 -0.793382 0.038238 0.570181 0.407781 0.71133 
0.22105 0.394589 -0.058974 -0.76019 -0.627513 0.148374 
-0.045696 -0.159549 0.122804 -0.055525 0.008415 0.998234 
-0.143636 -0.123111 0.029742 -0.993873 0.004277 0.107224 
0.082392 0.843602 0.009493 0.871628 0.475475 0.107559 
0.08931 -0.852968 0.032019 -0.894683 -0.418974 -0.12857 
-0.044118 0.139997 0.112156 -0.484085 0.014402 0.873757 
0.027102 0.102384 -0.138153 -0.162068 0.293896 -0.941585 
0.086997 -0.852255 -0.051859 -0.970962 -0.035157 0.191078 
-0.121639 -0.080637 -0.059081 -0.802573 -0.124531 -0.582857 
-0.038017 0.166083 -0.101439 -0.361449 -0.21607 -0.899546 
-0.002478 -0.225474 -0.072793 0.665453 -0.000618 -0.743298 
0.139469 -0.783629 0.038014 0.385247 0.134138 0.892016 
0.005678 0.438442 -0.127439 0.099146 0.000237 -0.994841 
0.163621 -0.351647 -0.068138 0.65411 0.079029 -0.75218 
0.075934 0.74369 -0.096836 0.643923 -0.325801 -0.690831 
-0.007303 -0.5615 -0.077345 0.753515 -0.058442 -0.654251 
0.045896 0.555733 0.026532 0.122467 0.396109 0.904943 
-0.092431 -0.610307 0.052405 -0.125964 -0.233167 0.954333 
0.571014 0.104067 0.059129 -0.626684 0.031519 0.774014 
-0.065147 -0.713675 0.012157 0.003024 -0.075258 0.994497 
0.155362 0.062055 -0.107164 0.709642 0.193083 -0.677292 
-0.051699 -0.171923 0.1226 -0.077296 -0.012228 0.995086 
-0.079396 0.56271 -0.078869 -0.461805 0.65501 -0.597489 
0.109437 -0.229247 -0.09997 -0.184717 -0.064355 -0.980533 
0.205943 -0.344097 0.001183 0.998926 -0.012502 0.021317 
0.159918 -0.491454 -0.097979 0.499508 0.038786 -0.862848 
0.605658 0.100892 0.039835 0.835292 0.547533 0.003513 
0.492951 0.193873 0.000659 0.015518 0.813877 0.453642 
0.018722 -0.765951 -0.061098 0.996374 -0.034388 -0.064585 
-0.026847 0.313902 -0.13 -0.101516 0.064138 -0.992068 
-0.040908 0.485261 0.075177 -0.164154 0.439679 0.882796 
0.491226 0.236488 -0.067862 0.66565 0.735322 -0.117733 
-0.03922 0.172164 0.112573 -0.53837 0.108162 0.835682 
-0.003136 -0.788319 -0.01209 0.803648 -0.080407 0.583362 
-0.002843 0.859877 -0.003247 -0.586706 0.80381 0.038575 
-0.234344 0.450698 -0.057117 -0.661194 0.593319 -0.458196 
0.189003 0.050276 -0.063189 0.880118 0.152043 -0.448912 
-0.140849 -0.121022 -0.014316 -0.935595 -0.083222 -0.339784 
-0.058694 0.499903 0.064525 -0.152517 0.411383 0.89835 
0.002706 0.662848 0.054562 -0.500593 -0.834199 0.180598 
0.197639 -0.273177 -0.035757 0.880086 -0.155662 -0.446375 
0.33378 0.427901 -0.076754 0.816548 0.54846 0.167668 
-0.120231 -0.441478 -0.051958 -0.75324 0.24799 -0.608444 
-0.040763 0.001167 0.136126 -0.268685 0.398462 0.874251 
0.349493 0.276253 -0.093924 -0.637555 -0.746351 -0.189957 
-0.012342 0.768482 0.061094 -0.842162 -0.083466 0.526843 
0.13327 -0.399716 -0.098541 0.397474 0.096238 -0.91193 
0.097089 0.599705 -0.028634 0.856686 0.405578 0.295338 
0.07463 -0.247855 -0.084498 -0.590279 -0.000887 -0.804841 
0.189105 -0.514308 -0.069759 0.832883 0.011772 -0.553253 
0.005368 -0.388401 -0.049048 0.659932 0.098292 -0.744376 
-0.085123 -0.416304 -0.07434 -0.504166 0.185993 -0.837901 
-0.049729 -0.003236 -0.133956 -0.29953 -0.089613 -0.949069 
0.164339 -0.839745 0.086054 0.787739 0.615723 0.01869 
-0.045937 -0.108905 -0.106778 0.054779 -0.226238 -0.972003 
0.008699 0.316101 -0.127835 0.108848 0.045224 -0.993028 
0.277606 0.499221 -0.068702 0.713788 0.695291 -0.076677 
0.131555 -0.000334 0.120349 0.380716 -0.226666 0.89613 
-0.216512 0.453054 -0.072338 -0.485253 0.567269 -0.664728 
0.052958 -0.695958 -0.017025 -0.977883 -0.103269 -0.165197 
-0.031247 -0.857232 0.108726 0.833704 -0.34866 0.351676 
0.151368 0.578958 -0.053284 0.585379 0.795535 0.031991 
-0.132533 0.005317 0.06617 -0.877247 -0.059742 0.444904 
-0.394703 0.184223 0.004926 0.632647 -0.747186 0.179656 
0.147893 -0.049502 0.109183 0.497474 -0.029065 0.866115 
-0.004682 0.822382 -0.095176 -0.380154 0.619755 -0.686283 
0.058773 0.217687 -0.126242 -0.209013 -0.302174 -0.929202 
-0.476333 0.131786 0.057278 0.717395 -0.537134 0.440677 
-0.099909 -0.511769 0.056262 -0.860977 -0.131516 0.48776 
0.006024 -0.790842 -0.029044 0.829451 -0.292469 0.47098 
-0.024797 0.065001 0.127749 -0.284451 0.149038 0.945595 
0.165061 0.539296 0.01023 0.19597 0.659343 0.722419 
-0.036197 0.470697 -0.130873 0.028584 0.114576 -0.992761 
-0.006676 -0.035484 -0.133849 -0.026209 -0.330292 -0.943115 
0.209265 0.416639 -0.020294 0.39193 -0.851212 0.186373 
0.104331 0.771608 -0.002998 0.984245 -0.04351 0.155444 
0.089396 0.69038 -0.017612 0.988294 -0.140545 -0.054627 
-0.090641 -0.682189 -0.103428 -0.583121 0.036335 -0.772726 
0.182344 0.397868 -0.118032 0.300605 -0.510675 -0.804057 
-0.09714 -0.412323 -0.065384 -0.55866 0.107106 -0.819449 
0.175921 -0.733056 -0.049397 0.833521 -0.185153 -0.52027 
-0.093492 -0.489136 -0.087216 -0.563617 0.13148 -0.814191 
-0.054816 -0.537109 0.055596 0.373734 -0.17273 0.911215 
-0.00209 0.676085 0.065981 -0.85298 -0.221573 0.455324 
0.170305 0.300816 0.047881 0.73295 -0.016847 0.678634 
0.000525 0.344209 -0.127945 0.11188 0.004725 -0.993639 
0.085968 -0.111579 0.096194 -0.572177 -0.146182 0.806684 
-0.446548 0.149326 0.025745 0.759204 -0.615045 0.192322 
0.20132 0.400916 -0.049823 0.928526 -0.341303 0.020552 
0.214415 -0.089255 0.002811 0.998534 0.017553 -0.040218 
-0.124519 0.501187 0.057599 -0.060985 0.309807 0.947231 
0.596196 0.070867 -0.000477 0.913261 -0.115104 -0.364047 
-0.223745 0.356362 -0.090785 0.323319 -0.452533 -0.82853 
-0.060998 -0.224518 0.11507 -0.06139 -0.160877 0.983624 
0.181691 -0.270202 -0.058344 0.680237 -0.231071 -0.693947 
0.173292 -0.141591 0.093444 0.597488 -0.080458 0.797319 
0.20275 -0.558414 -0.036902 0.95674 -0.078986 -0.278978 
0.282144 0.361156 -0.128669 -0.38413 -0.614258 -0.685962 
0.201218 -0.160406 0.046349 0.942477 -0.160305 0.289729 
0.042926 0.663944 0.091283 0.211344 -0.655477 0.710136 
-0.207571 0.492553 -0.043156 -0.711676 0.559365 -0.421825 
0.120285 0.525666 -0.129524 0.06936 0.39014 -0.917614 
0.182826 0.321003 0.016626 0.909254 -0.099772 0.403301 
-0.11807 -0.795977 -0.036118 -0.887824 -0.422663 0.130502 
-0.547555 0.085274 0.079753 -0.88084 0.401699 0.20987 
0.105074 0.160936 0.111743 0.488668 0.045619 0.865853 
0.179312 0.073669 -0.071885 0.817567 0.193455 -0.542072 
0.319249 0.41302 -0.13552 0.330826 0.513845 -0.789519 
0.190291 0.021694 0.0743 0.845106 0.14403 0.513353 
-0.11364 -0.02496 -0.081817 -0.831215 -0.055447 -0.553014 
-0.073945 -0.800159 -0.137148 -0.64495 -0.133085 -0.744266 
0.016402 -0.513443 0.014157 0.782296 -0.140618 0.602728 
0.161004 -0.447073 -0.090652 0.570241 0.204504 -0.795182 
-0.222035 0.430814 0.03085 -0.626118 0.185687 0.755211 
0.277034 0.338939 -0.089082 -0.62714 -0.767013 -0.119777 
0.464899 0.251175 -0.089597 0.782667 -0.062195 -0.584043 
-0.001697 0.019745 -0.148719 -0.183692 -0.431189 -0.876213 
-0.213658 0.361385 -0.089529 0.345168 -0.493161 -0.795162 
