-0.024902 -0.847335 -0.057444 0.686267 -0.721167 0.059357
0.100209 0.71751 -0.01144 0.945671 -0.286041 -0.060172
-0.065948 0.089181 0.104235 -0.518003 0.040052 0.846336
0.257926 0.506365 -0.093816 0.558381 0.62988 -0.539796
0.030294 0.598863 0.026288 -0.033488 -0.018285 0.996071
-0.120457 -0.664295 -0.007087 -0.977033 -0.156245 0.144268
0.187717 0.006682 -0.070075 0.83845 0.135101 -0.526484
-0.025618 0.479729 0.080449 -0.101166 0.422894 0.897443
-0.120206 0.329635 -0.051395 -0.997571 -0.044465 -0.047076
0.183015 -0.325328 0.069179 0.76348 -0.057653 0.642183
0.075666 -0.70655 -0.055844 -0.867971 -0.158385 -0.468702
0.139464 -0.246793 0.08513 0.115812 -0.134982 0.983484
-0.124657 -0.048942 -0.060243 -0.85472 -0.101498 -0.508838
-0.024702 -0.22809 -0.087603 0.390205 0.014703 -0.918849
0.340804 0.414357 -0.119821 0.613376 0.579475 -0.526382
-0.118676 -0.694428 -0.004879 -0.90304 -0.313322 0.25299
0.188633 -0.641698 -0.062145 0.741131 -0.158453 -0.651924
-0.031945 0.261399 -0.129 -0.153333 -0.049461 -0.985589
-0.014804 -0.444795 -0.07444 0.733745 0.054201 -0.677183
-0.079235 0.404237 -0.119485 -0.303442 -0.12453 -0.944193
0.052181 -0.407976 0.008017 -0.713901 -0.300062 0.630697
0.035551 -0.171245 -0.049016 -0.894262 -0.16234 -0.415569
0.018374 -0.405393 -0.031504 0.941499 -0.027448 -0.331894
0.108869 -0.203655 -0.103005 -0.143436 -0.176801 -0.973073
-0.118232 0.302349 -0.031529 -0.965139 -0.250521 0.011001
-0.270246 0.381703 -0.089808 -0.471905 0.344514 -0.80926
-0.113769 0.086876 -0.061726 -0.870107 0.165548 -0.464074
-0.070808 0.031117 -0.130742 -0.551517 0.212955 -0.804576
0.034225 -0.286412 0.0027 -0.29001 -0.486708 0.485328
0.071433 -0.047664 0.126795 0.046685 -0.404309 0.912633
-0.129282 0.124507 0.001986 -0.989183 0.141867 0.019313
0.109494 -0.84387 0.16885 -0.811388 0.1877 0.553279
0.045374 -0.482859 -0.020358 -0.950258 -0.011704 0.27881
-0.067374 -0.410065 0.089063 0.132075 -0.169598 0.976344
-0.105607 -0.41087 -0.058029 -0.688144 0.051805 -0.719662
0.066277 0.303911 -0.138177 -0.297875 -0.06834 -0.95118
-0.213289 0.493061 -0.025661 -0.753491 0.647363 -0.09236
-0.121567 0.433528 -0.108638 -0.49249 -0.209586 -0.844203
-0.130375 -0.190188 0.074637 -0.893998 -0.033296 0.44651
-0.303469 0.361698 -0.028528 -0.691203 0.690869 0.199576
0.162291 0.465089 -0.140054 0.232594 0.089494 -0.967512
-0.075315 -0.732277 0.013159 -0.42842 0.390836 0.812598
-0.057343 0.31845 0.094621 -0.490943 -0.055695 0.866108
0.210113 -0.097863 0.037393 0.93894 -0.021898 0.343172
-0.053001 0.27692 0.096762 -0.582988 0.04652 0.810209
-0.082586 -0.482056 0.0791 0.137767 -0.118778 0.95815
-0.297708 0.252438 -0.015671 0.697483 -0.661546 0.275237
-0.013309 -0.440399 0.064255 0.647242 -0.173638 0.740768
0.027041 -0.638204 -0.037971 0.987961 0.015145 -0.145234
0.09563 -0.675094 -0.083068 -0.614437 0.035806 -0.787958
0.084483 -0.826193 -0.004146 -0.480199 -0.870062 0.049371
0.180678 0.378304 -0.10489 0.510188 -0.4784 -0.713416
-0.1294 0.033431 -0.044321 -0.936586 0.117408 -0.329216
-0.007361 0.363752 0.10944 -0.269534 0.290938 0.917673
-0.008761 -0.279417 -0.073546 0.688397 -0.117905 -0.71521
0.139977 0.002379 0.116165 0.456454 -0.147627 0.865698
0.018197 0.669141 -0.064439 -0.393321 -0.295728 -0.861571
0.156314 -0.831252 0.097896 0.631766 0.763626 0.126167
0.069822 0.37977 0.102221 0.240963 0.220252 0.944126
0.333127 0.43073 -0.096482 0.779624 0.612678 -0.093731
-0.115714 -0.312853 0.090244 -0.791446 -0.058789 0.605551
0.023905 0.448481 -0.126877 -0.049337 0.016444 -0.998359
0.112008 0.478108 0.068638 0.279862 0.490569 0.822586
-0.084081 -0.862879 0.000333 -0.063509 -0.997158 -0.035316
-0.407592 0.256614 -0.061585 -0.8114 0.441188 -0.371047
-0.159763 0.383051 -0.058266 0.709609 -0.655371 -0.257743
0.261714 0.515136 -0.044062 0.73 0.672294 0.097955
-0.26098 0.285336 -0.030665 0.70635 -0.673087 0.214892
0.076102 0.211598 -0.127393 -0.083155 -0.369389 -0.924706
-0.118402 -0.534225 0.023484 -0.855093 -0.098735 0.508778
0.085916 0.320307 -0.143799 -0.036556 -0.068656 -0.996952
0.184252 0.020218 0.083372 0.758351 0.152921 0.630328
0.164779 0.349399 -0.102681 0.672061 -0.31149 -0.671069
-0.00196 -0.607409 -0.069401 0.696218 0.023893 -0.717303
-0.028306 0.714667 -0.023673 -0.901554 -0.398508 -0.139185
0.100624 0.792354 0.006095 0.916076 0.193807 0.346153
-0.123166 -0.446902 0.049556 -0.859418 -0.187529 0.474047
-0.068045 -0.534963 -0.101785 -0.129226 0.070622 -0.986632
0.154989 -0.358174 -0.076249 0.628339 0.122615 -0.767734
0.078472 -0.64941 -0.068053 -0.713479 -0.090042 -0.69479
0.205421 -0.271778 0.004228 0.999941 0.00327 -0.004064
0.028656 -0.005804 -0.146423 -0.170153 -0.21343 -0.958532
0.344016 0.382968 -0.128857 0.817646 0.078695 -0.564368
0.094829 0.105525 -0.136179 0.246813 0.387369 -0.886371
-0.51668 0.079498 0.046138 0.620846 -0.763881 -0.166252
0.141334 -0.236717 0.086764 0.110181 -0.223288 0.968287
0.254636 0.360757 -0.100865 -0.640014 -0.741684 -0.19378
0.141306 -0.089048 0.112314 0.259136 -0.028205 0.9633
0.182826 0.321003 0.016626 0.909254 -0.099772 0.403301
-0.487866 0.132463 -0.015023 0.259961 -0.845954 -0.463634
0.117438 0.356864 -0.139861 0.385851 -0.142796 -0.91123
0.089526 -0.827099 -0.092158 -0.924646 -0.291744 -0.209645
0.177819 -0.414674 -0.069616 0.684563 0.069289 -0.725181
-0.328843 0.280342 -0.092012 -0.081095 -0.231956 -0.968912
0.017153 -0.264617 -0.04348 0.870896 -0.085559 -0.47815
0.547523 0.177405 -0.007372 0.859152 0.51015 -0.0121
-0.010157 0.780593 -0.108963 -0.708102 0.010969 -0.704998
-0.314546 0.336761 -0.080706 -0.499692 0.605031 -0.617952
0.063858 0.324825 0.113234 0.240408 0.127643 0.961699
-0.084589 -0.085315 0.115167 -0.433935 0.000786 0.900535
0.126145 -0.720936 0.018664 0.389296 -0.036195 0.915069
-0.105871 0.280091 0.044266 -0.98304 -0.004485 0.180219
-0.284032 0.262885 -0.066188 0.628554 -0.660471 -0.379813
-0.263786 0.355413 -0.097188 -0.053186 -0.008666 -0.996577
0.143806 0.060316 0.100955 0.698943 0.213156 0.679376
-0.063965 0.507292 0.059871 -0.14437 0.444227 0.884133
-0.049043 0.589577 -0.055948 -0.260383 0.948857 -0.093199
0.099779 0.300883 0.104593 0.262474 0.087286 0.960786
-0.036932 -0.661947 -0.099745 0.757951 0.159794 -0.595509
0.146067 -0.678275 0.02726 0.173739 -0.181054 0.967414
-0.018677 -0.257546 -0.08422 0.591098 -0.026676 -0.806018
-0.084916 -0.47063 -0.089791 -0.451397 0.109457 -0.885011
0.044299 -0.383226 -0.040963 -0.942942 -0.002223 -0.326417
-0.140166 -0.178825 0.016608 -0.957697 -0.282857 -0.031559
0.205717 -0.316069 0.011375 0.996141 -0.004046 0.070134
-0.071128 0.346897 -0.115453 -0.488262 -0.081048 -0.868826
0.107886 -0.494709 0.039167 -0.590316 -0.066246 0.804272
-0.000361 0.185707 -0.11751 0.047034 -0.146393 -0.987505
0.139923 -0.441573 0.067052 -0.353747 -0.143285 0.922519
0.075696 0.29848 0.113237 0.367022 0.142473 0.918512
-0.085712 0.347093 0.074555 -0.786352 -0.015876 0.617012
0.508441 0.212568 -0.016529 0.546597 0.695539 0.464145
0.157227 0.075062 0.08807 0.225264 0.296358 0.925288
0.029904 -0.164345 0.049746 0.898319 -0.269722 0.341762
0.042169 0.348383 -0.13001 -0.339128 -0.067957 -0.932919
-0.127941 -0.613609 -0.065991 -0.963014 0.007045 -0.242443
0.018514 -0.439599 -0.030185 0.930318 0.029552 -0.36411
0.032183 0.011887 -0.151727 -0.171225 -0.31551 -0.931058
0.040584 0.501348 0.066745 0.088592 0.485877 0.869458
-0.107666 0.307551 -0.078614 -0.810751 -0.118455 -0.572849
-0.102196 -0.501056 0.05617 -0.798362 -0.249586 0.547797
-0.001019 -0.384918 0.068582 0.725387 -0.157847 0.669519
-0.141696 0.399792 -0.00697 0.528588 -0.819774 0.130241
-0.435549 0.204261 0.014328 -0.275894 0.357578 0.890804
0.020425 -0.030537 0.128633 0.094951 -0.17431 0.956621
0.425579 0.307338 -0.085465 0.587616 0.808551 0.016499
0.343997 0.341223 -0.136577 0.074393 -0.025502 -0.994113
-0.007848 -0.831758 -0.073798 0.043882 -0.998669 -0.01043
-0.12146 -0.395491 0.066925 -0.957306 -0.030051 0.275227
0.171697 -0.304598 -0.060214 0.702295 -0.059115 -0.709392
0.000567 -0.13285 -0.073211 0.793951 -0.172734 -0.582893
-0.034435 0.792715 -0.070371 -0.97973 0.013242 -0.199028
-0.016562 -0.227486 0.108393 0.427533 -0.203938 0.880644
-0.103338 -0.337638 0.100689 -0.672876 -0.081123 0.735111
-0.112283 0.255652 -0.007752 -0.998966 0.037016 -0.002027
-0.127755 -0.481867 -0.050661 -0.839927 0.07326 -0.537341
0.336495 0.320553 -0.131895 -0.221425 -0.352329 -0.908826
0.121424 -0.567145 -0.105241 -0.18623 -0.134569 -0.970546
-0.299392 0.339612 -0.088807 -0.408066 0.438908 -0.798074
0.042087 -0.239746 -0.04324 -0.895917 -0.06834 -0.438121
-0.2921 0.29227 -0.092593 0.233037 -0.376246 -0.895982
0.130978 0.543173 0.016102 0.238688 0.676731 0.695567
-0.036508 0.733564 -0.033976 -0.865172 -0.361906 -0.328082
0.55117 0.158665 -0.017106 0.727052 0.111917 -0.66724
-0.002601 0.38482 -0.128893 0.057045 -0.011676 -0.99825
0.191276 -0.626015 0.01156 0.821984 -0.078061 0.554301
0.297376 0.394933 -0.017866 0.401847 -0.032808 0.910974
-0.011759 0.649873 -0.018807 -0.999301 -0.000299 -0.021478
-0.023322 -0.415343 -0.07702 0.498309 0.225409 -0.836931
-0.118509 0.36664 0.026682 -0.939642 -0.253109 0.229251
0.616997 0.086653 0.015976 0.751804 0.655867 -0.067814
-0.016297 -0.054832 -0.123542 0.0151 -0.452758 -0.891345
0.008349 0.403768 -0.128231 0.032793 0.011353 -0.999364
0.035212 0.230806 -0.125855 -0.045067 -0.048385 -0.99548
-0.102276 -0.454508 0.078973 -0.597176 -0.142122 0.766933
0.070972 -0.441215 -0.075526 -0.710521 0.023563 -0.703208
0.167507 -0.820752 -0.02035 0.810535 -0.583139 0.048311
0.130011 0.044345 0.113382 0.075182 0.275057 0.95092
0.184901 0.370655 0.026942 0.894746 -0.168138 0.412775
0.119171 -0.556656 0.041755 -0.31015 -0.089307 0.94573
-0.194203 0.349638 -0.05492 0.631192 -0.752967 -0.183213
-0.106551 -0.851081 0.103574 -0.966179 0.053399 0.215766
-0.143636 -0.123111 0.029742 -0.993873 0.004277 0.107224
0.045419 -0.580082 -0.03061 -0.992881 -0.048395 -0.051889
0.104728 0.776588 -0.047779 0.992047 -0.017158 -0.112453
0.001546 0.596875 0.013701 -0.644901 0.119152 0.751706
0.097618 0.813452 -0.033054 0.952213 0.299886 -0.01947
-0.287015 0.399963 -0.037533 -0.626246 0.770132 0.117701
0.089465 0.836223 -0.014424 0.933512 0.349941 0.0086
-0.120728 0.364376 -0.074512 -0.957571 -0.159835 -0.227804
0.085191 -0.160811 -0.105776 -0.320123 -0.248377 -0.913699
0.053166 -0.231975 -0.063466 -0.78051 -0.153596 -0.605472
0.058038 0.540791 0.039612 -0.040367 0.810169 0.580716
-0.033666 0.148216 0.117221 -0.474642 0.016062 0.879983
-0.056651 -0.122274 0.123605 -0.207317 0.038746 0.976766
0.305706 0.429802 -0.130048 0.387884 0.553676 -0.735793
-0.130479 -0.082697 0.070651 -0.84361 0.0244 0.536341
0.086142 -0.859786 -0.074087 -0.853626 -0.470252 -0.077451
0.387677 0.342053 -0.090754 0.698286 0.709663 0.059406
0.324274 0.345469 -0.038317 0.143502 -0.106482 0.975905
0.185822 -0.736016 -0.004812 0.091381 0.494522 0.850316
0.03356 0.514888 0.059719 0.091477 0.502284 0.859369
-0.043669 0.307083 -0.127085 -0.312825 0.014954 -0.945659
0.100912 0.460548 0.079678 0.191777 0.375518 0.905785
0.201389 -0.335538 -0.022099 0.88983 0.109973 -0.441694
-0.103305 -0.6761 0.02831 -0.473265 -0.357952 0.789938
-0.126429 -0.344504 0.035812 -0.993995 0.033366 0.103105
-0.056002 -0.103367 -0.108147 -0.154804 -0.20449 -0.965567
-0.120292 -0.187436 0.091835 -0.8072 0.004237 0.590096
0.090968 0.826568 -0.04578 0.898542 0.414023 -0.080022
-0.140006 0.471054 0.061091 -0.176571 -0.009524 0.982392
0.126513 0.274059 -0.126022 0.619917 -0.077155 -0.780635
0.161887 -0.632877 0.026017 0.263753 0.154186 0.947858
0.163017 -0.761604 -0.076031 0.809099 0.396373 -0.426952
-0.06054 -0.455571 0.077225 0.284513 -0.276079 0.917219
0.047929 0.29513 -0.130953 -0.336124 -0.019107 -0.941252
0.075399 -0.205489 0.084698 -0.530383 -0.116918 0.838414
-0.011211 0.098227 -0.132931 -0.206888 0.394502 -0.888548
-0.097641 -0.057425 0.107127 -0.571501 0.020925 0.81902
0.038988 0.679549 -0.072017 0.084052 -0.439263 -0.894326
0.187199 0.339493 0.011741 0.915115 -0.088443 0.39215
-0.085972 0.539911 0.035171 -0.026257 0.678238 0.733913
0.407173 0.222213 -0.075395 -0.613582 -0.784832 0.081526
-0.028271 0.600692 -0.048659 -0.692152 0.714914 -0.054774
0.084618 -0.383664 0.05172 -0.561909 -0.239954 0.789837
0.192373 -0.503541 -0.063563 0.852276 0.013753 -0.522716
0.083182 0.739497 0.060974 0.6862 0.108749 0.716474
0.192171 -0.356828 0.047556 0.92286 -0.054619 0.380726
0.192945 0.348961 -0.00962 0.984332 -0.084698 0.152142
0.460508 0.275279 -0.073247 0.741908 0.667596 -0.022682
0.039315 -0.203617 0.023654 -0.975866 -0.098285 0.194846
0.175177 -0.859614 0.077893 0.912912 -0.360451 -0.006477
-0.093486 -0.030841 -0.106348 -0.679861 -0.116949 -0.723896
-0.005811 -0.68114 0.0212 0.732199 -0.11926 0.669405
0.132498 0.210504 -0.102414 0.619795 -0.219381 -0.753346
-0.029979 0.711872 0.009059 -0.937331 -0.323001 0.037727
-0.041335 -0.030408 -0.132299 -0.169743 -0.214441 -0.961055
0.035697 -0.304275 -0.02608 -0.975468 -0.049378 -0.205723
-0.255793 0.386459 0.0178 -0.378741 0.138031 0.911422
-0.485935 0.109418 0.049127 0.877693 -0.432768 0.184335
0.181891 -0.656375 -0.064055 0.635271 -0.266604 -0.724386
0.627479 0.06482 0.080868 0.861041 0.490175 0.114901
-0.045602 -0.478486 -0.095677 0.173257 0.10765 -0.977838
-0.067215 0.178341 -0.090047 -0.501508 -0.072932 -0.859798
0.156838 0.145689 0.073989 0.701217 0.065366 0.70978
0.032493 -0.140125 0.069304 0.810922 -0.390334 0.434915
-0.060841 0.269242 -0.117465 -0.429928 -0.102982 -0.89479
-0.23038 0.405893 0.028113 -0.424654 -0.03697 0.898595
0.197004 -0.554975 0.006941 0.945233 0.011221 0.326023
-0.140674 -0.476994 -0.015766 -0.980594 0.085677 -0.148261
-0.095877 -0.858565 -0.08773 -0.811514 -0.530325 -0.129523
-0.376671 0.297539 -0.055571 -0.702364 0.70059 -0.118213
0.044603 0.327212 0.117404 0.190565 0.234199 0.952512
0.107513 -0.213166 -0.101038 -0.199472 -0.113371 -0.970912
0.160171 -0.431693 -0.08722 0.540358 0.207879 -0.813779
-0.380419 0.292413 -0.025379 -0.678829 0.708399 0.18483
-0.361085 0.205887 -0.022175 0.558156 -0.825074 0.009888
-0.108954 -0.63554 0.033472 -0.837982 -0.056941 0.542433
0.048634 0.282041 0.122425 0.125572 0.113737 0.985424
-0.109097 -0.654386 0.030527 -0.770796 -0.144705 0.617755
-0.111826 -0.803104 -0.079404 -0.951043 -0.203235 -0.221153
-0.090666 0.445257 0.07208 -0.615293 0.118817 0.778917
-0.111946 0.280002 0.00361 -0.998009 -0.030885 0.04946
0.027984 -0.246325 -0.030077 0.141931 -0.090839 -0.902832
-0.268802 0.322918 -0.093921 0.347761 -0.209539 -0.913068
-0.277353 0.345596 0.008911 -0.312627 -0.044153 0.941634
-0.103716 0.41019 -0.111722 -0.438929 -0.213688 -0.866658
-0.094007 -0.385011 0.096067 -0.07248 -0.183869 0.979104
0.191559 -0.577906 0.018792 0.818537 -0.087176 0.564907
-0.068608 -0.364052 -0.084017 -0.310285 -0.048626 -0.948624
-0.127095 -0.330183 0.031238 -0.992433 -0.014556 0.121881
-0.121627 -0.236033 -0.028017 -0.879772 -0.024415 -0.47433
0.070086 0.861587 -0.003399 0.483237 0.870245 0.082333
0.206414 0.01071 0.034718 0.993559 0.00218 0.105743
-0.026619 0.183204 -0.111129 -0.316026 -0.251455 -0.914476
-0.053752 0.194779 0.102424 -0.485444 0.012861 0.873993
-0.428351 0.227558 -0.050039 -0.662865 0.2252 -0.708142
-0.038391 -0.131202 -0.10243 0.241686 -0.197593 -0.948951
0.188137 -0.484457 0.03923 0.929006 -0.002752 0.369289
0.309951 0.370415 -0.141259 -0.044874 -0.246393 -0.967444
0.060578 0.281256 0.120739 0.18602 0.092786 0.977927
-0.087602 0.121069 0.081595 -0.643786 0.109913 0.751629
0.133436 0.311578 0.086523 0.67338 0.058596 0.733261
0.167608 -0.083156 -0.098613 0.771027 -0.107019 -0.627647
-0.107392 -0.375969 0.09198 -0.673519 -0.074979 0.734424
-0.080845 -0.593684 -0.102568 -0.139302 0.026622 -0.989331
-0.028648 0.585835 -0.084552 -0.294243 0.741813 -0.601149
0.055062 0.464291 -0.133179 -0.434761 0.148945 -0.887498
0.171179 -0.460121 0.064704 0.400066 -0.109466 0.908078
-0.056741 -0.020155 0.127256 -0.286002 -0.171575 0.916807
-0.064667 -0.170498 -0.095343 -0.215804 -0.161294 -0.959865
-0.040496 -0.862732 -0.090123 0.105726 -0.99239 0.045885
-0.127454 -0.399284 -0.029937 -0.907286 0.018427 -0.419017
-0.128339 -0.65064 -0.051265 -0.999285 -0.017696 0.024487
-0.067408 0.116206 -0.104215 -0.515309 0.274933 -0.81052
0.555011 0.103424 0.03623 -0.844597 -0.438493 0.301747
0.157525 -0.207873 0.090847 0.162598 -0.172518 0.97049
0.007349 -0.682101 0.004571 0.781881 -0.286909 0.552861
-0.256815 0.347073 -0.096135 0.146999 -0.172193 -0.972188
0.198473 -0.059498 -0.049262 0.933454 -0.014264 -0.355054
-0.059676 -0.295389 -0.09026 -0.207885 -0.087226 -0.971926
-0.126745 -0.679842 -0.070022 -0.961536 -0.036959 -0.270346
-0.122792 -0.750824 -0.019216 -0.955173 -0.075335 0.272612
-0.144345 -0.100697 0.017306 -0.999563 0.007488 0.022245
0.058436 -0.166602 -0.087053 -0.64761 -0.186447 -0.738282
0.087069 -0.737973 -0.070106 -0.860457 -0.073335 -0.503417
0.083839 -0.851193 0.094127 -0.946396 0.313462 0.021791
-0.121734 -0.342906 0.068761 -0.981334 0.028327 0.189237
-0.03922 0.172164 0.112573 -0.53837 0.108162 0.835682
-0.090748 -0.533439 -0.094721 -0.458579 0.095984 -0.880171
0.176168 -0.286881 0.074498 0.334592 -0.046355 0.938288
-0.21076 0.477578 -0.054526 -0.64909 0.536086 -0.539514
-0.096246 -0.353732 0.101656 -0.174329 -0.141959 0.974149
-0.113841 -0.440464 -0.059221 -0.725615 0.249435 -0.640408
0.521904 0.204466 -0.00655 0.062203 0.944966 0.320548
-0.050002 -0.722803 -0.120963 0.310282 0.15488 -0.932358
-0.100357 -0.22903 0.107965 -0.406804 -0.046097 0.908763
-0.089595 -0.44823 0.082257 -0.075057 -0.140071 0.985289
-0.020633 -0.360118 0.087088 0.415707 -0.15045 0.894223
0.020416 -0.712162 -0.063151 0.924934 0.008383 -0.377135
0.086672 0.687756 0.025825 0.877463 -0.476073 0.033148
0.022662 -0.172986 0.068494 0.931924 -0.154456 0.32597
-0.412682 0.1903 -0.055974 0.072527 -0.337871 -0.932566
-0.052068 -0.573677 -0.102562 0.195918 -0.006592 -0.978127
-0.252073 0.430052 -0.058421 -0.674184 0.64523 -0.356557
-0.103457 -0.861329 0.075195 -0.535954 -0.816237 0.015169
-0.004846 0.741597 -0.101968 -0.524842 -0.415056 -0.74239
-0.120845 0.348125 -0.045268 -0.997721 -0.061232 0.000178
0.20194 0.026968 0.050087 0.924962 0.107655 0.363254
0.11191 0.370984 0.092677 0.396441 0.089743 0.912557
-0.034825 0.78007 -0.068374 -0.983458 0.010836 -0.178553
0.345603 0.407528 -0.070562 0.823294 0.397132 0.3958
0.108568 -0.475489 -0.104284 -0.282335 0.043862 -0.957412
0.151221 0.178674 0.077893 0.722589 0.033575 0.690458
0.172087 0.556142 -0.011277 0.209356 0.781345 0.586935
0.010762 -0.486389 0.027206 0.775169 -0.155125 0.612143
0.065975 0.616799 0.015919 0.621401 -0.09259 0.777748
-0.11222 -0.844829 0.028655 -0.932421 0.275206 -0.01899
-0.075204 0.547838 0.027728 -0.068891 0.739802 0.668673
0.072131 0.124426 0.127688 0.274958 0.039644 0.956847
0.07853 0.201073 0.12124 0.372104 0.045142 0.927039
-0.01069 0.333876 0.112333 -0.171698 0.086353 0.977631
0.129422 0.366375 -0.135972 0.457646 -0.16131 -0.872057
0.053022 -0.425162 0.0013 -0.700541 -0.22941 0.672927
0.120046 -0.795878 -0.117032 -0.08803 0.512664 -0.848568
-0.011237 0.710847 0.062743 -0.704291 -0.109623 0.701168
0.447838 0.201347 -0.086877 0.679757 -0.560856 -0.289536
0.181365 0.127804 0.050823 0.816074 0.112805 0.561733
0.200877 0.057851 -0.023927 0.977776 0.091795 -0.187096
0.020536 0.852637 0.047703 -0.221272 0.687981 0.687037
0.2062 -0.024958 -0.025566 0.972042 0.023135 -0.231221
0.130449 0.37303 0.085361 0.479244 0.052829 0.875832
0.185827 -0.110756 0.081934 0.727381 0.022698 0.685851
0.081086 0.512381 -0.132661 -0.304529 0.32162 -0.895655
0.168734 -0.064643 -0.100046 0.780216 -0.08055 -0.62028
0.181211 0.443528 0.042562 0.499643 0.121747 0.856859
-0.537988 0.079103 0.021506 0.622116 -0.516911 -0.584882
0.102587 0.327657 0.100473 0.371165 0.12708 0.919635
-0.012458 -0.081784 -0.108855 0.296472 -0.48989 -0.81824
-0.117813 -0.791409 -0.025025 -0.922465 -0.298547 0.213752
0.174925 0.062403 -0.082882 0.818839 0.197528 -0.538341
0.553862 0.129343 0.046135 -0.569592 -0.024543 0.809701
0.087371 0.082086 -0.146944 0.230136 0.320746 -0.916935
0.519709 0.156398 0.020481 -0.491706 -0.372153 0.760029
-0.251374 0.377532 0.019359 -0.13665 -0.007563 0.986581
0.194576 -0.186031 0.062696 0.950465 -0.085166 0.296536
0.039256 0.04546 -0.154508 -0.16153 0.290475 -0.942169
-0.129362 -0.284547 0.012399 -0.995761 -0.086597 -0.015967
-0.066654 -0.861407 -0.046922 0.013565 -0.999776 0.007666
0.012744 -0.293434 -0.045213 0.79688 -0.092364 -0.595729
0.000196 -0.101197 0.121289 0.363608 -0.165344 0.916658
-0.058954 -0.41427 -0.084016 -0.142444 0.22402 -0.960502
0.072973 -0.332676 0.062445 -0.515827 -0.25148 0.818105
-0.127268 0.398053 -0.07808 -0.971743 -0.152906 -0.179376
0.088059 -0.328627 -0.094929 -0.445621 -0.004631 -0.893594
-0.216751 0.450888 0.02883 -0.666745 0.264359 0.695781
-0.113019 0.245511 0.007692 -0.981575 0.171799 0.025824
-0.100213 -0.180639 -0.067952 -0.737433 -0.062335 -0.671839
-0.036463 -0.859062 -0.068718 0.560532 -0.805027 0.191219
0.620519 0.080978 0.042862 0.862136 0.506529 0.005147
0.641578 0.029044 0.01345 0.568803 -0.563762 -0.287157
0.186103 -0.087827 0.081244 0.714637 0.030081 0.698744
0.028665 -0.175194 -0.03526 -0.814324 -0.030308 -0.562186
-0.540782 0.068192 0.079007 0.460119 -0.827439 0.296186
0.631648 0.03015 0.06976 -0.94918 -0.309245 -0.003048
0.046022 0.162424 -0.119655 -0.093559 0.053126 -0.993688
0.045191 -0.196715 -0.05851 -0.869185 -0.154231 -0.454678
0.046795 -0.497662 -0.046089 -0.884281 -0.053615 -0.457476
0.043295 -0.273028 0.030271 -0.988553 -0.021979 0.14867
0.100412 -0.518132 -0.101283 -0.542605 -0.018504 -0.839573
-0.13932 -0.074059 -0.021984 -0.949522 0.006457 -0.312413
-0.04698 0.522333 0.054127 -0.169503 0.591218 0.788471
-0.079055 0.240577 -0.096757 -0.662095 -0.313759 -0.680304
0.512349 0.196884 0.01114 -0.253602 0.838711 0.474035
-0.116435 0.104353 -0.049771 -0.842556 0.13026 -0.517957
-0.10735 0.147538 -0.057399 -0.82154 0.166014 -0.54522
0.114227 0.507504 -0.136815 -0.003992 0.207538 -0.977866
0.013479 0.360454 -0.127295 0.039585 -0.036876 -0.998417
-0.098101 -0.511674 -0.087661 -0.558018 0.11726 -0.82004
-0.059911 -0.049925 0.126582 -0.293867 -0.08196 0.949137
-0.135849 -0.503009 -0.036419 -0.971409 0.021356 -0.21105
0.109437 -0.229247 -0.09997 -0.184717 -0.064355 -0.980533
0.34777 0.385491 -0.116369 0.94692 0.135696 -0.152564
0.107206 -0.861564 -0.114768 -0.405507 -0.22478 -0.851683
0.195685 -0.740232 -0.021664 0.923579 -0.3279 -0.131157
0.087104 0.065978 0.122832 0.440786 0.102175 0.889831
0.133485 0.560374 -0.004061 0.242771 0.73852 0.628864
0.122945 -0.813321 -0.119832 0.037454 -0.134961 -0.984548
-0.003942 -0.203285 0.10604 0.587365 -0.152502 0.793918
-0.125594 -0.35576 -0.030679 -0.963644 0.079637 -0.25332
-0.114456 0.162087 -0.039394 -0.889754 0.113012 -0.441562
0.057731 -0.6768 -0.035615 -0.856951 -0.124702 -0.500058
0.119583 -0.207598 -0.102984 0.054837 -0.154427 -0.984263
0.187431 0.121583 -0.033651 0.848692 0.261618 -0.459208
-0.076024 -0.249179 -0.085837 -0.564411 -0.021814 -0.825169
0.053389 -0.584088 -0.007608 -0.86922 -0.107798 0.480836
0.489475 0.239578 -0.054965 0.70914 0.703485 -0.025483
0.131547 0.346371 0.086197 0.467994 0.026965 0.882794
-0.081724 0.541852 -0.096423 -0.353713 0.555487 -0.751369
-0.305487 0.265312 0.003646 0.381283 -0.217279 0.895594
0.17321 -0.698874 -0.059111 0.814929 -0.071662 -0.574758
-0.23241 0.396838 -0.09445 -0.084722 0.190439 -0.977735
-0.039262 0.775006 -0.036081 -0.989121 0.110513 -0.076349
-0.112062 0.271628 -0.003097 -0.999679 0.000733 0.023809
0.147297 -0.389507 0.075314 -0.067174 -0.107731 0.990676
0.19513 -0.612459 -0.057656 0.840102 -0.033514 -0.541052
0.200771 -0.485995 -0.009882 0.98467 0.122191 0.115589
-0.117548 -0.442379 0.060714 -0.83402 -0.186753 0.518991
-0.02216 -0.647162 -0.088709 0.611593 0.028842 -0.789934
0.188268 -0.686702 0.006325 0.64901 -0.258146 0.701449
0.17422 -0.336684 -0.057227 0.733507 0.031213 -0.678791
0.089199 0.429125 0.088862 0.094604 0.182612 0.978552
-0.113483 0.185901 0.048984 -0.885064 -0.019642 0.462758
-0.103044 -0.307841 -0.058362 -0.760623 0.024339 -0.648065
0.001111 0.263574 0.122181 -0.372446 0.077756 0.924197
-0.136585 -0.150201 -0.017792 -0.931196 -0.098884 -0.349368
0.168327 0.023093 -0.102694 0.806893 0.03383 -0.58896
-0.116516 -0.593578 0.017261 -0.892514 0.01881 0.449965
0.105245 -0.041076 0.124878 0.39605 -0.165111 0.902083
-0.319367 0.326852 -0.086292 -0.37971 0.490142 -0.784556
0.051346 -0.388125 0.017275 -0.692802 -0.35201 0.627344
-0.061011 0.575396 -0.008698 -0.186439 0.863299 0.464543
0.427119 0.301101 -0.104856 0.599956 0.672556 -0.425937
-0.477266 0.176383 0.004849 -0.683476 0.728568 0.032126
0.117857 -0.681962 -0.094316 -0.130932 0.045503 -0.989302
-0.122205 -0.436049 0.054763 -0.860605 -0.14767 0.487193
0.166145 -0.371114 0.073068 0.258245 0.00032 0.965225
0.205819 -0.520144 -0.021957 0.995906 0.038973 -0.019853
-0.089815 -0.831552 -0.109961 -0.893952 -0.066121 -0.441834
-0.061033 -0.73772 -0.125323 0.006162 0.131765 -0.98994
0.038113 -0.003777 -0.149096 -0.260592 -0.220915 -0.935756
0.146914 -0.524536 -0.104138 0.367073 -0.009885 -0.929336
0.205265 -0.294826 0.020148 0.991138 -0.01287 0.116307
-0.115627 0.321257 0.004277 -0.976267 -0.05645 0.208057
0.188646 0.369609 0.017526 0.922191 -0.172926 0.345001
0.007541 0.723699 -0.099048 -0.427189 -0.680341 -0.571605
0.198538 0.027316 -0.044075 0.956196 0.015314 -0.291837
0.05102 -0.654196 -0.014051 -0.997339 -0.062788 -0.003642
-0.011868 0.157841 0.12654 -0.394213 0.00243 0.910314
0.073455 -0.272271 -0.084692 -0.604158 0.031488 -0.793151
-0.129248 0.102499 -0.002635 -0.994405 -0.090348 -0.039265
0.104036 0.493817 0.062217 0.31674 0.529476 0.783422
0.0085 -0.515933 0.023298 0.757821 -0.181136 0.626492
-0.10264 0.283184 -0.082388 -0.798765 -0.045923 -0.597699
-0.039085 -0.859459 -0.125159 0.145549 -0.927287 -0.331524
0.029018 0.663503 -0.065962 -0.123204 -0.17528 -0.971666
-0.381502 0.263513 -0.082523 -0.346762 0.026418 -0.933097
0.245609 0.368143 -0.069649 -0.700339 -0.710467 0.058795
0.161829 -0.330695 -0.069337 0.650824 0.004421 -0.758829
0.082388 -0.383174 -0.087149 -0.664918 -0.075622 -0.742376
0.122043 -0.763249 -0.100967 -0.258465 0.294971 -0.910452
-0.119492 0.565332 -0.027184 -0.320147 0.929268 -0.073634
-0.037999 0.812603 -0.0503 -0.958246 -0.21594 -0.170354
0.026332 -0.475403 -0.006479 0.995418 0.007108 0.051216
0.091814 0.706228 -0.031159 0.881565 -0.421761 -0.155064
-0.124629 0.367966 -0.046409 -0.936707 -0.349896 -0.00253
0.388358 0.338558 -0.109357 0.712372 0.649094 -0.265471
-0.047976 -0.855181 -0.134235 0.150747 -0.675462 -0.707059
-0.096043 -0.480377 -0.084055 -0.581181 0.125694 -0.802744
-0.470665 0.184667 -0.009581 -0.813212 0.57877 -0.047
0.13178 0.341981 -0.129018 0.580295 -0.157267 -0.799014
0.121374 -0.212334 0.093147 0.078317 -0.203878 0.975029
0.190426 0.358042 0.006216 0.95791 -0.107315 0.263193
0.142135 0.520841 0.031081 0.277947 0.625185 0.728504
0.196507 -0.649539 -0.009479 0.96714 -0.091983 0.233304
0.162302 0.096536 -0.088195 0.756962 0.257862 -0.598851
0.173481 -0.227268 0.081782 0.404153 -0.210484 0.887439
-0.004506 -0.054788 -0.122874 0.082602 -0.517994 -0.850967
0.135124 -0.706113 -0.093094 0.429323 0.029471 -0.902009
-0.089552 0.333096 0.068783 -0.882214 -0.010321 0.469173
0.162988 0.261747 0.05495 0.741651 0.064328 0.667587
-0.098938 -0.838948 -0.07748 -0.961837 -0.179518 -0.198184
-0.479237 0.173661 0.016911 -0.598653 0.788664 0.124867
-0.069644 0.098747 -0.109543 -0.569049 0.299664 -0.764524
0.102258 -0.448833 0.038423 -0.791409 -0.11378 0.573515
-0.11153 -0.810374 -0.070405 -0.888889 -0.430185 -0.109884
-0.108794 -0.736873 -0.087077 -0.842953 0.128346 -0.522022
0.450942 0.268232 -0.102668 0.714115 0.20159 -0.667186
0.164895 -0.094209 0.100684 0.615971 0.036228 0.786853
0.170607 -0.20921 -0.076212 0.616166 -0.091818 -0.781927
0.002681 -0.769233 -0.02062 0.665551 0.025459 0.736437
0.167882 0.140429 -0.063615 0.859605 0.062719 -0.505021
-0.037288 -0.474202 -0.093326 0.375791 0.115501 -0.917682
-0.13454 -0.402438 0.019121 -0.970254 0.147689 0.185247
0.089018 -0.748245 0.02506 -0.060012 -0.62242 0.778922
-0.110328 -0.170429 -0.056453 -0.798108 -0.103953 -0.593224
0.112518 0.139814 -0.115192 0.423418 0.247082 -0.870781
-0.263363 0.339203 -0.09586 0.159742 -0.159903 -0.972905
0.057719 -0.693191 0.019916 -0.871974 0.155319 0.461985
0.032415 -0.016401 -0.143992 -0.189853 -0.335548 -0.921998
0.223002 0.538512 -0.088249 0.376778 0.735633 -0.562396
0.026841 -0.506214 -0.01573 0.987105 0.007032 -0.154422
-0.114738 -0.802911 -0.042816 -0.884203 -0.457238 0.061316
0.044258 -0.364707 0.012782 -0.958332 -0.093477 0.262656
-0.128483 -0.114353 0.075525 -0.875045 0.006475 0.483636
-0.013811 0.814072 0.043479 -0.833201 0.331275 0.43867
0.15869 -0.014693 -0.118866 0.730521 0.052201 -0.680823
0.198619 -0.63234 -0.017801 0.997476 -0.029707 0.060447
0.022416 0.784111 -0.12003 -0.102263 0.112217 -0.987148
-0.070644 -0.55722 0.05748 0.351135 -0.175756 0.91951
0.066329 -0.48718 -0.072365 -0.719124 0.01013 -0.694621
0.017956 -0.196741 -0.047215 0.881653 0.048905 -0.468626
0.135375 -0.373688 0.07595 -0.093724 -0.163048 0.979535
-0.128466 0.393187 -0.052555 -0.970422 -0.163581 -0.010384
0.148404 0.00511 -0.126814 0.677191 0.120987 -0.725704
-0.084218 -0.203872 -0.081794 -0.591593 -0.027843 -0.805607
0.088452 -0.308828 0.073778 -0.357415 -0.141729 0.922705
-0.113396 -0.279832 0.095218 -0.726831 -0.051373 0.6845
-0.122771 -0.093692 0.0832 -0.80807 0.034664 0.587433
0.472179 0.249473 -0.083023 0.859977 0.104085 -0.457658
-0.07137 -0.672773 0.028221 0.289587 -0.329043 0.898701
-0.042145 0.373585 0.105171 -0.22105 0.063813 0.968609
-0.069249 0.31251 -0.115069 -0.53336 -0.010261 -0.845588
-0.052618 0.032782 0.122418 -0.405002 0.211328 0.887396
-0.068629 0.457936 -0.129198 -0.170512 -0.00246 -0.984964
0.031244 0.82569 0.068947 -0.074723 0.523881 0.846937
0.08891 -0.083758 -0.129397 -0.138744 -0.392042 -0.90851
0.489142 0.227486 -0.072314 0.292081 -0.116691 -0.929969
0.249282 0.452229 -0.133631 0.045678 0.290205 -0.954128
-0.154701 0.547533 -0.035318 -0.506775 0.786297 -0.337674
-0.077552 0.008544 -0.123847 -0.573574 -0.040004 -0.817585
0.031467 0.24383 -0.125534 -0.045511 0.007761 -0.998582
-0.366739 0.201077 -0.028602 0.641536 -0.766157 -0.032067
-0.045283 0.405285 0.099345 -0.274799 0.198509 0.939279
-0.097803 -0.801458 0.010279 -0.854465 -0.132458 0.464736
0.126609 -0.278682 0.083311 0.019365 -0.061824 0.997747
0.200089 0.444435 0.030127 0.640462 0.049887 0.765246
0.163361 0.076175 -0.094057 0.73549 0.239484 -0.633699
0.051516 0.063879 0.131446 0.135775 0.112956 0.982575
0.495366 0.170235 -0.039586 -0.454162 -0.853373 -0.217615
0.140453 -0.068744 0.11232 0.328391 0.022211 0.944147
0.23124 0.431383 -0.134003 -0.250903 -0.099781 -0.961886
0.115975 -0.867013 -0.027748 -0.111761 -0.98005 0.150499
-0.102454 -0.168266 0.109441 -0.650553 -0.020315 0.757743
0.011432 -0.744951 -0.081542 0.812369 0.058695 -0.578637
0.142517 -0.869061 0.04457 0.155754 -0.980809 -0.043612
0.087913 0.62728 -0.025569 0.962681 0.20773 0.103434
-0.128873 0.09282 0.000158 -0.999592 -0.026463 -0.000916
0.131555 -0.000334 0.120349 0.380716 -0.226666 0.89613
-0.451189 0.142337 -0.002934 0.523205 -0.837692 -0.055466
-0.102215 0.431791 -0.117331 -0.411932 -0.108531 -0.903768
-0.042156 0.059348 -0.135708 -0.315347 0.205813 -0.923246
0.08838 -0.093258 -0.125572 -0.186614 -0.392685 -0.899648
0.187959 -0.625408 -0.065826 0.71691 -0.093781 -0.689921
-0.04622 0.062647 0.120233 -0.462601 0.145598 0.873459
-0.093461 0.566411 -0.060579 -0.409667 0.822197 -0.3934
0.014003 -0.503542 -0.043785 0.845042 0.027095 -0.533429
-0.022607 -0.702542 0.027511 0.001418 0.096033 0.983369
0.428274 0.293354 -0.054046 0.415356 0.695784 0.583784
-0.165508 0.458724 -0.091382 -0.285755 0.151628 -0.945156
0.07481 0.104367 0.128384 0.330515 0.05576 0.939415
0.109124 -0.870421 -0.07222 -0.004858 -0.998988 0.023151
-0.290161 0.347453 0.003608 -0.442342 0.236203 0.860361
0.093896 0.815423 0.014437 0.805333 0.52757 0.26258
-0.287759 0.361214 -0.083605 -0.645439 0.424343 -0.630854
0.204584 0.541752 -0.094099 0.273889 0.748913 -0.603198
0.365056 0.356187 -0.121305 0.635399 0.516226 -0.564745
-0.259922 0.362562 0.018299 -0.175689 -0.121238 0.964327
0.034194 -0.286474 -0.025478 -0.950807 -0.115555 -0.270654
-0.135892 -0.530157 -0.016343 -0.985488 -0.065603 0.149716
-0.074327 0.161075 -0.086749 -0.542205 0.190071 -0.815165
0.25451 0.515863 -0.084309 0.585758 0.68027 -0.439761
0.164431 0.296041 -0.077596 0.855233 -0.22848 -0.464879
-0.019835 -0.248248 0.105258 0.305264 -0.177175 0.934243
-0.019974 0.608783 -0.049179 -0.728034 0.65515 -0.170969
0.155821 -0.148683 0.101651 0.528694 -0.291892 0.795427
0.197409 0.547265 -0.009673 0.304686 0.74238 0.594848
0.574529 0.117958 0.058827 -0.345254 0.299066 0.88137
0.055116 0.177452 0.128744 0.091402 0.031624 0.995243
0.022978 -0.204384 0.061769 0.946303 -0.035837 0.321066
0.124263 -0.647372 -0.095368 -0.05492 -0.092587 -0.992743
0.628745 0.064638 0.070803 0.851477 0.513729 0.077838
-0.098156 -0.111084 -0.081634 -0.664473 -0.111138 -0.737363
0.07709 0.051354 0.129904 0.37553 0.12464 0.914182
-0.09149 0.174841 -0.070935 -0.694447 0.081982 -0.714559
0.010171 -0.203303 -0.059091 0.778995 0.034655 -0.624461
0.182191 0.178281 -0.030266 0.897424 0.137597 -0.417456
-0.314014 0.237891 -0.015035 0.623225 -0.763237 0.163349
0.20001 -0.482247 -0.035931 0.993973 0.059635 -0.088171
-0.044477 0.22438 0.106002 -0.522101 0.048589 0.850888
0.064229 -0.115441 -0.106167 -0.471863 -0.319488 -0.814546
-0.065847 -0.331924 -0.086265 -0.292088 -0.045089 -0.955213
-0.276261 0.268441 -0.061911 0.701131 -0.680253 -0.209516
0.158988 0.40653 0.062912 0.726339 0.031312 0.686592
0.585952 0.048656 -0.025665 -0.03311 -0.589285 -0.732151
0.119684 -0.187131 0.098034 0.01774 -0.145716 0.988124
0.059731 0.071218 0.130187 -0.008158 0.062956 0.995453
-0.055108 0.346329 0.09927 -0.471478 -0.100348 0.874188
0.174095 -0.735668 -0.003582 0.25351 0.547191 0.786636
0.078662 0.107609 -0.138087 0.11797 0.443926 -0.887206
0.254343 0.404787 -0.016336 -0.176697 -0.376693 0.908298
-0.025077 -0.794083 0.038862 0.688137 0.503369 0.516122
0.066158 0.559675 0.020217 0.213861 0.402477 0.879669
0.642296 0.036202 0.025636 0.98453 0.165261 -0.017427
0.18001 0.159633 -0.039313 0.843797 0.054725 -0.532389
0.373468 0.325023 -0.130176 0.390263 0.190709 -0.894261
-0.032451 -0.136191 0.124367 -0.004558 -0.06992 0.997327
-0.293986 0.37088 -0.024631 -0.827858 0.518448 0.193998
-0.128234 0.098237 -0.016209 -0.992031 0.005991 -0.118154
0.155732 0.525132 -0.124023 0.215792 0.581107 -0.781875
0.03297 0.723196 0.100036 -0.042675 -0.461441 0.865074
-0.109149 0.285562 -0.07221 -0.909563 -0.077943 -0.403539
0.189861 -0.546987 0.02589 0.883259 -0.060693 0.458368
0.021784 -0.744558 -0.0516 0.98035 -0.173592 -0.044073
0.059712 -0.380385 -0.064046 -0.771473 -0.030218 -0.635442
-0.047008 -0.843481 0.142288 0.822288 0.303571 0.47426
-0.191415 0.466251 -0.07987 -0.420553 0.398177 -0.813892
-0.387833 0.259483 0.005711 -0.242518 0.385009 0.884471
0.051401 -0.064438 -0.127511 -0.344461 -0.391126 -0.853229
0.134716 -0.182661 0.097548 0.09365 -0.183767 0.977468
0.261648 0.51564 -0.054184 0.718767 0.695141 0.009401
-0.019837 -0.371386 -0.070644 0.668211 -0.081716 -0.738779
0.084973 -0.123326 0.093926 -0.5805 -0.052472 0.81165
0.271685 0.424846 -0.010644 0.121913 -0.113966 0.981575
-0.101405 0.336754 0.048256 -0.839882 -0.202657 0.50296
0.181927 -0.076576 -0.079711 0.820705 -0.03972 -0.569276
-0.03413 -0.154795 -0.094551 0.365547 -0.192004 -0.907133
0.011726 -0.794985 -0.083225 0.964004 -0.175087 -0.177303
0.103707 -0.257381 -0.098686 -0.201826 0.027842 -0.975939
-0.001458 0.320816 -0.128886 0.12347 0.047708 -0.990927
0.05012 -0.293733 -0.055674 -0.822455 -0.014716 -0.568597
-0.12842 -0.29338 -0.003518 -0.996922 -0.016818 -0.069349
0.029071 0.560248 -0.107841 -0.087126 0.445593 -0.888704
0.180779 0.329196 -0.066957 0.830903 -0.354141 -0.427145
0.049356 0.618037 0.025985 0.27829 -0.189348 0.933517
0.090813 -0.624641 0.02229 -0.721437 -0.275065 0.634602
-0.126882 -0.689014 -0.066816 -0.966406 -0.062661 -0.234744
-0.083387 -0.243596 -0.081207 -0.594168 -0.041074 -0.802398
0.13194 -0.696771 -0.094129 0.20485 0.018659 -0.977748
-0.071035 -0.056532 0.122094 -0.364707 -0.03724 0.929517
-0.536623 0.066672 0.05509 0.365146 -0.928537 0.02393
0.020759 0.146842 0.131623 -0.069554 0.053818 0.995893
-0.076239 0.303604 0.081802 -0.58392 0.005615 0.811393
0.237226 0.522821 -0.094959 0.549434 0.6245 -0.554368
0.593625 0.11014 0.066743 0.178484 0.578356 0.789678
-0.231627 0.386161 -0.096268 -0.005313 0.109956 -0.993261
-0.028666 0.731211 -0.053554 -0.887977 -0.342701 -0.284949
-0.021981 0.706028 0.038705 -0.962821 -0.194174 0.179064
0.182723 0.194301 0.029426 0.979804 0.098141 0.166123
0.037326 0.002414 0.143581 0.079024 -0.078132 0.982347
-0.29085 0.278868 -0.003681 0.630767 -0.364216 0.62035
-0.032327 -0.713579 -0.109827 0.520048 0.205082 -0.828754
-0.064317 -0.235329 0.113535 -0.03518 -0.113601 0.992623
-0.01195 -0.816511 0.020167 0.962302 -0.069405 0.187652
0.064734 -0.23407 0.072988 -0.686906 -0.129741 0.715019
0.196665 -0.520541 0.012377 0.950109 -0.020114 0.310789
-0.073924 -0.815757 0.06348 -0.386588 0.749169 0.502037
-0.118222 -0.731182 -0.016945 -0.713689 0.306915 0.620787
0.052917 0.041931 -0.158186 -0.12617 0.250573 -0.956588
-0.095108 -0.784924 0.010732 -0.739467 0.21365 0.573045
0.088443 -0.030744 0.129349 0.113133 -0.063363 0.991328
0.076369 -0.405617 -0.080376 -0.685495 -0.014597 -0.727882
-0.147266 0.392699 -0.044854 0.717496 -0.676229 -0.164629
-0.047491 0.58521 -0.072102 -0.467197 0.739089 -0.479674
0.006024 -0.790842 -0.029044 0.829451 -0.292469 0.47098
-0.065047 -0.334775 0.10243 0.178262 -0.135507 0.974335
0.004584 -0.248686 -0.063352 0.758213 -0.078184 -0.647173
-0.107502 -0.090981 0.10126 -0.680789 0.081015 0.727631
-0.232954 0.382502 0.0223 -0.138344 -0.289173 0.944615
0.111916 0.266839 0.102655 0.413699 0.050746 0.907255
-0.062614 0.28782 -0.118253 -0.452918 -0.048144 -0.889987
0.205613 -0.212011 0.020864 0.989936 -0.019524 0.133207
0.101203 0.726982 -0.02373 0.922372 -0.345675 -0.10146
0.079113 -0.749013 0.024069 0.074226 -0.378018 0.917819
0.55043 0.168816 -0.01335 0.868335 0.323064 -0.275416
0.00569 0.449961 0.093924 0.05857 0.353886 0.932705
0.158125 -0.164599 0.097715 0.245844 -0.144869 0.956929
-0.125244 -0.745716 -0.02734 -0.956133 -0.064954 0.265078
-0.11286 -0.295603 -0.043881 -0.862834 0.034291 -0.503659
-0.137319 -0.452231 -0.023449 -0.974454 0.066601 -0.2134
-0.08393 -0.833171 0.132486 -0.429285 0.873823 0.216749
0.181526 0.36079 -0.090822 0.677934 -0.467632 -0.565502
0.052944 0.49756 -0.128455 -0.162534 0.059707 -0.984618
0.016521 0.842489 0.055198 -0.349426 0.553762 0.753584
0.039629 0.704601 -0.089373 0.134398 -0.644417 -0.752251
-0.098149 -0.236015 -0.066685 -0.755789 -0.056217 -0.651259
0.03824 -0.211399 -0.031386 0.431143 0.258904 -0.71787
0.01813 0.552313 -0.111233 -0.053969 0.453683 -0.887953
0.156089 -0.260268 0.082327 0.158392 -0.076586 0.984349
0.145905 -0.650931 0.03062 0.198749 0.01632 0.976162
0.122288 0.588744 -0.072078 0.365516 0.88227 -0.279029
-0.124712 -0.757433 -0.043625 -0.939215 -0.339128 0.004073
-0.133568 -0.463354 -0.039127 -0.896905 0.078299 -0.43377
-0.079297 0.493316 -0.121122 -0.261784 0.268512 -0.926905
0.076307 -0.481194 -0.082507 -0.702687 0.014661 -0.711297
0.584522 0.065701 -0.02117 0.400165 0.473816 -0.684584
0.185431 -0.41498 0.056502 0.823481 -0.059626 0.563767
-0.087518 -0.602468 -0.101115 -0.459953 0.051205 -0.886343
-0.353311 0.26802 -0.08713 -0.033141 -0.224391 -0.97149
0.199159 -0.589569 -0.046856 0.985032 -0.017283 -0.171398
-0.115822 -0.004988 0.088645 -0.77537 -0.247905 0.576458
0.177631 -0.666374 -0.06389 0.662461 -0.262453 -0.700902
0.079379 -0.738479 -0.053467 -0.904107 -0.010854 -0.425936
-0.004733 0.151739 0.128811 -0.20883 0.011073 0.975494
-0.336811 0.223774 -0.046184 0.500871 -0.842456 -0.182266
-0.010931 0.197809 -0.12036 -0.117662 -0.35725 -0.923403
-0.125434 -0.243942 0.078676 -0.882774 -0.066988 0.464119
-0.003967 -0.617744 0.020429 0.291531 0.036522 0.949733
-0.185477 0.378386 0.01347 0.423996 -0.577922 0.696525
0.182253 -0.715639 -0.007984 0.061987 -0.344914 0.917946
0.156835 0.09206 -0.096087 0.724333 0.219676 -0.653476
-0.02516 0.717802 0.039867 -0.942677 -0.16272 0.283651
-0.02402 -0.787884 -0.142487 0.392813 0.407445 -0.822547
0.201909 -0.066822 -0.039507 0.929276 0.034359 -0.367062
-0.038413 -0.825464 0.093433 0.457116 0.839483 0.258279
0.634202 0.056117 0.066368 0.893888 0.440182 0.052649
-0.276681 0.386694 -0.083227 -0.564808 0.38648 -0.72283
0.618735 0.052094 0.049174 -0.774084 -0.628872 -0.024342
-0.031084 -0.1247 -0.100923 0.39292 -0.22789 -0.890833
-0.133108 0.402174 -0.021432 -0.16734 -0.975562 0.005412
-0.130235 0.117465 0.011095 -0.987465 0.087098 0.12327
-0.090052 0.573982 -0.020595 -0.188381 0.972378 0.109224
0.106697 -0.869518 0.045683 -0.11089 -0.983481 -0.047521
0.021598 -0.366912 0.032859 0.929982 -0.160029 0.330395
-0.015218 0.729289 0.060348 -0.73869 0.003252 0.672665
0.492951 0.193873 0.000659 0.015518 0.813877 0.453642
-0.267794 0.337958 0.01007 -0.097836 -0.189376 0.974412
0.083052 -0.801213 -0.083103 -0.869947 0.168375 -0.462243
-0.01181 0.354151 0.110022 -0.374593 0.168602 0.905184
-0.36187 0.217137 0.005804 0.329965 -0.372216 0.865398
0.132376 -0.530285 0.049546 -0.365766 -0.174885 0.913429
-0.073081 0.270444 -0.110212 -0.612868 -0.10678 -0.781256
0.447843 0.196507 -0.075095 0.10341 -0.939602 -0.21243
0.10546 0.57602 -0.009126 0.327253 0.751863 0.572008
-0.183757 0.522573 0.006975 -0.702615 0.681471 0.203335
0.177238 -0.488933 -0.083533 0.706909 0.020928 -0.706745
0.574912 0.069783 0.007358 -0.866243 -0.496415 0.011525
-0.547671 0.060464 0.049158 0.66131 -0.740459 0.007073
0.142499 -0.869384 -0.078175 0.186043 -0.97188 -0.024433
-0.021112 -0.84384 0.000158 0.982644 -0.182877 -0.021057
0.099057 -0.674226 0.034664 -0.001639 0.082913 0.994951
0.096622 0.501329 0.059793 0.227681 0.478568 0.847294
0.206569 0.031864 0.023344 0.997983 0.041647 0.046085
0.152976 0.030255 0.104996 0.490286 0.240249 0.837663
0.135824 0.365306 0.082365 0.574376 0.029168 0.816216
0.171775 0.21637 0.050107 0.761823 0.058346 0.644953
0.582772 0.05782 -0.028059 -0.170928 -0.062321 -0.867202
0.398957 0.327554 -0.072424 0.578885 0.731345 0.354349
-0.115213 0.034838 -0.074871 -0.867524 0.144045 -0.475042
0.28021 0.354306 -0.12058 -0.504013 -0.629524 -0.590452
-0.047035 0.214919 0.105009 -0.522179 0.04552 0.851422
-0.146993 0.518544 0.04579 -0.214672 0.475353 0.850624
0.106033 -0.491649 -0.103907 -0.346873 0.008386 -0.935923
0.201388 -0.580911 -0.013775 0.984645 -0.090754 0.143111
-0.069343 0.335754 -0.115596 -0.499094 -0.050107 -0.865037
0.066601 0.082896 0.13024 0.050815 0.017261 0.991979
0.164733 -0.142734 0.098342 0.478137 -0.124653 0.868563
0.047768 0.644112 -0.064384 0.155658 0.109205 -0.972803
-0.126469 -0.41681 0.051556 -0.924235 -0.058792 0.375468
0.18864 -0.538201 0.029634 0.88104 -0.080544 0.464423
0.048402 -0.376334 0.019146 -0.79247 -0.191755 0.571117
0.133506 0.326511 -0.125143 0.643784 -0.134888 -0.752241
-0.075248 0.325318 0.082923 -0.541535 -0.08983 0.834867
-0.126809 -0.748478 -0.037788 -0.984435 -0.140467 0.085193
0.14357 -0.727272 0.010706 0.484423 0.051752 0.864601
-0.087532 -0.251831 -0.07747 -0.723571 -0.048963 -0.688402
-0.122999 -0.084089 0.08245 -0.788892 0.018508 0.61414
-0.121791 -0.407227 0.06432 -0.919281 -0.06809 0.382689
0.197642 -0.247911 0.052493 0.920274 0.032002 0.387053
-0.020112 -0.801956 0.036225 0.924365 0.274787 0.263993
0.152217 -0.332295 0.077894 0.240139 -0.052761 0.969287
-0.076071 -0.786022 0.031123 -0.516753 0.704807 0.483184
0.012488 0.61521 0.021597 -0.565903 -0.096213 0.815122
-0.043863 -0.640681 0.026956 0.28911 -0.112894 0.949274
0.287254 0.432173 -0.135926 0.263285 0.366416 -0.889944
0.209664 -0.06751 -0.015921 0.952001 0.109358 -0.284623
-0.033748 0.195489 -0.112417 -0.36695 -0.353361 -0.860036
-0.109098 -0.157879 -0.060421 -0.783183 -0.142868 -0.604953
0.012755 -0.118458 -0.063374 0.665622 -0.384617 -0.633942
0.008211 -0.186596 -0.060416 0.779808 0.064961 -0.622189
-0.069256 -0.138426 -0.099133 -0.356276 -0.124755 -0.924508
-0.412801 0.239655 0.007368 -0.390497 0.507815 0.76506
0.177564 -0.077556 0.088533 0.599919 0.073991 0.777727
0.188205 -0.269516 0.066784 0.745483 -0.013989 0.662463
-0.121676 -0.76004 -0.061745 -0.950801 -0.198026 -0.229083
0.099384 -0.189954 0.095926 -0.173159 -0.080186 0.981104
0.085762 0.69579 -0.038137 0.810293 -0.450771 -0.373113
-0.015528 -0.740414 -0.109951 0.605802 0.313859 -0.730709
-0.360854 0.2584 0.008759 0.056543 0.13525 0.988678
-0.040079 -0.863925 0.052514 0.051168 -0.998593 -0.004738
-0.040437 -0.42548 -0.086372 0.207764 0.248423 -0.944772
-0.075929 -0.46965 0.078582 0.268718 -0.150406 0.950054
0.38867 0.241503 -0.053285 -0.64343 -0.675663 0.345842
0.185615 0.303917 -0.028772 0.926533 -0.316343 -0.195937
0.096311 -0.704455 -0.08505 -0.693712 0.053644 -0.718122
0.072342 0.321562 -0.141631 -0.302326 -0.061302 -0.94739
-0.042753 -0.86046 0.127657 0.344658 -0.91115 0.214509
0.176823 -0.773873 -0.063857 0.769082 0.50142 -0.392668
0.046246 -0.354262 -0.04596 -0.899151 -0.042731 -0.420694
0.091268 0.795039 -0.083108 0.861493 0.117771 -0.492385
0.196858 -0.708303 -0.028008 0.973289 -0.010029 -0.200592
0.597706 0.066386 0.0205 0.71883 -0.588338 0.018906
-0.017078 0.589715 -0.084669 -0.248233 0.689098 -0.675682
-0.120943 0.366114 0.014692 -0.966199 -0.205166 0.154583
0.196583 -0.466598 0.010561 0.967023 -0.04315 0.249223
0.203577 -0.324833 -0.016094 0.945768 0.034972 -0.315177
-0.136756 0.036512 -0.009911 -0.980422 0.165107 -0.09995
-0.324006 0.34123 -0.060903 -0.644692 0.727401 -0.226167
-0.129894 -0.141886 0.074213 -0.88296 0.045751 0.466775
-0.105193 0.393057 -0.105655 -0.545821 -0.235332 -0.803271
0.165529 0.003098 0.101046 0.631248 -0.25078 0.717709
0.1371 0.09071 0.098194 0.58074 0.161066 0.794508
0.143324 -0.276946 -0.084877 0.575721 -0.096831 -0.8118
0.158084 -0.84799 -0.085146 0.936446 -0.065927 -0.339343
-0.155165 0.473122 0.057108 -0.277177 0.025401 0.958923
0.28941 0.36399 -0.134319 -0.295336 -0.52586 -0.794227
0.047869 0.340072 0.113795 0.149905 0.169299 0.973555
-0.082624 -0.352982 0.102866 0.064184 -0.144793 0.984403
-0.125549 -0.640255 -0.074452 -0.89051 0.008962 -0.443032
-0.482245 0.17172 -0.002797 -0.690746 0.721293 -0.038075
-0.067552 -0.095681 -0.106267 -0.354662 -0.17279 -0.916883
0.531209 0.210324 -0.025561 -0.293198 0.91619 0.265046
0.416221 0.304567 -0.112689 0.550683 0.543575 -0.632525
0.159863 -0.164735 -0.08863 0.571901 -0.075732 -0.814734
0.167055 0.54687 0.001882 0.20626 0.692463 0.690257
-0.002774 -0.445151 -0.061034 0.739194 0.064595 -0.670301
0.104135 -0.048848 -0.143111 0.106938 -0.3346 -0.935274
0.152746 0.308275 0.0642 0.739589 0.030155 0.672187
0.415935 0.314555 -0.095124 0.692589 0.713004 -0.093355
0.080194 0.646556 -0.040601 0.882353 0.160219 -0.433404
-0.024542 -0.613974 0.02483 0.220084 -0.173277 0.958247
0.468688 0.261713 -0.049181 0.669134 0.731248 0.125348
0.478614 0.21995 -0.073539 0.264479 -0.295877 -0.916122
0.31005 0.408651 -0.140944 0.225829 0.376624 -0.897168
-0.403843 0.180724 -0.035912 0.478446 -0.83021 -0.271651
-0.11217 0.253827 -0.029868 -0.998126 0.048498 -0.012729
0.050884 -0.637527 -0.033113 -0.953587 -0.139419 -0.255911
0.097914 -0.857404 -0.10897 -0.761842 -0.053561 -0.637556
-0.137333 -0.171822 0.049248 -0.990528 -0.048485 0.126409
0.097934 -0.436246 -0.097524 -0.496853 0.031312 -0.865138
-0.219831 0.481442 -0.035578 -0.762827 0.56552 -0.310749
-0.190058 0.471386 0.041756 -0.503957 0.124459 0.838111
0.215517 0.426637 0.003868 0.289329 -0.852687 0.407562
-0.171248 0.517276 -0.063796 -0.591689 0.543142 -0.594299
0.628242 0.063507 0.019601 0.822622 0.495405 -0.226022
-0.073959 0.053961 -0.119682 -0.646213 0.236 -0.723227
0.19125 0.036654 -0.062303 0.905534 0.0649 -0.418483
-0.128652 -0.408943 -0.027704 -0.882899 0.053731 -0.462882
0.074799 -0.72704 -0.045568 -0.903954 -0.130545 -0.406294
0.02884 -0.264172 0.029839 0.984259 -0.048361 0.169864
