ply
format ascii 1.0
comment VCGLIB generated
element vertex 833
property float x
property float y
property float z
property float nx
property float ny
property float nz
element face 0
property list uchar int vertex_indices
end_header
0.062781 -0.787351 0.018183 -0.663816 -0.616371 0.408648 
-0.12489 -0.339361 -0.027392 -0.928132 0.071205 -0.362065 
-0.043227 -0.825262 -0.146125 0.087852 -0.276538 -0.956226 
0.010109 0.036521 -0.151614 -0.162716 0.161255 -0.972454 
-0.120396 -0.2151 0.090957 -0.823212 -0.041974 0.564276 
0.061996 -0.059179 0.121856 0.031328 -0.426008 0.903216 
0.00902 -0.099085 0.117767 0.5461 -0.23522 0.799677 
0.045706 0.034177 -0.158555 -0.147436 0.134429 -0.977142 
-0.037412 0.778912 -0.046432 -0.989907 0.078346 -0.116556 
0.177246 -0.382366 -0.065562 0.683901 0.221076 -0.689004 
0.093094 -0.401715 -0.093816 -0.471373 -0.009953 -0.881489 
0.199937 -0.45843 -0.028532 0.999214 0.002459 -0.033975 
0.16245 -0.391999 0.074298 0.208302 -0.022776 0.972691 
0.243543 0.532761 -0.070559 0.680546 0.710294 -0.176312 
0.115553 -0.804652 -0.118776 -0.21803 0.167168 -0.956494 
-0.05162 0.384035 -0.125967 -0.200026 -0.048981 -0.97673 
0.111921 0.20981 -0.117746 0.533467 -0.373544 -0.758303 
0.04453 0.189078 -0.113794 -0.140965 0.085849 -0.975464 
0.174533 -0.521676 0.049782 0.563809 -0.196748 0.799563 
-0.123114 -0.333935 0.05849 -0.987323 0.005174 0.15749 
-0.062405 0.470238 -0.129581 -0.116906 0.078677 -0.989796 
0.059585 0.699964 -0.078141 0.416392 -0.5672 -0.708067 
0.061792 0.134414 -0.127685 -0.026989 0.347013 -0.937212 
0.06884 0.370013 0.1042 0.178679 0.165763 0.969357 
0.143166 -0.127895 -0.10892 0.498928 -0.273104 -0.822177 
-0.072234 -0.418805 0.088023 0.112874 -0.215161 0.969282 
0.175921 0.290305 -0.04856 0.934587 -0.169576 -0.311848 
0.090896 0.11563 -0.132066 0.220151 0.468796 -0.853181 
0.282812 0.446369 -0.130146 0.336611 0.520263 -0.782835 
0.057764 0.556742 0.024071 0.203677 0.499828 0.840517 
0.210599 0.415417 -0.03593 0.08827 -0.947353 0.129646 
0.065376 -0.369622 -0.071467 -0.756235 -0.054875 -0.650145 
0.072372 -0.622442 0.002117 -0.624083 -0.128169 0.761498 
-0.020877 0.426423 -0.129954 0.041705 -0.020016 -0.998772 
-0.16902 0.381402 -0.07288 0.612595 -0.655731 -0.44102 
0.069122 0.154619 -0.121558 -0.007761 0.168618 -0.983206 
-0.017154 0.82674 0.026124 -0.755558 0.383687 0.526267 
0.387677 0.342053 -0.090754 0.698286 0.709663 0.059406 
0.182274 0.006462 -0.080883 0.869545 0.068564 -0.483263 
0.275566 0.412334 -0.012807 0.045929 -0.139973 0.986525 
0.131677 -0.447251 0.062222 -0.574147 -0.212591 0.788787 
-0.042545 0.295032 -0.127504 -0.315573 -0.009702 -0.944475 
0.126165 -0.756526 0.023593 -0.067908 -0.737908 0.670161 
0.024324 -0.400887 -0.004417 0.974755 -0.195177 -0.027015 
-0.100389 -0.710196 0.012789 -0.49521 -0.528825 0.682381 
0.251025 0.526255 -0.056272 0.702465 0.71148 -0.00828 
0.52252 0.214984 -0.038457 0.519883 0.782047 0.34174 
-0.070028 -0.848534 0.163106 -0.035002 -0.379474 0.908732 
-0.058735 -0.771799 -0.135602 -0.255175 0.378643 -0.886642 
0.080302 0.636538 -0.04436 0.853635 0.244562 -0.442662 
0.183673 -0.170801 -0.067432 0.651734 -0.005261 -0.757846 
0.057483 0.032893 -0.16005 -0.07364 0.078171 -0.993046 
0.191826 0.347222 -0.056361 0.911981 -0.337265 -0.219727 
0.039127 0.819664 0.073527 0.074174 0.498203 0.863543 
-0.073795 0.395174 0.089981 -0.566474 0.007118 0.819597 
0.192022 0.448481 0.035736 0.556501 0.126565 0.82052 
0.196088 -0.183612 -0.056194 0.770471 0.016422 -0.634317 
-0.026847 0.313902 -0.13 -0.101516 0.064138 -0.992068 
0.133212 -0.323086 -0.091276 0.509322 0.03157 -0.859034 
0.020041 -0.504933 0.009213 0.851123 -0.065748 0.520003 
-0.090666 0.445257 0.07208 -0.615293 0.118817 0.778917 
0.129749 -0.313937 -0.092594 0.468847 0.029641 -0.881723 
0.19073 -0.391749 0.047706 0.93289 -0.027111 0.358396 
0.287135 0.482788 -0.085308 0.651248 0.656746 -0.379425 
0.162308 0.113426 -0.08066 0.740682 0.260014 -0.619179 
0.098438 0.27217 0.106933 0.337248 0.073031 0.93745 
0.467418 0.206675 -0.005015 -0.511976 0.327507 0.790332 
-0.114442 -0.623852 -0.086352 -0.611174 0.101061 -0.784996 
-0.07036 -0.588253 0.050026 0.425424 -0.220428 0.877617 
0.061428 -0.67387 0.018688 -0.532413 0.310157 0.780062 
-0.09335 0.327853 0.059826 -0.871515 -0.03163 0.486582 
0.066311 0.853385 0.031568 0.519651 0.665352 0.535584 
-0.035786 -0.437403 0.075755 0.261016 -0.21579 0.940308 
-0.072578 -0.584758 -0.103535 -0.089295 0.036861 -0.994031 
0.087911 -0.497563 -0.093169 -0.593661 -0.022831 -0.803209 
-0.044802 -0.4905 0.063595 0.331366 -0.286772 0.898404 
0.159861 -0.078554 0.102934 0.527844 0.064736 0.845855 
0.141642 0.492558 -0.138366 0.169669 0.281052 -0.944442 
0.061321 -0.047165 0.127791 0.045699 -0.380431 0.92344 
-0.100177 -0.773157 -0.10298 -0.733484 0.110833 -0.670207 
0.036904 -0.315273 -0.030699 -0.964864 -0.008138 -0.260488 
-0.199503 0.496461 -0.050342 -0.6544 0.562492 -0.503593 
0.150548 -0.015214 -0.12748 0.703185 0.048774 -0.708941 
-0.028763 -0.809079 0.057886 0.379555 0.331271 0.82753 
0.604957 0.101176 0.051768 0.831239 0.551558 0.05563 
-0.360449 0.217433 -0.063048 0.374302 -0.710968 -0.592441 
-0.122325 -0.279948 0.079658 -0.944644 -0.034906 0.321521 
0.177745 0.278834 0.029268 0.937893 0.009934 0.3449 
0.121788 -0.165486 -0.108244 0.203623 -0.151805 -0.965383 
0.064462 -0.723843 -0.027357 -0.822113 -0.218055 -0.524038 
0.431003 0.271328 -0.037544 0.09192 0.520348 0.847786 
-0.037521 0.772707 -0.007739 -0.986049 0.07837 0.143107 
0.126513 0.274059 -0.126022 0.619917 -0.077155 -0.780635 
-0.12827 -0.327463 -0.00148 -0.999686 -0.006319 -0.019664 
0.02491 -0.386036 -0.011959 0.972165 -0.047525 -0.214071 
0.005786 -0.089622 0.121186 0.386471 -0.155987 0.908371 
0.032927 0.468093 -0.126942 -0.135216 0.065683 -0.988498 
-0.076332 0.048443 0.10897 -0.521069 0.065584 0.850471 
0.007288 -0.783817 -0.097585 0.874216 0.164548 -0.454253 
0.178025 -0.607415 -0.076933 0.643014 -0.079736 -0.761351 
-0.279816 0.326106 -0.09638 0.067362 0.00082 -0.994106 
0.032873 0.143825 0.132076 0.040466 0.035211 0.998163 
-0.041335 -0.030408 -0.132299 -0.169743 -0.214441 -0.961055 
0.079147 0.849877 -0.041178 0.707206 0.677904 -0.19398 
-0.09256 -0.259583 -0.071106 -0.729581 -0.054275 -0.681558 
0.207038 0.022099 0.016066 0.999392 0.030886 0.01411 
-0.029374 0.737713 0.020011 -0.986061 -0.074593 0.146249 
0.091818 0.7257 -0.062974 0.867203 -0.365693 -0.335858 
-0.054488 -0.223563 -0.092584 -0.046632 0.011388 -0.998489 
-0.04065 -0.282788 -0.092079 0.154036 -0.056474 -0.984329 
-0.081423 0.19172 0.086085 -0.627533 0.011594 0.77826 
0.009294 -0.636673 -0.061943 0.659237 0.11361 -0.742771 
0.417393 0.28416 -0.042902 0.173119 0.441473 0.871912 
0.630448 0.034049 0.05978 -0.917759 -0.365233 -0.020509 
0.172653 0.026087 0.093162 0.626244 0.15184 0.763334 
0.105932 -0.587799 0.032112 -0.314957 -0.15813 0.93516 
-0.030379 -0.194298 -0.089923 0.351064 -0.041358 -0.934539 
0.191358 0.333447 -0.018638 0.987895 -0.146296 0.029272 
-0.081166 -0.857638 0.150648 -0.37993 -0.681944 0.542709 
-0.103415 -0.725212 -0.004468 -0.668469 -0.337975 0.653452 
-0.015644 -0.809007 0.029019 0.871188 0.348319 0.345685 
0.014353 -0.281268 -0.045133 0.819299 -0.102983 -0.561574 
-0.009794 -0.181939 -0.077634 0.617371 -0.013003 -0.786482 
0.161148 0.022672 -0.111743 0.71862 0.047298 -0.693781 
0.073849 0.573858 -0.104691 -0.056975 0.634022 -0.770517 
0.16114 -0.536257 0.051999 0.192484 -0.283372 0.934493 
0.471466 0.258396 -0.077674 0.792886 0.549163 -0.25386 
0.119173 -0.362069 0.074774 -0.259131 -0.210336 0.941996 
-0.016202 -0.671527 -0.087078 0.637868 0.172492 -0.750015 
0.192171 -0.356828 0.047556 0.92286 -0.054619 0.380726 
0.132092 0.131917 -0.107583 0.561321 0.239457 -0.787624 
0.104463 0.250576 -0.135851 0.28521 -0.126285 -0.943245 
-0.260639 0.328192 -0.092095 0.381518 -0.304491 -0.86936 
0.111311 0.321687 0.097877 0.357632 0.110174 0.926575 
0.102515 -0.072532 0.117686 -0.066944 -0.466186 0.876665 
0.187116 0.327587 -0.051056 0.856976 -0.357078 -0.371543 
-0.0101 -0.328301 0.084891 0.562303 -0.094554 0.821452 
0.096977 0.186135 -0.11501 0.244785 -0.202098 -0.944509 
-0.309831 0.325597 0.002489 -0.260196 0.25777 0.927419 
0.114609 -0.869787 0.052894 -0.004137 -0.999642 -0.024199 
-0.110417 0.27063 0.020316 -0.982152 0.058085 0.175423 
0.193046 -0.468952 0.022094 0.966783 -0.054071 0.248497 
0.01373 -0.788937 -0.046789 0.894102 -0.37085 0.250343 
-0.127162 -0.399811 0.04866 -0.959196 0.095106 0.259265 
0.150498 -0.805835 -0.11057 0.578689 0.122831 -0.796159 
-0.101445 0.141551 -0.068713 -0.756464 0.199345 -0.622174 
0.123206 -0.150933 0.109035 0.090542 -0.342128 0.925128 
-0.105127 0.380209 0.062011 -0.731775 -0.206671 0.648235 
0.198159 0.381679 -0.027946 0.997305 -0.057728 0.039368 
-0.064317 -0.235329 0.113535 -0.03518 -0.113601 0.992623 
0.201092 0.022429 -0.035598 0.949413 0.004635 -0.312285 
-0.403843 0.180724 -0.035912 0.478446 -0.83021 -0.271651 
-0.035696 0.741034 -0.04177 -0.893746 -0.261455 -0.362467 
-3.2e-05 0.253928 0.122338 -0.372984 0.064475 0.925589 
0.122945 -0.813321 -0.119832 0.037454 -0.134961 -0.984548 
0.054094 0.304197 -0.133909 -0.378483 -0.033747 -0.924752 
0.087816 0.529351 -0.12908 -0.053505 0.214658 -0.974443 
0.573533 0.080886 -0.015937 0.22038 -0.296544 -0.771101 
0.122501 -0.086186 -0.127672 0.199799 -0.257854 -0.944139 
0.083291 0.176719 0.120517 0.38487 0.034554 0.922206 
-0.263786 0.355413 -0.097188 -0.053186 -0.008666 -0.996577 
0.006775 0.650138 -0.056326 -0.585231 0.036651 -0.801987 
0.06682 -0.077908 0.110179 0.021255 -0.629861 0.775545 
0.160912 0.234883 0.060623 0.747673 0.055419 0.661269 
0.11524 -0.86643 0.004794 -0.147124 -0.98023 -0.092557 
0.063853 0.356064 -0.139063 -0.392695 -0.02071 -0.918902 
0.018682 0.375566 0.107915 0.077389 0.235247 0.968655 
0.206934 -0.203116 0.006442 0.997943 -0.047471 0.041901 
-0.038526 0.587387 -0.019676 -0.387492 0.813629 0.418415 
0.005975 0.72689 0.073103 -0.504873 0.148891 0.846187 
0.081195 -0.69362 -0.067933 -0.831609 -0.042412 -0.553386 
0.097187 -0.866779 0.049004 -0.575494 -0.811571 -0.075431 
0.076637 0.171548 -0.119019 0.136885 0.119042 -0.982369 
-0.136756 0.036512 -0.009911 -0.980422 0.165107 -0.09995 
0.153011 -0.861183 -0.011727 0.41487 -0.904832 -0.043681 
0.141424 0.242753 -0.102837 0.786135 -0.154494 -0.597991 
-0.04431 0.421795 0.096219 -0.209865 0.237051 0.947653 
-0.233048 0.463285 -0.018971 -0.774584 0.612583 0.133613 
0.225427 0.507005 -0.118714 0.395702 0.488794 -0.775934 
-0.021516 0.130772 0.122562 -0.418475 0.007849 0.907297 
0.068387 0.155773 0.127756 0.263787 0.031388 0.960765 
0.142191 -0.38346 -0.090343 0.558079 0.163116 -0.813554 
0.168071 -0.481647 -0.091766 0.664791 0.063042 -0.74371 
-0.105323 -0.011547 -0.095612 -0.836104 -0.032216 -0.547245 
0.002498 0.862155 0.005396 -0.346895 0.920907 0.071467 
-0.014807 -0.417318 -0.070674 0.667724 0.145968 -0.729731 
-0.062292 0.554207 0.022294 -0.187543 0.743349 0.641962 
0.047366 0.811607 0.075618 0.216339 0.434965 0.874018 
0.20802 -0.04192 -0.017451 0.972778 0.0094 -0.230953 
-0.249258 0.368036 0.018823 0.022521 -0.113322 0.992939 
-0.10379 0.566716 -0.010736 -0.149569 0.972708 0.150333 
0.437698 0.201197 -0.089517 -0.449096 -0.880301 -0.015118 
-0.046463 -0.087354 -0.111729 -0.017319 -0.230561 -0.972572 
0.377809 0.349362 -0.081804 0.667199 0.688791 0.268322 
0.187013 -0.587816 -0.069535 0.748875 -0.040744 -0.661249 
0.008732 -0.644024 0.014644 0.688278 -0.126726 0.712289 
0.492132 0.172406 0.006131 -0.546225 -0.800394 0.209207 
-0.112771 0.280819 -0.039094 -0.994627 -0.101683 -0.015902 
0.040584 0.501348 0.066745 0.088592 0.485877 0.869458 
-0.081542 0.532005 -0.10281 -0.335062 0.403663 -0.847081 
0.157551 -0.864544 0.096394 0.285235 -0.955725 0.011864 
0.094632 -0.50584 -0.097446 -0.557181 -0.020469 -0.83006 
0.325617 0.44178 -0.092768 0.709661 0.684411 -0.158468 
-0.063965 0.507292 0.059871 -0.14437 0.444227 0.884133 
-0.085949 -0.243336 0.110959 -0.180316 -0.03651 0.982867 
0.187717 0.006682 -0.070075 0.83845 0.135101 -0.526484 
-0.080696 0.014429 0.117234 -0.458149 0.296804 0.837529 
0.194754 -0.159831 0.065473 0.908295 -0.036372 0.413268 
0.258455 0.466003 -0.003589 0.43468 -0.024578 0.894436 
0.095936 -0.412015 -0.095681 -0.475468 0.019272 -0.877783 
-0.186855 0.366689 0.002419 0.496774 -0.677052 0.541861 
-0.034483 0.583514 -0.010472 -0.360591 0.742205 0.558784 
-0.121996 0.361361 -0.062128 -0.977801 -0.179824 -0.088075 
-0.08233 0.33792 0.078696 -0.718845 -0.020588 0.691072 
0.181365 0.127804 0.050823 0.816074 0.112805 0.561733 
0.068999 -0.820848 -0.035824 -0.760673 -0.586086 -0.059834 
0.110622 -0.078749 -0.132061 0.119063 -0.389142 -0.91197 
-0.036664 -0.526545 -0.097496 0.319446 0.036504 -0.945527 
0.026175 -0.35846 0.022164 0.984183 -0.095322 0.14268 
0.581377 0.058647 0.029224 -0.891634 -0.426684 0.127588 
-0.370668 0.238397 -0.078698 -0.024032 -0.334862 -0.940063 
-0.024897 0.582806 -0.003261 -0.490721 0.594032 0.632391 
-0.125308 -0.344921 0.047458 -0.990218 0.052007 0.128615 
-0.183701 0.388166 0.019337 0.29266 -0.476637 0.827514 
0.080637 -0.577317 0.021316 -0.684338 -0.05154 0.727253 
-0.335018 0.327148 -0.074544 -0.494295 0.738286 -0.45159 
-0.035136 -0.861192 -0.0818 0.305117 -0.933631 0.14402 
-0.004307 -0.81806 -0.118363 0.8255 -0.366527 -0.423212 
0.145103 -0.835204 0.161527 0.465257 0.844239 0.255001 
0.198795 -0.289671 0.045485 0.924927 -0.073362 0.371327 
-0.028436 -0.326955 -0.082617 0.53 -0.092768 -0.840845 
0.495366 0.170235 -0.039586 -0.454162 -0.853373 -0.217615 
0.112993 -0.151668 0.107676 -0.293363 -0.28203 0.898368 
0.059463 -0.316945 0.053108 -0.70311 -0.125092 0.696398 
0.386111 0.255688 -0.118468 -0.517158 -0.520907 -0.672584 
0.011022 0.604332 -0.079438 -0.13043 0.629737 -0.764881 
0.086269 -0.827947 -0.029545 -0.766569 -0.609726 -0.001973 
0.159715 -0.188022 0.093565 0.260008 -0.102731 0.95982 
-0.021595 -0.806219 0.045821 0.895513 0.308742 0.297523 
-0.015537 -0.817036 -0.135259 0.713837 -0.338419 -0.6068 
0.162549 0.334341 -0.097871 0.701037 -0.3143 -0.63964 
-0.107535 -0.022958 -0.091232 -0.816338 -0.061244 -0.574299 
0.629084 0.035874 0.078653 -0.862138 -0.479766 0.004097 
-0.146515 0.40572 0.017555 0.51546 -0.732655 0.440078 
-0.029937 0.841192 -0.002019 -0.675804 0.713753 0.169583 
0.075527 -0.719722 0.035795 -0.056303 -0.040943 0.995748 
0.063137 0.830554 0.054656 0.504717 0.609614 0.611008 
0.139745 0.194801 -0.092535 0.68674 -0.016181 -0.726365 
0.166612 -0.858588 0.147456 0.910436 -0.265788 0.243458 
0.139249 -0.031437 0.113221 0.353574 -0.024185 0.935045 
-0.125829 -0.334717 0.040771 -0.992056 -9.7e-05 0.124931 
0.074487 -0.81957 -0.064029 -0.825655 -0.479049 -0.252213 
0.089861 0.83046 -0.003697 0.951269 0.301442 0.050254 
-0.021454 0.372789 -0.129172 -0.012021 -0.023014 -0.999581 
0.186615 -0.437155 0.052146 0.882491 -0.085333 0.461691 
-0.320782 0.34707 -0.043843 -0.689305 0.722987 -0.028736 
0.089019 -0.138288 0.095905 -0.536632 -0.029895 0.843106 
-0.081995 -0.862138 -0.088385 -0.130115 -0.990345 -0.010377 
-0.37209 0.228992 0.010463 0.090373 -0.015038 0.995276 
-0.147066 0.534934 -0.064758 -0.466513 0.690026 -0.551986 
-0.048196 -0.76334 0.021302 0.218247 0.668007 0.705903 
-0.119308 -0.211965 -0.034394 -0.865268 -0.096282 -0.491503 
-0.111585 0.026399 -0.084132 -0.85014 0.13157 -0.506683 
0.160567 0.313348 -0.090959 0.673974 -0.260334 -0.663575 
0.172466 -0.803794 -0.083214 0.887449 -0.184579 -0.408374 
0.113196 -0.323644 -0.099262 0.188338 0.025664 -0.976722 
0.072635 -0.705056 0.034585 -0.160564 0.165781 0.970725 
-0.197311 0.455914 -0.082199 -0.378025 0.41558 -0.824981 
0.067785 -0.747227 0.027496 0.026025 -0.540076 0.791382 
0.119642 0.582637 -0.084868 0.337414 0.824599 -0.453015 
0.306684 0.380212 -0.14325 0.02559 -0.179719 -0.980943 
0.186431 0.452932 -0.135752 0.146803 -0.052993 -0.9877 
-0.098296 0.081377 0.086266 -0.400552 0.487916 0.773468 
0.02415 0.235162 0.128071 -0.013401 0.028982 0.999458 
-0.115157 0.549007 -0.06912 -0.373189 0.767161 -0.51974 
-0.112283 0.255652 -0.007752 -0.998966 0.037016 -0.002027 
0.146527 -0.865648 -0.093139 0.561048 -0.763754 -0.301465 
0.058773 0.217687 -0.126242 -0.209013 -0.302174 -0.929202 
0.150502 -0.307087 -0.077865 0.606292 0.01618 -0.795006 
0.187516 -0.553263 -0.070755 0.733078 -0.030456 -0.679183 
0.008476 -0.748005 -0.016227 0.601276 -0.431177 0.665431 
0.20742 -0.170774 -0.022871 0.997831 -0.003661 -0.064031 
-0.52825 0.079291 0.030897 0.458817 -0.637062 -0.61742 
0.103368 0.052936 0.118949 0.393639 0.163388 0.903729 
-0.113315 -0.513139 0.034634 -0.852168 -0.117915 0.507889 
0.004637 -0.53758 0.021261 0.699786 -0.169095 0.693932 
-0.288298 0.395011 -0.025696 -0.782329 0.568584 0.221507 
0.158988 0.40653 0.062912 0.726339 0.031312 0.686592 
-0.242341 0.337046 -0.086938 0.408243 -0.487431 -0.770429 
-0.037898 -0.104477 0.127596 -0.052541 -0.07186 0.994596 
-0.381228 0.225496 -0.073718 -0.114506 -0.298066 -0.945365 
-0.016924 0.016897 -0.14421 -0.189055 -0.313063 -0.92918 
-0.537432 0.067444 0.067838 0.396749 -0.905238 0.12006 
-0.376738 0.240537 0.010675 0.053109 0.054783 0.997023 
0.10722 -0.779027 0.039738 -0.009384 0.787704 0.608282 
0.148928 0.574175 -0.077347 0.338281 0.868598 -0.355536 
0.02643 0.070934 -0.145581 -0.146345 0.223231 -0.963367 
-0.026316 0.706289 0.019004 -0.911471 -0.388954 0.118714 
-0.050124 -0.391381 -0.082436 0.157647 -0.094097 -0.97821 
-0.001458 0.320816 -0.128886 0.12347 0.047708 -0.990927 
0.322985 0.396462 -0.035009 0.646266 0.17957 0.726277 
0.001168 0.009267 -0.145057 -0.146718 -0.245423 -0.953941 
0.055498 0.852063 0.042035 0.425449 0.65904 0.61867 
-0.064532 -0.863643 0.018972 -0.006111 -0.999856 -0.014786 
0.076764 0.655234 -0.043043 0.788633 0.088305 -0.607637 
0.030685 0.365614 -0.12826 -0.144954 -0.03909 -0.988363 
-0.077009 -0.169332 0.117279 -0.263497 -0.145574 0.953463 
-0.11923 -0.793778 -0.054994 -0.955757 -0.256914 -0.06216 
-0.135066 -0.251516 0.031546 -0.996566 -0.075471 0.019417 
-0.083621 0.172398 -0.07831 -0.622151 0.071221 -0.779395 
0.379212 0.316406 -0.048149 0.276823 0.420572 0.863725 
0.107991 -0.870529 -0.083186 -0.038242 -0.995499 0.002172 
0.098412 -0.473167 -0.100169 -0.519897 0.034897 -0.853121 
0.138616 0.115931 -0.106564 0.663304 0.212441 -0.717318 
0.05291 0.274958 -0.131912 -0.375469 -0.075008 -0.922721 
-0.013807 0.140352 0.125991 -0.428521 0.026219 0.897239 
0.070683 0.043039 0.134409 0.227805 0.185021 0.953461 
-0.016963 -0.278151 -0.080945 0.649978 -0.095973 -0.753611 
0.180628 -0.674056 -0.057077 0.697953 -0.314182 -0.642496 
0.415424 0.312269 -0.069035 0.642156 0.693625 0.31383 
-0.143341 -0.134594 -0.001911 -0.983686 -0.044513 -0.164754 
-0.090763 0.265432 -0.093986 -0.686306 -0.124938 -0.716412 
-0.082637 0.201773 0.08463 -0.618285 0.063214 0.783026 
0.02207 -0.524587 -0.02767 0.906221 -0.044149 -0.41527 
0.090223 -0.848593 0.128788 -0.917486 0.341662 0.180926 
-0.075184 0.467486 -0.127677 -0.235551 0.056555 -0.968636 
0.027107 -0.13343 -0.051998 -0.938326 -0.25484 -0.232969 
0.44354 0.23503 -0.020448 -0.390232 0.109784 0.886345 
0.055194 0.765467 0.072178 0.538929 -0.240103 0.804362 
0.096705 -0.302328 0.07799 -0.407453 -0.214829 0.886787 
0.181033 -0.335321 -0.049611 0.734975 0.052472 -0.6759 
0.199681 -0.411619 -0.034143 0.96466 -0.060693 -0.251709 
-0.103924 0.479802 -0.115605 -0.443408 0.198374 -0.872664 
0.073895 0.137735 0.126599 0.366082 0.062201 0.920356 
0.088325 0.83129 -0.056669 0.884758 0.420319 -0.176387 
0.032928 -0.229221 -0.034662 -0.490445 -0.075462 -0.84587 
-0.109884 0.565098 -0.003127 -0.133751 0.935043 0.293647 
0.117462 0.071477 0.107072 0.408949 0.157883 0.897061 
-0.251558 0.377884 -0.096917 -0.101538 0.166875 -0.978509 
0.157357 -0.640173 -0.085492 0.517392 -0.180604 -0.8364 
-0.087948 0.161596 0.080003 -0.678081 -0.025103 0.734394 
0.142661 0.131745 -0.097963 0.705421 0.198913 -0.679906 
0.010078 0.100185 0.135845 -0.075222 0.129221 0.986801 
0.165962 0.078307 0.084669 0.682749 0.262117 0.676805 
-0.310006 0.239182 -0.042079 0.522283 -0.849775 -0.056536 
-0.007937 -0.711936 -0.092577 0.560534 0.314327 -0.765947 
0.175951 -0.745509 -0.04566 0.848819 -0.052627 -0.519712 
0.20111 -0.331886 0.030899 0.935691 -0.055112 0.348041 
-0.120285 -0.662883 -0.08239 -0.81176 -0.007445 -0.582837 
0.192276 -0.503493 0.02583 0.939031 -0.020095 0.340141 
-0.11461 0.338758 0.019063 -0.94429 -0.17459 0.275769 
-0.024739 -0.407848 0.078556 0.439541 -0.198989 0.873746 
0.017429 -0.196062 0.081708 0.920752 -0.056765 0.367694 
-0.004856 -0.53552 -0.074785 0.79121 0.032944 -0.610533 
0.067846 -0.663553 0.017168 -0.408042 0.341304 0.845291 
0.499006 0.172005 0.01594 -0.533703 -0.706515 0.440407 
0.041485 -0.305161 -0.041602 -0.871572 -0.018909 -0.489496 
0.093331 -0.848555 -0.10284 -0.84067 -0.022113 -0.529651 
0.064089 -0.335448 -0.073718 -0.770656 -0.053446 -0.634951 
-0.061408 -0.357433 -0.086292 -0.231542 -0.067448 -0.967583 
0.042998 0.772938 -0.119968 0.208327 0.016093 -0.972925 
0.109691 -0.855501 0.172394 -0.678125 0.276843 0.65028 
-0.258166 0.430263 -0.039714 -0.742596 0.664472 -0.072253 
0.013094 -0.383423 0.049377 0.856066 -0.131577 0.499366 
0.186476 0.433489 0.040616 0.554622 0.019343 0.829522 
0.26962 0.495084 -0.026437 0.708788 0.507876 0.483736 
0.178072 -0.188165 0.086555 0.484843 -0.07388 0.86987 
0.590628 0.10478 0.002582 0.544434 0.195539 -0.814417 
-0.065363 -0.187029 -0.092567 -0.336576 -0.116784 -0.932864 
-0.128026 0.139273 0.009823 -0.992333 0.049339 0.104427 
0.109587 0.003325 -0.150781 0.379039 0.070328 -0.92155 
0.127822 -0.824217 -0.11605 0.239816 -0.071512 -0.955394 
-0.115965 -0.747891 -0.076484 -0.845603 0.049566 -0.528428 
0.087305 -0.64392 -0.077432 -0.656168 -0.055953 -0.752061 
-0.092431 -0.610307 0.052405 -0.125964 -0.233167 0.954333 
0.038208 -0.256167 -0.035961 -0.802995 0.014819 -0.592307 
0.146166 -0.054144 -0.125124 0.594052 -0.22696 -0.771439 
0.181633 0.253482 -0.023834 0.980166 -0.012323 -0.193958 
-0.131973 0.065927 -0.001944 -0.887657 0.444513 -0.019037 
0.075285 0.819888 0.04918 0.810773 0.417917 0.408084 
0.164652 -0.863458 0.086293 0.146352 -0.986176 0.000524 
0.206191 0.043324 0.01378 0.995314 0.0858 0.032162 
0.099129 0.451126 -0.146245 -0.108852 0.026312 -0.993322 
-0.152898 0.383354 -0.025271 0.745672 -0.664597 0.028976 
-0.079237 0.403476 0.085898 -0.649478 0.01786 0.759542 
0.08242 0.618742 -0.007017 0.93447 0.066192 0.343273 
-0.074763 -0.57009 0.056829 0.420882 -0.168688 0.890923 
0.171494 0.036538 -0.096892 0.790373 0.125181 -0.597883 
0.526437 0.14964 0.022338 -0.722636 -0.316111 0.586618 
0.214509 -0.112795 0.004077 0.999581 -0.005448 0.00295 
-0.090627 -0.858225 -0.033471 -0.596337 -0.794897 -0.064427 
-0.040985 0.182619 0.109864 -0.555607 0.088195 0.826369 
0.119913 -0.779698 -0.108463 -0.174544 0.45193 -0.869523 
0.211535 0.412928 -0.051608 -0.458375 -0.797533 0.107016 
-0.093934 0.560249 -0.070268 -0.460561 0.700711 -0.544834 
0.313187 0.42295 -0.038759 0.753264 0.24976 0.607093 
-0.092444 -0.424413 -0.072615 -0.551254 0.328243 -0.765698 
0.164028 0.551726 -0.100462 0.31106 0.718079 -0.621861 
-0.03876 0.473525 0.081245 -0.154225 0.357832 0.920115 
-0.07486 -0.239363 -0.086835 -0.500804 -0.026989 -0.860652 
0.18151 -0.144007 0.087171 0.636126 -0.012046 0.771128 
-0.191685 0.518044 -0.010162 -0.6541 0.746404 0.095236 
0.194401 -0.528329 -0.061486 0.843502 0.005996 -0.536735 
0.210001 0.555527 -0.065122 0.519425 0.774625 -0.339473 
-0.137854 -0.088038 0.051477 -0.969648 0.013581 0.242322 
0.176263 -0.035351 0.08778 0.69863 0.021041 0.715118 
-0.139121 0.019797 0.037118 -0.973722 0.107699 0.19155 
-0.113936 0.238052 0.019905 -0.974545 0.208326 0.070512 
0.003065 -0.827484 -0.048417 0.901248 -0.424613 0.064981 
0.039906 -0.367067 -0.008571 -0.956959 -0.161783 0.240432 
-0.123962 -0.306196 -0.026945 -0.878655 0.049973 -0.470131 
0.108523 0.744312 -0.013736 0.97729 0.098634 0.075504 
-0.128638 -0.56249 -0.010418 -0.966789 -0.100787 0.234766 
0.087037 -0.667005 -0.07571 -0.697754 -0.01117 -0.71476 
0.067017 0.777602 0.07541 0.47953 -0.286123 0.788033 
-0.136615 -0.410296 0.007675 -0.995194 0.08369 0.048467 
0.20398 -0.35134 0.013672 0.97446 -0.103804 0.194192 
-0.222084 0.388787 -0.09619 -0.021536 0.054848 -0.997649 
0.12477 0.096436 -0.123837 0.596259 0.287603 -0.748751 
0.083493 -0.624724 0.013596 -0.744331 -0.171673 0.643779 
-0.115901 -0.492881 -0.068326 -0.748174 0.097749 -0.655672 
0.126762 0.415308 0.082864 0.326698 0.131393 0.935261 
0.482521 0.246936 -0.058708 0.75577 0.652068 -0.039558 
-0.012649 0.473233 0.084321 -0.061815 0.454527 0.886606 
0.447327 0.211963 -0.093569 0.83807 -0.119481 -0.529108 
-0.019502 0.304705 0.113649 -0.180599 0.057585 0.978725 
0.017382 -0.267685 0.072592 0.895684 -0.078225 0.428586 
-0.011832 0.576041 -0.097215 -0.114005 0.556649 -0.822526 
0.017817 0.568449 -0.103935 -0.064723 0.439211 -0.895251 
0.588724 0.098306 0.066431 -0.370739 -0.177692 0.835801 
0.120027 -0.869026 0.122015 -0.008621 -0.998772 0.046397 
-0.075035 -0.359308 0.100407 0.165671 -0.19731 0.966105 
0.047136 0.6492 0.042262 0.305399 -0.622326 0.715085 
-0.052283 0.571147 -0.0879 -0.394807 0.631322 -0.666823 
-0.108023 -0.305601 0.099039 -0.681016 -0.0506 0.729452 
-0.004346 -0.507721 0.036691 0.62131 -0.221428 0.751302 
0.064692 -0.423992 -0.068206 -0.744658 -0.000454 -0.667369 
-0.09593 0.204505 -0.061887 -0.787244 0.046291 -0.611727 
-0.085826 -0.395002 0.094654 0.064316 -0.201428 0.977217 
0.024313 0.674335 0.093355 -0.272051 0.413441 0.86218 
0.209265 0.416639 -0.020294 0.39193 -0.851212 0.186373 
-0.026777 -0.53763 -0.093689 0.445095 0.019133 -0.894739 
0.031725 0.772611 0.088637 -0.108714 0.089412 0.983323 
-0.022163 -0.329666 0.09126 0.392322 -0.113257 0.911933 
-0.326725 0.318165 -0.088259 -0.343519 0.472986 -0.807307 
0.044354 -0.472324 -0.02306 -0.980778 -0.022246 0.17678 
0.141943 0.340321 -0.119885 0.662977 -0.173535 -0.727925 
0.121554 0.464441 -0.145951 0.052155 0.075672 -0.995494 
0.20521 0.042243 -0.01332 0.980057 0.092145 -0.165765 
-0.053728 0.50829 0.061166 -0.181863 0.463747 0.866779 
0.104331 0.771608 -0.002998 0.984245 -0.04351 0.155444 
-0.058474 -0.11245 0.122724 -0.214846 -0.028987 0.975822 
0.18732 -0.757359 -0.032292 0.843739 -0.067709 -0.529343 
0.164203 -0.12622 -0.093649 0.674631 -0.242592 -0.696365 
0.099497 0.799866 -0.058165 0.936723 0.228967 -0.250023 
0.089182 -0.835681 0.051979 -0.981134 0.185421 0.022579 
0.055263 -0.011024 -0.152265 -0.235569 -0.234141 -0.940321 
0.044315 -0.522237 -0.025214 -0.990933 0.001239 0.103732 
-0.038172 -0.744283 0.012012 0.405228 -0.703197 0.580219 
0.038578 0.129002 -0.128128 -0.110103 0.422944 -0.899375 
0.114992 0.300287 -0.135166 0.439149 -0.051813 -0.893695 
-0.136123 -0.093606 0.059766 -0.954463 0.004164 0.293783 
0.354748 0.372997 -0.084339 0.719923 0.659435 0.21141 
0.189261 -0.298323 0.064463 0.836353 -0.082353 0.528133 
0.157328 -0.860414 -0.035394 0.579814 -0.779841 0.159468 
0.098523 -0.856427 0.15795 -0.866091 -0.10944 0.399708 
-0.004413 -0.435148 0.05611 0.774098 -0.176405 0.606256 
0.38396 0.266427 -0.123578 -0.353266 -0.421619 -0.833323 
0.089211 0.168819 0.118513 0.421051 0.052406 0.903155 
-0.062489 -0.017844 -0.129315 -0.259031 -0.117997 -0.957764 
0.108781 0.061317 0.114229 0.500775 0.112743 0.857611 
-0.11488 -0.163357 -0.05152 -0.794776 -0.127935 -0.593125 
0.188835 -0.401142 0.051699 0.916561 -0.028831 0.397562 
0.01627 0.359909 0.111954 0.016506 0.179155 0.98328 
0.038208 -0.338239 0.000841 -0.868223 -0.162688 0.463675 
-0.114904 -0.157467 0.098848 -0.706911 -0.044735 0.704684 
-0.183498 0.418633 0.031557 0.135439 -0.403018 0.902437 
0.006462 -0.181987 0.100559 0.681643 -0.084089 0.722224 
0.114835 0.235533 0.103198 0.468415 0.054085 0.880206 
0.050914 -0.341198 0.03672 -0.729807 -0.216165 0.644106 
0.138259 0.026056 0.113792 0.396146 0.14871 0.904797 
0.087667 0.041543 -0.157245 0.286031 0.226068 -0.926745 
-0.020717 -0.823417 0.041615 0.848312 -0.412445 0.300001 
-0.013783 -0.757831 -0.115046 0.68199 0.337133 -0.647987 
-0.189513 0.51299 0.015886 -0.6564 0.627789 0.418075 
-0.10296 -0.826479 -0.069468 -0.963569 -0.185525 -0.14011 
-0.170935 0.50652 -0.072035 -0.580318 0.428885 -0.691191 
0.153357 -0.03846 0.106269 0.568742 -0.003761 0.821497 
0.082666 0.681942 0.033383 0.821106 -0.55631 0.116414 
0.064343 -0.793496 0.009028 -0.776361 -0.521888 0.335766 
0.077302 0.68181 0.062111 0.846608 -0.397755 0.349352 
0.083389 -0.587555 0.022927 -0.699455 -0.07358 0.710621 
-0.526286 0.069617 0.06072 0.208984 -0.974801 0.034941 
-0.109048 0.180114 0.056789 -0.814067 -0.037669 0.579537 
0.168956 -0.280285 -0.066264 0.605121 -0.1638 -0.778704 
0.201218 -0.160406 0.046349 0.942477 -0.160305 0.289729 
-0.039827 0.773813 -0.024329 -0.994908 0.082145 0.038388 
-0.137173 -0.443252 -0.019563 -0.973371 0.106078 -0.196295 
0.336117 0.346977 -0.137365 0.061005 -0.061189 -0.99455 
0.198112 0.460927 -0.134584 0.091022 -0.024283 -0.995232 
-0.402958 0.190527 -0.053063 0.250679 -0.726141 -0.629777 
-0.06956 0.581496 -0.026676 -0.183521 0.953616 0.194616 
0.064105 0.583521 0.016721 0.529724 0.056389 0.843908 
0.182506 -0.46233 -0.075232 0.741574 0.138495 -0.655743 
0.131648 -0.462283 -0.10527 0.128606 0.103699 -0.985047 
0.3833 0.239578 -0.083289 -0.649323 -0.756205 -0.047912 
0.285218 0.362706 -0.02736 -0.131955 -0.628671 0.737077 
0.158615 -0.864472 0.07315 0.262601 -0.96078 -0.005358 
-0.054142 0.455203 -0.131402 -0.102599 -0.006763 -0.994108 
-0.080646 -0.403568 0.091665 0.10843 -0.210888 0.969879 
-0.034066 -0.346305 -0.083811 0.509605 -0.097395 -0.854622 
-0.03463 -0.155611 0.122998 0.017438 -0.053324 0.99692 
-0.202335 0.342274 -0.051155 0.612099 -0.769258 -0.167248 
0.141584 -0.676169 -0.089928 0.445085 -0.019279 -0.894623 
-0.024403 0.764067 0.040104 -0.860014 0.141246 0.489777 
0.041997 -0.393147 -0.027182 -0.985317 -0.128979 -0.081015 
0.037003 0.626507 0.030556 0.032192 -0.450037 0.886621 
-0.458659 0.18275 -0.037186 -0.623297 0.403072 -0.66868 
0.411842 0.239022 -0.036409 -0.313997 -0.564248 0.745809 
0.126986 -0.869992 -0.073626 0.023489 -0.999615 0.014349 
0.019112 0.308854 -0.12709 0.060886 0.046094 -0.995775 
0.192678 0.404286 -0.117221 0.493126 -0.480175 -0.721692 
-0.109198 -0.11109 -0.069207 -0.754405 -0.099019 -0.64884 
0.019608 -0.168392 0.078905 0.943568 -0.107895 0.308333 
0.158873 0.18393 -0.072968 0.761552 0.06238 -0.644996 
0.053307 -0.680965 -0.025201 -0.951135 -0.076868 -0.279925 
0.187072 -0.525366 0.034534 0.838988 -0.08389 0.537263 
0.082521 0.298713 -0.141377 -0.094369 -0.108839 -0.985951 
0.170147 0.269534 0.046467 0.780614 0.061707 0.619348 
-0.207571 0.492553 -0.043156 -0.711676 0.559365 -0.421825 
-0.023261 -0.147156 0.123625 0.208948 -0.101447 0.972224 
0.103364 -0.681951 -0.088813 -0.477151 0.063457 -0.874437 
0.024131 -0.126701 0.09178 0.810329 -0.274071 0.517851 
0.120408 0.041815 -0.142553 0.484265 0.20781 -0.849226 
0.195101 -0.729583 -0.00712 0.54722 0.089789 0.821355 
0.148251 -0.58617 0.041733 -0.004964 -0.122932 0.992005 
-0.054834 -0.671299 -0.109201 0.205307 0.173989 -0.962846 
0.30311 0.337195 -0.126969 -0.498046 -0.481092 -0.719939 
0.245609 0.368143 -0.069649 -0.700339 -0.710467 0.058795 
-0.181891 0.527504 -0.027639 -0.69385 0.706861 -0.13079 
0.199194 0.389878 -0.052353 0.993627 -0.109211 0.01721 
-0.127766 0.002296 -0.055295 -0.925333 0.073116 -0.371174 
-0.13564 -0.231934 0.042509 -0.99553 -0.051648 0.070573 
0.07227 -0.205465 -0.088313 -0.515367 -0.220848 -0.825616 
0.058436 -0.166602 -0.087053 -0.64761 -0.186447 -0.738282 
0.138249 -0.161138 0.103775 0.184069 -0.285426 0.938756 
-0.02396 -0.087624 0.128462 0.038589 -0.055794 0.997315 
0.540365 0.17836 0.022908 0.178859 0.594253 0.723664 
0.149968 -0.282495 -0.079492 0.586868 -0.101491 -0.80315 
-0.081154 -0.232109 -0.083199 -0.576691 -0.034157 -0.815363 
-0.093157 0.488041 0.061785 -0.176608 0.351318 0.917843 
-0.077552 0.008544 -0.123847 -0.573574 -0.040004 -0.817585 
0.148364 -0.403376 -0.089932 0.527134 0.097428 -0.843615 
0.053476 -0.401606 -0.055959 -0.764761 -0.013528 -0.644114 
0.203905 -0.355626 -0.023121 0.961963 0.079228 -0.256817 
0.045089 -0.534387 -0.020007 -0.954975 0.006862 0.256739 
0.192132 -0.356635 -0.044642 0.690038 0.267726 -0.667351 
0.064065 -0.046016 -0.140204 -0.293671 -0.413928 -0.861525 
0.179758 -0.770954 -0.053721 0.769976 0.538651 -0.337642 
0.135809 -0.628873 -0.096582 0.182527 -0.114371 -0.973458 
0.162967 -0.361888 -0.070612 0.621448 0.16893 -0.764439 
0.071721 0.79604 -0.10542 0.600208 0.122996 -0.78798 
0.005127 0.394141 0.104844 0.047245 0.145917 0.987541 
0.173511 0.288765 0.04182 0.895208 -0.047316 0.431871 
0.107206 -0.861564 -0.114768 -0.405507 -0.22478 -0.851683 
-0.231627 0.386161 -0.096268 -0.005313 0.109956 -0.993261 
-0.101322 0.534171 -0.092612 -0.372797 0.573792 -0.728922 
0.00028 -0.110973 -0.083139 0.733515 -0.350509 -0.581391 
0.40794 0.279322 -0.127592 0.154074 0.084345 -0.980435 
-0.113838 -0.572422 -0.083056 -0.683748 0.0423 -0.728321 
0.074968 0.627418 0.007807 0.814577 -0.120724 0.565847 
-0.105805 -0.83657 0.032598 -0.768378 0.639336 0.021084 
0.377705 0.343566 -0.069895 0.620147 0.653406 0.432404 
0.149904 -0.841731 0.169895 0.640076 0.660677 0.360109 
-0.405637 0.224352 -0.065407 -0.419287 -0.145146 -0.895582 
0.204923 0.034162 -0.018885 0.975319 0.087262 -0.197217 
0.485056 0.1774 -0.005742 -0.570197 -0.818241 0.053516 
-0.23603 0.314588 -0.047954 0.748451 -0.656605 -0.084785 
0.073172 0.722188 -0.086836 0.574853 -0.494224 -0.646859 
0.528795 0.158537 0.025445 -0.523287 0.063701 0.845131 
-0.10273 0.102347 -0.07531 -0.789491 0.162619 -0.588893 
0.023717 -0.042754 0.124263 -0.012054 -0.408013 0.903911 
0.097722 -0.016882 0.12858 0.206181 -0.029499 0.976473 
-0.035398 0.729647 -0.011519 -0.924826 -0.210799 0.300518 
0.045191 -0.196715 -0.05851 -0.869185 -0.154231 -0.454678 
-0.091869 -0.856921 -0.046506 -0.629303 -0.759892 0.08064 
-0.136175 -0.429834 0.016928 -0.986504 -0.012746 0.161321 
0.019282 -0.215065 0.073027 0.958379 -0.02862 0.280518 
0.18477 0.019799 -0.076067 0.88619 -0.004683 -0.462961 
0.590984 0.122108 0.035866 0.727253 0.685714 0.010974 
-0.287503 0.297021 0.00412 0.198777 -0.290523 0.93352 
0.349995 0.282501 -0.110005 -0.611149 -0.679994 -0.401937 
0.062541 -0.74016 0.033937 -0.271797 -0.366807 0.880694 
-0.02736 0.446686 0.092137 -0.190837 0.30972 0.930756 
0.15804 -0.762183 -0.08427 0.766784 0.338086 -0.537681 
0.013492 -0.262101 0.080262 0.801032 -0.1242 0.584649 
0.029347 0.060665 0.13536 0.083956 0.062283 0.99438 
-0.177394 0.378248 0.007048 0.507487 -0.625306 0.592146 
-0.111972 0.384548 0.055815 -0.740843 -0.295086 0.601902 
-0.114326 0.358869 0.032541 -0.916306 -0.250426 0.310707 
0.143052 -0.400455 0.072982 -0.178314 -0.137991 0.972672 
0.128829 -0.019215 -0.143825 0.405129 -0.030917 -0.908231 
0.13242 0.52742 0.02971 0.255498 0.634123 0.729655 
0.10169 -0.84853 -0.110742 -0.560433 0.08882 -0.818527 
-0.049178 -0.863475 0.019704 0.046989 -0.998038 -0.037137 
0.563712 0.110005 0.052977 -0.636836 -0.014516 0.767057 
0.126209 0.065838 0.106369 0.077739 0.203487 0.973826 
-0.060921 0.484914 -0.12785 -0.102165 0.201441 -0.973821 
-0.012746 -0.117006 -0.092481 0.581038 -0.298144 -0.756262 
0.100245 -0.577005 0.032021 -0.387601 -0.151759 0.908678 
-0.144334 -0.105719 0.005244 -0.999275 -0.003739 -0.031664 
-0.008655 -0.169445 -0.077322 0.629108 -0.05701 -0.774006 
0.146219 0.135347 0.085051 0.683668 0.027082 0.729192 
0.052414 0.016452 -0.157232 -0.14488 -0.319927 -0.934792 
0.024097 -0.15541 -0.028521 -0.117851 -0.238249 -0.843319 
-0.125836 -0.291116 -0.02102 -0.95099 0.022092 -0.296343 
0.359397 0.307485 -0.131606 -0.098337 -0.243004 -0.962558 
0.196189 -0.663346 -0.041865 0.914569 -0.20752 -0.335662 
0.126232 -0.688833 0.028671 0.192897 -0.184141 0.962804 
0.171308 -0.249107 -0.071806 0.519087 -0.150863 -0.841269 
0.171751 -0.599757 0.028582 0.515148 -0.40336 0.755092 
0.007747 0.816843 -0.106376 -0.317246 0.579746 -0.747358 
0.01425 -0.599657 0.007141 0.606934 0.087965 0.789279 
0.135684 -0.868141 -0.037014 0.05404 -0.99395 0.0848 
0.189849 0.468409 0.032744 0.462513 0.214865 0.859345 
0.017536 0.319208 0.119477 -0.158142 0.170631 0.970088 
0.33686 0.4258 -0.086898 0.778248 0.62375 0.066086 
0.142861 -0.456452 -0.101676 0.334015 0.138053 -0.932288 
0.186499 0.357973 0.017263 0.90498 -0.149379 0.397522 
0.08365 0.67132 -0.018235 0.988178 -0.071479 -0.120512 
-0.127442 -0.513631 0.011772 -0.863878 -0.139193 0.483437 
-0.014686 0.854328 -0.007336 -0.481107 0.876075 0.02905 
0.151476 0.483099 -0.139491 0.210198 0.252864 -0.943351 
-0.052119 -0.505924 0.062012 0.385406 -0.25327 0.887217 
0.181266 -0.221858 0.079164 0.623052 -0.179031 0.756235 
0.064235 -0.345166 0.049997 -0.694278 -0.241991 0.675452 
-0.029298 0.727788 0.017952 -0.987828 0.028097 0.148454 
0.305154 0.341375 -0.043058 -0.276044 -0.517087 0.80838 
0.14925 0.408281 -0.134498 0.344918 -0.268537 -0.898218 
0.026038 -0.308808 0.04364 0.962831 -0.05839 0.240733 
-0.129172 -0.280656 0.042838 -0.988024 -0.139606 0.0602 
0.151368 0.578958 -0.053284 0.585379 0.795535 0.031991 
0.190135 -0.47625 -0.066741 0.842351 0.048048 -0.535827 
0.018031 -0.61959 0.004872 0.765738 0.016392 0.641269 
0.103201 0.238827 -0.134378 0.325733 -0.233016 -0.910436 
0.123651 -0.380432 -0.09993 0.340551 0.090121 -0.935613 
-0.128791 -0.360107 0.002739 -0.999888 0.009907 -0.001909 
0.051619 -0.674224 -0.012403 -0.998836 -0.033689 -0.022064 
0.051522 -0.652189 -0.02638 -0.982382 -0.088693 -0.144382 
0.000192 0.295009 -0.130046 0.145182 0.0414 -0.9884 
-0.100518 0.200333 0.069438 -0.693176 -0.011309 0.719621 
0.000196 -0.101197 0.121289 0.363608 -0.165344 0.916658 
-0.063234 -0.86279 -0.111645 -0.039435 -0.995378 -0.075345 
0.151238 -0.075375 -0.115655 0.659556 -0.162797 -0.733495 
-0.035227 -0.658915 0.023851 0.022656 -0.056032 0.990757 
0.093421 0.577591 -0.003956 0.476965 0.557177 0.67706 
-0.026435 0.110822 -0.125403 -0.243661 0.350909 -0.903502 
0.142587 -0.491257 -0.105167 0.286662 0.05383 -0.955823 
-0.105146 0.315658 -0.084402 -0.781672 -0.143769 -0.606605 
-0.115034 -0.254497 0.095549 -0.792529 -0.032983 0.580373 
0.635473 0.047775 0.085348 0.917013 0.366717 0.15461 
0.145498 -0.844627 0.17881 0.430396 0.48315 0.730824 
-0.081199 -0.848273 0.156554 -0.532125 0.011169 0.760314 
0.111301 0.21957 -0.12216 0.531542 -0.34568 -0.772779 
-0.083241 0.528194 0.044483 -0.055228 0.58349 0.809879 
-0.00708 -0.155197 -0.077339 0.732402 -0.095443 -0.673719 
0.156255 -0.238813 -0.082345 0.499987 -0.129494 -0.856265 
0.178355 0.140378 0.052434 0.755269 0.103008 0.647141 
-0.034888 0.835292 -0.037824 -0.710478 0.683207 -0.159849 
0.146914 -0.524536 -0.104138 0.367073 -0.009885 -0.929336 
0.125011 -0.86969 0.094582 -0.014384 -0.999744 0.017478 
0.160013 -0.863817 0.050391 0.228836 -0.970459 -0.028092 
0.133267 -0.852641 -0.117246 0.55613 -0.076085 -0.808772 
-0.182278 0.527277 -0.008526 -0.709503 0.695565 0.109997 
0.201249 -0.583256 -0.03162 0.991052 -0.067038 -0.110088 
0.405601 0.235474 -0.043562 -0.457061 -0.652214 0.600815 
0.088403 0.188366 0.118012 0.449381 0.024734 0.891399 
-0.035492 -0.85994 0.004032 0.411944 -0.891674 -0.148438 
-0.034686 0.797594 0.004613 -0.984354 0.023879 0.167405 
0.582293 0.12972 0.050868 0.708805 0.699691 0.082819 
0.109745 -0.507532 0.039277 -0.611405 -0.067516 0.788139 
0.180726 0.285719 0.020917 0.962122 -0.021484 0.267897 
0.135771 -0.822926 0.091903 0.21542 0.951869 0.213571 
-0.069424 -0.832697 -0.138387 -0.579757 -0.098733 -0.799934 
0.174371 0.201635 -0.04622 0.914871 0.019722 -0.403048 
0.135454 -0.11644 -0.116448 0.462039 -0.242623 -0.852865 
-0.101759 -0.838087 -0.067265 -0.877417 -0.442601 -0.168302 
-0.103238 -0.245132 -0.059397 -0.796345 -0.045891 -0.601148 
-0.079177 0.184939 -0.081887 -0.648513 -0.019114 -0.760383 
-0.08057 -0.568105 -0.101425 -0.246737 0.047587 -0.967269 
0.047158 0.072442 0.131482 0.224938 0.11892 0.966196 
0.102108 -0.863842 0.15098 -0.293424 -0.930518 0.208267 
-0.397295 0.275663 -0.025979 -0.698731 0.689221 0.183682 
0.611503 0.093237 0.065321 0.761017 0.646631 0.05025 
0.024423 -0.245945 0.055381 0.932261 -0.009624 0.36048 
-0.029784 0.717016 0.018558 -0.973749 -0.084131 0.175846 
0.101028 0.542224 0.032434 0.408236 0.568921 0.712235 
0.150573 -0.427727 -0.092233 0.468523 0.192391 -0.860808 
0.152556 0.062939 0.093295 0.346973 0.330247 0.87373 
0.079891 -0.309257 -0.089751 -0.603046 -0.01241 -0.79736 
0.01734 -0.738635 -0.023837 0.920063 -0.120725 0.367861 
0.206102 0.445987 -0.132541 0.058446 -0.173591 -0.980887 
0.151221 0.178674 0.077893 0.722589 0.033575 0.690458 
0.097934 -0.436246 -0.097524 -0.496853 0.031312 -0.865138 
0.034459 0.190369 0.129881 0.040036 0.025319 0.998828 
0.143039 0.161383 0.086933 0.699841 0.028031 0.713621 
-0.492336 0.159935 0.027669 -0.753756 0.65479 0.048128 
0.197154 -0.49068 -0.055479 0.924778 0.01147 -0.372552 
0.297227 0.368352 -0.138769 -0.170314 -0.408275 -0.896334 
0.002906 -0.000441 0.144376 -0.012057 0.232324 0.95894 
0.24305 0.435162 -0.136458 -0.15539 0.059637 -0.984686 
-0.02402 -0.787884 -0.142487 0.392813 0.407445 -0.822547 
-0.103134 0.048434 -0.090267 -0.797945 0.208029 -0.563033 
0.249176 0.513623 -0.093645 0.537591 0.644119 -0.543995 
-0.138747 0.032438 -0.00131 -0.955527 0.264319 -0.118149 
0.047782 -0.282073 0.043558 -0.858145 -0.04989 0.509315 
0.163662 -0.599007 0.033985 0.416832 -0.401699 0.81414 
-0.142928 -0.037177 0.008087 -0.988292 0.136281 0.013741 
-0.06539 -0.862912 -0.005859 0.004032 -0.999248 -0.038431 
-0.130235 0.117465 0.011095 -0.987465 0.087098 0.12327 
0.193222 -0.341308 -0.037578 0.752471 0.183232 -0.628313 
-0.126409 -0.721891 -0.034157 -0.968008 0.03685 0.236546 
0.519531 0.170551 -0.042648 0.275642 -0.371169 -0.879914 
-0.13642 -0.213619 0.040595 -0.997213 -0.051088 0.051166 
0.084432 -0.860793 0.104577 -0.788045 -0.540334 0.020548 
0.620933 0.057858 0.016926 -0.674308 -0.571618 -0.434745 
-0.094283 -0.681514 0.028646 -0.164714 -0.397129 0.900184 
-0.09615 0.059145 0.096196 -0.426261 0.233712 0.873371 
-0.030849 -0.693111 0.022463 -0.499065 0.039509 0.864403 
0.467914 0.218314 -0.008693 -0.423655 0.25407 0.868904 
0.19793 0.054678 0.049824 0.918708 0.220204 0.317767 
-0.134241 -0.027036 -0.040458 -0.948087 0.019849 -0.314438 
0.073088 0.310463 0.11248 0.334548 0.120061 0.932742 
-0.245669 0.44501 -0.038418 -0.760434 0.643373 -0.082364 
0.119717 -0.865664 0.14906 -0.07196 -0.986651 0.145792 
-0.296731 0.249035 -0.05601 0.56085 -0.792464 -0.226453 
0.254716 0.487707 -0.113927 0.473044 0.53993 -0.696151 
0.085968 -0.111579 0.096194 -0.572177 -0.146182 0.806684 
0.074622 -0.760617 -0.049716 -0.860219 0.216227 -0.461105 
-0.046951 0.383729 0.102733 -0.36237 0.123509 0.92353 
-0.008904 0.737719 0.065878 -0.58822 0.034536 0.802171 
-0.066227 0.448615 -0.129287 -0.170981 -0.066221 -0.98235 
0.054889 -0.664559 -0.033696 -0.87259 -0.149538 -0.463281 
0.166318 -0.524395 -0.093133 0.655581 -0.036781 -0.754148 
0.017459 0.284106 0.123423 -0.093854 0.14338 0.984447 
-0.121364 -0.674952 -0.016791 -0.972431 -0.052925 0.221495 
-0.001697 0.019745 -0.148719 -0.183692 -0.431189 -0.876213 
-0.117191 0.477856 0.061236 -0.033288 0.042061 0.998233 
-0.139162 0.025703 -0.008552 -0.971979 0.112526 -0.195502 
0.143191 0.276935 -0.10764 0.810233 -0.096189 -0.577374 
-0.037889 -0.603844 -0.097515 0.403661 0.012434 -0.914496 
-0.123166 -0.446902 0.049556 -0.859418 -0.187529 0.474047 
-0.033642 0.735674 -0.0028 -0.931619 -0.208921 0.291371 
-0.403319 0.263779 -0.011529 -0.689517 0.673461 0.264513 
0.076307 -0.481194 -0.082507 -0.702687 0.014661 -0.711297 
-0.128266 -0.062788 0.073578 -0.843613 0.028822 0.53578 
0.022497 -0.495593 -0.026085 0.863724 0.056637 -0.495678 
0.176412 0.435138 0.046799 0.528111 0.106876 0.842196 
-0.053411 0.374818 0.100807 -0.444517 0.087075 0.891315 
0.025817 -0.617579 -0.039936 0.934863 0.083492 -0.332206 
0.074431 0.857646 -0.023857 0.667365 0.740057 -0.077086 
0.177632 0.181334 -0.039116 0.926378 0.068286 -0.370087 
0.199769 -0.579402 -0.043632 0.986109 -0.032581 -0.160824 
-0.042472 0.214744 -0.117139 -0.558026 -0.304411 -0.771859 
0.053074 -0.71433 -0.000982 -0.991051 -0.089486 -0.085404 
0.21114 0.54822 -0.01947 0.399936 0.803293 0.432306 
0.1332 0.268754 -0.11968 0.706561 -0.098861 -0.699184 
-0.572031 0.033105 0.009446 -0.985448 -0.050509 -0.018363 
0.056219 0.734039 -0.105399 0.3927 -0.405867 -0.824595 
-0.001889 -0.403626 0.063943 0.730571 -0.208335 0.649707 
0.117793 -0.027114 -0.146969 0.272588 -0.182927 -0.942817 
-0.014689 0.677391 0.032428 -0.761641 -0.613174 0.190898 
-0.022094 -0.844635 -0.025498 0.862765 -0.456543 -0.020855 
-0.105419 -0.441472 0.077159 -0.742801 -0.112946 0.65934 
0.054947 0.862901 -0.045792 0.174389 0.96292 -0.20038 
0.086016 0.483856 -0.139821 -0.285981 0.294484 -0.911387 
-0.438075 0.22727 -0.015618 -0.715923 0.69448 0.07088 
0.002577 -0.337183 -0.052677 0.725306 -0.062325 -0.685349 
0.073987 -0.149858 0.086291 -0.562247 0.006708 0.826755 
0.12234 -0.525042 0.045441 -0.474861 -0.107836 0.872138 
0.138553 0.047734 0.109557 0.48967 0.260681 0.824251 
0.083789 -0.047885 -0.143725 -0.084063 -0.368315 -0.92496 
0.052133 -0.093255 -0.112511 -0.444351 -0.440281 -0.769275 
0.135934 -0.445261 -0.102308 0.270042 0.127941 -0.952031 
0.334771 0.296258 -0.111197 -0.560991 -0.665835 -0.491208 
0.201219 -0.13905 0.05522 0.908043 -0.079239 0.411027 
0.119546 -0.867713 0.01346 -0.051704 -0.993023 -0.096618 
0.048634 0.282041 0.122425 0.125572 0.113737 0.985424 
0.024848 0.43768 0.094584 0.170617 0.179464 0.96804 
-0.367397 0.248458 0.009789 0.035519 0.058031 0.997577 
-0.095308 0.024816 -0.108454 -0.756763 0.137821 -0.637845 
-0.031279 0.729776 -0.04324 -0.820109 -0.425459 -0.367145 
0.198765 -0.129438 -0.052651 0.854372 0.00893 -0.518848 
-0.113884 -0.397172 0.081718 -0.724941 -0.223121 0.645477 
0.019313 -0.487547 -0.032063 0.92007 0.025921 -0.389411 
0.188313 -0.407545 -0.057685 0.79091 0.023299 -0.610953 
0.070029 0.850404 -0.059065 0.48205 0.764465 -0.426691 
0.135849 -0.802418 0.049854 0.429343 0.574776 0.691804 
-0.021341 0.694962 0.018574 -0.9555 -0.290559 0.033619 
-0.04201 -0.306659 0.099703 0.276382 -0.115386 0.952772 
0.267476 0.347422 -0.09156 -0.688712 -0.703936 -0.161925 
0.051212 -0.281787 -0.057191 -0.820188 0.014517 -0.571792 
0.102395 0.771479 -0.057785 0.942188 -0.062992 -0.320523 
-0.131071 -0.095713 0.070075 -0.841258 0.003425 0.540521 
0.074531 -0.807727 0.01815 -0.906813 -0.166786 0.383835 
0.190404 -0.694347 0.000858 0.703418 -0.34935 0.616064 
0.001033 -0.819177 -0.031353 0.963139 -0.069913 0.257988 
-0.113408 -0.089769 -0.068134 -0.763679 -0.123223 -0.633665 
0.166183 -0.475668 0.065245 0.309698 -0.124832 0.935252 
0.140762 0.194842 0.087868 0.697464 0.046645 0.71506 
0.049637 -0.226908 0.056647 -0.843489 -0.138273 0.51615 
0.204444 -0.259748 0.029312 0.990349 0.007142 0.132712 
0.502064 0.205363 -0.001578 0.033461 0.641278 0.735602 
-0.074619 -0.437901 -0.087284 -0.311916 0.310993 -0.889215 
0.075884 0.308133 -0.141146 -0.199458 -0.095112 -0.97492 
0.01355 -0.282726 0.076321 0.804681 -0.090016 0.585938 
0.183549 -0.248255 0.071665 0.612045 -0.060726 0.785313 
0.041953 0.490991 -0.126656 -0.210711 0.083022 -0.97384 
0.373468 0.325023 -0.130176 0.390263 0.190709 -0.894261 
0.192373 -0.503541 -0.063563 0.852276 0.013753 -0.522716 
0.025369 0.02699 0.140218 0.050136 0.258412 0.964135 
0.123682 -0.866498 -3e-05 -0.020606 -0.997735 -0.05316 
0.084318 -0.849964 0.084002 -0.937929 0.320165 0.010549 
-0.034689 0.787908 0.007549 -0.983951 0.051017 0.170352 
-0.018834 0.698642 0.046035 -0.930833 -0.211103 0.292665 
0.109702 -0.414554 0.058748 -0.458053 -0.233012 0.857773 
-0.037733 -0.830675 0.106557 0.66442 0.666919 0.272819 
0.110983 0.061909 -0.142562 0.500986 0.193601 -0.842892 
0.136268 0.383496 -0.134931 0.491548 -0.16997 -0.848565 
-0.035629 -0.316306 0.09727 0.249602 -0.071969 0.965447 
-0.125526 0.076486 0.039977 -0.939197 0.200102 0.27822 
-0.112901 0.242352 -0.038815 -0.986819 0.139906 -0.078008 
-0.081391 0.364497 -0.111901 -0.474505 -0.140968 -0.868134 
