ply
format ascii 1.0
comment VCGLIB generated
element vertex 832
property float x
property float y
property float z
property float nx
property float ny
property float nz
element face 0
property list uchar int vertex_indices
end_header
0.071564 0.607453 0.010831 0.693763 -0.005662 0.718023 
0.145146 -0.851012 -0.106199 0.714917 -0.025195 -0.696436 
0.349493 0.276253 -0.093924 -0.637555 -0.746351 -0.189957 
0.477071 0.190429 0.006537 -0.635537 -0.429806 0.626515 
-0.559759 0.046771 0.002936 0.964851 -0.16326 -0.178648 
0.604957 0.101176 0.051768 0.831239 0.551558 0.05563 
0.145905 -0.650931 0.03062 0.198749 0.01632 0.976162 
0.003075 -0.223312 0.097696 0.621638 -0.109163 0.773605 
0.149969 0.126719 0.081871 0.657656 0.034042 0.751759 
-0.127272 -0.737146 -0.037888 -0.993559 -0.017418 0.105012 
0.053977 0.182242 -0.116835 -0.17889 0.189798 -0.963885 
0.083282 -0.411274 -0.086846 -0.675294 0.004675 -0.736297 
0.14623 -0.379811 0.075888 -0.012854 -0.064306 0.994888 
0.61299 0.092285 0.035052 0.769469 0.637869 -0.017396 
-0.12803 -0.667559 -0.047616 -0.997768 -0.016026 0.061821 
-0.012032 0.791781 0.060417 -0.892415 0.177262 0.413411 
0.355057 0.341003 -0.049531 0.428405 0.334167 0.837784 
-0.127941 -0.613609 -0.065991 -0.963014 0.007045 -0.242443 
0.081195 -0.69362 -0.067933 -0.831609 -0.042412 -0.553386 
-0.556624 0.072843 0.046255 -0.90339 0.428293 0.016012 
-0.010077 0.653124 0.002605 -0.921393 -0.188397 0.305087 
0.1003 -0.417698 0.052211 -0.556169 -0.331451 0.760924 
-0.035398 0.729647 -0.011519 -0.924826 -0.210799 0.300518 
-0.035132 -0.427446 0.078055 0.333259 -0.249331 0.909234 
-0.103217 0.112312 -0.072141 -0.808597 0.123659 -0.572392 
0.112768 0.497224 0.057552 0.28395 0.470481 0.833928 
0.063632 0.661816 0.047617 0.5383 -0.836807 0.076398 
0.536972 0.1579 0.030467 -0.526668 0.160462 0.822485 
-0.014686 0.854328 -0.007336 -0.481107 0.876075 0.02905 
-0.385114 0.202779 -0.062625 0.080252 -0.688594 -0.696371 
-0.303876 0.249508 -0.067887 0.387064 -0.842036 -0.36816 
-0.139125 0.553746 0.004867 -0.442579 0.799561 0.396234 
0.080018 0.666803 0.018403 0.872454 -0.326443 0.356495 
-0.016474 0.108792 -0.128126 -0.174814 0.299769 -0.937728 
0.220635 0.393551 -0.074049 -0.736899 -0.67577 0.014337 
0.529835 0.202662 -0.0009869999 -0.119978 0.935763 0.32288 
-0.137561 0.441334 0.058089 -0.391356 -0.173332 0.885086 
0.396646 0.237654 -0.049082 -0.521057 -0.732198 0.428949 
-0.099987 -0.463994 0.077845 -0.564835 -0.321609 0.754785 
-0.127641 -0.322504 -0.014705 -0.99066 -0.002259 -0.132886 
0.011065 -0.328863 0.067675 0.753291 -0.218505 0.619837 
0.154591 -0.129438 -0.100533 0.62209 -0.229947 -0.748242 
-0.121148 0.353853 -0.025749 -0.990098 -0.128385 0.014721 
0.049637 -0.226908 0.056647 -0.843489 -0.138273 0.51615 
0.629199 0.039524 0.03652 -0.856056 -0.50836 -0.078948 
0.531348 0.199004 -0.057456 -0.133694 -0.566222 -0.811753 
0.067293 0.491683 -0.132855 -0.375771 0.255223 -0.888978 
0.084089 0.660631 -0.021025 0.986181 0.064095 -0.104407 
0.206292 -0.223065 -0.014777 0.998072 -0.05711 -0.0216 
0.0434 -0.41707 -0.02408 -0.999646 -0.012648 0.012239 
0.082737 0.309799 0.108327 0.443064 0.110204 0.885344 
0.006215 -0.082825 -0.096215 0.367249 -0.632314 -0.676317 
0.344736 0.282668 -0.100291 -0.60862 -0.720811 -0.33029 
0.129748 -0.857667 0.183372 -0.012526 -0.445647 0.835843 
-0.104633 -0.359238 -0.061214 -0.736335 0.07611 -0.672084 
0.017491 0.524723 0.056735 0.114657 0.522957 0.843808 
-0.100455 0.079528 -0.085124 -0.732516 0.205565 -0.648394 
0.111728 0.589843 -0.075947 0.266939 0.917815 -0.275522 
0.055495 -0.271341 0.056489 -0.730403 -0.125126 0.671322 
-0.136756 0.036512 -0.009911 -0.980422 0.165107 -0.09995 
0.186833 0.380634 0.026591 0.878781 -0.1934 0.435021 
0.096893 0.568002 0.005377 0.165896 0.745498 0.638465 
0.16471 -0.074741 -0.103557 0.717842 -0.099072 -0.687914 
-0.012568 0.67227 0.004888 -0.899617 -0.424288 0.049259 
0.20667 0.03635 0.005623 0.999004 0.040926 -0.005937 
0.037616 -0.113559 -0.089512 -0.738744 -0.365959 -0.5581 
-0.119352 0.228106 -0.002937 -0.971816 0.21761 0.015534 
-0.340164 0.260534 -0.084304 0.056481 -0.404109 -0.910913 
-0.03413 -0.154795 -0.094551 0.365547 -0.192004 -0.907133 
0.190758 -0.754396 -0.01969 0.949199 -0.257004 -0.139607 
-0.123196 -0.365004 0.062351 -0.980876 -0.05313 0.185735 
0.183053 -0.403939 0.061532 0.816009 -0.056223 0.575124 
-0.081685 -0.073915 -0.103675 -0.539543 -0.236752 -0.807714 
0.147618 -0.841452 -0.103733 0.672975 -0.124015 -0.725066 
-0.068437 -0.826999 0.121345 -0.144544 0.980681 0.126113 
0.158988 0.40653 0.062912 0.726339 0.031312 0.686592 
-0.089429 0.563315 0.006477 -0.1077 0.857832 0.497492 
0.176081 -0.803972 -0.038772 0.961438 -0.266699 0.028729 
-0.037681 0.562315 -0.101695 -0.241508 0.559988 -0.791326 
0.106697 -0.869518 0.045683 -0.11089 -0.983481 -0.047521 
-0.098584 -0.364329 -0.067298 -0.629815 0.041856 -0.773073 
0.193009 0.012688 -0.057671 0.918703 -0.005477 -0.391517 
0.143417 0.142979 -0.094652 0.697764 0.145052 -0.701075 
0.61875 0.061926 0.1024 -0.099345 0.541777 0.696554 
-0.115424 -0.326481 -0.043013 -0.851341 0.0766 -0.504999 
0.132244 -0.165912 -0.105944 0.318823 -0.111481 -0.940422 
-7.6e-05 -0.641327 0.021179 0.46609 -0.000886 0.884007 
-0.032327 -0.713579 -0.109827 0.520048 0.205082 -0.828754 
0.196358 0.358917 -0.060005 0.917123 -0.34179 -0.1902 
0.114947 -0.658018 -0.093336 -0.380863 -0.044945 -0.923251 
0.010531 -0.527283 0.01788 0.703992 -0.170323 0.689182 
-0.103203 -0.804702 -0.003451 -0.848022 -0.394954 0.347348 
0.165374 -0.627299 -0.083067 0.533012 -0.154802 -0.831424 
0.182916 0.247543 0.004126 0.999759 -0.012131 0.015891 
0.197718 -0.054907 0.063413 0.867091 0.043743 0.493108 
0.018236 0.063473 0.13644 0.161927 0.060991 0.984291 
0.169775 -0.133633 -0.085257 0.711923 -0.164153 -0.682506 
0.216977 0.472081 0.018542 0.283635 0.012207 0.954981 
0.186207 0.177137 0.02801 0.920531 0.223675 0.312866 
0.140792 0.058858 -0.122305 0.673208 0.207315 -0.708219 
-0.123114 -0.333935 0.05849 -0.987323 0.005174 0.15749 
-0.057089 -0.769795 0.028574 -0.030116 0.547237 0.823655 
0.201815 -0.086624 -0.042451 0.894536 0.048164 -0.442586 
0.489797 0.216228 -0.069046 0.168914 -0.338874 -0.919739 
0.171983 -0.674413 -0.066377 0.683244 -0.20884 -0.699012 
0.012199 0.645259 0.029982 -0.607411 -0.345256 0.713416 
0.02045 -0.696489 -0.063802 0.841508 -0.013784 -0.536991 
0.028707 -0.308457 0.00893 0.998625 -0.047452 0.016142 
0.162995 0.458816 0.052711 0.670762 0.117279 0.73133 
0.077179 -0.113306 0.088421 -0.664087 -0.060482 0.743616 
0.098741 0.572611 -0.104985 0.112798 0.669959 -0.733724 
0.038102 -0.105455 -0.095034 -0.668456 -0.42895 -0.605159 
0.059535 -0.617201 -0.054202 -0.77028 -0.0597 -0.634587 
0.294853 0.337188 -0.119413 -0.599332 -0.560973 -0.567578 
0.380847 0.242619 -0.070901 -0.727909 -0.67032 0.142588 
-0.308936 0.31293 0.004815 -0.159199 0.089039 0.982931 
0.11874 0.081698 0.105277 0.34909 0.085302 0.926953 
0.097531 -0.806394 -0.107425 -0.771927 0.112641 -0.623749 
0.188564 -0.524614 -0.070808 0.800858 0.002113 -0.597438 
0.206089 -0.222962 0.009129 0.998232 -0.042462 0.039641 
-0.463642 0.13245 0.01109 0.596312 -0.797114 -0.0262 
-0.098149 -0.236015 -0.066685 -0.755789 -0.056217 -0.651259 
-0.129569 -0.140657 -0.035195 -0.858134 -0.131939 -0.495885 
-0.094301 0.496268 -0.115017 -0.353172 0.303454 -0.884312 
0.041879 -0.387526 -0.012558 -0.984853 -0.116339 0.125732 
-0.127789 0.382931 -0.012504 -0.99265 -0.114323 0.034823 
-0.100648 -0.21593 -0.065169 -0.7626 -0.039639 -0.645332 
0.281708 0.373852 -0.021662 -0.321897 -0.286443 0.897757 
0.167359 -0.809691 0.013144 0.961653 -0.112182 0.220707 
0.282144 0.361156 -0.128669 -0.38413 -0.614258 -0.685962 
-0.031992 -0.408749 -0.07927 0.371738 0.17271 -0.910162 
0.067594 -0.388093 0.034884 -0.690358 -0.328067 0.644402 
0.076196 -0.224988 0.082118 -0.47784 -0.132651 0.866573 
-0.120799 0.204104 -0.016939 -0.924994 0.12416 -0.35626 
0.30311 0.337195 -0.126969 -0.498046 -0.481092 -0.719939 
-0.007148 -0.632244 0.023018 0.149437 0.150328 0.975111 
-0.024504 -0.12477 0.124881 0.14515 -0.064559 0.985524 
0.172039 0.542638 -0.107076 0.271509 0.682368 -0.67854 
-0.218019 0.471555 -0.052232 -0.604628 0.580554 -0.543792 
-0.074049 -0.036427 0.121535 -0.436708 0.020278 0.897821 
0.040217 0.373091 -0.130368 -0.317308 -0.028126 -0.945793 
-0.134315 -0.23946 0.050653 -0.985457 -0.050234 0.155532 
0.037326 0.002414 0.143581 0.079024 -0.078132 0.982347 
0.049894 0.433883 0.091636 0.072599 0.241967 0.966076 
-0.001121 -0.515604 0.031754 0.59742 -0.207978 0.774435 
-0.023321 -0.685674 0.026199 -0.152266 0.034959 0.987122 
-0.042874 -0.330274 0.097779 0.231896 -0.095286 0.968006 
-0.085872 -0.766003 -0.117007 -0.708502 0.18703 -0.676904 
0.185214 -0.027178 -0.078931 0.884041 -0.008069 -0.466826 
-0.023368 0.196537 0.119808 -0.486962 0.119748 0.864936 
0.05012 -0.293733 -0.055674 -0.822455 -0.014716 -0.568597 
-0.128552 0.086516 0.00945 -0.99925 0.000794 0.03281 
0.010621 0.274532 -0.128667 0.129446 -0.035672 -0.990898 
0.138513 -0.108682 0.111767 0.17117 -0.057162 0.982356 
-0.043018 -0.554486 0.046735 0.460582 -0.201994 0.86419 
0.033223 0.704861 0.093485 0.001216 -0.364872 0.919574 
0.039008 -0.105078 0.095582 0.482706 -0.589514 0.643932 
0.197887 0.05917 -0.038337 0.959562 0.077922 -0.269251 
0.08593 0.049699 0.125919 0.435049 0.175384 0.882231 
0.055115 0.557172 -0.113281 -0.137871 0.455327 -0.878974 
-0.265835 0.288139 -0.014088 0.629138 -0.627734 0.454584 
-0.124039 -0.161009 -0.038506 -0.818974 -0.171558 -0.547122 
-0.429866 0.229301 0.002818 -0.629988 0.577843 0.504003 
0.017814 -0.539447 0.006763 0.895699 -0.084451 0.433197 
-0.103402 -0.452349 -0.074073 -0.655712 0.170244 -0.733797 
0.15022 -0.680964 -0.084938 0.644474 -0.010477 -0.764464 
0.007575 0.66906 0.078544 -0.716167 -0.440727 0.521388 
-0.002696 -0.419521 -0.059696 0.716533 0.050353 -0.694326 
0.081744 -0.491092 -0.087906 -0.68252 -0.013303 -0.729773 
-0.122668 -0.761625 -0.034591 -0.951295 -0.281799 0.097284 
-0.096392 0.520451 -0.10411 -0.30713 0.468819 -0.827655 
-0.042093 -0.695076 -0.110292 0.349324 0.281179 -0.892732 
-0.106941 -0.550969 0.040313 -0.850743 -0.093106 0.516551 
0.032606 0.297505 0.122167 0.051186 0.09796 0.993805 
0.303649 0.415116 -0.023375 0.588438 0.121981 0.798293 
-0.039694 -0.70195 0.018212 -0.404379 0.130391 0.896673 
-0.370868 0.297409 -0.01529 -0.568553 0.723495 0.389995 
0.061378 -0.036095 -0.143958 -0.258308 -0.392324 -0.88279 
0.07605 -0.568191 0.017206 -0.69774 -0.008397 0.716202 
0.205227 -0.258616 0.017758 0.998701 0.016653 0.044483 
0.087959 -0.682223 0.034706 -0.199459 0.143725 0.964793 
-0.122484 -0.663596 -0.017865 -0.964962 -0.092085 0.242882 
0.542443 0.201202 0.000833 0.84999 0.34757 0.346949 
-0.038045 -0.205951 -0.09171 0.211101 -0.069936 -0.973706 
0.143191 0.276935 -0.10764 0.810233 -0.096189 -0.577374 
-0.07298 0.509848 0.057136 -0.171623 0.462747 0.868204 
-0.106213 -0.51468 -0.081969 -0.680993 0.119687 -0.72173 
0.066149 0.114898 0.129433 0.197186 0.102155 0.973643 
-0.120147 0.134127 0.038762 -0.926894 0.074876 0.366937 
0.100038 -0.869492 -0.067122 -0.252171 -0.95924 0.046424 
0.116649 -0.640907 -0.095253 -0.252183 -0.085722 -0.961926 
-0.200104 0.382787 0.021093 0.161637 -0.496691 0.851802 
0.165044 -0.3929 -0.077424 0.561362 0.178052 -0.807563 
-0.326363 0.22667 -0.02549 0.663716 -0.747139 0.006775 
-0.083579 0.204933 -0.077539 -0.779972 -0.025703 -0.624265 
-0.040223 -0.547099 -0.099245 0.319658 0.006087 -0.947188 
0.063984 0.260335 -0.135014 -0.314552 -0.088841 -0.943349 
-0.021488 -0.842526 -0.035094 0.918738 -0.391358 -0.006844 
-0.002843 0.859877 -0.003247 -0.586706 0.80381 0.038575 
0.099057 -0.674226 0.034664 -0.001639 0.082913 0.994951 
0.033658 0.314084 -0.127477 -0.138159 0.031322 -0.988289 
-0.110297 0.487532 -0.110921 -0.434117 0.215987 -0.873845 
-0.035265 -0.58833 0.03326 0.398014 -0.287831 0.870146 
0.108869 -0.203655 -0.103005 -0.143436 -0.176801 -0.973073 
-0.250251 0.364387 -0.097857 0.015869 -0.049495 -0.996281 
0.139631 -0.593188 0.03922 -0.203218 -0.207175 0.956484 
-0.082123 -0.137967 0.116428 -0.307024 0.006532 0.950735 
0.00997 -0.538637 -0.054709 0.86749 0.041653 -0.495666 
-0.087567 -0.655168 -0.105143 -0.31963 0.015282 -0.944322 
0.18772 0.185609 0.000524 0.93932 0.339544 -0.026842 
-0.098901 -0.717357 0.006405 -0.564663 -0.593561 0.568181 
0.093546 -0.845711 0.137672 -0.83895 0.456319 0.290653 
0.060704 0.854787 -0.059541 0.37436 0.820052 -0.427434 
-0.120826 -0.497777 0.02816 -0.81019 -0.241753 0.533923 
0.325535 0.306788 -0.115761 -0.538295 -0.635305 -0.548443 
-0.340711 0.296606 2.6e-05 -0.199296 0.272531 0.940798 
0.08648 0.172145 -0.117035 0.130293 0.09505 -0.986405 
0.162019 -0.17536 -0.086479 0.616313 -0.045448 -0.786171 
0.199393 -0.525842 0.00307 0.944396 -0.026382 0.326384 
-0.31993 0.285864 -0.093888 -0.03579 -0.208142 -0.976946 
0.057308 -0.605983 -0.052356 -0.756923 -0.036329 -0.652018 
-0.055108 0.346329 0.09927 -0.471478 -0.100348 0.874188 
0.106571 0.130526 0.112835 0.503937 0.018375 0.862754 
0.089347 -0.541928 -0.09145 -0.639364 -0.093472 -0.762336 
0.173167 -0.852395 0.041133 0.927047 0.275813 -0.120397 
0.100132 -0.644314 -0.087442 -0.538198 -0.081887 -0.836817 
-0.018102 0.783554 -0.100464 -0.722981 -0.050037 -0.688381 
0.023175 -0.165066 -0.026438 0.230211 0.010531 -0.905097 
-0.049666 -0.369542 0.093463 0.301475 -0.278624 0.911673 
0.106028 0.56998 -0.000382 0.397036 0.718533 0.570883 
0.072766 0.526676 0.050225 0.120676 0.524077 0.842666 
0.095108 0.160294 0.116197 0.492934 0.069378 0.864288 
0.183017 -0.505738 0.044642 0.83269 -0.141163 0.534405 
-0.008128 0.664463 -0.037675 -0.857202 -0.172505 -0.472681 
-0.058748 -0.855361 -0.134433 -0.11877 -0.604275 -0.760921 
-0.054095 0.075104 0.11324 -0.453124 0.124497 0.881355 
0.135353 -0.001265 -0.138896 0.581902 0.120732 -0.803024 
0.198561 0.152386 0.006801 0.934206 0.348746 0.05683 
-0.051106 0.326071 0.097701 -0.326063 -0.085484 0.938685 
0.095767 -0.854338 -0.009518 -0.702239 -0.708137 0.021974 
0.021699 -0.300541 -0.02365 0.936041 -0.025379 -0.350664 
0.05856 -0.287608 -0.067571 -0.81529 0.002413 -0.578961 
0.004499 0.201912 -0.122448 0.064263 -0.416651 -0.905447 
0.324786 0.374041 -0.140775 0.215506 -0.059449 -0.971648 
-0.031597 -0.699401 -0.105687 0.524719 0.223047 -0.820988 
0.340804 0.414357 -0.119821 0.613376 0.579475 -0.526382 
-0.003211 0.830839 0.045701 -0.661659 0.402206 0.631364 
0.166247 -0.256205 0.080345 0.334563 -0.094287 0.934131 
-0.095877 -0.858565 -0.08773 -0.811514 -0.530325 -0.129523 
-0.08781 -0.727127 -0.113297 -0.620512 0.134077 -0.770171 
0.043525 0.807227 -0.114053 0.141935 0.381278 -0.90763 
0.145103 -0.459114 0.066564 -0.302521 -0.137674 0.937645 
0.086351 -0.338178 -0.094142 -0.45681 -0.009188 -0.888736 
0.101906 0.800527 -0.048641 0.877043 0.430638 -0.192591 
0.14043 -0.406358 -0.094815 0.510147 0.069662 -0.856997 
0.294085 0.327211 -0.099116 -0.686741 -0.717234 -0.11015 
-0.197847 0.394515 0.025993 0.228862 -0.368011 0.899856 
0.357526 0.272519 -0.064975 -0.693315 -0.67928 0.234534 
0.027239 -0.201525 0.047477 0.974028 0.001996 0.225755 
0.05598 -0.139361 0.071606 -0.638526 0.091804 0.763425 
-0.450235 0.150038 -0.023539 0.337363 -0.825195 -0.449483 
0.150074 -0.071745 0.107833 0.55982 0.042391 0.802925 
-0.041087 -0.340146 0.0964 0.257527 -0.100256 0.960748 
-0.037183 0.202645 0.110804 -0.49198 0.021688 0.869794 
-0.082358 -0.863482 0.05518 -0.036709 -0.999247 -0.001984 
0.062781 -0.787351 0.018183 -0.663816 -0.616371 0.408648 
-0.020522 0.745156 -0.085438 -0.808826 -0.296126 -0.507473 
0.149867 -0.108008 -0.11049 0.579515 -0.168241 -0.795153 
0.124804 -0.753174 -0.100488 -0.181264 0.087684 -0.977673 
0.069588 -0.520439 0.011247 -0.620258 -0.014992 0.784115 
0.027041 -0.638204 -0.037971 0.987961 0.015145 -0.145234 
-0.053094 -0.406512 0.087142 0.207786 -0.179274 0.961299 
0.433232 0.300146 -0.096598 0.617161 0.739389 -0.25657 
-0.117981 0.513544 -0.098248 -0.420988 0.431474 -0.793517 
0.197887 0.370382 -0.0305 0.996933 -0.036555 0.063202 
0.124831 -0.588478 -0.10245 -0.110382 -0.133024 -0.98348 
0.198333 -0.279375 0.048373 0.919895 -0.064443 0.383851 
0.354748 0.372997 -0.084339 0.719923 0.659435 0.21141 
-0.107004 0.340122 -0.088277 -0.714373 -0.20146 -0.667786 
-0.449002 0.176517 -0.048689 -0.520429 0.377776 -0.763607 
0.581377 0.058647 0.029224 -0.891634 -0.426684 0.127588 
-0.09187 -0.788519 -0.116689 -0.791027 0.130072 -0.597757 
-0.06806 0.448509 0.083911 -0.26488 0.280174 0.920085 
0.187689 -0.462189 0.044429 0.929829 -0.095755 0.354519 
-0.055404 0.002484 0.130259 -0.232793 0.367299 0.895494 
0.05931 0.449774 -0.13601 -0.30503 0.035362 -0.950678 
-0.071764 0.13651 -0.096268 -0.502315 0.24446 -0.826276 
0.185231 0.552955 -0.0882 0.312687 0.751396 -0.580739 
0.138136 -0.385724 0.074377 -0.145953 -0.139638 0.977868 
-0.00792 0.579608 0.011466 -0.537529 0.309699 0.782818 
-0.2201 0.350084 0.004679 0.351155 -0.538332 0.763854 
-0.411087 0.258103 -0.035748 -0.813682 0.580643 -0.006256 
0.083644 0.538082 -0.126846 -0.095745 0.380347 -0.916325 
-0.118578 0.308094 -0.017529 -0.97982 -0.160159 0.095715 
-0.209969 0.381896 0.02213 0.105916 -0.517476 0.84905 
-0.001382 -0.009596 0.143749 0.052632 -0.601696 0.744619 
-0.038107 0.589498 -0.071578 -0.339909 0.881934 -0.290908 
0.162367 -0.834246 -0.012544 0.974944 0.105828 0.002673 
0.085814 -0.587655 -0.081729 -0.659283 -0.113793 -0.743151 
-0.035786 0.76634 -0.061555 -0.982879 -0.068095 -0.169511 
-0.144334 -0.105719 0.005244 -0.999275 -0.003739 -0.031664 
0.023331 -0.434596 -0.003889 0.9663 0.233313 -0.038276 
-0.081132 0.298569 -0.105723 -0.527518 -0.05775 -0.827416 
-0.064514 -0.155138 0.121 -0.112716 -0.050248 0.991577 
0.108326 -0.462426 0.041887 -0.677809 -0.051349 0.73337 
-0.411777 0.255065 -0.012512 -0.72648 0.664208 0.169198 
-0.55321 0.052441 0.046769 0.825041 -0.56237 -0.014871 
-0.482828 0.170292 -0.012325 -0.722811 0.680828 -0.105288 
0.176098 0.532903 0.011161 0.304529 0.602015 0.737063 
0.074149 -0.729635 0.034562 0.004851 -0.200951 0.96957 
0.117838 -0.749815 0.028796 -0.142815 -0.375631 0.906511 
-0.066409 0.354197 0.092551 -0.398061 -0.099412 0.901938 
-0.115232 -0.771937 -0.077494 -0.88688 -0.026962 -0.460766 
0.282038 0.335821 -0.074623 -0.596589 -0.775495 0.198999 
0.132984 0.199666 0.094802 0.552231 0.057682 0.829939 
0.065657 -0.426706 0.012796 -0.650133 -0.324111 0.686856 
0.155575 0.273301 0.062546 0.797984 0.053391 0.599662 
-0.094007 -0.385011 0.096067 -0.07248 -0.183869 0.979104 
-0.042472 0.214744 -0.117139 -0.558026 -0.304411 -0.771859 
0.623176 0.07603 0.051844 0.855236 0.517364 0.020974 
-0.183168 0.361724 -0.061775 0.628512 -0.720534 -0.292285 
0.20607 -0.160275 0.027139 0.983249 -0.098051 0.139643 
-0.116774 -0.169983 0.096428 -0.722285 -0.013425 0.691155 
0.201722 -0.296746 0.03478 0.9408 -0.066797 0.331982 
-0.367172 0.280115 -0.084372 -0.346155 0.325645 -0.879627 
-0.094507 -0.861663 -0.000701 -0.261859 -0.953306 -0.091567 
0.197322 -0.089685 -0.053048 0.89008 0.023642 -0.45451 
-0.285389 0.306245 0.006067 0.082771 -0.202825 0.97344 
-0.125233 0.137233 -0.026052 -0.912868 0.146077 -0.372833 
0.474581 0.22937 -0.077533 0.404967 -0.22406 -0.884174 
-0.102603 0.346013 0.050545 -0.836343 -0.246993 0.488305 
0.131194 -0.78672 -0.112265 0.092898 0.423043 -0.899014 
0.117173 -0.227905 0.090765 0.037746 -0.169037 0.984875 
0.095316 -0.341922 -0.098064 -0.343062 0.007164 -0.934817 
-0.513367 0.130464 0.056679 -0.789299 0.607183 0.035484 
-0.129519 -0.530498 -0.054053 -0.889004 0.04082 -0.454826 
0.569242 0.150021 0.032109 0.731182 0.665794 0.103013 
0.143251 -0.664615 0.029554 0.142839 -0.158438 0.976863 
-0.270347 0.31473 0.00614 0.222207 -0.261105 0.938317 
-0.042097 0.153697 0.112506 -0.518979 0.073005 0.85116 
-0.439647 0.216474 -0.043871 -0.593162 0.311013 -0.740044 
-0.417636 0.250061 -0.032665 -0.769199 0.638699 -0.004774 
-0.127539 0.179081 -0.009313 -0.976691 0.046145 -0.192627 
-0.026501 -0.774544 0.020867 0.660775 0.644286 0.379728 
0.001033 -0.819177 -0.031353 0.963139 -0.069913 0.257988 
0.148404 -0.345615 0.078275 0.18756 -0.034839 0.981427 
-0.196907 0.508087 -0.038631 -0.713974 0.629105 -0.306149 
0.120932 -0.579261 -0.103343 -0.195879 -0.148731 -0.967093 
0.062852 -0.527295 -0.065883 -0.763815 -0.083017 -0.63996 
0.026811 -0.359582 -0.00284 0.99576 -0.028308 -0.07352 
-0.068933 0.00908 -0.129513 -0.400206 -0.089797 -0.906644 
-0.256647 0.306575 -0.078077 0.655274 -0.437996 -0.615395 
0.077982 0.589108 -0.090765 0.087737 0.71172 -0.648085 
0.022452 0.700593 0.089705 -0.445748 -0.195338 0.861836 
0.045321 -0.032669 0.131881 0.185881 -0.161242 0.967564 
0.165382 -0.844911 0.127985 0.858158 0.494932 0.110406 
0.161831 -0.850957 -0.015838 0.88036 -0.461749 -0.095603 
0.066078 -0.138816 -0.10066 -0.611962 -0.20622 -0.763368 
0.092012 0.707312 0.029013 0.963475 -0.239416 0.092577 
-0.131218 0.065694 -0.011801 -0.944814 0.299108 -0.100332 
-0.061708 -0.376713 -0.084412 -0.15682 -0.125398 -0.977515 
-0.226859 0.357266 0.011746 0.306288 -0.429093 0.848649 
0.038194 -0.35341 -0.027737 -0.974716 -0.062994 -0.19982 
0.194222 -0.423052 0.033192 0.959124 -0.064018 0.275578 
0.54339 0.176319 -0.026706 0.824431 -0.016387 -0.46159 
0.087916 -0.216485 -0.09376 -0.433315 -0.12438 -0.891278 
-0.05252 -0.062795 0.127592 -0.192865 -0.048181 0.979369 
-0.020633 -0.360118 0.087088 0.415707 -0.15045 0.894223 
0.614799 0.057848 0.040757 -0.800744 -0.597032 -0.041361 
-0.089301 0.050814 0.101328 -0.463654 0.179164 0.866388 
-0.11153 -0.810374 -0.070405 -0.888889 -0.430185 -0.109884 
-0.075643 0.194034 -0.085526 -0.691417 -0.082723 -0.717035 
0.156283 -0.845602 0.163527 0.812668 0.459866 0.345005 
0.186721 0.410272 0.038226 0.803811 -0.106116 0.580767 
-0.042068 -0.599684 0.033326 0.432049 -0.21015 0.876752 
0.049354 0.732617 0.091158 0.855596 0.144142 0.492137 
-0.102088 0.057999 -0.08908 -0.783202 0.143188 -0.603676 
0.080666 0.679564 -0.040085 0.905757 -0.174105 -0.368188 
0.142274 0.227107 0.083313 0.729407 0.070587 0.680063 
0.098523 -0.856427 0.15795 -0.866091 -0.10944 0.399708 
0.066529 -0.809737 -0.014467 -0.9626 -0.248474 0.056507 
0.289049 0.335835 -0.111415 -0.6247 -0.632514 -0.45621 
0.205847 -0.231098 -0.008317 0.998028 -0.060833 -0.014484 
-0.258016 0.409157 -0.078087 -0.465058 0.615891 -0.635904 
0.072131 0.124426 0.127688 0.274958 0.039644 0.956847 
0.207538 0.001923 0.014603 0.983916 0.156856 0.028988 
0.14625 -0.864066 -0.01809 0.312705 -0.941494 0.055614 
0.083274 -0.826262 -0.014119 -0.443738 -0.886212 0.026975 
0.120821 -0.869064 -0.047897 0.002777 -0.998061 0.061789 
-0.025423 0.328551 0.108373 -0.47214 0.288336 0.824376 
-0.309831 0.325597 0.002489 -0.260196 0.25777 0.927419 
0.200352 -0.599676 -0.022907 0.994916 -0.099561 0.007074 
0.087443 -0.293274 -0.094513 -0.362613 0.018267 -0.923318 
0.076665 -0.431966 -0.080582 -0.690619 0.018312 -0.722949 
0.038758 -0.024128 -0.142171 -0.241642 -0.388063 -0.888794 
0.192206 -0.394389 -0.052047 0.785956 0.032189 -0.61228 
0.370999 0.281486 -0.041287 -0.399093 -0.296856 0.84901 
0.501266 0.189576 0.005867 -0.319394 0.609549 0.698658 
-0.105058 -0.838419 0.067923 -0.709533 0.698556 0.091266 
-0.506858 0.114554 0.008888 -0.132369 -0.7372 -0.66019 
-0.067825 -0.793109 -0.141039 -0.455297 0.277299 -0.842508 
0.174133 -0.469645 0.061879 0.520277 -0.137564 0.838435 
-0.403843 0.180724 -0.035912 0.478446 -0.83021 -0.271651 
0.118836 -0.315977 -0.097655 0.318121 0.027429 -0.945772 
-0.09714 -0.412323 -0.065384 -0.55866 0.107106 -0.819449 
0.029004 0.867082 0.004076 -0.382421 0.890275 0.239843 
-0.1334 -0.219213 -0.00242 -0.956255 -0.068255 -0.278907 
0.08907 0.433436 -0.144701 -0.157869 -0.004549 -0.98714 
0.01918 -0.413586 -0.026371 0.973701 -0.026901 -0.2083 
-0.123326 0.149967 0.025655 -0.941467 0.012713 0.329803 
-0.04001 0.550775 0.033332 -0.201067 0.7017 0.683244 
0.174721 -0.510555 0.052437 0.621406 -0.202578 0.752766 
0.07023 0.031518 -0.160955 0.004575 0.065224 -0.997631 
0.009369 0.186692 -0.116971 0.139442 -0.133335 -0.980208 
0.387157 0.239448 -0.062962 -0.607626 -0.759467 0.225554 
-0.15793 0.503786 0.049817 -0.260683 0.346497 0.89792 
0.205549 -0.32805 0.013278 0.993125 -0.014639 0.104464 
0.161148 0.022672 -0.111743 0.71862 0.047298 -0.693781 
-0.009567 -0.599913 -0.07684 0.683205 -0.008619 -0.729995 
-0.005128 0.206583 -0.124905 -0.040176 -0.376573 -0.924263 
-0.091642 -0.447781 -0.081757 -0.541829 0.215113 -0.810216 
-0.071425 -0.284911 0.108053 0.068592 -0.11438 0.990891 
-0.23486 0.346446 0.010076 0.377595 -0.401647 0.832377 
-0.117495 -0.297736 -0.035573 -0.828172 0.048323 -0.558357 
0.044099 -0.473301 -0.036429 -0.991553 -0.000816 -0.10254 
-0.059054 -0.864012 0.041742 -0.004074 -0.999807 -0.019006 
0.026607 0.592352 -0.090333 -0.066726 0.591832 -0.803259 
0.018309 0.132957 -0.122909 -0.133427 0.45187 -0.881835 
-0.121567 0.433528 -0.108638 -0.49249 -0.209586 -0.844203 
-0.129854 -0.510989 -0.051131 -0.863606 0.069135 -0.498467 
-0.094283 -0.681514 0.028646 -0.164714 -0.397129 0.900184 
-0.554873 0.071356 0.081939 -0.840831 0.35038 0.342611 
-0.044695 -0.287901 0.103862 0.233188 -0.142119 0.961113 
0.143476 0.508 0.040935 0.358377 0.543582 0.755696 
0.168646 -0.730106 -0.062168 0.843406 -0.125642 -0.521691 
-0.081423 0.19172 0.086085 -0.627533 0.011594 0.77826 
0.198467 -0.469692 0.001234 0.986599 -0.017659 0.15773 
-0.007416 0.495099 -0.126285 0.121277 0.14204 -0.982075 
0.234655 0.542472 -0.048976 0.66547 0.744537 0.042053 
0.16625 -0.115222 -0.094455 0.729902 -0.153307 -0.664729 
0.052917 0.041931 -0.158186 -0.12617 0.250573 -0.956588 
0.197524 0.137057 -0.012314 0.825206 0.098903 -0.543099 
-0.190718 0.515706 0.005854 -0.689276 0.69334 0.208226 
0.089895 0.696738 -0.004319 0.983011 -0.147567 0.012462 
0.171859 -0.496843 -0.089096 0.693363 0.005792 -0.720468 
0.188835 -0.401142 0.051699 0.916561 -0.028831 0.397562 
-0.285959 0.271073 -0.01304 0.693934 -0.521868 0.477227 
0.002811 -0.644728 -0.068503 0.605668 0.112183 -0.787162 
0.529859 0.206229 -0.011815 -0.071928 0.95088 0.283591 
-0.076553 -0.81059 0.053402 -0.683177 0.510789 0.52001 
0.071944 0.816894 -0.09744 0.518221 0.507077 -0.681933 
-0.151689 0.410644 0.028318 0.101502 -0.757079 0.631618 
0.027568 -0.619036 -0.029472 0.994932 0.01569 -0.082396 
0.051325 -0.556063 -0.046995 -0.857937 -0.036951 -0.51236 
-0.026938 -0.83527 0.076583 0.945701 0.298546 0.124659 
-0.12629 0.11823 -0.024573 -0.949996 0.000175 -0.309964 
-0.318433 0.232924 -0.024246 0.650184 -0.75823 0.04054 
0.101254 -0.712611 -0.090492 -0.570536 0.086348 -0.81472 
0.03203 0.536322 -0.118933 -0.091669 0.313325 -0.94074 
0.091252 -0.859928 0.042955 -0.815946 -0.557684 -0.133852 
-0.12408 0.20542 -0.005172 -0.918213 0.311223 -0.215079 
0.139804 -0.330607 -0.086746 0.625692 0.030063 -0.777527 
0.116783 -0.281298 0.083079 -0.026686 -0.064148 0.997568 
0.353143 0.402571 -0.090769 0.938683 0.008707 0.095636 
0.195095 -0.739669 -0.007727 0.898949 -0.134811 0.3951 
0.266824 0.469314 -0.009059 0.655024 0.064359 0.7499 
-0.393502 0.190098 0.013366 0.567138 -0.419181 0.634898 
0.127748 -0.600943 -0.100799 -0.051465 -0.163094 -0.978131 
0.437902 0.284444 -0.109982 0.673371 0.4103 -0.61376 
0.192888 0.560068 -0.032801 0.346133 0.871353 0.268768 
-0.086081 -0.643045 -0.105181 -0.27068 0.05922 -0.960299 
-0.320041 0.258788 -0.082841 0.063163 -0.542186 -0.837451 
0.055116 0.177452 0.128744 0.091402 0.031624 0.995243 
0.053466 -0.039497 0.130373 0.053537 -0.20125 0.976638 
0.183311 -0.784281 -0.038997 0.973212 -0.219445 -0.022563 
-0.004451 0.244793 0.121564 -0.367497 0.080108 0.926436 
-0.078516 -0.863679 0.067498 -0.05127 -0.998662 -0.00177 
-0.106825 -0.774431 -0.002367 -0.738272 0.115368 0.662746 
0.056124 0.865588 0.004307 0.317123 0.934952 0.143012 
0.157407 0.425523 0.063269 0.720169 0.075477 0.689028 
-0.144396 -0.112125 0.015767 -0.999906 -0.00056 0.012094 
0.615776 0.055912 0.09012 -0.864769 -0.480088 0.114247 
0.204547 -0.221601 0.026853 0.981938 -0.011115 0.184166 
0.509828 0.220599 -0.038099 0.472364 0.851985 0.179635 
0.198787 0.115702 0.004612 0.977893 -0.196193 0.030739 
-0.191871 0.370662 0.010902 0.371081 -0.613663 0.694391 
0.184566 0.313668 0.010451 0.939378 -0.083038 0.328625 
-0.01744 -0.574833 0.030086 0.356866 -0.194323 0.911821 
0.197642 -0.247911 0.052493 0.920274 0.032002 0.387053 
0.159614 -0.383001 -0.07854 0.534716 0.197766 -0.821543 
0.037994 0.761074 0.091093 0.32784 0.364044 0.822622 
-0.135066 -0.251516 0.031546 -0.996566 -0.075471 0.019417 
0.197137 -0.731012 -0.016565 0.994081 -0.070043 0.040854 
0.000695 0.794406 -0.112624 -0.367486 0.202627 -0.906088 
-0.191922 0.481554 0.038274 -0.661489 0.212947 0.718635 
0.107996 0.201147 -0.115961 0.445572 -0.374153 -0.811032 
0.132004 0.473502 0.065916 0.258777 0.429557 0.863439 
0.047679 0.201154 -0.116589 -0.136328 -0.390903 -0.903482 
0.216553 0.552505 -0.045831 0.52902 0.832968 0.07783 
-0.006748 0.018968 0.139387 -0.175597 0.164553 0.970437 
-0.01431 0.81532 -0.095631 -0.464603 0.501677 -0.722704 
0.121595 0.480387 0.06495 0.216966 0.481938 0.846796 
0.116911 0.419702 -0.145649 0.093932 -0.066832 -0.99324 
0.173154 -0.860074 0.048149 0.78374 -0.531877 -0.104331 
-0.124991 -0.207767 0.083834 -0.850191 -0.044592 0.524162 
-0.021535 0.817115 0.023775 -0.866823 0.261246 0.423136 
0.069018 -0.56152 0.010533 -0.64468 0.014573 0.764129 
0.129039 -0.090732 0.113991 0.099624 -0.063744 0.992613 
0.14087 -0.69045 0.024819 0.23563 -0.342101 0.907247 
-0.070526 0.571637 -0.074364 -0.467521 0.7315 -0.492241 
-0.026382 0.842341 -0.03969 -0.60562 0.75986 -0.231945 
0.015031 -0.544859 -0.045663 0.841722 0.044196 -0.537918 
-0.019133 0.686418 0.024245 -0.961569 -0.247753 0.046347 
-0.032896 -0.617756 -0.095137 0.475306 0.016206 -0.879182 
0.259478 0.393832 -0.137316 -0.33926 -0.1859 -0.918777 
0.062399 0.063478 -0.15303 -0.06801 0.191597 -0.979092 
-0.013757 0.780007 0.060394 -0.887244 0.031358 0.454689 
0.160154 -0.750576 -0.073989 0.863971 0.133411 -0.480977 
-0.081154 -0.232109 -0.083199 -0.576691 -0.034157 -0.815363 
0.11524 -0.86643 0.004794 -0.147124 -0.98023 -0.092557 
-0.113584 0.021129 0.091883 -0.80325 0.157402 0.573569 
0.177738 -0.204949 -0.0713 0.592493 -0.10484 -0.798377 
0.01211 -0.132 -0.0575 0.783223 -0.203672 -0.586198 
0.199053 -0.62294 -0.031058 0.999721 -0.021117 -0.004374 
0.586083 0.086839 0.058209 -0.277549 -0.50875 0.775068 
-0.021232 0.003142 0.139461 -0.199448 0.335934 0.914512 
0.18732 -0.757359 -0.032292 0.843739 -0.067709 -0.529343 
0.024037 0.839191 0.060829 -0.212563 0.599995 0.769168 
0.637609 0.050428 0.05483 0.867149 0.494064 0.028704 
-0.115901 -0.492881 -0.068326 -0.748174 0.097749 -0.655672 
0.066895 -0.675307 -0.049657 -0.774584 -0.133728 -0.617474 
0.312443 0.456903 -0.073983 0.724663 0.687901 0.020626 
-0.123166 -0.446902 0.049556 -0.859418 -0.187529 0.474047 
0.132208 -0.795903 -0.116553 0.173021 0.312296 -0.931101 
0.175939 -0.360112 0.070673 0.232304 -0.099997 0.966959 
0.062311 0.474689 0.078844 0.099932 0.392213 0.913088 
-0.471826 0.145477 -0.03152 0.251221 -0.859522 -0.441959 
-0.060924 -0.59163 -0.103592 0.085729 0.012739 -0.995455 
0.004522 -0.813839 -0.043138 0.944843 -0.225255 0.224218 
-0.107394 -0.356213 0.094368 -0.701771 -0.112173 0.696727 
-0.328347 0.239899 0.003495 0.291038 -0.36932 0.869766 
0.050502 0.844814 -0.082021 0.224569 0.756396 -0.60816 
0.013834 -0.651477 0.007362 0.767235 -0.143544 0.623796 
0.149809 -0.723625 -0.08516 0.701928 0.039511 -0.710744 
-0.091869 -0.856921 -0.046506 -0.629303 -0.759892 0.08064 
-0.126443 0.398045 0.028272 -0.921388 -0.329888 0.194425 
-0.119788 0.122879 -0.040354 -0.890694 0.032468 -0.451162 
-0.007964 -0.319934 -0.065711 0.711553 -0.087552 -0.69713 
-0.065218 -0.862135 -0.067182 0.001619 -0.998379 0.056322 
-0.011242 0.122005 0.127171 -0.343827 0.043905 0.931015 
0.035837 0.458048 -0.127757 -0.135373 0.042473 -0.989425 
0.08117 0.595264 -0.083455 0.161136 0.861048 -0.448179 
0.159549 -0.835571 -0.085176 0.966756 -0.15462 -0.193224 
-0.049267 -0.544727 -0.10172 0.19052 0.03726 -0.980101 
-0.125581 -0.3187 -0.024361 -0.952224 0.017703 -0.296628 
0.153877 -0.588008 -0.096609 0.430354 -0.119922 -0.892749 
-0.033888 -0.493694 -0.094284 0.3981 0.107191 -0.905863 
0.531209 0.210324 -0.025561 -0.293198 0.91619 0.265046 
-0.106739 -0.849651 -0.008869 -0.807491 -0.436225 -0.308693 
0.06982 -0.807 0.007781 -0.882232 -0.303342 0.359458 
0.177238 -0.488933 -0.083533 0.706909 0.020928 -0.706745 
0.192419 -0.434915 0.036641 0.957186 -0.08866 0.275226 
-0.016963 -0.278151 -0.080945 0.649978 -0.095973 -0.753611 
-0.114129 -0.050942 -0.07717 -0.800854 -0.124462 -0.585158 
0.064235 -0.345166 0.049997 -0.694278 -0.241991 0.675452 
-0.072278 0.113535 0.095612 -0.561481 0.237384 0.78331 
0.081577 0.695794 -0.049204 0.848215 -0.377756 -0.362813 
0.220987 0.464351 -0.133585 0.059397 0.064973 -0.994959 
-0.09435 0.240489 -0.081116 -0.688559 -0.368678 -0.621854 
-0.070808 0.031117 -0.130742 -0.551517 0.212955 -0.804576 
-0.105805 -0.83657 0.032598 -0.768378 0.639336 0.021084 
-0.056606 0.167017 -0.093917 -0.398297 0.032919 -0.908537 
-0.124409 -0.554747 -0.068766 -0.817618 0.12418 -0.56082 
0.192979 -0.198255 0.064868 0.949431 -0.066514 0.304233 
-0.100487 -0.090885 -0.082804 -0.706827 -0.133397 -0.694449 
0.182191 0.178281 -0.030266 0.897424 0.137597 -0.417456 
0.174925 0.062403 -0.082882 0.818839 0.197528 -0.538341 
0.573225 0.141225 0.037478 0.800627 0.581675 0.137815 
-0.168459 0.472923 -0.087453 -0.385841 0.236435 -0.891272 
-0.122849 0.524646 0.045773 -0.053408 0.582481 0.809169 
0.04607 0.869882 -0.005156 0.14383 0.982834 0.086653 
-0.094804 0.398587 0.07324 -0.613785 -0.025522 0.788967 
0.163943 0.451862 -0.140012 0.235548 -0.06045 -0.969489 
0.057935 0.660161 0.056871 0.341797 -0.9201 0.135696 
-0.093711 0.29023 0.066745 -0.749364 0.065899 0.65826 
0.118555 0.578457 -0.093447 0.410259 0.678832 -0.604052 
0.205701 -0.373481 -0.01402 0.997726 0.01078 -0.055134 
0.117891 -0.040767 -0.143546 0.211072 -0.284276 -0.933453 
0.095445 -0.129874 0.100237 -0.558427 -0.036708 0.828712 
-0.016763 0.028219 0.135988 -0.209906 0.187955 0.959007 
0.139339 0.21406 -0.096107 0.767756 -0.18048 -0.613403 
0.100053 -0.154329 -0.111174 -0.092232 -0.228391 -0.967672 
0.122288 0.588744 -0.072078 0.365516 0.88227 -0.279029 
0.069611 0.758948 -0.106727 0.531112 -0.164443 -0.830262 
0.130708 -0.065216 0.114818 0.25832 -0.015972 0.965226 
0.031244 0.82569 0.068947 -0.074723 0.523881 0.846937 
-0.11497 0.326472 -0.071395 -0.864544 -0.216052 -0.452661 
0.210956 -0.016664 0.025883 0.93124 0.173958 0.315915 
-0.01069 0.333876 0.112333 -0.171698 0.086353 0.977631 
0.068121 0.41403 -0.139823 -0.377053 0.072157 -0.92196 
0.118597 -0.341531 0.078548 -0.227632 -0.198283 0.946136 
-0.104559 0.033384 0.098254 -0.497529 0.139955 0.845351 
0.17053 -0.237565 -0.074209 0.525877 -0.117816 -0.842074 
-0.119522 -0.578153 0.009606 -0.908017 -0.046539 0.414585 
0.048771 -0.08627 0.10499 0.259139 -0.657914 0.704402 
0.122945 -0.813321 -0.119832 0.037454 -0.134961 -0.984548 
0.122947 0.214601 0.099369 0.540687 0.036356 0.839911 
0.074544 0.360278 0.104538 0.21983 0.154612 0.962478 
0.055848 0.512188 -0.127912 -0.15403 0.119909 -0.979511 
0.540023 0.150502 -0.026525 0.462275 -0.117365 -0.871876 
-0.012894 -0.428514 -0.070783 0.719044 0.087352 -0.688673 
-0.143528 -0.057509 0.01982 -0.996944 0.042837 0.058422 
0.498542 0.227663 -0.06908 0.432649 0.346283 -0.753776 
-0.011418 0.218537 0.122114 -0.429576 0.145395 0.890019 
0.205893 -0.335357 0.005265 0.99903 -0.007236 0.02499 
0.053218 -0.71753 0.009077 -0.997608 -0.046503 0.042978 
0.14612 -0.741441 0.018591 0.307268 0.769038 0.559658 
0.197543 -0.717434 -0.018963 0.993116 -0.006053 0.048063 
0.099643 0.59289 -0.079994 0.352047 0.736793 -0.566989 
0.129017 -0.505003 -0.108151 0.045386 0.013068 -0.995792 
0.213605 0.50268 -0.125399 0.240963 0.390089 -0.887876 
0.213374 -0.132117 0.010899 0.987027 -0.13049 0.082302 
-0.084985 -0.157513 0.115749 -0.323655 -0.014722 0.945737 
0.166863 -0.063543 0.096866 0.630746 0.035453 0.774335 
0.159467 -0.823805 0.034449 0.967884 0.109377 0.145366 
0.006757 0.863266 -0.015561 -0.13658 0.98518 -0.002815 
0.194239 -0.148864 -0.058153 0.753272 -0.031674 -0.656596 
0.047869 0.340072 0.113795 0.149905 0.169299 0.973555 
-0.126667 -0.532589 0.008771 -0.892089 -0.126361 0.430179 
-0.02402 -0.787884 -0.142487 0.392813 0.407445 -0.822547 
0.252127 0.518419 -0.025564 0.686223 0.607458 0.399642 
0.091188 -0.071402 0.117274 -0.077537 -0.580531 0.808897 
-0.296731 0.249035 -0.05601 0.56085 -0.792464 -0.226453 
0.140707 -0.869159 -0.051234 0.085087 -0.993836 0.062134 
0.119056 -0.824524 0.124983 -0.078563 0.994119 0.028226 
0.177728 0.29694 0.02984 0.945135 0.029966 0.324886 
0.124728 -0.008212 0.119187 0.344256 -0.20405 0.914942 
0.10111 -0.217681 0.091675 -0.133312 -0.18885 0.972402 
-0.508613 0.135489 0.004708 -0.921754 0.312291 -0.182153 
0.198845 -0.447032 0.002858 0.990137 -0.042637 0.12694 
-0.427094 0.188313 0.021767 -0.048964 0.348303 0.934937 
0.128869 -0.829731 0.163231 0.17811 0.915845 0.344583 
0.330798 0.425252 -0.115352 0.586158 0.631802 -0.497422 
0.12751 -0.285652 -0.093784 0.401261 -0.026096 -0.915258 
0.096831 -0.49293 -0.099356 -0.549511 -0.012977 -0.835271 
-0.084567 0.238637 0.078159 -0.628377 0.079185 0.773443 
-0.000319 0.78194 -0.114247 -0.407453 0.082902 -0.908585 
0.205365 -0.272046 -0.007234 0.999351 0.017208 -0.03036 
0.201622 0.559001 -0.045687 0.257759 0.958617 0.041492 
-0.120949 -0.652423 0.00206 -0.981094 -0.123951 0.145512 
0.17572 0.367015 0.041821 0.81213 -0.140142 0.565734 
-0.046154 0.257675 0.103434 -0.613832 0.046559 0.786473 
0.082953 -0.675133 -0.070929 -0.778793 -0.016594 -0.626165 
-0.261101 0.395142 -0.087438 -0.361145 0.493152 -0.789558 
0.165374 -0.401278 0.073501 0.26119 -0.036568 0.961021 
0.087507 0.748559 0.054859 0.835332 0.089919 0.537396 
-0.170935 0.50652 -0.072035 -0.580318 0.428885 -0.691191 
0.105259 -0.130852 0.107205 -0.601371 -0.051816 0.796392 
0.201744 -0.19947 -0.047568 0.85816 -0.007171 -0.512116 
0.073976 0.625784 -0.057483 0.589237 0.462365 -0.650006 
0.091814 -0.824751 -0.10121 -0.882766 -0.062406 -0.441885 
0.014353 -0.281268 -0.045133 0.819299 -0.102983 -0.561574 
0.094745 0.821188 -0.006047 0.841664 0.52227 0.116555 
0.086033 0.51673 0.054183 0.218494 0.560866 0.797913 
-0.113461 0.345253 -0.082272 -0.77779 -0.213426 -0.589579 
-0.018694 -0.02182 0.132502 -0.058112 -0.205944 0.96929 
0.158873 0.18393 -0.072968 0.761552 0.06238 -0.644996 
0.090927 -0.162524 0.095994 -0.479561 -0.064264 0.870662 
-0.423989 0.240655 -0.047478 -0.774177 0.525331 -0.320644 
-0.25878 0.425732 -0.052668 -0.731068 0.636846 -0.239615 
0.090376 -0.635014 0.020448 -0.674092 0.133468 0.705338 
0.01942 -0.698022 -0.022005 0.889077 -0.153805 0.430107 
-0.108675 -0.698182 -0.090487 -0.70201 -0.060138 -0.708925 
-0.07339 -0.740929 0.021915 -0.378685 0.629579 0.673758 
-0.013477 0.010702 0.139029 -0.206118 0.194023 0.958295 
-0.004014 -0.202436 -0.073272 0.644246 0.027091 -0.763327 
0.033489 0.84716 -0.080991 -0.008898 0.876464 -0.458164 
0.336117 0.346977 -0.137365 0.061005 -0.061189 -0.99455 
-0.012278 0.372497 0.106939 -0.067346 0.075962 0.993758 
-0.019907 -0.615009 -0.086423 0.666959 0.00679 -0.744006 
0.038578 0.129002 -0.128128 -0.110103 0.422944 -0.899375 
0.089199 0.429125 0.088862 0.094604 0.182612 0.978552 
-0.037832 0.404944 -0.129316 -0.078536 -0.029723 -0.996223 
0.100287 0.025882 -0.154713 0.357487 -0.010945 -0.931863 
0.074785 -0.496002 -0.080985 -0.698033 -0.012331 -0.715877 
0.184782 0.528097 -0.114989 0.189977 0.613516 -0.766213 
-0.135892 -0.530157 -0.016343 -0.985488 -0.065603 0.149716 
0.067017 0.777602 0.07541 0.47953 -0.286123 0.788033 
-0.367592 0.306544 -0.055453 -0.668409 0.734591 -0.105251 
-0.135905 -0.193249 0.05631 -0.987601 -0.044245 0.140451 
-0.020015 0.271466 -0.130919 -0.054523 -0.050983 -0.996473 
-0.107666 0.307551 -0.078614 -0.810751 -0.118455 -0.572849 
-0.047557 -0.050483 0.128886 -0.160152 -0.07243 0.984167 
0.139115 -0.509714 -0.106519 0.241152 0.001413 -0.968852 
0.143312 0.518136 -0.129698 0.193793 0.423347 -0.88482 
-0.163197 0.424747 -0.09472 0.075527 -0.04168 -0.994894 
0.01734 -0.738635 -0.023837 0.920063 -0.120725 0.367861 
-0.108846 -0.461045 0.06829 -0.805478 -0.195126 0.559342 
0.413573 0.246086 -0.12247 0.125417 -0.413711 -0.898125 
0.064527 0.74708 -0.106115 0.473844 -0.285732 -0.831868 
-0.020434 0.829861 -0.075065 -0.461061 0.748071 -0.473521 
0.04169 -0.370968 -0.03506 -0.924055 -0.061636 -0.36893 
-0.163941 0.527927 0.02904 -0.528283 0.664763 0.527182 
0.308092 0.313285 -0.094802 -0.701321 -0.709917 -0.05187 
-0.128274 -0.617936 -0.020297 -0.994183 -0.037469 0.097944 
0.212052 -0.109129 0.029785 0.966133 -0.023502 0.252661 
0.015833 0.611702 -0.074296 -0.145597 0.604995 -0.780322 
-0.335488 0.247571 -0.076475 0.079043 -0.395765 -0.893096 
0.107684 -0.365007 -0.10119 -0.07286 0.013363 -0.991406 
0.187613 -0.602294 0.019126 0.469322 -0.143803 0.86954 
-0.088619 -0.80748 0.03342 -0.843197 0.393865 0.363138 
0.133593 -0.293279 -0.090658 0.512164 -0.033141 -0.857754 
-0.125282 -0.712187 -0.032343 -0.859804 0.102785 0.483725 
0.03025 -0.195813 0.033359 0.972508 -0.031707 0.229916 
-0.451061 0.143949 -0.015295 0.448509 -0.832166 -0.298376 
-0.127206 -0.381111 -0.027378 -0.973561 0.053992 -0.211145 
-0.100683 -0.529822 0.053226 -0.85004 -0.024612 0.525362 
0.01169 0.174286 -0.116452 -0.01872 0.026042 -0.996379 
-0.055704 -0.864287 0.071784 -0.004001 -0.999987 0.00119 
-0.27468 0.278603 -0.016614 0.607019 -0.64382 0.463474 
-0.029961 -0.747751 -0.122657 0.378965 0.413783 -0.824695 
-0.086852 -0.396545 -0.073076 -0.51975 -0.079317 -0.850147 
0.034194 -0.286474 -0.025478 -0.950807 -0.115555 -0.270654 
-0.021981 0.706028 0.038705 -0.962821 -0.194174 0.179064 
0.010109 0.036521 -0.151614 -0.162716 0.161255 -0.972454 
0.066997 0.313551 -0.139143 -0.333635 -0.066938 -0.939592 
-0.065049 0.393197 0.095114 -0.361778 0.048197 0.929749 
-0.154407 0.525308 0.038365 -0.261067 0.438865 0.841644 
0.004551 0.493121 -0.124145 0.159785 0.122792 -0.978194 
-0.010837 0.374827 -0.129135 0.026144 -0.017464 -0.999409 
-0.125562 -0.386882 0.047124 -0.967896 0.102183 0.221908 
-0.096457 0.383598 0.070382 -0.610649 -0.141649 0.778889 
0.109691 -0.855501 0.172394 -0.678125 0.276843 0.65028 
-0.032635 0.504479 -0.124797 -0.058188 0.31184 -0.948209 
-0.022348 -0.829817 0.031669 0.870044 -0.415659 0.22649 
0.611343 0.094198 0.044654 0.773815 0.633345 0.00637 
0.362112 0.265333 -0.076531 -0.786413 -0.605607 0.120204 
0.115594 0.228913 -0.123582 0.549542 -0.341184 -0.761715 
-0.131818 -0.267913 0.041877 -0.976441 -0.182431 0.099226 
0.117636 0.202535 -0.111141 0.52995 -0.30768 -0.789818 
0.152081 0.365537 0.068909 0.669388 -0.072325 0.739213 
-0.089552 0.333096 0.068783 -0.882214 -0.010321 0.469173 
-0.127514 -0.477234 0.02619 -0.869775 -0.197272 0.45188 
-0.092178 -0.121104 -0.085195 -0.650302 -0.0905 -0.753928 
0.187142 0.547222 -0.005348 0.235725 0.707058 0.666236 
0.100134 -0.081621 0.112131 -0.244794 -0.442764 0.850925 
0.046975 -0.466948 -0.013928 -0.866629 -0.074085 0.493363 
0.168512 -0.041192 -0.105239 0.807433 -0.129454 -0.575429 
-0.021192 -0.045754 -0.128543 -0.039205 -0.443552 -0.894783 
0.198619 -0.63234 -0.017801 0.997476 -0.029707 0.060447 
0.008699 0.316101 -0.127835 0.108848 0.045224 -0.993028 
0.186787 -0.20576 -0.064337 0.626472 -0.087033 -0.774428 
-0.091748 -0.277616 -0.070911 -0.728831 -0.028052 -0.683843 
0.013229 -0.373047 -0.03934 0.750848 0.023752 -0.659749 
-0.114308 -0.218635 -0.042351 -0.881141 -0.051658 -0.469899 
-0.000207 -0.352 0.074364 0.722402 -0.081375 0.686659 
0.07447 -0.021157 -0.15301 -0.100453 -0.287786 -0.950449 
-0.040419 0.331641 -0.127566 -0.205055 0.008783 -0.976846 
-0.1256 -0.665208 -0.073805 -0.909857 -0.013929 -0.403139 
-0.057619 -0.806416 0.062772 -0.022117 0.524111 0.83745 
0.000794 -0.5386 -0.067383 0.791218 0.030868 -0.610672 
0.087362 -0.086127 0.103701 -0.284304 -0.514614 0.805453 
0.19125 0.036654 -0.062303 0.905534 0.0649 -0.418483 
0.212011 0.554446 -0.037187 0.582024 0.747509 0.300483 
-0.126722 -0.36547 -0.028719 -0.97453 0.042314 -0.212576 
0.096777 -0.857955 0.013158 -0.759663 -0.634511 -0.136704 
0.30185 0.459242 -0.101497 0.598962 0.649025 -0.468715 
0.187625 -0.151716 -0.065124 0.686984 -0.054505 -0.724439 
0.013458 0.0294 0.139927 -0.020633 0.174666 0.983313 
0.004403 -0.53039 -0.061892 0.807695 0.044879 -0.587842 
-0.128076 -0.681751 -0.059535 -0.99712 -0.00747 -0.057978 
-0.081152 -0.432277 -0.08254 -0.414941 0.329644 -0.846643 
0.553619 0.128914 -0.017813 0.369936 0.056919 -0.885668 
-0.056665 -0.093273 -0.109894 -0.229268 -0.195598 -0.95043 
-0.020739 -0.135969 0.123348 0.22286 -0.060311 0.971274 
0.117364 0.557482 -0.112585 0.219356 0.606155 -0.762908 
-0.090033 -0.004503 -0.113904 -0.704322 -0.041922 -0.707835 
0.00356 -0.821783 -0.091452 0.91698 -0.354069 -0.164093 
0.074587 -0.822788 -0.044996 -0.436799 -0.890412 -0.063564 
0.023447 -0.024535 -0.138414 -0.108089 -0.421401 -0.90031 
-0.080258 -0.167859 -0.087689 -0.57858 -0.137879 -0.803746 
-0.469716 0.171634 -0.03503 -0.590824 0.464331 -0.657911 
-0.0992 -0.475544 0.073511 -0.608951 -0.270951 0.734263 
0.026229 0.194398 -0.114591 0.197735 -0.269809 -0.936679 
-0.094716 -0.824856 0.046235 -0.779782 0.606044 0.152398 
0.199439 0.412436 -0.116082 0.614328 -0.548219 -0.556763 
0.001871 0.05715 -0.144707 -0.130737 0.193412 -0.972329 
-0.306315 0.285042 -0.093107 0.141426 -0.300782 -0.941995 
0.066173 -0.364491 0.044015 -0.572815 -0.302602 0.737401 
0.053479 -0.561466 -0.005014 -0.828815 -0.009827 0.55755 
0.37886 0.274433 -0.039543 -0.433688 -0.25222 0.857885 
0.050147 0.24549 0.126249 0.183092 0.068017 0.977494 
-0.006706 -0.274995 0.093027 0.435369 -0.201443 0.877205 
0.515096 0.200134 -0.057381 0.120297 -0.482401 -0.865313 
-0.00084 -0.025992 -0.137203 -0.040364 -0.300786 -0.952277 
0.085841 -0.72459 0.036449 0.017691 -0.115084 0.992456 
-0.220652 0.338321 -0.005098 0.480773 -0.657955 0.569094 
0.01458 0.148898 -0.115069 -0.147209 0.215929 -0.961231 
0.128499 -0.192219 0.096831 0.083933 -0.152054 0.984722 
-0.12579 0.185826 0.024434 -0.922821 0.109097 0.360563 
0.075374 -0.655588 0.018592 -0.61168 0.31995 0.723089 
0.165039 -0.597111 -0.088806 0.565942 -0.120126 -0.814622 
0.143771 0.577094 -0.034038 0.310664 0.856802 0.398161 
0.133451 -0.363964 -0.093751 0.657579 0.255841 -0.646014 
-0.491165 0.160616 -0.008794 -0.789094 0.610451 -0.062566 
-0.462574 0.195142 -0.011621 -0.82052 0.570134 -0.018582 
-0.090621 0.090713 -0.093211 -0.717015 0.186699 -0.671332 
-0.090547 0.548534 -0.085825 -0.386765 0.632648 -0.670523 
0.329104 0.367296 -0.043284 0.609721 0.183446 0.767825 
0.378023 0.290353 -0.129658 -0.063687 -0.153745 -0.980163 
0.17337 0.533835 -0.113813 0.251907 0.597446 -0.760733 
-0.086811 0.574205 -0.041774 -0.342549 0.934356 -0.06991 
0.00037 -0.731951 -0.092209 0.700222 0.178162 -0.689896 
0.180874 -0.550372 -0.078368 0.72705 -0.03478 -0.68555 
-0.128279 -0.337218 0.008172 -0.99993 -0.004266 0.003438 
0.079009 0.536486 0.043688 0.111542 0.543786 0.828057 
-0.335485 0.307903 -0.08954 -0.354075 0.331093 -0.869834 
0.172124 -0.15274 -0.07994 0.684469 -0.091754 -0.723223 
-0.427581 0.160943 0.008213 0.510968 -0.856055 0.058489 
0.066277 0.303911 -0.138177 -0.297875 -0.06834 -0.95118 
0.10826 0.431841 -0.146395 -0.016944 -0.038789 -0.998809 
-0.001019 -0.384918 0.068582 0.725387 -0.157847 0.669519 
0.070563 -0.50484 0.011802 -0.603518 0.030286 0.796613 
0.087765 0.609055 -0.013636 0.872483 0.212344 0.423624 
-0.007905 -0.288831 -0.071238 0.707333 -0.126967 -0.695345 
0.134616 -0.305906 -0.089576 0.536879 0.006905 -0.842594 
-0.125133 0.110898 0.032767 -0.91949 0.102949 0.378907 
0.088201 0.064477 -0.151494 0.243882 0.201537 -0.937085 
0.12477 0.096436 -0.123837 0.596259 0.287603 -0.748751 
0.069637 0.472558 -0.136988 -0.270845 0.123989 -0.954253 
-0.003215 -0.698533 0.013717 0.803188 -0.19878 0.560628 
0.086929 -0.842304 0.03662 -0.995624 0.08421 -0.001262 
