ply
format ascii 1.0
comment VCGLIB generated
element vertex 799
property float x
property float y
property float z
property float nx
property float ny
property float nz
element face 0
property list uchar int vertex_indices
end_header
-0.2279226 -0.4558452 2.809 -0.6461024 0.7293861 0.2248279 
-1.013643 -0.05334963 2.63 -0.1754325 -0.9068291 0.3832552 
-0.6214071 -0.5497063 2.651 0.5111648 0.6808534 0.5245466 
-0.5984084 -0.5684879 2.655 0.4317237 0.7161596 0.5483887 
-0.6543815 -0.04938729 2.739 0.2660556 -0.7461305 0.6103309 
-0.5156454 0.04401851 2.79 0.3612597 -0.8689615 0.3382268 
0.4214959 0.08781164 1.948 0.356509 0.9176295 0.1756633 
0.2697098 -0.1798065 2.493 -0.6473173 0.7216216 0.2454436 
0.2247401 -0.1863698 2.432 -0.4282833 0.8137665 0.3928836 
-0.6465508 -0.5444652 2.664333 0.0379887 0.3915516 0.9193717 
-0.7226429 -0.05027081 2.788 -0.2646435 0.9246789 -0.2737386 
-0.08169796 0.1770139 2.4165 0.9418601 -0.1261744 0.3114154 
-0.4332865 -0.2033788 2.6155 0.02235644 -0.168925 0.9853754 
-0.0583251 0.07688252 2.3525 0.7759271 0.03769145 0.6296957 
-0.7463336 -0.6368338 2.557 -0.4304766 0.08673083 0.8984251 
-0.05540179 0.7967306 2.341 0.1072063 -0.3803014 0.9186281 
-0.1167122 -0.3172162 2.6555 0.0493575 0.8085792 0.5863135 
0.4334404 0.09056928 1.9135 0.3263002 0.9308642 0.1643775 
0.2563825 0.06474418 2.298 0.03325805 -0.306843 0.9511789 
-0.147633 0.04409966 2.552 0.2715085 -0.5208017 0.8093509 
-1.314986 -0.1041663 2.4848 -0.432926 -0.5603177 0.7061297 
-0.1613787 0.5680529 2.864 -0.5916756 -0.5545577 -0.5851374 
0.1452656 0.2563521 2.5275 -0.01425542 -0.9191902 0.3935559 
0.3503833 0.03554614 2.253 -0.3325818 0.9074734 0.2566738 
-0.07543326 0.5720356 2.789 -0.5807658 0.6226082 -0.5244713 
0.1283163 0.4827138 2.711 -0.8577433 -0.3309231 0.3934035 
-0.02234058 -0.1954801 2.478 0.2902978 0.6520355 0.700412 
-0.8361928 -0.3051364 2.6035 0.3319091 0.6234553 0.7079123 
0.2772975 0.1764685 2.4855 -0.5836341 -0.7633919 0.2767744 
-0.6069732 -0.5948337 2.693 0.150317 0.6350734 0.7576851 
0.2033608 -0.1843774 2.406 -0.3659872 0.8287104 0.4234295 
-0.8435823 -0.07256632 2.683 -0.1563473 -0.9364212 0.3141194 
0.06567165 -0.1260917 2.331 0.3022164 0.3805149 0.8739986 
-0.5153209 -0.5863996 2.628 0.3747646 0.7866907 0.4905808 
-0.3872818 0.4052138 3.182 0.7368933 -0.2869198 0.6120992 
-0.8732176 -0.5611493 2.5405 0.1333323 -0.3387267 0.9313897 
-0.3915552 -0.606279 2.802 -0.4031578 0.7948092 0.4535882 
-1.015879 -0.7207631 2.518 0.1642571 0.2438464 0.9558026 
-0.5580276 -0.3487673 2.579 -0.0496466 -0.1412823 0.9887237 
0.03641388 -0.04421799 2.308 0.4676136 0.3285667 0.8205983 
-0.318475 0.1981622 3.14 -0.5930666 -0.7771195 0.2106121 
-0.1294996 -0.3699989 2.736 -0.3031729 0.8589464 0.4126707 
-0.917253 -0.5549522 2.5515 0.2266198 -0.4712884 0.8523676 
-0.6150917 -0.07612295 2.702 0.2577233 -0.5427937 0.7993459 
-0.9684524 -0.2598287 2.62 0.2982419 0.8633303 0.4070781 
-0.5245168 -0.0182971 2.706 0.3440113 -0.6388065 0.6881734 
0.06670281 0.3148293 2.3675 -0.4000724 -0.174015 0.8998116 
-0.3630615 -0.02762295 2.626334 0.3727054 -0.4385406 0.8177853 
-0.1962092 -0.06540232 2.52325 0.6113415 -0.01319151 0.791257 
0.2332508 -0.1943757 2.464 -0.4466966 0.8476189 0.286364 
-0.2843421 -0.5271538 2.835 -0.792897 0.5248095 0.3096602 
0.1131747 -0.1552892 2.3355 0.07636405 0.5707064 0.8175957 
-0.4900863 0.01225216 2.718 0.3584205 -0.675145 0.6447589 
-0.5470287 -0.6340559 2.758 -0.4303137 0.855822 0.2870522 
-0.1457141 0.08742848 2.586 0.5054747 -0.6675098 0.5467413 
-0.07483373 -0.2302576 2.554 0.3730772 0.739458 0.5603707 
-0.1329988 -0.1556369 2.511 0.6183037 0.5894211 0.5198877 
-1.179919 -0.09690159 2.529 -0.2701669 -0.3826641 0.8835033 
-0.206177 -0.4248497 2.772 -0.5857483 0.7511481 0.3044266 
-0.5044279 0.03736503 2.763 0.3566756 -0.8499907 0.3876835 
-0.7252439 -0.06789512 2.7385 0.1214227 -0.8338807 0.5384232 
-0.2848266 -0.1046302 2.579 0.3326158 0.1594106 0.9294918 
-0.2750019 -0.4875033 2.773 -0.7047765 0.6576504 0.2660566 
-0.1258078 0.1258078 2.658 0.3657295 -0.9153213 0.1686087 
-1.065311 -0.228281 2.597 0.02808237 0.9093491 0.4150851 
-0.2854893 -0.4616422 2.695 -0.7551547 0.5536559 0.3510081 
-0.1023583 0.04549256 2.523 0.7199723 -0.535372 0.4416069 
0.1918874 -0.2201061 2.504 -0.2568534 0.9436814 0.2085473 
-0.005984084 -0.2992042 2.655 -0.2188791 0.9084848 0.3560159 
-0.7769099 -0.2764286 2.582 0.02689769 -0.009736191 0.9995908 
0.2825434 0.160662 2.458 -0.5907912 -0.7257853 0.3524224 
0.08881687 -0.1149395 2.318 0.2610824 0.4545572 0.8515948 
-0.5463886 -0.5760836 2.635 0.2929925 0.8333176 0.4687614 
-0.5547843 -0.2832308 2.591 -0.03116518 -0.2143791 0.9762532 
-0.9022767 -0.6078492 2.528333 0.07585917 -0.2397252 0.9678726 
0.0661292 -0.09571454 2.316333 0.366798 0.4028713 0.8385428 
0.0232782 0.1163983 2.29525 0.4173954 -0.04490452 0.9076148 
-0.01639031 0.8686861 2.424 -0.2696339 -0.6925035 0.6691311 
-0.3041334 -0.5888541 2.871 -0.6851766 0.665996 0.2949281 
-0.6448791 -0.6539195 2.674 -0.9622422 0.02131743 0.2713588 
-0.7158925 -0.4614844 2.625 0.4694229 0.6782243 0.5653795 
0.2212421 0.1991179 2.454 -0.4919019 -0.7942531 0.3566436 
0.1461531 0.09487195 2.27525 -0.1042153 -0.2489194 0.9629011 
-1.229397 -0.2115706 2.537 -0.2534938 0.8665563 0.4299083 
-0.9068592 -0.577872 2.5385 0.1118936 -0.3839572 0.9165461 
0.4288729 0.1621788 1.599 0.7782445 0.6234192 -0.07539307 
-0.6649703 -0.4549797 2.588 0.2060221 0.3177471 0.9255223 
0.359045 0.1148944 2.124 0.7062736 -0.7018808 0.0924173 
0.2077119 0.19706 2.363 -0.6218956 -0.6650082 0.4135335 
0.1811453 0.3622906 2.679 -0.6345648 -0.5990773 0.4882971 
0.3427156 0.1477764 1.395 -0.3764479 0.9248341 0.05448749 
-0.5656729 -0.6271591 2.728 -0.1297782 0.8409516 0.525317 
-0.5273589 0.04447605 2.819 0.3645718 -0.9042212 0.2224221 
-0.4070428 -0.5036796 2.5985 -0.1364343 0.1423693 0.9803656 
-0.51478 0 2.719 0.3334876 -0.6547561 0.6782924 
-0.84745 -0.5468337 2.5405 0.1638071 -0.08938429 0.9824346 
-0.9156662 -0.4330854 2.745 0.5087466 -0.7217515 0.46931 
-0.7967824 -0.4073775 2.658 0.7948487 0.3874469 0.4670123 
-0.4116238 0.3466306 3.204 0.8194174 -0.332912 0.46661 
-0.3363145 0.07949252 2.713 0.2485399 -0.8349362 0.4910291 
-0.06011018 -0.1065629 2.4245 0.7079518 0.5338079 0.4624428 
-1.209319 -0.09651843 2.519 -0.2961311 -0.3885498 0.8725454 
-0.9645772 -0.6264949 2.542333 0.2592138 -0.1969361 0.9455287 
0.1834713 -0.05426696 2.293 -0.327991 0.3202384 0.8887459 
0.2321622 0.03353453 2.289 -0.150974 -0.02371398 0.9882533 
0.1978467 -0.07809737 2.31 -0.3813961 0.4501416 0.8074092 
0.03414196 0.4202157 2.3305 0.1093996 0.3666723 0.9238957 
0.2376053 -0.2036617 2.51 -0.4581608 0.8750122 0.156341 
-0.8489781 -0.7008343 2.528 -0.2793913 0.4065753 0.8698489 
-0.5092895 -0.03031485 2.69 0.3239613 -0.5515916 0.7686324 
0 0.7237834 2.327 -0.4335667 -0.4087514 0.803083 
0.2595357 -0.0794497 2.35 -0.5282598 0.5293275 0.6638932 
-1.373675 -0.214243 2.396333 0.1695088 -0.09211291 0.9812146 
0.06389108 -0.2671809 2.577 -0.1233368 0.9391818 0.3205085 
-0.3443316 -0.5283709 2.634 -0.728567 0.5321083 0.4313363 
-0.1150837 0.05754187 2.553 0.4135892 -0.6412474 0.6463324 
-0.3174044 0.3986008 3.275 -0.9122471 -0.3782243 0.1573267 
-0.5076892 -0.1015378 2.65 0.3281288 -0.326279 0.8864951 
-1.005222 -0.1045896 2.578 -0.3038271 -0.4286834 0.8508346 
-0.05429626 0.2931998 2.409 0.8462615 -0.2068897 0.4909564 
-0.955195 -0.5725393 2.553 0.3443036 -0.5851653 0.7341912 
-0.1587304 -0.4063497 2.817 -0.4920892 0.84711 0.2006313 
0.05650282 0.03081972 2.279 0.2807605 -0.0558726 0.9581503 
0.2326558 -0.100465 2.346 -0.503117 0.528295 0.6839428 
-0.3950983 -0.5806748 2.656 -0.5258525 0.7627776 0.3763635 
-0.5285828 -0.5946556 2.665 0.1484919 0.9004942 0.4087303 
-0.3015032 0.2656099 3.185 -0.8589237 0.3941733 0.3269215 
-0.6860893 -0.6399657 2.558 -0.2875718 -0.8884031 0.3578302 
0.002664664 0.6553653 2.364 0.4730326 0.6827979 0.5568008 
0.4517882 0.09621415 1.856 0.01095887 0.9701064 0.2424324 
-0.7823936 -0.500026 2.61 -0.6425841 -0.7405428 0.1966775 
-1.324328 -0.2537116 2.474 -0.843978 0.536355 0.004954264 
-0.6891862 -0.4871833 2.636 0.4356663 0.7149342 0.5468675 
0.1380464 0.2703409 2.552 -0.1585243 -0.8127285 0.5606626 
-0.322532 -0.5172682 2.7 -0.8007458 0.5717407 0.1786583 
-0.2294012 0.6423232 2.908 -0.8901356 -0.02175944 -0.4551759 
-0.1731462 0.1014995 2.649 0.4097601 -0.8450577 0.3434735 
-0.2168244 0.04688096 2.6 0.4214383 -0.6706369 0.6104392 
-0.6468084 -0.6770332 2.682 -0.9436385 0.2707455 0.1903767 
-0.3243193 0.2637336 3.1625 -0.3211516 0.5930805 0.7383205 
-0.08824439 0.1709735 2.447 0.9739878 -0.1053089 0.2006434 
-0.7172734 -0.5944791 2.594333 -0.6875492 -0.5829942 0.4328904 
-0.217421 -0.1539266 2.561 0.4668863 0.4151936 0.780789 
-0.3691875 -0.1259926 2.6 0.2743593 0.02203327 0.9613748 
-0.9058844 -0.5308367 2.56 0.3363204 -0.3514374 0.8737165 
-0.3054295 -0.01468185 2.606 0.4035667 -0.4613418 0.7901251 
-0.2060373 -0.1857207 2.575 0.4984958 0.5122579 0.6993524 
-1.096631 -0.04742189 2.63 -0.1385488 -0.9815822 0.1315318 
-0.6929332 -0.746009 2.6165 -0.7475863 0.6392683 0.1801413 
-0.08222198 0.2082957 2.432 0.932851 -0.1423877 0.3309302 
0.1036351 -0.1753844 2.358 0.1133682 0.8189908 0.5624959 
0.158985 0.415807 2.713 -0.8045867 -0.4389642 0.3999383 
-1.328984 -0.1832133 2.4265 -0.7612411 -0.1421945 0.6326869 
0.4501248 0.1464692 1.585 -0.1236622 0.9844522 0.1247454 
-0.3618489 -0.5739672 2.768 -0.4737902 0.8145228 0.3347768 
-0.5678005 -0.08456603 2.68 0.3139913 -0.4205688 0.851194 
0.08214986 0.3339502 2.377 -0.595049 0.0009430558 0.803689 
-0.06715848 0.8147272 2.352334 0.5178585 -0.2930371 0.8037113 
-0.4226792 0.08201238 2.799 0.354342 -0.9082114 0.2226965 
0.1654334 -0.1952637 2.4065 -0.1917145 0.9094145 0.3690675 
-0.3385617 0.410596 3.196 -0.8685352 -0.4216202 0.2605437 
0.3024723 0.1319879 2.44 -0.6935646 -0.6164188 0.3728217 
0.0666814 0.3547367 2.36675 -0.3651521 0.1895607 0.9114442 
-0.3664682 -0.4045815 2.6015 -0.266485 -0.05625168 0.9621962 
0.4680771 0.1200198 1.775 -0.1684838 0.9735032 0.1546118 
0.282824 0.06427988 2.2815 0.7762309 -0.3001238 0.5544288 
-0.9765484 -0.1278813 2.579 -0.2897316 -0.3281363 0.8991008 
-0.8336358 -0.4687364 2.6325 -0.2508178 -0.9619219 0.1086124 
-0.3029569 -0.258837 2.61 -0.04652486 0.1570299 0.9864974 
-0.9459909 -0.657833 2.523333 0.1007895 -0.178782 0.9787127 
0.1048961 0.4772775 2.327 -0.8152924 0.1889932 0.547339 
-0.7048473 -0.6145542 2.5845 -0.5773711 -0.6409496 0.5057926 
-0.448795 -0.1830611 2.62 0.07110339 -0.1618926 0.9842434 
-0.3367631 -0.1757022 2.5985 0.1449187 0.1844677 0.9720958 
0.3063152 0.1448036 2.471 -0.6953844 -0.6527785 0.3005341 
-1.317803 -0.1251068 2.467 -0.6095409 -0.4302405 0.6658476 
-0.01414618 -0.0777946 2.353333 0.5697694 0.2998251 0.7651587 
-0.3643056 -0.07344759 2.607 0.3137935 -0.2917144 0.9035687 
-1.073698 -0.5977886 2.575 0.3573815 -0.8693386 0.3413632 
0.1358534 -0.201063 2.411 -0.0715095 0.9259946 0.3707024 
0.3693295 0.183113 1.377 -0.3216771 -0.8720605 0.3688286 
0.4291501 0.14305 1.763 0.9925853 -0.1111198 0.04926348 
-0.2964003 -0.5234304 2.798 -0.7583119 0.5795415 0.2984874 
0.1006791 0.5298901 2.351 -0.797178 -0.4218131 0.4319503 
-0.9872664 -0.08584775 2.597 -0.3007375 -0.5662696 0.7673954 
-0.3846138 -0.1438631 2.60525 0.2495524 0.06543771 0.9661478 
0.3434706 0.1079479 2.177 0.7762192 -0.6168504 0.1303052 
0.1464782 0.3543179 2.634667 -0.4920151 -0.5591224 0.6673105 
-0.7650176 -0.6636548 2.545667 -0.7858148 0.2764768 0.5532231 
-0.16503 -0.2652268 2.615 0.1707105 0.5728089 0.8017156 
-0.5145354 -0.2293358 2.609 -0.05898876 -0.357391 0.9320901 
0.04201255 -0.09977981 2.33 0.3971716 0.3770638 0.8367064 
0.2779455 -0.125348 2.418 -0.6842416 0.5803575 0.4415864 
0.3707382 0.1566049 1.418 -0.3911648 0.9157087 0.09201951 
0.1388262 0.4164787 2.678 -0.723221 -0.4100668 0.5556948 
-0.2446747 -0.08347684 2.55425 0.4733815 0.09359713 0.8758708 
-1.256626 -0.1346385 2.489 -0.3528723 -0.1986218 0.914347 
-0.5751212 -0.581112 2.658 0.2452319 0.8145739 0.5256717 
-0.3930901 0.3430604 3.171 0.6334635 -0.327788 0.700913 
-0.5546367 -0.3745975 2.57675 -0.06040116 -0.08696552 0.9943786 
-0.134936 -0.03654348 2.4945 0.6367978 -0.3880542 0.6662601 
0.07583784 0.5177855 2.3205 -0.1034238 -0.4155034 0.9036927 
0.1766697 0.03328492 2.272 -0.2378551 0.115619 0.9643947 
0.2538288 -0.04710184 2.322 -0.3955402 0.536082 0.7457641 
-0.04856236 0.2751867 2.394 0.7702322 -0.1835514 0.6107792 
-0.3497657 0.2355565 3.167 -0.8055866 0.2184174 0.5507486 
-0.6853038 -0.160201 2.6325 -0.1205989 -0.5497223 0.8265962 
-0.4641711 0.06272582 2.783 0.3624758 -0.8880097 0.2829313 
0.4168033 0.1403521 1.887 0.8168529 -0.5654541 0.1140748 
-0.5248932 0.02484691 2.756 0.3672272 -0.7815025 0.5043788 
0.1449568 -0.187907 2.382 -0.1053982 0.901153 0.4204932 
-0.07471954 -0.175591 2.486333 0.3827855 0.5261486 0.7593701 
0.1457209 -0.1695648 2.351 -0.2009603 0.714128 0.6705492 
0.2003282 0.03595634 2.279 -0.3378462 0.08361487 0.9374799 
-0.4246063 -0.1444846 2.6165 0.2614058 0.03789775 0.9644847 
-0.6586053 -0.6821269 2.609 -0.9672625 0.2125397 0.1386728 
-0.06569645 0.2846846 2.429 0.8992739 -0.2844022 0.3322977 
-0.8748246 -0.4766486 2.579 0.04835898 -0.9052245 0.4221729 
-0.9784484 -0.5336992 2.631 0.7686098 -0.5588351 0.3113558 
-0.2346099 -0.3729696 2.669 -0.550754 0.4878962 0.6772203 
-0.7928562 -0.1247191 2.635 -0.2201656 -0.5991611 0.7697617 
-0.3954724 0.1539882 3.1055 0.5607527 -0.3646351 0.7433692 
-0.03710808 0.182891 2.352 0.6822808 -0.2398311 0.6906331 
0.117146 -0.1093363 2.31 0.09829231 0.467412 0.8785583 
0.0522903 0.5072159 2.32 0.287225 -0.2574737 0.9226099 
-0.8955638 -0.2751078 2.597 0.2368871 0.6106303 0.7556555 
0.196598 -0.1048511 2.326 -0.4093484 0.4817901 0.7747982 
-0.2061447 0.01541362 2.564333 0.4370085 -0.5355377 0.72265 
0.3650855 0 2.492 -0.9447476 0.2642875 0.1939181 
-0.3152068 -0.5484599 2.797 -0.7554373 0.5448045 0.3640093 
-0.3349599 0.3777208 3.162 -0.841315 -0.381178 0.3832656 
0.06624866 -0.1590008 2.3515 0.3454325 0.6989937 0.6261663 
-0.2034127 -0.3734282 2.694 -0.4868451 0.6534503 0.5796419 
-0.8438572 -0.8086965 2.6 -0.205463 0.8997356 0.3850467 
-1.03405 -0.5842088 2.592 0.2885256 -0.9439756 0.1601964 
-0.3891074 0.4251359 3.197 0.6940815 -0.5169135 0.5010504 
0.1454887 -0.2502406 2.582 -0.2482666 0.9449169 0.2132974 
0.2224592 0.1747893 2.35 -0.6402524 -0.622441 0.4501601 
-0.1285169 0.5397711 2.851 -0.6866541 -0.5827991 -0.4345703 
-0.8154751 -0.5465114 2.539 -0.07443132 0.05095584 0.9959235 
-0.05315805 0.002657339 2.3585 0.696509 0.1629687 0.6987965 
0.4436381 0.1031719 1.831 0.1313492 0.9615003 0.2413807 
-0.2634454 -0.1355972 2.578333 0.3022539 0.2584646 0.9175177 
0.3990065 0.1330022 1.967 0.827576 -0.5331069 0.1758264 
-0.7300583 -0.7898991 2.655 -0.4944651 0.8213759 0.2843342 
-0.7834439 -0.7834439 2.594 -0.3914938 0.7313349 0.558464 
0.08402059 0.7724359 2.405 -0.5952735 -0.4305063 0.6784643 
-0.3275942 -0.02550054 2.611 0.3919836 -0.4197668 0.8186237 
-0.05513772 -0.02312118 2.367333 0.6772701 0.219307 0.7022889 
-0.2258596 -0.1052733 2.547667 0.4507136 0.1733422 0.8756768 
0.05314678 0.7227962 2.358 -0.4646028 -0.4149271 0.7822914 
0.282753 -0.07468948 2.367 -0.588552 0.5527741 0.5899554 
-1.072814 -0.6858977 2.601 0.9141342 0.3391513 0.2221151 
-0.0686761 0.5244356 2.77 -0.6447668 -0.4659097 -0.6059735 
-0.04420446 -0.2829086 2.615 -0.03812174 0.8149434 0.5782853 
0.3875838 0.1583314 1.4635 -0.2138492 0.9650428 0.151529 
-0.2639837 -0.4339047 2.6925 -0.6877825 0.5662327 0.454242 
-0.2736079 -0.4239425 2.668 -0.6627948 0.5074074 0.5506729 
0.1112769 0.4716021 2.351 -0.9379124 0.225985 0.2631561 
0.09990828 0.2261082 2.333 -0.2741595 -0.7671005 0.5799944 
-1.145805 -0.1057216 2.5355 -0.2554605 -0.3113818 0.9153039 
0.0747278 -0.2158868 2.456 0.195846 0.9098988 0.3656892 
-0.3045008 -0.4932913 2.702 -0.7900792 0.568125 0.2302367 
-0.3186373 0.3693295 3.213 -0.9224489 -0.3248733 0.2086753 
-0.4338765 -0.06537865 2.637 0.3363598 -0.4277608 0.8389772 
-0.9751465 -0.5936899 2.545 0.2498716 -0.5226518 0.8151069 
-0.3612629 -0.5957668 2.812 -0.441263 0.769574 0.4615656 
-0.6550442 -0.703566 2.691 -0.8822808 0.4376155 0.1734164 
-0.03676098 0.08927667 2.33 0.6327947 -0.06928559 0.7712135 
-0.6153328 -0.1320713 2.6635 0.02741393 -0.598721 0.8004884 
0.1052624 -0.1943306 2.395 0.07548167 0.9077672 0.4126275 
-1.279985 -0.2218641 2.524 -0.3954395 0.8729346 0.2856795 
-0.7435861 -0.1881008 2.608 -0.1372462 -0.416043 0.8989282 
0.3204088 0.1160101 2.451 -0.7397332 -0.57359 0.3518371 
-1.336291 -0.2041181 2.415 -0.7222696 -0.01662083 0.6914119 
-0.0583251 0.103395 2.3525 0.750797 -0.08633719 0.6548663 
-0.9928485 -0.5266941 2.686 0.7761873 -0.5760978 0.256212 
-0.2063371 0.08971055 2.6535 0.314132 -0.8542259 0.4142695 
-0.8233694 -0.4147342 2.706 0.6953109 -0.1606314 0.7005287 
0.3433309 0.01560595 2.308 -0.503215 0.8056987 0.3124489 
-0.6634816 -0.5644107 2.664 -0.3181441 0.1061113 0.9420853 
-0.661887 -0.4964153 2.622 0.5116693 0.703783 0.4928326 
0.02325059 0.05425457 2.2925 0.379212 -0.04654748 0.9241383 
-0.03822827 0.6771864 2.423 0.9003436 0.3398776 0.2717806 
0.02389464 0.5947391 2.356 0.27845 -0.3274986 0.90289 
0.1656295 -0.2341659 2.534 -0.2505869 0.9422296 0.2222829 
0.2267534 -0.05473465 2.31275 -0.4244877 0.4196924 0.8022896 
-0.3919767 -0.6361588 2.851 -0.3519839 0.8440165 0.4046524 
0.2178206 0.1192827 2.301 -0.4175206 -0.2763933 0.8656116 
-0.2476194 -0.4761911 2.817 -0.668689 0.7032124 0.2415524 
-0.2549986 -0.4753673 2.7935 -0.677856 0.6907571 0.2517258 
-0.3434706 0.2032785 3.11 -0.1255031 -0.6733919 0.728555 
-0.765539 -0.0907755 2.685 -0.2210614 -0.8647619 0.4509087 
-0.2277535 -0.1985544 2.591 0.1712821 0.3727465 0.9119883 
-0.154046 -0.2060381 2.563 0.2883389 0.5189933 0.804678 
-1.016662 -0.7461217 2.527 -0.0631687 0.32833 0.9424486 
0.04237768 -0.2966438 2.686 -0.2143747 0.9485723 0.232925 
-0.06486251 -0.1538169 2.466667 0.3992545 0.5073464 0.7636724 
0.3494502 -0.0388278 2.461 -0.9138024 0.3386233 0.2242755 
-0.2503443 -0.4878505 2.848 -0.715206 0.6617268 0.2249402 
-0.3035993 0.07893581 2.694 0.2976424 -0.7996126 0.5215636 
-0.633932 -0.03710808 2.744 0.3289811 -0.7401539 0.5864671 
-1.25177 -0.1655935 2.4905 -0.4529273 0.1062987 0.8851878 
-0.4501654 -0.1066181 2.628 0.3246168 -0.2392477 0.9150872 
0.1140402 0.4351556 2.663 -0.6479176 -0.331018 0.6860248 
-0.8864558 -0.2954853 2.622 0.3797433 0.819559 0.4290899 
-0.4147274 -0.241189 2.61 -0.02452882 -0.1669383 0.9856622 
-0.7257848 -0.5664662 2.618 -0.7151185 -0.5482863 0.4335757 
-0.8769219 -0.4665106 2.62 0.03074635 -0.9901529 0.1365722 
-1.285897 -0.2155683 2.495 -0.5917566 0.6638378 0.457322 
-0.6453457 -0.6942822 2.714 -0.8653332 0.4186724 0.275521 
-0.68013 -0.7397906 2.647 -0.7946243 0.596509 0.1129123 
0.02357459 -0.06549078 2.3245 0.4779804 0.3438426 0.8082741 
0.001770808 0.3436818 2.358 0.1533834 0.1306785 0.979488 
-0.4961904 -0.1337031 2.6365 0.2647654 -0.2361014 0.9349627 
-0.8136438 -0.3504013 2.635 0.6741086 0.5653252 0.4753788 
-0.6972603 -0.6552328 2.542667 0.4249194 -0.2948021 0.8558828 
-0.9862762 -0.1648615 2.5665 -0.213484 -0.1373971 0.9672366 
-0.7836327 -0.1448965 2.624 -0.1926768 -0.5113303 0.8375064 
0.1945684 0.1452769 2.302 -0.2789397 -0.4246294 0.861326 
-0.005479212 -0.1643764 2.431 0.5727898 0.7224609 0.3872494 
-0.4554254 -0.2438723 2.60725 -0.04840282 -0.2110788 0.9762699 
0.1048037 0.2767791 2.3845 -0.7824613 -0.2683302 0.5619193 
-1.214695 -0.1337091 2.506667 -0.3428647 -0.1449388 0.9281361 
-0.7665765 -0.5470054 2.563667 -0.7658923 -0.4085238 0.4965051 
0.3349757 -0.09651843 2.519 -0.8626448 0.4627442 0.2042348 
-1.133133 -0.207597 2.5585 -0.08389728 0.7804205 0.6196008 
0.2846733 0.03334014 2.27575 0.648497 0.2196329 0.7288437 
-0.03093467 0.4949547 2.745 -0.7734644 -0.4720401 -0.4230025 
-0.5145937 -0.5674242 2.604334 0.2668716 0.4889058 0.8305124 
-0.2735774 -0.5471548 2.89 -0.888005 0.3659202 0.2784773 
-0.01238289 0.6774508 2.354333 0.6453201 0.6073335 0.4633661 
-1.143282 -0.04666458 2.588 -0.04936861 -0.9478166 0.3149707 
-0.1158501 0.07530254 2.57 0.1726036 -0.6323466 0.7552125 
0.1687016 0.2850475 2.581 -0.2675003 -0.7092959 0.6521833 
-0.784912 -0.5051408 2.586 -0.6904205 -0.6666765 0.2808236 
-0.8297817 -0.7153291 2.539 -0.216968 0.3019852 0.9282941 
-0.8268599 -0.1567499 2.608 -0.1872807 -0.4256909 0.8852757 
0.01221159 -0.3113955 2.709 -0.336973 0.9051993 0.2589661 
0.07625142 -0.2372267 2.506 0.01345001 0.9098309 0.4147613 
-0.05180797 -0.2417705 2.554 0.3624981 0.8291963 0.4254748 
0.0748157 -0.1763513 2.371 0.2416079 0.8456291 0.4759591 
0 -0.04465862 2.331 0.5362263 0.3005902 0.7887375 
-0.6732016 -0.6531509 2.542 -0.5367137 -0.6993939 0.4720029 
0.2491002 0.1826735 2.456 -0.494808 -0.7849612 0.3728284 
0.3536357 0.08015742 2.092 0.7406084 0.5167128 0.429543 
-0.5429093 -0.1644568 2.637333 0.1480267 -0.3788377 0.9135481 
-0.9759071 -0.6448476 2.5545 0.4912611 -0.8333002 0.2535218 
0.2579535 0.1906613 2.488 -0.5266873 -0.7947352 0.3016562 
-0.5962886 -0.2261775 2.6065 -0.04335225 -0.3705874 0.9277853 
-0.6261425 -0.2175333 2.6085 -0.05234911 -0.3676078 0.9285064 
-0.0652051 -0.2963868 2.63 -0.07622062 0.7863659 0.6130409 
0.1148403 0.2035806 2.316 -0.1725854 -0.5434347 0.8215187 
-0.4855785 -0.01213946 2.693 0.3448334 -0.6073616 0.7156827 
-0.4032393 -0.5752091 2.631 -0.4894859 0.6885815 0.535032 
0.1914095 -0.154191 2.359 -0.4721689 0.5842168 0.6601115 
-0.4661032 -0.2667628 2.60125 -0.07654632 -0.218276 0.9728804 
-0.7255871 -0.3467664 2.58575 0.2539374 0.09319372 0.9627205 
-0.1546486 0.06765959 2.573 0.5157542 -0.5769908 0.6333081 
-0.9442343 -0.5894311 2.539 0.1937198 -0.4036798 0.8941562 
-0.8744696 -0.0665687 2.685 -0.1943198 -0.9348262 0.2972202 
0.3468379 -0.0559416 2.482 -0.8890502 0.4111129 0.2014345 
-0.6614723 -0.7095793 2.668 -0.8967356 0.4311829 0.09973326 
-0.1446458 0.1205382 2.674 0.36486 -0.9162028 0.1656789 
-0.3961818 -0.02680723 2.64325 0.3610983 -0.4653454 0.8081223 
-0.02480108 0.8042895 2.358 -0.4273644 -0.4740628 0.7698209 
0.105277 -0.04108395 2.2785 0.1867046 0.3909862 0.9012609 
-0.7761278 -0.4969569 2.635334 -0.4344633 -0.8122128 0.389297 
-0.7368796 -0.4468645 2.626 0.4839565 0.6366692 0.6003652 
-0.8145567 -0.1816637 2.6 -0.1304183 -0.3529752 0.9264986 
0.330069 -0.02129477 2.362 -0.7225763 0.6227743 0.3000595 
-0.6635571 -0.6548233 2.5825 -0.8813508 -0.4468898 0.1533304 
0.0244784 0.8458846 2.4135 -0.4257795 -0.5665944 0.7054662 
-0.05584469 0.546037 2.753 -0.6556756 0.1682376 -0.7360609 
-1.034164 -0.5931508 2.563333 0.1910231 -0.8985685 0.3950759 
0.373621 0.1601233 1.393 -0.8487389 0.486828 0.2064964 
-0.5265673 -0.3461956 2.5815 -0.06748575 -0.1127101 0.9913335 
-0.03146884 0.7185386 2.327 0.6846988 0.392231 0.6142821 
-0.9536669 -0.145376 2.58 -0.2722285 -0.3100387 0.9109159 
-0.3680786 -0.5521179 2.634 -0.5741755 0.6642122 0.4786905 
-0.09463079 -0.2121961 2.5445 0.402314 0.6865655 0.6056165 
0.07806356 0.483994 2.309 -0.009396316 -0.09138688 0.9957712 
-0.4567377 -0.5504275 2.598 -0.1697801 0.2208953 0.9604062 
0.0872895 0.4521526 2.323667 -0.4997672 0.4553666 0.7367999 
-0.2731616 -0.4634543 2.7235 -0.7166387 0.6206099 0.3182333 
-0.3220586 -0.0468449 2.598 0.3877807 -0.3124211 0.8671904 
0.1475165 0.3747689 2.653333 -0.5874985 -0.5336137 0.6083601 
-0.8656552 -0.644274 2.5185 0.0375561 -0.1494231 0.9880599 
-0.1425384 -0.1256582 2.496333 0.5464585 0.3390726 0.7657759 
-0.2160378 -0.005760948 2.556 0.4499596 -0.4747848 0.7563834 
-0.05373279 0.2229922 2.384 0.7424998 -0.2194332 0.6328849 
-1.204372 -0.05211224 2.569 0.02876202 -0.9134001 0.4060456 
0.3349735 0.1116578 2.477 -0.7686588 -0.5693539 0.2915474 
-0.2324214 0.01162107 2.578 0.4675104 -0.5302746 0.7072785 
-0.610958 -0.679535 2.766 -0.5994742 0.7076761 0.3739319 
-0.04469919 -0.1843842 2.479 0.3273962 0.5986876 0.7310164 
-0.7546471 -0.3539242 2.5955 0.3608281 0.09282859 0.928001 
0.1658628 -0.2248934 2.4945 -0.211029 0.945892 0.2464857 
-0.9641001 -0.09758001 2.597667 -0.3130587 -0.5234398 0.7924677 
-0.04517026 0.6581951 2.863 0.7990968 0.3880077 -0.4592324 
-0.1469955 -0.3239925 2.662 -0.120437 0.7270513 0.6759374 
-1.355473 -0.164903 2.412 -0.1942049 -0.4473186 0.8730353 
-0.5397847 -0.1019593 2.661 0.3201718 -0.3551538 0.8782687 
-0.3411942 -0.4147274 2.61 -0.3889286 -0.02086511 0.9210316 
0.2520933 0.217717 2.542 -0.5836561 -0.7335089 0.3482963 
-1.320961 -0.1651201 2.442 -0.7758325 -0.2192416 0.5916225 
0.1671058 -0.03342184 2.28125 -0.2634561 0.2247289 0.93813 
-0.4354035 -0.4850804 2.593 -0.1179208 0.08511058 0.989369 
-1.069231 -0.6352155 2.5505 0.5172427 0.1500553 0.8425813 
-0.6833745 -0.6031494 2.6365 -0.7064354 -0.584981 0.3984298 
-0.4650005 -0.07451818 2.645 0.3247173 -0.397871 0.8580544 
0.1680277 0.2408396 2.485 -0.1853319 -0.9362035 0.2986223 
0.4197739 0.116373 1.844 0.8846646 0.4357125 0.1659012 
-0.1765631 -0.3232014 2.6555 -0.123688 0.6102275 0.7825112 
-0.4225281 -0.6180263 2.798 -0.3008259 0.8292124 0.471074 
0.3718832 0.0636116 2.171 -0.2305873 0.9497867 0.2115061 
-0.6641037 -0.5949904 2.6665 -0.5401778 -0.07586431 0.8381245 
-1.013368 -0.5714924 2.614 0.4707018 -0.8645383 0.1761067 
-0.02117757 -0.05294393 2.349 0.581987 0.2911124 0.7593054 
-0.595688 -0.4850887 2.582667 0.1709749 0.3238085 0.9305459 
0.06220742 -0.05702347 2.3 0.3808184 0.3866478 0.839929 
-0.6561975 -0.1633046 2.63475 -0.1070683 -0.5667753 0.8168857 
0.3565252 0.1534608 1.3755 -0.4452875 0.8908133 0.09039245 
-0.5465434 -0.03250638 2.704333 0.3461509 -0.5794935 0.7378123 
-0.1957956 -0.1641251 2.555 0.3796172 0.429823 0.8192332 
-0.1984417 -0.3427629 2.668 -0.2249341 0.643993 0.7312167 
0.1439336 0.3231124 2.6065 -0.3394347 -0.6201981 0.7072048 
-0.09533063 -0.1626228 2.488 0.4115674 0.5134752 0.7529644 
0.3963695 0.09689032 1.954 0.615383 0.756475 0.2214708 
-0.5448334 -0.1865445 2.6275 0.02974845 -0.4394999 0.8977499 
-0.0541182 0.6239901 2.825 0.5724635 0.2061459 -0.7935928 
0.2013086 -0.2124925 2.481 -0.274365 0.9320424 0.2366873 
-0.1246252 -0.2051538 2.552 0.3035035 0.5879292 0.7498165 
0.08218818 0.6355886 2.431 -0.8175003 -0.466368 0.3379264 
-0.2254846 -0.3432175 2.656 -0.390614 0.4484022 0.8039628 
0.2470356 -0.068329 2.332 -0.4731256 0.4970941 0.7273579 
-0.1250009 -0.3812526 2.773 -0.3626072 0.8873649 0.2847802 
-0.6304587 -0.2743663 2.59 -0.07001364 -0.2565626 0.9639885 
-0.9701045 -0.4881029 2.707 0.6457154 -0.7206952 0.2522897 
0.05573425 0.5944866 2.355 -0.226913 -0.4880174 0.8428223 
-1.075977 -0.6739634 2.623 0.8419911 -0.5374944 -0.04637508 
0.164542 0.2713472 2.5615 -0.1804352 -0.8412457 0.5096557 
0.3507552 0.1042786 2.103 0.9031565 -0.3750946 0.2088359 
-0.9446704 -0.7249137 2.5325 -0.1090519 0.5445839 0.8315865 
0.03195569 -0.1491265 2.363 0.4775142 0.6643736 0.5749677 
-0.1458708 0.02288151 2.538 0.3011167 -0.5188507 0.8000767 
-0.2503623 0.1189221 2.777 0.1440931 -0.9749025 0.1697124 
0.2948519 0.05337893 2.2555 0.9213504 -0.003386688 0.3887186 
-0.3263366 -0.4344618 2.616667 -0.5645473 0.06082047 0.8231569 
-0.05905648 0.1959613 2.382 0.7830127 -0.2107289 0.5852216 
-0.02700163 0.3942238 2.396 0.948711 -0.1631344 0.2708036 
0.2818267 0.2172414 2.605 -0.7204652 -0.6466891 0.250446 
0.1753866 -0.09724493 2.311333 -0.3134993 0.4830387 0.8175523 
0.1860949 0.2424873 2.502 -0.38194 -0.8372163 0.3913957 
-0.005301154 0.426744 2.352 0.824187 -0.1556956 0.5444949 
-0.3343784 -0.6044533 2.853 -0.5142894 0.756138 0.4046747 
0.1872703 -0.1345191 2.3405 -0.4322447 0.5400657 0.7221451 
-0.8973016 -0.3513908 2.784 0.5725222 -0.359182 0.7370256 
-1.050954 -0.6087492 2.548 0.3800423 -0.6131203 0.6925687 
-0.9755302 -0.2358771 2.584 0.1310599 0.6269674 0.7679422 
-0.5840719 -0.3457933 2.5785 -0.06240993 -0.1398835 0.9881992 
0.02073581 0.1555186 2.3 0.4512205 -0.1523124 0.8793184 
0.04221089 -0.1266327 2.341 0.3915415 0.3594335 0.8470553 
-0.05461181 0.3140202 2.423 0.9004707 -0.259148 0.3492775 
-1.115042 -0.05807529 2.576667 -0.300579 -0.7675298 0.5661716 
-0.3358457 0.3464525 3.137 -0.4283487 -0.06042462 0.9015909 
-0.254887 -0.4452846 2.725 -0.654051 0.6634403 0.3634065 
-0.9448587 -0.6137292 2.533 0.2858554 -0.0948818 0.9535639 
-0.9407182 -0.4851503 2.625 0.6137311 -0.7662364 0.1903047 
0.07618156 0.236422 2.331 -0.2342917 -0.5711987 0.7866635 
-0.403272 -0.1648407 2.612 0.2455365 0.07854097 0.9662004 
-0.5554436 -0.4885582 2.5805 -0.03412661 0.2381719 0.9706233 
0.04915063 0.8355607 2.423 -0.5174475 -0.5377586 0.6656303 
-0.7654099 -0.3841703 2.60225 0.4918924 0.1081558 0.8639122 
-0.3759041 0.04850376 2.69 0.3955068 -0.6822227 0.6149364 
-0.1411207 0.5644828 2.846 -0.6344248 -0.4243369 -0.6460987 
-0.9324653 -0.1647806 2.580333 -0.2428879 -0.2291695 0.9425958 
-0.9516383 -0.4666098 2.724 0.5656716 -0.7705387 0.2937446 
-0.1419389 -0.005677554 2.519 0.3845938 -0.488139 0.7834589 
-0.6661784 -0.7137626 2.639 -0.900753 0.4213172 0.1055274 
0.3288699 -0.03773917 2.392 -0.7953407 0.5050539 0.3351921 
-0.4455122 0.06230885 2.7645 0.3512037 -0.8564605 0.3783271 
-0.7866129 -0.6384104 2.529 -0.3940859 -0.0655532 0.9167328 
0.446194 0.1274846 1.714 0.2942445 0.9420526 0.161112 
-0.7848008 -0.4792676 2.658 0.229062 -0.4890425 0.841646 
-0.08448489 0.54444 2.7765 -0.6014411 0.04835474 -0.7974525 
0.06429903 0.1260269 2.28225 0.1630896 -0.163255 0.9730106 
0.04610111 -0.1844157 2.4065 0.3612378 0.8253974 0.4338508 
0.02624432 -0.2741015 2.5875 -0.01708077 0.9364944 0.3502665 
0.3110011 -0.1110718 2.464 -0.8009259 0.5214443 0.2943019 
-0.5940719 0.01263983 2.804 0.4406046 -0.8436249 0.3068625 
0.2244426 -0.02244501 2.298 -0.2321307 0.3021989 0.9245492 
-0.5652761 -0.214921 2.6125 -0.04569255 -0.4165912 0.9079449 
-0.2392011 0.6179361 2.948 -0.8936666 -0.3856212 -0.2294694 
0.3706661 0.1731801 1.348 -0.7301014 -0.4083759 0.5478879 
0.2262021 0.1426812 2.316 -0.5494912 -0.4385238 0.7111655 
0.04719312 -0.2109936 2.4635 0.3017288 0.8471857 0.4373056 
0.1916732 0.2729892 2.577 -0.3124825 -0.80945 0.4971372 
-0.5549477 -0.1461942 2.6475 0.1824817 -0.3997586 0.8982725 
-0.5034879 -0.3550613 2.5825 -0.08969244 -0.1024343 0.990688 
-0.05752835 0.6551873 2.836 0.6678025 0.4310306 -0.6068381 
-0.4897708 -0.0836194 2.65 0.3243017 -0.3664557 0.8720887 
-0.1031381 0.5156906 2.86 -0.4514397 -0.8913061 0.04213811 
-0.8798835 -0.4338314 2.711 0.2493266 -0.7488822 0.6140128 
-0.385402 0.2970066 3.1375 -0.01943498 -0.7332636 0.6796668 
-0.1664206 -0.3509986 2.685 -0.2215388 0.7401752 0.634871 
-0.5829957 -0.3857632 2.57375 -0.0631441 -0.09094006 0.9938525 
0.1730786 0.1940579 2.327 -0.3280242 -0.5971293 0.7320088 
-0.8643113 -0.4926558 2.5565 0.3254797 -0.4381778 0.8378921 
0.0314756 0.684595 2.3275 -0.3080802 0.05420379 0.949815 
-0.7966416 -0.7161168 2.552 -0.3203677 0.3526571 0.8792028 
0.08467028 0.105197 2.27675 0.1116106 -0.1318024 0.9849727 
0.2785946 0.005159159 2.289 0.1333285 0.5575311 0.8193793 
-0.8133441 -0.4339847 2.693 0.6138571 -0.2177146 0.7588015 
-0.05330455 0.7302724 2.365 0.8661168 0.4536492 0.2098669 
-0.08745102 0.1530393 2.425 0.9582331 -0.1597484 0.2372128 
0.1833508 0.1265386 2.2915 -0.2278647 -0.3186804 0.9200655 
-0.9823612 -0.5696532 2.579 0.4708655 -0.735321 0.4874308 
-0.6331273 -0.6453029 2.701 -0.8164185 0.2410146 0.5247599 
-0.7524664 -0.320819 2.588 0.2288345 0.2457354 0.9419389 
-1.225427 -0.1670026 2.5032 -0.3874508 0.1966909 0.9006634 
-0.9607869 -0.4894575 2.681 0.6356729 -0.7244445 0.2666462 
-0.6634535 -0.7246016 2.713 -0.8030054 0.5680819 0.1801816 
-0.3017871 0.2946017 3.188 -0.9492455 -0.1688772 0.2653555 
-0.5722407 0.01886508 2.79 0.403897 -0.8525863 0.3316083 
0.3070748 -0.1478508 2.523 -0.8312041 0.5013415 0.240326 
0.03523622 0.8239329 2.405 -0.4536442 -0.4903044 0.7441831 
-0.1367076 -0.2385091 2.581 0.2200246 0.6022105 0.7674188 
-0.09326155 0.1152054 2.434 0.9737144 -0.1086017 0.2002149 
-0.0267537 0.2862646 2.374 0.6350333 -0.1441557 0.7589149 
0.05473803 0.4770126 2.313 0.2477265 -0.03102502 0.9683331 
-0.1012426 0.02531459 2.4955 0.7748789 -0.4687091 0.4241163 
-0.3233434 0.3664558 3.188 -0.9213932 -0.3170657 0.2247312 
0.1709352 0.2564028 2.528 -0.1292176 -0.9375241 0.3230346 
0.05548688 0.6948806 2.3445 -0.4906141 -0.3449713 0.800183 
0 0.5286076 2.369 0.918711 0.1552752 0.3631249 
-1.063414 -0.1930876 2.55725 -0.2153803 0.4591908 0.8618324 
-0.2930105 -0.5049756 2.766 -0.731983 0.629239 0.2612647 
-0.1644492 0.6043993 2.842667 -0.5508229 -0.3616721 -0.7521884 
0.3046902 0.1142588 2.414 -0.6988285 -0.6321141 0.3347695 
-0.6423615 -0.02494608 2.767 0.3354174 -0.8045474 0.4901008 
-0.307467 0.3587115 3.248 -0.936767 -0.3023754 0.1761723 
-0.08658552 0.1190551 2.401 0.9120359 -0.1415283 0.3849158 
-0.4327248 -0.5927737 2.63 -0.3684533 0.7693121 0.5219204 
0.05487176 0.6566888 2.356 -0.4031763 0.7860885 0.4685229 
0.04621155 0.7446973 2.365667 -0.4574446 -0.4316947 0.7774215 
-0.005345105 0.5532178 2.3715 0.8722041 0.07059544 0.484021 
-0.1865332 -0.3791881 2.7135 -0.3636176 0.7547264 0.5460498 
-0.2228919 0.1176374 2.747 0.1391954 -0.9664479 0.2158776 
-0.4359907 -0.5149963 2.5965 -0.1439736 0.1385548 0.9798338 
-0.6548261 -0.2939436 2.5825 -0.09001925 -0.2165328 0.9721164 
-0.8057676 -0.09585353 2.658 -0.2534658 -0.7316133 0.6328484 
-0.6861749 -0.3896078 2.58 0.1993738 0.1007643 0.9747291 
0.3344877 0.05859669 2.1665 0.597509 0.7070047 0.3783217 
-0.4166353 -0.0856896 2.622 0.3413131 -0.3050542 0.889071 
0.0135087 0.8319973 2.397 -0.4283002 -0.5153555 0.7422721 
-0.3342252 0.02387323 2.648 0.3349608 -0.588526 0.735825 
-0.6350809 -0.3566892 2.57325 -0.06608701 -0.1260687 0.9898179 
0.3042405 0.1456741 1.294833 -0.2532608 0.8229846 0.5084834 
-0.06631853 -0.1271105 2.452 0.5247577 0.4622032 0.7148409 
-0.6058778 -0.0247297 2.743 0.3649878 -0.7272572 0.5812752 
-0.04947744 -0.3463421 2.744 -0.3471352 0.9119638 0.2186759 
0.005517528 -0.1820784 2.448 0.4521237 0.7303287 0.5120589 
0.0347584 0.6416831 2.3725 -0.3670872 0.7851534 0.4987797 
-0.03173931 -0.02380561 2.347 0.6222573 0.2361437 0.7463458 
0.2690336 0.159224 2.436 -0.5416999 -0.7464452 0.386498 
0.09779263 0.506418 2.324333 -0.6505342 -0.3782076 0.6586078 
-0.1454786 -0.2939284 2.6345 0.09796499 0.6749933 0.7312913 
-0.3524005 -0.5789438 2.792 -0.4753856 0.7740847 0.4180925 
-1.373585 -0.2845674 2.428 -0.2038632 0.8434991 0.4969399 
-0.6426297 -0.5236242 2.64 0.5483224 0.6766144 0.4914626 
-0.2015769 0.5949734 2.885 -0.679816 -0.5241499 -0.5129494 
0.3192841 -0.05952755 2.401 -0.7754102 0.5021816 0.382822 
0.4220691 0.1356618 1.824 0.9654992 -0.240141 0.1007163 
-0.7646524 -0.1040862 2.664333 -0.2119263 -0.7674087 0.6051208 
0.1114279 -0.2639082 2.602 -0.2406945 0.9488904 0.2041402 
0.02635927 0.2635927 2.339 0.1257965 -0.3805181 0.9161775 
-0.005240299 0.1860318 2.325 0.5891472 -0.2562033 0.7663325 
-0.01237838 0.5817837 2.746 -0.4375925 0.7236809 -0.5336655 
-0.525802 -0.3863628 2.57775 -0.1074104 -0.05297931 0.9928023 
-0.8844797 -0.5157052 2.5565 0.3154004 -0.2476618 0.9160711 
-0.304316 -0.1843458 2.5965 0.1022367 0.1903876 0.976371 
-1.069824 -0.05290336 2.608 -0.1865735 -0.8913563 0.4131275 
-1.091206 -0.2217424 2.589 0.04650467 0.9000146 0.4333717 
-0.2755597 0.08478692 2.687 0.2859198 -0.8216279 0.4931304 
-0.754531 -0.06803148 2.744 0.06532659 -0.9025258 0.425652 
-0.194263 -0.1142723 2.535 0.4515293 0.2512526 0.8561504 
0.0232427 0.02324383 2.29175 0.4538467 0.09866869 0.8856002 
-0.04976594 0.5101009 2.76 -0.6994447 -0.5153847 -0.495132 
-0.3529009 0.04524688 2.6765 0.2795423 -0.6829522 0.6748573 
-0.406059 -0.1265256 2.611 0.303989 -0.01216922 0.9525979 
-0.9950264 -0.6831942 2.5155 -0.0227615 -0.1214929 0.9923313 
-0.7960371 -0.5147454 2.547 -0.6378928 -0.4515288 0.6238707 
0.04301779 0.1479823 2.290333 0.233434 -0.1640172 0.9584399 
0.05268022 -0.2751078 2.597 -0.1384241 0.9465383 0.2913828 
-0.877731 -0.8079776 2.579 -0.07829359 0.8418215 0.5340476 
0.1847335 0.2961659 2.602 -0.416135 -0.7051808 0.574066 
0.02589722 -0.005179444 2.298 0.5311417 0.2987761 0.7928564 
-0.3965847 -0.2732027 2.60675 -0.09060448 -0.1108883 0.9896942 
-0.7148016 -0.1713161 2.621 -0.133659 -0.4880831 0.8625023 
-0.8159992 -0.2855997 2.586 0.1543905 0.3390932 0.9279975 
-0.3565973 0.06705217 2.7045 0.2525561 -0.79644 0.5494531 
-0.01605222 0.4173577 2.374 0.9339957 -0.1724859 0.3128908 
0.4185703 0.09823589 1.895 0.5624549 0.7955424 0.2252928 
0.3438515 0.02566056 2.277 -0.3636304 0.8851908 0.2901901 
-0.005347359 0.5962311 2.3725 0.6998226 -0.1180558 0.7044935 
-0.2885343 -0.4448237 2.667 -0.798294 0.3853853 0.4628227 
0.09845226 -0.08290717 2.299 0.2481911 0.4293402 0.868371 
0.1441713 0.2070831 2.326 -0.2541228 -0.5716501 0.7801524 
-1.162673 -0.1563497 2.5225 -0.3044743 0.04896991 0.951261 
-0.2267866 -0.1744513 2.58 0.3550723 0.3853869 0.8517045 
-0.8308478 -0.3466847 2.652 0.565096 0.6470299 0.5118778 
-1.302705 -0.144745 2.47 -0.506161 -0.3261503 0.7983903 
0.2966167 0.0818253 2.269 0.8264055 -0.4605193 0.324 
0.4686653 0.1109997 1.824 -0.2796705 0.9318314 0.2312458 
0.2075647 -0.1646205 2.381667 -0.4886567 0.6305899 0.6029685 
-0.8765201 -0.2067535 2.584 -0.1318761 -0.1772798 0.9752849 
0.3310517 0.08763133 2.16 0.9317546 -0.2941375 0.2128767 
-0.3155517 0.152575 3.077 -0.09351093 -0.5438412 0.833962 
-1.293919 -0.204965 2.4745 -0.6803558 0.409673 0.6076875 
-1.35404 -0.1439666 2.425667 -0.2100023 -0.5052058 0.837058 
0.4387336 0.1606078 1.738 0.9072644 -0.4200908 0.01987729 
-0.986062 -0.6580058 2.524 -0.01104459 -0.4775056 0.8785594 
-0.7807708 -0.5205139 2.566 -0.7730597 -0.5022135 0.3875053 
0.4463732 0.1329627 1.6855 0.4037154 0.8942202 0.1933497 
-1.044608 -0.07565415 2.582 -0.2078856 -0.6427524 0.7373283 
0.322541 0.1007941 2.236 0.7383834 -0.6407725 0.2102397 
-0.1334349 -0.3457178 2.691 -0.2098131 0.8164225 0.5379897 
-0.9153563 -0.6452972 2.5225 0.09067781 -0.1448309 0.9852927 
-0.8328165 -0.4733917 2.593 -0.2143867 -0.9623134 0.1673059 
-0.08293197 0.2543247 2.453 0.9460523 -0.1951747 0.2586346 
-0.965022 -0.7445282 2.541 -0.2666347 0.4725415 0.8400062 
-1.035308 -0.2346302 2.6025 0.1875146 0.8849235 0.4263201 
-0.8990325 -0.3808402 2.77 0.5850171 -0.3888423 0.711728 
-0.7622641 -0.5740979 2.555667 -0.5593401 -0.1759901 0.8100408 
-0.5347765 -0.4708358 2.579 -0.1283648 0.1369101 0.9822312 
-0.3768057 0.4565146 3.215 -0.06022172 -0.8978366 0.4361913 
0.01303426 -0.02346583 2.3135 0.5389076 0.2896293 0.7910079 
-0.6726178 -0.7135597 2.595 -0.8817213 0.4653066 0.07782982 
0.4620389 0.1575133 1.553 -0.6617234 0.7216132 0.2034614 
0.4022341 0.08539096 1.994 0.3603366 0.9087887 0.2103817 
-0.6229364 -0.3853513 2.571 -0.02820099 -0.03250096 0.9990738 
-0.2555914 0.09736814 2.7 0.2499851 -0.8805489 0.4026676 
-0.4265994 -0.2661351 2.604667 -0.09290425 -0.1698282 0.9810847 
0.06477123 0.1813594 2.299 -0.007226418 -0.3771271 0.9261333 
0.02380674 0.735294 2.347 -0.4606779 -0.4320232 0.775327 
-0.3139311 0.01184646 2.628 0.3734086 -0.5606938 0.7390457 
-0.05903169 -0.04829866 2.381 0.7331616 0.2764456 0.6213307 
0.1009631 -0.2731943 2.635 -0.240951 0.9505931 0.1957431 
-0.8790315 -0.3553531 2.766 0.5325311 -0.296585 0.7927471 
-0.02713123 0.6158783 2.4075 0.9204143 0.02581402 0.3900915 
-0.6554443 -0.3857266 2.5735 0.1729973 0.07473599 0.9820827 
-0.6636856 -0.6869728 2.583 -0.958312 0.2758356 0.07451752 
0.4281313 0.1454031 1.792 0.9487472 -0.3124045 0.04777282 
0.1855269 -0.1964402 2.421 -0.2360366 0.9022305 0.3609249 
-0.07524168 0.8357184 2.3845 0.8451189 -0.08198607 0.528254 
0.07480781 0.1547748 2.289 -1.587008e-05 -0.3093677 0.9509425 
-0.7559713 -0.4464397 2.641 0.4999582 0.4944374 0.7110369 
0.2167794 0 2.29 -0.2523203 0.1905321 0.9487002 
-0.2379209 -0.3211932 2.639 -0.3490761 0.3640285 0.8634982 
0.3301885 -0.08954263 2.483 -0.839301 0.4833351 0.2489198 
-0.7121398 -0.7714848 2.633 -0.571861 0.7645933 0.2972744 
0.275651 -0.1488515 2.446 -0.7150144 0.5620891 0.4157047 
0.4561983 0.1650533 1.525667 -0.5725948 0.7045768 0.4191741 
-0.6947758 -0.09141787 2.704 0.01634263 -0.7870432 0.6166815 
0.3319983 -0.07193297 2.455 -0.848791 0.4681362 0.2457691 
-0.947933 -0.4739665 2.696 0.5278672 -0.8022274 0.2789041 
-0.755715 -0.6137792 2.553 -0.4764027 -0.1057142 0.8728489 
-0.03568813 -0.2974011 2.639 -0.1496506 0.8550571 0.4964698 
-0.8728874 -0.7051347 2.523 -0.1583344 0.4709007 0.8678611 
-0.7633944 -0.5332078 2.5855 -0.7743388 -0.5084514 0.376665 
0.3727036 0.1211287 2.067 0.7621495 -0.626573 0.1628937 
-0.7927018 -0.06785794 2.737 -0.1558472 -0.9631884 0.2190429 
0.1070824 0.2543236 2.3755 -0.7313316 -0.4436071 0.5180414 
-0.2149402 -0.3224103 2.649 -0.2184573 0.5253534 0.8223626 
-0.3294289 -0.258837 2.61 0.003330585 0.091094 0.9958368 
-0.4244981 0.1839492 3.139 0.8401769 0.03980045 0.5408501 
-1.257987 -0.2172887 2.537 -0.2750253 0.8962958 0.3478719 
-0.9857014 -0.05360319 2.6425 -0.1854453 -0.9271404 0.3256084 
0.2747066 0.1441556 2.4135 -0.6232445 -0.7140813 0.3188327 
0.08445446 -0.201605 2.4175 0.1768368 0.8958219 0.4077154 
-0.6460016 -0.1946856 2.6175 -0.08989237 -0.4493771 0.888808 
0.2104865 0.2389306 2.524 -0.5076562 -0.7644452 0.3973773 
0.02621277 0.4639671 2.326 0.6252796 -0.1250692 0.7703136 
0.2501775 -0.152282 2.413 -0.6267521 0.5894375 0.509652 
0.1908889 -0.03095496 2.289 -0.3303164 0.2479667 0.910716 
0.08455814 -0.01281225 2.27375 0.2264558 0.164856 0.9599689 
-0.05405172 -0.2247559 2.5245 0.3616218 0.7661512 0.5312645 
0.440681 0.09322098 1.88 0.2860509 0.9425706 0.1724404 
-0.2646039 -0.3159461 2.628334 -0.2871942 0.2581157 0.9224402 
-0.6065404 -0.6622431 2.746 -0.5652388 0.6116022 0.5535772 
0.3734452 0.116844 2.033 0.8704851 -0.459828 0.1755388 
-0.8755875 -0.235623 2.58125 -0.03524569 -0.006788373 0.9993556 
-0.6823862 -0.292728 2.580333 -0.07036065 -0.2210895 0.9727121 
-0.1637453 0.5567339 2.906 -0.5749426 -0.7996196 -0.173348 
-0.152016 -0.05630223 2.498 0.5165104 -0.2776597 0.8100137 
-0.05036097 0.5917414 2.793 -0.4673613 0.7583088 -0.4544682 
-0.291834 0.2845381 3.237 -0.9800001 -0.1176604 0.1604866 
-0.01632269 -0.1469042 2.414 0.5975872 0.6895413 0.4091728 
-0.005199729 0.06499662 2.307 0.4989539 -0.04913919 0.8652343 
-0.1402282 0.5991567 2.828 -0.5241405 -0.2579918 -0.8116139 
-0.9427456 -0.1856486 2.574 -0.2219276 -0.1066509 0.969213 
0.07427927 0.6764708 2.354 -0.7260653 0.1516198 0.6707016 
-0.653862 -0.626866 2.6615 -0.8288156 -0.3956976 0.3955858 
0.4276422 0.1181107 1.807 0.781655 0.6001904 0.1696674 
-0.3532976 0.09297305 2.75 0.2240625 -0.9060295 0.3590356 
-1.344593 -0.2821986 2.455 -0.7152066 0.6868693 0.1291903 
-0.9432268 -0.07118693 2.632 -0.2969332 -0.7653496 0.5710261 
0.3243396 -0.005231284 2.321 -0.5353057 0.7364484 0.4136322 
-0.5646057 -0.323047 2.5825 -0.05706924 -0.1621618 0.9851125 
-0.5257632 -0.2008533 2.621 0.03616633 -0.3675491 0.9293007 
-0.03667083 -0.2143767 2.503 0.2772877 0.7132043 0.6437788 
-0.5446767 -0.2547676 2.5985 -0.03396911 -0.2832896 0.9584327 
0.0133391 0.6163201 2.3675 0.3368598 -0.3778887 0.8623953 
-0.6588578 -0.6529751 2.61 -0.9490861 -0.2659259 0.1688756 
-0.5333138 -0.3147425 2.586 -0.05654233 -0.1674072 0.9842651 
-0.3770311 -0.590682 2.788 -0.4306629 0.8055035 0.4070547 
-0.2447462 -0.05470704 2.555 0.4994889 -0.1411889 0.8547378 
-1.233157 -0.1156957 2.504 -0.3386096 -0.3007811 0.8915572 
-0.665917 -0.6946203 2.547 -0.9778564 0.1764355 0.1125498 
-0.8602363 -0.4571885 2.669 0.03091993 -0.9279892 0.3713221 
-0.3050733 -0.4665827 2.654 -0.8379071 0.394587 0.3771113 
0.1142115 0.3045639 2.413 -0.8710741 -0.2267459 0.4356789 
-1.342096 -0.1134519 2.4555 -0.1939853 -0.7162953 0.6702915 
-0.8171862 -0.6560247 2.523667 -0.1616708 0.1736165 0.9714525 
-0.5436242 -0.2292039 2.6075 -0.0431729 -0.3714685 0.9274412 
0.3408449 0.1585658 1.315 -0.5654755 0.02677442 0.8243304 
-0.2968196 0.2968196 3.212 -0.9691148 -0.1689598 0.1796362 
-0.8425151 -0.3966591 2.7285 0.724785 -0.1124936 0.6797293 
0.05312424 0.001713709 2.281 0.3769982 0.1564379 0.9129072 
0.08005825 0.7098498 2.368 -0.5799533 -0.3302889 0.7446902 
-0.3129755 -0.3484066 2.62 -0.3089119 0.08677861 0.9471235 
-0.8093727 -0.3837026 2.66 0.8049585 0.4229381 0.4161313 
-0.1258962 -0.114704 2.4825 0.4961579 0.2490114 0.8317577 
-0.3829025 0.09415635 2.785 0.328248 -0.9172971 0.2254318 
0.1594854 -0.2089809 2.44 -0.1576988 0.9327245 0.3242781 
-0.3232622 -0.5028524 2.656 -0.8450133 0.4729457 0.2495495 
0.2394986 0.1093363 2.31 -0.4336497 -0.3567501 0.8274523 
-0.7176843 -0.7647457 2.61 -0.401168 0.8296101 0.3883444 
-0.07587277 -0.04606843 2.4045 0.8686437 0.2826719 0.4068842 
-0.6392444 -0.4984933 2.602 0.4149889 0.584866 0.6969333 
0.03450935 0.3636683 2.3555 -0.1422769 0.3135866 0.9388402 
-0.1720373 -0.0378098 2.516333 0.4070202 -0.3541639 0.8419635 
-0.5042194 -0.3235164 2.58625 -0.08238962 -0.1417629 0.9864661 
-0.02493706 0.4800385 2.766 -0.6903702 -0.7002255 -0.1818609 
-0.1136367 0.5303048 2.801 -0.6158876 -0.4816137 -0.6234828 
-1.205095 -0.2056091 2.534 -0.2408774 0.7316023 0.6377588 
-0.3532893 -0.09759354 2.598 0.2502588 -0.1565229 0.955443 
-0.6630275 -0.6687929 2.558 -0.9917682 -0.09842954 0.08189929 
-0.1838297 0.08894986 2.631 0.4095439 -0.8056015 0.4281124 
-0.320828 -0.4842161 2.636 -0.8250835 0.3623079 0.4335554 
-0.08189517 0.5165696 2.795 -0.5218318 -0.7488297 -0.4085899 
0.3109244 0.08023857 2.225 0.9055918 -0.3270271 0.2701051 
0.4351875 0.149705 1.544667 -0.001311925 0.9950923 0.09894273 
0.2846057 0.2032898 2.577 -0.6802396 -0.6806633 0.2719771 
-0.10248 -0.1935733 2.526 0.5503115 0.6963212 0.4607537 
0.233075 0.08287111 2.298 -0.337289 -0.2576332 0.9054619 
0.01417585 -0.2381733 2.516 0.1161794 0.827212 0.5497479 
0.1459406 0.2281919 2.3545 -0.1640827 -0.9025508 0.3980941 
-0.02320833 0.3230992 2.376 0.6873205 -0.07846373 0.7221039 
-0.1857635 -0.09477618 2.523 0.6708827 0.287395 0.6836085 
-0.805287 -0.6231725 2.525 -0.2740853 -0.2297471 0.9338595 
-0.07629876 0.6485394 2.821 0.2581324 0.3157841 -0.9130433 
-0.3092633 0.3236476 3.191 -0.9371739 -0.2693131 0.2217557 
-0.4565614 -0.2150247 2.61375 0.009681345 -0.2075466 0.9781772 
-0.07497347 0.1044273 2.376 0.8409015 -0.07280123 0.5362692 
-0.9526278 -0.2513067 2.593 0.2149521 0.7083822 0.6723021 
0.3718246 0.07150473 2.115 -0.01335527 0.9742532 0.2250609 
0.2078179 0.224668 2.492 -0.503742 -0.7827333 0.3654756 
-1.302975 -0.1857433 2.46 -0.6844346 0.002684881 0.7290694 
-0.8761758 -0.585067 2.5325 0.08645516 -0.2950338 0.9515675 
0.0264945 -0.282584 2.612 -0.03146269 0.955636 0.2928652 
-0.2777652 -0.5361513 2.866 -0.8611091 0.3968019 0.317867 
0.4248497 0.1457818 1.848 0.7921714 -0.6067884 0.06536213 
-0.6756921 -0.5082639 2.653 0.2661309 0.4504455 0.8522167 
-0.7503839 -0.4103661 2.601 0.5215614 0.355363 0.7756874 
-0.7549896 -0.4953694 2.648 -0.2493792 -0.348363 0.903578 
-0.09500156 0.573176 2.81 -0.5145963 0.3079457 -0.800225 
0.1756988 0.3365095 2.6425 -0.5388197 -0.6279792 0.5615296 
-0.5214425 -0.1777645 2.629 0.1261621 -0.3352614 0.9336396 
-1.086872 -0.6243732 2.565 0.7172602 -0.1617031 0.6777831 
-0.9251653 -0.7888533 2.5735 0.343814 0.5944107 0.7269579 
-0.8265947 -0.5234146 2.538 0.06714951 -0.02356391 0.9974646 
0.2796449 -0.09680016 2.386 -0.6400639 0.5732407 0.5115793 
0.2033146 -0.1978196 2.438 -0.299739 0.8926977 0.3365225 
-0.6733007 -0.0374056 2.766 0.2609031 -0.8659887 0.4266065 
0.177494 0.3194892 2.625 -0.5085994 -0.6529966 0.5611793 
-1.140469 -0.1653681 2.53 -0.2630208 0.1265739 0.9564513 
-0.2162925 0.596443 2.908 -0.7254794 -0.5592502 -0.401147 
-0.3046913 -0.5741035 2.846 -0.7087433 0.5463458 0.4463063 
0.1254195 -0.02303647 2.27125 -0.05192593 0.175984 0.9830226 
-0.04848573 -0.3272787 2.689 -0.2838507 0.875387 0.3913139 
-0.7861035 -0.7658005 2.574 -0.3880044 0.5905398 0.7076125 
-0.9424909 -0.05984084 2.655 -0.2388712 -0.9152759 0.3243619 
-0.1546734 -0.3835899 2.745 -0.3267317 0.8525081 0.4080151 
0.2986317 0.1780304 2.548 -0.6928383 -0.6791834 0.2422501 
-0.9032788 -0.4979614 2.569 0.4065031 -0.3868564 0.8277062 
-0.5857032 -0.5917414 2.679 0.2681885 0.7865315 0.556276 
-0.1112972 -0.0278243 2.469 0.739641 -0.2786256 0.6126164 
