0.084119 0.637848 -0.016529 0.980827 0.005288 0.170091
-0.261059 0.35094 0.014985 -0.250289 -0.323698 0.910486
0.107877 -0.434376 -0.101992 -0.267547 0.041547 -0.961909
0.106643 -0.47171 0.039774 -0.662059 -0.043721 0.748029
0.19793 0.054678 0.049824 0.918708 0.220204 0.317767
0.0657 0.714372 -0.086336 0.456735 -0.557102 -0.691432
-0.208326 0.472275 -0.062433 -0.793213 0.369454 -0.441802
-0.002585 -0.735434 0.001346 0.635061 -0.374697 0.665979
0.061428 -0.67387 0.018688 -0.532413 0.310157 0.780062
0.025242 -0.335973 0.038804 0.948042 -0.106958 0.297678
-0.143986 -0.133361 0.026403 -0.996543 -0.010604 0.074889
-0.077036 -0.863555 0.035722 -0.038052 -0.999238 -0.005908
-0.036994 -0.021126 -0.135014 -0.162095 -0.166734 -0.971903
-0.047985 -0.546596 0.050596 0.384216 -0.177109 0.905972
0.099926 -0.780711 -0.09755 -0.646838 0.411107 -0.636941
0.003805 0.7544 -0.112864 -0.438725 -0.271312 -0.853304
0.025212 0.458196 -0.126606 -0.062626 0.057298 -0.995975
0.145294 0.013109 0.113114 0.437362 0.141884 0.886262
-0.112283 0.255652 -0.007752 -0.998966 0.037016 -0.002027
0.32909 0.410432 -0.132398 0.437941 0.561412 -0.700137
0.447327 0.211963 -0.093569 0.83807 -0.119481 -0.529108
0.381529 0.301401 -0.13039 0.143396 0.018184 -0.982344
0.026174 -0.48474 -0.003949 0.97672 0.025947 0.167342
0.086016 0.483856 -0.139821 -0.285981 0.294484 -0.911387
0.018665 -0.146783 -0.042315 0.907007 -0.119575 -0.401528
-0.029441 0.099348 -0.12828 -0.21102 0.259311 -0.942232
-0.002117 -0.263674 -0.069058 0.744396 -0.106466 -0.659015
-0.418508 0.178846 0.027209 0.138001 0.173777 0.919931
0.203336 -0.251756 0.034693 0.976016 0.042939 0.210479
0.086594 -0.844623 0.061574 -0.918286 0.394192 0.013849
0.566777 0.088622 0.047652 -0.855124 -0.43576 0.262627
0.198112 0.460927 -0.134584 0.091022 -0.024283 -0.995232
0.123552 -0.307036 -0.09531 0.3952 0.008049 -0.916927
-0.122325 -0.279948 0.079658 -0.944644 -0.034906 0.321521
-0.50956 0.137652 0.02752 -0.848496 0.528352 -0.017435
-0.087832 -0.164235 -0.082145 -0.652298 -0.147833 -0.742897
0.088012 0.299135 0.107571 0.383907 0.126795 0.907108
0.519709 0.156398 0.020481 -0.491706 -0.372153 0.760029
-0.089815 -0.831552 -0.109961 -0.893952 -0.066121 -0.441834
-0.056436 0.407988 -0.126791 -0.226407 -0.090095 -0.969518
-0.03922 0.172164 0.112573 -0.53837 0.108162 0.835682
0.120367 0.517686 0.041551 0.264979 0.621621 0.735418
0.543984 0.179128 0.012417 0.778975 0.586639 0.20778
0.131604 0.017756 0.11813 0.368887 0.22323 0.900979
-0.556037 0.04842 0.059157 0.727398 -0.678786 0.095919
-0.101464 -0.719864 -0.097887 -0.776094 0.022642 -0.630069
-0.071425 -0.284911 0.108053 0.068592 -0.11438 0.990891
-0.016963 -0.278151 -0.080945 0.649978 -0.095973 -0.753611
0.142191 -0.38346 -0.090343 0.558079 0.163116 -0.813554
0.088643 -0.828114 0.021199 -0.940311 -0.338129 0.03076
-0.135649 -0.463206 0.012736 -0.962168 -0.077835 0.254039
0.010624 0.595055 -0.086861 -0.107448 0.624061 -0.772969
0.165003 -0.792008 -0.094313 0.762004 0.178363 -0.618228
-0.014799 -0.648473 -0.082513 0.651953 0.05033 -0.756547
0.067594 -0.388093 0.034884 -0.690358 -0.328067 0.644402
-0.064775 0.559511 -0.091048 -0.385297 0.596914 -0.703466
-0.112487 0.416042 0.062954 -0.343787 -0.05305 0.93585
0.091072 0.492369 -0.138051 -0.169235 0.256503 -0.950341
0.004522 -0.813839 -0.043138 0.944843 -0.225255 0.224218
0.014333 -0.108517 -0.070066 0.425433 -0.600439 -0.669527
0.206066 -0.530273 -0.022835 0.998453 0.009878 -0.021426
0.132645 -0.107035 -0.120074 0.302275 -0.211542 -0.929126
-0.360854 0.2584 0.008759 0.056543 0.13525 0.988678
0.098108 0.775795 0.018767 0.960394 0.058401 0.269368
0.08838 -0.093258 -0.125572 -0.186614 -0.392685 -0.899648
0.360663 0.327547 -0.133785 0.169599 0.011015 -0.98506
-0.12754 -0.460922 -0.047873 -0.821733 0.098678 -0.560911
-0.083761 -0.863185 0.012891 -0.04584 -0.998667 -0.019429
-0.057351 -0.822398 -0.145029 -0.345624 -0.026777 -0.934205
-0.139952 -0.164656 -0.002729 -0.936816 -0.156532 -0.311614
-0.037852 0.787254 -0.034911 -0.995272 0.076332 -0.041884
0.578262 0.060957 0.00293 -0.927738 -0.371742 0.02727
0.094588 -0.351983 0.067699 -0.409855 -0.297238 0.862041
0.00897 0.684933 0.081383 -0.63466 0.022662 0.767883
-0.225386 0.466759 -0.046949 -0.68601 0.596241 -0.416571
-0.0064 -0.755172 -0.012091 0.462148 -0.382003 0.783915
0.173341 0.31161 0.042472 0.906019 0.049491 0.407677
0.044603 0.327212 0.117404 0.190565 0.234199 0.952512
-0.032682 0.176466 -0.106883 -0.366471 -0.283681 -0.886064
-0.118122 0.312208 -0.008292 -0.979436 -0.093996 0.175967
-0.043519 0.556827 0.02527 -0.169436 0.763632 0.621278
0.103782 -0.634875 -0.090218 -0.477617 -0.059705 -0.875414
-0.033438 0.760632 0.014769 -0.945825 -0.114804 0.296412
0.00028 -0.110973 -0.083139 0.733515 -0.350509 -0.581391
-0.437313 0.154793 0.00631 0.604681 -0.793128 0.069337
-0.024761 -0.849182 -0.007991 0.749797 -0.641799 -0.127324
0.120513 -0.146883 -0.111945 0.163475 -0.246978 -0.9533
0.112993 -0.151668 0.107676 -0.293363 -0.28203 0.898368
-0.128728 0.083259 -0.003096 -0.999242 0.023641 -0.006981
0.261024 0.354544 -0.096019 -0.644804 -0.735024 -0.190305
0.635555 0.053351 0.023843 0.894093 0.444159 -0.0496
0.139745 0.194801 -0.092535 0.68674 -0.016181 -0.726365
-0.009647 -0.814627 0.00696 0.952584 0.034686 0.275284
0.241954 0.535198 -0.058418 0.705197 0.708529 -0.018165
-0.108923 -0.796514 -0.00464 -0.841009 -0.309597 0.432992
0.137468 0.066956 0.104438 0.456222 0.225131 0.82952
0.067574 -0.405035 -0.071746 -0.728674 -0.025091 -0.683925
-0.001424 0.580288 -0.095491 -0.070821 0.56929 -0.817976
0.160013 -0.863817 0.050391 0.228836 -0.970459 -0.028092
0.180863 -0.367598 0.067039 0.658845 -0.074976 0.731943
-0.243865 0.39719 -0.092799 -0.230204 0.366603 -0.899205
-0.136175 -0.429834 0.016928 -0.986504 -0.012746 0.161321
0.14254 -0.260061 0.08368 0.061533 -0.066313 0.99575
0.199969 -0.164049 -0.049658 0.840824 -0.002828 -0.538887
-0.230729 0.452757 0.007691 -0.821596 0.407859 0.397771
0.03026 -0.05221 0.12287 -0.347823 -0.384531 0.849462
-0.09333 -0.581063 -0.097046 -0.462496 0.044429 -0.884939
-0.209313 0.481082 0.021013 -0.725413 0.432663 0.525945
-0.098901 -0.717357 0.006405 -0.564663 -0.593561 0.568181
-0.115469 0.072223 0.074005 -0.844653 0.336636 0.4129
0.076369 -0.405617 -0.080376 -0.685495 -0.014597 -0.727882
-0.085504 -0.587646 0.05857 0.140096 -0.202484 0.96476
-0.14013 0.007005 0.018659 -0.955992 -0.286461 -0.033263
0.041418 -0.323397 -0.040985 -0.875462 -0.0248 -0.482449
-0.134822 -0.53683 -0.042689 -0.95019 0.001378 -0.277172
-0.023325 -0.603272 0.026555 0.189542 -0.136083 0.971733
-0.014315 0.731509 -0.086149 -0.695766 -0.477377 -0.535962
-0.042753 -0.86046 0.127657 0.344658 -0.91115 0.214509
0.189753 -0.563291 -0.067232 0.78379 -0.019953 -0.619199
-0.112041 0.212399 0.052518 -0.921233 0.076686 0.375652
0.093546 -0.845711 0.137672 -0.83895 0.456319 0.290653
0.077111 0.220587 0.12084 0.383904 0.077837 0.919854
-0.007027 0.313007 -0.130155 0.092224 0.060775 -0.99376
0.045287 0.51178 0.060742 0.064456 0.530964 0.844425
0.095845 -0.322752 -0.098108 -0.304522 0.010749 -0.947878
0.005001 -0.195845 -0.064806 0.727736 0.040632 -0.684231
-0.138493 -0.460408 -0.002078 -0.991166 -0.034846 0.116739
0.192977 -0.610232 0.012968 0.766574 -0.142931 0.613693
0.079891 -0.309257 -0.089751 -0.603046 -0.01241 -0.79736
0.163693 -0.840918 -0.019559 0.981435 0.187244 -0.006261
-0.089301 0.050814 0.101328 -0.463654 0.179164 0.866388
0.117462 0.071477 0.107072 0.408949 0.157883 0.897061
0.099294 0.346137 0.099359 0.292982 0.113129 0.948271
0.162988 0.261747 0.05495 0.741651 0.064328 0.667587
0.183072 -0.485947 0.04974 0.864128 -0.092106 0.489503
-0.465156 0.172538 0.034879 -0.048627 0.744061 0.657507
0.026098 -0.560258 -0.015298 0.984625 0.078342 0.140567
0.204828 -0.248441 0.02052 0.997833 0.018374 0.060621
-0.037641 0.192365 0.111021 -0.512787 0.067982 0.855601
0.633278 0.059106 0.05077 0.853433 0.519103 0.012795
0.174487 -0.857577 0.106998 0.942265 -0.082942 0.079736
-0.110481 0.240381 -0.055052 -0.928958 -0.164699 -0.30412
0.379212 0.316406 -0.048149 0.276823 0.420572 0.863725
-0.078516 -0.863679 0.067498 -0.05127 -0.998662 -0.00177
-0.020633 -0.360118 0.087088 0.415707 -0.15045 0.894223
-0.031247 -0.857232 0.108726 0.833704 -0.34866 0.351676
-0.131889 -0.226185 0.065601 -0.936314 -0.089622 0.33926
0.168643 -0.799473 0.006434 0.9013 -0.169187 0.365018
-0.084219 0.250031 0.077602 -0.6582 0.045548 0.751202
-0.094315 0.385213 -0.109896 -0.420101 -0.222439 -0.879261
-0.011057 0.755865 0.062108 -0.759384 0.039968 0.648539
-0.071191 0.563361 -0.084089 -0.405409 0.628669 -0.660495
-0.098783 0.515899 0.051271 0.011719 0.457912 0.888681
0.120932 -0.579261 -0.103343 -0.195879 -0.148731 -0.967093
0.25367 0.376972 -0.127566 -0.469287 -0.544835 -0.687952
0.261721 0.499359 -0.01865 0.72838 0.417774 0.539565
0.190714 0.327873 -0.029751 0.992757 -0.113647 -0.03618
0.160523 -0.863816 0.118249 0.261768 -0.963744 0.02939
-0.094507 -0.861663 -0.000701 -0.261859 -0.953306 -0.091567
-0.250041 0.439982 -0.0306 -0.744505 0.666179 0.035242
-0.035132 -0.427446 0.078055 0.333259 -0.249331 0.909234
0.111405 -0.86433 0.153754 -0.084489 -0.9844 0.152992
0.109494 -0.84387 0.16885 -0.811388 0.1877 0.553279
0.172084 -0.389327 -0.071641 0.666001 0.141871 -0.713569
0.042502 -0.278304 0.022006 -0.991091 -0.018251 0.124691
0.052322 0.36896 0.106442 0.13339 0.22593 0.963591
-0.029485 -0.548735 -0.094997 0.407386 -0.006614 -0.912984
-0.143437 -0.048333 0.006702 -0.999499 0.024978 -0.002214
-0.107553 0.294855 -0.076696 -0.83688 -0.079472 -0.539509
-0.139095 -0.487102 -0.020757 -0.976045 -0.094073 -0.147511
-0.102693 0.42214 0.065351 -0.429403 0.079717 0.895046
0.126043 0.201475 -0.104756 0.558481 -0.20588 -0.801815
0.086585 0.142055 0.120873 0.338429 0.06105 0.938421
0.109563 -0.092245 -0.127685 0.037506 -0.285581 -0.957415
-0.007645 -0.615066 -0.075117 0.681481 0.015601 -0.73161
0.191997 -0.523142 0.02484 0.919807 -0.042997 0.388642
0.180173 -0.683957 -0.052951 0.713923 -0.236883 -0.657727
0.012984 -0.173147 -0.052012 0.826853 0.05512 -0.559658
-0.094722 -0.212198 -0.071829 -0.718339 -0.029225 -0.694953
0.115856 0.25338 -0.131031 0.505418 -0.1414 -0.849512
0.115529 0.28042 -0.133877 0.476909 -0.04345 -0.874472
-0.03634 0.808008 -0.007407 -0.983252 -0.090444 0.141976
-0.136011 0.557766 -0.028627 -0.367304 0.917158 -0.115508
0.058114 -0.742139 0.018827 -0.959597 -0.240474 0.129729
-0.130375 -0.190188 0.074637 -0.893998 -0.033296 0.44651
-0.092341 -0.694417 -0.103221 -0.538417 0.082042 -0.836719
0.074546 -0.13443 -0.107327 -0.473883 -0.215644 -0.852547
0.019811 -0.175757 -0.04002 0.928614 0.057696 -0.362195
-0.033834 -0.467174 0.06692 0.262333 -0.276344 0.924188
0.127961 -0.119695 0.112126 0.148286 -0.063295 0.985909
0.047081 0.705001 0.089821 0.440633 -0.090535 0.890292
-0.14282 -0.080815 0.03226 -0.984572 0.017665 0.169745
0.44354 0.23503 -0.020448 -0.390232 0.109784 0.886345
0.297112 0.324293 -0.076328 -0.671638 -0.733908 0.082195
-0.089627 -0.860629 -0.094867 -0.222731 -0.971686 -0.062657
0.038938 -0.161815 -0.061066 -0.86257 -0.261691 -0.431479
-0.025289 -0.857404 0.030175 0.746921 -0.646432 -0.093184
0.09554 0.511142 0.055199 0.230907 0.549311 0.800526
0.041485 -0.305161 -0.041602 -0.871572 -0.018909 -0.489496
0.142169 -0.864979 -0.004666 0.186641 -0.980038 -0.041909
0.24666 0.487218 -0.119273 0.418803 0.486303 -0.766397
-0.117495 -0.297736 -0.035573 -0.828172 0.048323 -0.558357
-0.081628 -0.430746 0.085842 0.017931 -0.176341 0.979861
-0.413167 0.181501 -0.051642 0.408901 -0.637283 -0.626472
0.180779 0.329196 -0.066957 0.830903 -0.354141 -0.427145
0.023476 -0.127125 -0.045281 -0.157461 -0.650219 -0.721621
0.01179 0.717022 0.081017 -0.798862 0.045902 0.5941
-0.098288 0.261666 0.062906 -0.758915 0.031767 0.648846
-0.249681 0.324835 -0.083664 0.59125 -0.49427 -0.636635
-0.341307 0.240294 -0.073795 0.305579 -0.546012 -0.772335
-0.020359 -0.182432 0.117052 0.465801 -0.11775 0.876798
0.169498 0.22646 0.05182 0.754325 0.066152 0.650801
-0.107177 0.171493 -0.052024 -0.852333 0.080517 -0.51667
0.049382 -0.616388 -0.03775 -0.926118 -0.123409 -0.341237
-0.023862 -0.234341 0.110382 0.301086 -0.217063 0.927526
0.217647 0.518649 0.006943 0.28381 0.551422 0.784185
-0.021595 -0.806219 0.045821 0.895513 0.308742 0.297523
0.198159 0.381679 -0.027946 0.997305 -0.057728 0.039368
0.175489 0.554913 -0.090872 0.322389 0.750306 -0.576304
-0.089011 -0.095945 0.113301 -0.401642 0.010712 0.915197
-0.206658 0.33826 -0.03013 0.615236 -0.780135 0.099288
-0.095299 -0.167605 -0.074522 -0.702261 -0.113303 -0.70235
-0.453562 0.207278 -0.029617 -0.867036 0.381457 -0.295141
-0.461051 0.135101 0.023469 0.67435 -0.725191 0.13844
0.18058 -0.793792 -0.056648 0.899388 -0.379558 -0.049168
0.05144 -0.668126 -0.004943 -0.998368 -0.023936 0.038716
0.056635 0.429381 -0.135583 -0.311155 0.031831 -0.9493
0.198043 -0.458693 -0.048148 0.966609 0.039069 -0.2315
0.182195 0.234464 -0.019536 0.991659 0.007123 -0.118105
0.064968 -0.40093 0.025155 -0.694508 -0.328057 0.640317
-0.566591 0.046936 0.042988 -0.904888 0.423623 0.033636
0.121931 -0.866173 -0.010532 -0.062503 -0.995739 -0.000613
0.049677 -0.447762 -0.050921 -0.829977 0.041195 -0.554256
0.168371 0.279436 -0.061192 0.905736 -0.14859 -0.396334
0.175563 -0.346664 -0.056641 0.709264 0.094444 -0.697709
-0.105327 -0.763138 -0.09461 -0.830732 -0.001095 -0.555342
0.008974 -0.277406 -0.05265 0.756636 -0.122566 -0.641392
0.328677 0.304515 -0.059532 -0.581703 -0.627908 0.516981
0.323551 0.360792 -0.038289 0.47338 0.055887 0.874154
0.106697 -0.869518 0.045683 -0.11089 -0.983481 -0.047521
-0.036463 -0.859062 -0.068718 0.560532 -0.805027 0.191219
0.508441 0.212568 -0.016529 0.546597 0.695539 0.464145
0.204699 -0.36799 -0.022703 0.983647 0.036231 -0.173226
0.081086 0.512381 -0.132661 -0.304529 0.32162 -0.895655
-0.104559 0.033384 0.098254 -0.497529 0.139955 0.845351
0.209305 0.521171 -0.114832 0.245391 0.64384 -0.723602
-0.112062 0.271628 -0.003097 -0.999679 0.000733 0.023809
0.171524 0.012966 0.096702 0.627473 0.079022 0.764237
-0.218408 0.369054 -0.094659 0.205934 -0.24793 -0.943072
0.335079 0.389303 -0.061569 0.892061 -0.155219 0.386432
-0.371914 0.196911 -0.014972 0.657842 -0.751819 0.033988
-0.048545 -0.591744 0.039061 0.481402 -0.291019 0.826746
-0.362419 0.309724 -0.035286 -0.625658 0.766392 0.136194
0.175921 0.290305 -0.04856 0.934587 -0.169576 -0.311848
-0.091628 -0.612784 -0.099847 -0.450541 0.097069 -0.887407
-0.062228 -0.742129 0.02697 -0.032474 0.246611 0.964189
0.070821 0.006446 -0.15783 -0.078866 -0.101738 -0.991187
0.139238 0.531208 0.024099 0.289659 0.64489 0.70661
0.305243 0.394284 -0.144737 0.069682 0.033472 -0.992731
-0.501483 0.120857 0.001028 -0.163891 -0.720705 -0.671894
-0.125064 -0.12795 0.081882 -0.827533 0.030109 0.560224
-0.018487 0.841555 0.017645 -0.803821 0.332137 0.478443
0.089519 -0.856653 0.13508 -0.925663 -0.106174 0.238833
0.173511 0.288765 0.04182 0.895208 -0.047316 0.431871
-0.051491 0.138096 -0.104347 -0.334489 0.362151 -0.868793
0.072472 0.637532 -0.053945 0.70206 0.264402 -0.659908
0.036616 -0.340399 -0.024787 -0.986122 -0.061492 -0.143641
0.164895 -0.094209 0.100684 0.615971 0.036228 0.786853
0.578009 0.061131 -0.00889 -0.933511 -0.352434 -0.004419
0.053784 -0.369178 -0.056785 -0.8081 -0.026975 -0.588133
-0.042545 0.295032 -0.127504 -0.315573 -0.009702 -0.944475
-0.136676 -0.432675 -0.01631 -0.970716 0.117456 -0.205646
-0.105108 -0.612475 0.043418 -0.889162 -0.04918 0.450737
-0.071023 -0.678321 -0.110034 -0.164399 0.121291 -0.976543
-0.060586 -0.324892 0.103002 0.19315 -0.119287 0.97316
0.115318 -0.869554 0.102313 0.017445 -0.999629 0.019223
0.032165 0.202912 -0.118175 0.159933 -0.516171 -0.841109
0.031467 0.24383 -0.125534 -0.045511 0.007761 -0.998582
0.005337 -0.520649 -0.059716 0.817043 0.05985 -0.573334
0.042019 -0.268811 0.019785 -0.985247 -0.027214 0.160273
0.201218 -0.160406 0.046349 0.942477 -0.160305 0.289729
0.316334 0.449395 -0.060769 0.791065 0.531879 0.285842
0.009835 -0.304332 -0.047044 0.768608 -0.091005 -0.633203
-0.078048 -0.535336 -0.099487 -0.267277 0.099794 -0.958359
-0.000367 -0.319432 -0.0575 0.73418 -0.06847 -0.675422
0.098888 0.766493 -0.068075 0.964278 -0.035439 -0.260918
0.135139 -0.078044 -0.125937 0.484755 -0.259308 -0.830851
-0.085755 0.005156 -0.118358 -0.62226 -0.027743 -0.7822
0.101006 0.402463 -0.145917 0.006957 0.001789 -0.999736
-0.131505 -0.586528 -0.046256 -0.988492 -0.12674 -0.075492
0.433232 0.300146 -0.096598 0.617161 0.739389 -0.25657
-0.102215 0.431791 -0.117331 -0.411932 -0.108531 -0.903768
-0.066335 0.325245 -0.117086 -0.499772 -0.022602 -0.865814
0.182752 0.23573 0.005035 0.999664 -0.012964 0.02014
0.294853 0.337188 -0.119413 -0.599332 -0.560973 -0.567578
0.438426 0.252095 -0.114379 0.571989 -0.233926 -0.781353
0.103772 -0.05051 0.123241 0.201197 -0.234758 0.946528
0.214192 -0.08664 0.018122 0.996475 0.008623 0.074193
-0.030525 0.597181 -0.062496 -0.551437 0.792925 -0.253888
-0.082777 -0.792161 -0.12859 -0.7005 0.10736 -0.698866
0.012148 0.736723 -0.109017 -0.30934 -0.471919 -0.82172
0.182191 0.178281 -0.030266 0.897424 0.137597 -0.417456
0.003525 -0.774092 -0.100753 0.840052 0.262415 -0.473705
-0.027542 -0.581774 -0.092797 0.495089 -0.04339 -0.865357
-0.021458 -0.747862 -0.117955 0.611204 0.309636 -0.726013
0.089938 -0.849507 0.011542 -0.85161 -0.476672 -0.084855
-0.073388 -0.158874 0.119466 -0.21044 -0.089115 0.971437
0.055138 0.314284 0.117736 0.320481 0.182991 0.927631
0.083646 0.804206 0.045699 0.878058 0.265075 0.393988
-0.296418 0.303713 0.00618 0.02174 -0.086608 0.994818
-0.131308 -0.267282 0.005309 -0.976831 -0.160544 -0.133263
-0.252969 0.337414 -0.092236 0.371689 -0.349685 -0.857833
0.068227 -0.004192 -0.15626 -0.242269 -0.154435 -0.956388
-0.373729 0.29008 -0.006796 -0.541397 0.617525 0.568015
0.153865 -0.413042 -0.087357 0.592846 0.108712 -0.795084
0.462334 0.207855 -0.071259 0.46068 -0.636976 -0.598625
-0.049267 -0.544727 -0.10172 0.19052 0.03726 -0.980101
0.201116 -0.569629 -0.006948 0.963532 -0.081501 0.252846
-0.029784 0.717016 0.018558 -0.973749 -0.084131 0.175846
-0.053869 -0.833776 0.142906 0.557709 0.691107 0.428507
0.019313 -0.487547 -0.032063 0.92007 0.025921 -0.389411
0.104592 -0.481481 0.037512 -0.635379 -0.039548 0.770969
-0.025977 -0.004036 -0.138344 -0.140851 -0.087583 -0.98588
0.056733 0.453097 0.08714 0.115145 0.326073 0.938073
0.190757 -0.419274 -0.0549 0.827227 0.066893 -0.556931
0.206617 0.484376 -0.132163 0.17156 0.208465 -0.962741
0.075784 -0.399309 0.038067 -0.676644 -0.325134 0.660352
-0.152536 0.526079 -0.070487 -0.456163 0.621128 -0.63708
0.192824 0.079013 0.042622 0.908126 0.309146 0.272761
0.054406 -0.073889 -0.124458 -0.365865 -0.40798 -0.836394
0.175757 -0.465939 -0.082743 0.670215 0.127056 -0.730809
-0.036149 0.798129 -0.053586 -0.995874 -0.025221 -0.083637
0.26917 0.362359 -0.122867 -0.376437 -0.739094 -0.553032
-0.114014 -0.470216 0.054376 -0.880291 -0.233096 0.412848
0.050181 -0.251152 0.052688 -0.830265 -0.075458 0.551164
-0.061903 0.030674 0.11954 -0.342332 0.297746 0.890196
-0.124755 0.187103 -0.015351 -0.86619 0.183359 -0.463575
0.1228 -0.677661 0.030521 0.115599 -0.07931 0.989173
-0.103203 -0.804702 -0.003451 -0.848022 -0.394954 0.347348
0.036267 0.178646 0.130148 0.054118 0.03649 0.997713
0.406213 0.312515 -0.115075 0.576421 0.498444 -0.647513
0.122992 0.226791 0.098907 0.543317 0.041309 0.838374
0.036655 0.105015 -0.138634 -0.108076 0.313172 -0.940496
-0.291656 0.393251 -0.043651 -0.957084 0.166897 0.027924
0.024423 -0.245945 0.055381 0.932261 -0.009624 0.36048
-0.004733 0.151739 0.128811 -0.20883 0.011073 0.975494
-0.0317 0.020905 0.133576 -0.314321 0.216777 0.923251
0.187516 -0.553263 -0.070755 0.733078 -0.030456 -0.679183
-0.485443 0.141066 -0.028824 -0.123487 -0.741208 -0.596772
-0.266994 0.38641 0.011531 -0.534844 0.287741 0.791107
-0.086466 0.474308 -0.123264 -0.335658 0.134614 -0.931719
-0.072719 0.249491 0.08658 -0.578099 0.064908 0.811726
0.138789 0.292988 -0.115296 0.767043 -0.067358 -0.637983
0.364655 0.328748 -0.04905 0.328151 0.35767 0.873988
0.045965 -0.162484 -0.073254 -0.825626 -0.196376 -0.527618
0.081062 -0.199872 -0.094236 -0.404139 -0.233716 -0.883861
-0.06665 -0.393559 -0.081581 -0.207028 -0.079529 -0.973175
-0.131895 -0.237957 -0.003902 -0.936132 -0.037094 -0.349405
-0.096396 -0.525087 0.061694 -0.860086 -0.049271 0.507326
-0.124184 -0.46568 0.038799 -0.825482 -0.26457 0.498527
0.134258 -0.592811 -0.102442 0.089594 -0.158006 -0.978929
-0.215115 0.420037 -0.090971 -0.253814 0.311939 -0.914585
0.154561 -0.630932 -0.088752 0.469564 -0.149496 -0.869676
-0.126485 -0.560262 -0.000736 -0.925483 -0.129969 0.352435
0.007352 0.020121 0.141367 -0.095566 0.166525 0.98097
0.133262 0.167461 0.095801 0.56504 0.023126 0.822539
0.020896 0.040154 -0.152807 -0.16754 0.19557 -0.966077
0.183588 -0.506835 -0.076751 0.767097 -0.000132 -0.641451
-0.136376 0.011335 -0.024038 -0.987274 -0.019155 -0.156178
0.100117 0.261641 0.107186 0.357214 0.071592 0.930179
0.094202 -0.694834 -0.082392 -0.684082 0.020431 -0.729019
0.190067 -0.004704 -0.068127 0.892664 0.087708 -0.439343
-0.065584 0.057024 -0.124917 -0.407235 0.259514 -0.86044
0.067126 -0.813485 -0.027781 -0.975283 -0.195649 -0.029531
-0.560689 0.064863 0.055287 -0.813184 0.551101 0.119828
0.001187 -0.683074 0.012417 0.772937 -0.193211 0.600308
-0.006893 -0.750761 -0.105386 0.72948 0.219625 -0.644275
0.074605 0.834224 0.038905 0.751863 0.35604 0.550242
-0.042145 0.373585 0.105171 -0.22105 0.063813 0.968609
0.091188 -0.071402 0.117274 -0.077537 -0.580531 0.808897
0.023409 0.051783 0.136461 0.10945 0.080205 0.990746
0.118331 -0.348707 -0.09937 0.27837 0.063951 -0.956539
-0.1355 -0.399402 0.008969 -0.982921 0.169719 0.051501
0.58364 0.129814 0.039788 0.748174 0.660525 0.055574
0.105949 -0.864761 0.009149 -0.384105 -0.891185 -0.149739
-0.405582 0.195054 0.020047 0.208476 0.231916 0.947685
-0.063318 0.255482 0.09096 -0.485261 0.069628 0.871428
-0.031812 0.793051 0.016567 -0.899108 0.117161 0.420102
0.090103 0.595163 -0.011171 0.799125 0.288069 0.518648
0.023902 -0.708777 -0.053672 0.954297 -0.088269 -0.267879
-0.109111 0.078627 0.080562 -0.675439 0.406622 0.612156
-0.102933 -0.838362 -0.056979 -0.918769 -0.350638 -0.092002
-0.069694 -0.348515 0.101418 0.190001 -0.141232 0.971509
-0.028084 0.593921 -0.020066 -0.647224 0.651682 0.393415
0.103707 -0.257381 -0.098686 -0.201826 0.027842 -0.975939
0.155198 -0.729769 0.003555 0.509212 0.171393 0.814165
0.200014 -0.450206 -0.022514 0.999873 0.007102 -0.008945
0.344293 0.346911 -0.046017 0.437502 0.246295 0.863214
0.132527 -0.494361 -0.107976 0.113034 0.042616 -0.992168
0.0771 0.384171 -0.14386 -0.201005 0.013546 -0.978548
-0.180905 0.360235 -0.050617 0.646663 -0.726756 -0.231404
0.008526 -0.338416 0.067304 0.751549 -0.178311 0.633048
0.010944 0.410145 0.101594 0.159979 0.223646 0.961339
0.192679 -0.264592 -0.047785 0.778221 -0.237155 -0.581292
-0.042472 0.214744 -0.117139 -0.558026 -0.304411 -0.771859
-0.107535 -0.022958 -0.091232 -0.816338 -0.061244 -0.574299
-0.128612 -0.551139 -0.004377 -0.942697 -0.145931 0.297266
0.056007 -0.562463 -0.053923 -0.802914 -0.063852 -0.591973
-0.128072 0.079942 0.022295 -0.992754 0.07063 0.091854
-0.09431 0.326105 -0.097304 -0.652571 -0.118734 -0.748266
-0.547555 0.085274 0.079753 -0.88084 0.401699 0.20987
-0.204781 0.465489 0.032376 -0.577269 0.265456 0.771157
0.264826 0.408613 -0.013791 -0.074483 -0.241055 0.966728
-0.038484 0.41594 -0.129679 -0.061998 -0.039673 -0.997118
-0.135973 0.050161 0.012472 -0.994638 0.097138 0.011077
0.142311 0.205567 -0.090688 0.746216 -0.078741 -0.659903
-0.335018 0.327148 -0.074544 -0.494295 0.738286 -0.45159
-0.082846 -0.496717 -0.094364 -0.416594 0.116907 -0.895255
0.171667 -0.84955 0.09761 0.754121 0.655343 0.039234
0.173843 -0.395815 0.069584 0.496751 -0.022621 0.863866
-0.043525 -0.863507 0.028076 0.068329 -0.996454 -0.040943
-0.053925 -0.863128 0.126929 0.116386 -0.984905 0.09552
-0.087042 -0.8633 0.093151 -0.021798 -0.999733 0.00086
0.119259 -0.137448 -0.115189 0.175587 -0.303498 -0.933643
-0.09261 -0.798356 -0.116547 -0.798257 -0.040411 -0.599159
0.413573 0.246086 -0.12247 0.125417 -0.413711 -0.898125
-0.086811 0.574205 -0.041774 -0.342549 0.934356 -0.06991
-0.04065 -0.282788 -0.092079 0.154036 -0.056474 -0.984329
-0.451996 0.186888 0.019161 -0.169094 0.600699 0.7806
-0.052709 -0.26123 -0.093676 -0.03148 -0.01528 -0.995552
-0.439292 0.224611 -0.036341 -0.722435 0.628248 -0.236593
0.065376 -0.369622 -0.071467 -0.756235 -0.054875 -0.650145
0.174937 0.33563 -0.081928 0.784681 -0.338802 -0.518172
0.214383 -0.109195 0.01345 0.998441 -0.010499 0.049132
-0.185477 0.378386 0.01347 0.423996 -0.577922 0.696525
0.167294 -0.517403 0.05567 0.437979 -0.247909 0.857777
-0.0555 -0.714442 -0.120821 0.126053 0.261432 -0.954285
-0.115742 -0.571006 0.018991 -0.885065 -0.087159 0.456145
0.11147 0.457279 -0.146685 -0.014502 0.057827 -0.997706
0.204952 -0.557535 -0.019631 0.988899 -0.071199 0.082674
0.097859 -0.868539 -0.090598 -0.446356 -0.869598 -0.07294
0.206734 -0.187094 0.017214 0.993931 -0.013084 0.104696
0.176244 0.248015 0.040002 0.876762 0.039104 0.477382
-0.11217 0.253827 -0.029868 -0.998126 0.048498 -0.012729
0.102843 0.746245 0.001974 0.821498 -0.116414 0.535512
-0.184385 0.367419 -0.073471 0.586589 -0.65351 -0.476541
0.085313 0.245543 -0.137025 -0.037416 -0.128106 -0.990717
-0.118487 -0.051758 0.087005 -0.765117 0.048163 0.641553
0.199296 0.041932 0.052323 0.927656 0.138353 0.341887
-0.091273 0.556483 0.016129 -0.042326 0.793082 0.606856
0.206934 -0.206862 -0.016148 0.998837 -0.039227 -0.026254
0.073657 -0.350552 0.056515 -0.574454 -0.32202 0.749371
-0.003932 0.083521 0.132085 -0.438515 -0.001719 0.894208
-0.133199 -0.156176 -0.024978 -0.85447 -0.133606 -0.499118
-0.118509 0.36664 0.026682 -0.939642 -0.253109 0.229251
0.344238 0.416064 -0.084182 0.763881 0.62999 0.12746
-0.002774 -0.445151 -0.061034 0.739194 0.064595 -0.670301
-0.089595 -0.44823 0.082257 -0.075057 -0.140071 0.985289
0.190658 -0.458075 0.035454 0.963578 -0.069341 0.257647
0.020039 -0.285587 0.061983 0.934309 -0.050103 0.352162
-0.061011 0.575396 -0.008698 -0.186439 0.863299 0.464543
-0.184148 0.497644 -0.066257 -0.603607 0.463558 -0.647815
0.448578 0.288368 -0.086251 0.720578 0.682798 -0.105588
0.084913 0.226908 0.115874 0.4736 0.111392 0.871906
-0.127789 0.382931 -0.012504 -0.99265 -0.114323 0.034823
-0.007391 0.52243 -0.121374 -0.020975 0.191527 -0.981238
0.021809 -0.457929 0.012597 0.899251 -0.029787 0.435342
-0.06455 -0.785712 0.03952 -0.320158 0.714907 0.611714
0.177159 -0.654445 0.020103 0.485644 -0.043077 0.872497
0.568457 0.095378 0.055792 -0.788269 -0.151677 0.58188
-0.113838 -0.572422 -0.083056 -0.683748 0.0423 -0.728321
-0.224429 0.339482 -0.076797 0.497782 -0.658859 -0.561412
0.079733 0.373089 0.100561 0.283 0.19041 0.939707
0.158543 -0.560191 -0.09651 0.536 -0.048146 -0.841261
0.30808 0.315941 -0.106588 -0.6413 -0.691102 -0.307677
0.043295 -0.273028 0.030271 -0.988553 -0.021979 0.14867
-0.111995 0.543079 -0.07829 -0.397059 0.663316 -0.633431
0.0458 0.136079 -0.125793 -0.12404 0.412681 -0.901817
0.078331 0.771151 0.06228 0.679686 -0.286676 0.671333
0.209593 -0.08572 0.038898 0.941799 -0.0403 0.333736
0.212982 0.42223 -0.122669 -0.225589 -0.685038 -0.668221
-0.101405 0.336754 0.048256 -0.839882 -0.202657 0.50296
0.127917 0.304694 0.090794 0.607778 0.074507 0.790148
0.073126 -0.781263 0.03079 -0.545828 0.136302 0.814191
0.056614 -0.324692 0.04776 -0.702481 -0.206315 0.679325
0.554571 0.164345 0.039422 0.299814 0.865459 0.293757
0.17196 -0.152298 0.093013 0.583445 -0.083106 0.805719
0.091518 -0.253235 0.084441 -0.254247 -0.131898 0.957473
0.080026 0.23541 -0.134966 -0.097198 -0.191129 -0.975693
0.053082 0.868751 -0.015855 0.418391 0.894495 -0.059985
0.022568 0.083355 0.134131 0.183416 -0.010123 0.981199
0.023803 -0.036111 -0.133003 -0.098384 -0.479077 -0.871087
0.136515 -0.293224 0.08225 0.057085 -0.056873 0.996425
-0.23603 0.314588 -0.047954 0.748451 -0.656605 -0.084785
0.476103 0.254089 -0.045875 0.713226 0.69522 0.081456
0.129851 0.566858 -0.010829 0.267255 0.753588 0.600206
-0.117841 0.16229 0.041576 -0.871925 0.020227 0.486978
0.068015 -0.794063 -0.048904 -0.925106 0.035605 -0.370492
0.12477 0.096436 -0.123837 0.596259 0.287603 -0.748751
-0.128339 -0.65064 -0.051265 -0.999285 -0.017696 0.024487
-0.001037 0.662751 -0.048424 -0.766577 -0.090298 -0.6315
0.610394 0.085226 0.084968 0.00689 0.486454 0.82993
0.085322 0.630832 -0.034673 0.882429 0.362761 -0.283785
-0.075849 -0.111857 -0.098971 -0.54164 -0.135615 -0.829023
-0.250935 0.328257 0.004844 0.260728 -0.472077 0.8405
0.025369 0.02699 0.140218 0.050136 0.258412 0.964135
-0.278836 0.401954 -0.015695 -0.672771 0.682873 0.280955
0.021997 -0.41124 -0.008065 0.982725 -0.152774 -0.08613
0.00065 -0.162357 -0.067988 0.768777 -0.018195 -0.639116
-0.570829 0.028771 -0.003031 -0.409352 -0.688613 -0.146925
0.063353 0.680636 0.080527 0.61933 0.114367 0.775524
-0.106795 0.52727 0.044555 -0.016804 0.577041 0.816269
0.235559 0.378136 -0.068342 -0.696656 -0.713836 0.053588
-0.545653 0.086002 0.01458 -0.254414 0.684991 -0.552594
-0.079177 0.184939 -0.081887 -0.648513 -0.019114 -0.760383
0.173791 0.501914 -0.130566 0.123953 0.314878 -0.940701
-0.429866 0.229301 0.002818 -0.629988 0.577843 0.504003
-0.06066 0.42194 0.091737 -0.208869 0.222153 0.950951
-0.073409 -0.863872 0.04934 -0.03452 -0.999325 -0.010206
0.019183 -0.011066 -0.143463 -0.118762 -0.279336 -0.95166
-0.083933 0.307514 0.076435 -0.631094 -0.029827 0.768972
0.055498 0.852063 0.042035 0.425449 0.65904 0.61867
-0.112379 -0.701236 0.00185 -0.849764 -0.391012 0.344305
-0.176376 0.497654 -0.072728 -0.553494 0.426204 -0.71439
0.510649 0.160834 0.017432 -0.559381 -0.632398 0.441305
0.173069 0.43255 -0.135453 0.178545 -0.220612 -0.957826
0.096368 0.322578 -0.143004 0.15825 -0.092179 -0.980273
0.053795 -0.705478 0.014922 -0.975837 0.069851 0.197778
-0.000625 0.40489 0.104016 0.106082 0.137081 0.984431
-0.060889 0.337485 -0.120163 -0.421036 -0.022687 -0.906376
-0.039324 -0.195968 -0.09306 0.242662 -0.081416 -0.966344
0.026306 -0.568706 -0.022114 0.981058 0.071407 -0.13385
-0.125459 0.204998 0.004615 -0.917504 0.384003 0.005226
0.101456 0.004549 0.131291 0.278052 -0.009969 0.948065
-0.044669 -0.859805 -0.049604 0.208416 -0.973391 0.074544
0.136422 -0.868905 0.032637 0.073722 -0.994151 -0.066352
0.036848 0.657265 -0.065664 0.003441 -0.119079 -0.991222
-0.001092 -0.561744 -0.069508 0.77288 -0.039062 -0.633308
-0.081465 0.555744 0.017686 -0.050221 0.767295 0.639241
-0.050358 0.045127 0.120837 -0.459567 0.191019 0.866489
-0.330454 0.225241 -0.038271 0.507663 -0.85182 -0.121968
-0.023292 -0.200236 0.116072 0.326988 -0.189905 0.925036
0.286086 0.489788 -0.05382 0.737266 0.651498 0.168003
-0.136674 -0.505412 -0.01286 -0.99231 -0.09029 0.06061
0.004126 0.415474 -0.12833 0.062523 0.024505 -0.997544
0.26519 0.367994 -0.032878 -0.551106 -0.490982 0.673033
-0.012212 0.088178 0.128479 -0.371187 -0.03958 0.925679
-0.099191 -0.259801 -0.063374 -0.760494 -0.039402 -0.647959
-0.085949 -0.243336 0.110959 -0.180316 -0.03651 0.982867
-0.072643 0.524313 0.048323 -0.112519 0.564919 0.816741
0.079113 -0.749013 0.024069 0.074226 -0.378018 0.917819
0.09848 -0.3611 -0.099313 -0.317098 -0.018 -0.941582
0.010154 0.005888 -0.145747 -0.15356 -0.212669 -0.964344
0.163017 -0.761604 -0.076031 0.809099 0.396373 -0.426952
-0.135066 -0.251516 0.031546 -0.996566 -0.075471 0.019417
-0.045521 0.452804 0.087527 -0.193665 0.318442 0.926899
0.004664 -0.074564 -0.104805 0.329075 -0.629811 -0.697354
0.080415 -0.211249 -0.090813 -0.44586 -0.181586 -0.87627
0.197009 0.034794 0.059554 0.878851 0.111217 0.458303
-0.329508 0.260762 -0.084117 0.0154 -0.478144 -0.877618
-0.095681 -0.440251 -0.076577 -0.569023 0.249438 -0.782495
0.415543 0.220251 -0.110383 -0.046387 -0.593238 -0.777951
-0.098584 -0.364329 -0.067298 -0.629815 0.041856 -0.773073
-0.191685 0.518044 -0.010162 -0.6541 0.746404 0.095236
-0.113089 0.290092 -0.006068 -0.98783 -0.139713 0.058605
0.008769 -0.465865 -0.049737 0.821349 0.066438 -0.564749
-0.042006 -0.845302 -0.138519 0.330364 -0.372329 -0.857346
0.0612 0.02273 0.138187 0.107942 0.163064 0.980364
0.156122 0.445456 -0.141429 0.237041 -0.135164 -0.961909
0.158316 -0.370593 -0.076328 0.597353 0.196345 -0.776982
-0.060225 -0.632249 0.035074 0.379478 -0.231728 0.89562
-0.124309 -0.697098 -0.07176 -0.87722 -0.121408 -0.461165
0.164339 -0.839745 0.086054 0.787739 0.615723 0.01869
-0.12579 0.185826 0.024434 -0.922821 0.109097 0.360563
0.172832 0.139186 -0.055208 0.881135 0.080633 -0.464573
0.044001 -0.451802 -0.035168 -0.990537 -0.003881 -0.111804
-0.038493 0.243962 -0.127035 -0.330055 -0.112301 -0.935138
-0.032276 -0.728129 0.025521 0.266695 -0.30333 0.907458
0.111624 -0.806007 0.060873 -0.08921 0.708077 0.695139
-0.367172 0.280115 -0.084372 -0.346155 0.325645 -0.879627
-0.025435 -0.297149 0.096222 0.304212 -0.138037 0.942289
0.005011 0.736494 0.071404 -0.407412 0.133454 0.899549
-0.095796 -0.249424 0.10828 -0.296952 -0.020003 0.951613
-0.099411 -0.827775 -0.0823 -0.927181 -0.270557 -0.253984
0.004229 -0.666754 -0.071596 0.535166 0.192861 -0.822
-0.053337 -0.13805 -0.10277 -0.039868 -0.173047 -0.982223
0.120261 0.030797 -0.144651 0.480903 0.101201 -0.870274
-0.034951 0.80695 0.002187 -0.97601 0.004784 0.202835
0.188409 -0.759682 -0.000897 0.927495 -0.247033 0.273377
0.035979 -0.294999 -0.029547 -0.954718 -0.055574 -0.286784
0.248821 0.460945 -0.000502 0.275965 -0.125403 0.952309
0.601027 0.087739 0.00396 0.439572 0.108829 -0.885728
-0.019523 -0.52637 0.042764 0.505398 -0.225402 0.830161
0.085705 -0.139678 -0.111507 -0.336478 -0.208622 -0.917886
-0.089467 0.135959 -0.082493 -0.682934 0.185419 -0.706053
0.183238 -0.03842 0.080717 0.738845 0.022857 0.673372
-0.046878 -0.2105 0.118265 0.093314 -0.196601 0.975959
0.02013 -0.252102 0.066273 0.948628 -0.023108 0.315218
-0.054378 -0.435933 0.080919 0.178625 -0.198756 0.963617
0.044299 -0.383226 -0.040963 -0.942942 -0.002223 -0.326417
-0.4798 0.117111 0.019163 0.708244 -0.679805 -0.142828
-0.201096 0.506662 -0.007466 -0.762688 0.641995 0.076476
0.282212 0.339401 -0.103865 -0.63447 -0.711637 -0.292409
0.027151 -0.587909 -0.022396 0.996399 0.041423 -0.044884
-0.012411 0.688922 0.05272 -0.801479 -0.302884 0.510329
0.000106 0.447705 -0.128353 0.136024 0.006696 -0.990589
0.162972 -0.758865 0.023775 0.126631 0.083463 0.980998
0.04453 0.189078 -0.113794 -0.140965 0.085849 -0.975464
-0.023349 0.480951 -0.12905 0.055422 0.101997 -0.993148
-0.128345 -0.316791 1.5e-05 -0.999818 -0.008581 -0.0164
-0.558471 0.066782 0.064469 -0.905694 0.400898 0.107587
0.040715 0.468444 0.083441 0.135682 0.346437 0.928043
0.011612 0.441889 0.095585 0.095991 0.207629 0.971489
-0.024739 0.387192 0.105816 -0.051186 0.0653 0.996533
0.054535 0.5739 -0.103683 -0.045086 0.556116 -0.828369
-0.250755 0.395524 0.018521 -0.437254 0.141094 0.884021
0.150548 -0.015214 -0.12748 0.703185 0.048774 -0.708941
0.202114 -0.286535 0.035636 0.955069 -0.052577 0.291264
0.557645 0.162417 -0.005014 0.74223 0.660976 -0.10528
0.000582 -0.482133 -0.062469 0.838838 0.057619 -0.521368
0.102218 0.03239 0.124439 0.472845 0.33328 0.812464
-0.268053 0.403673 -0.076131 -0.492448 0.644519 -0.581522
-0.13479 0.01564 -0.032742 -0.965427 -0.00373 -0.25048
-0.328202 0.326206 -0.081416 -0.422003 0.651542 -0.626612
0.070777 -0.802225 -0.056895 -0.893904 0.068039 -0.441191
-0.295359 0.26938 -0.003013 0.724107 -0.249526 0.629699
0.192922 -0.004642 0.066289 0.790961 -0.125034 0.585582
0.477071 0.190429 0.006537 -0.635537 -0.429806 0.626515
0.073249 -0.1265 0.085025 -0.628811 0.022646 0.777138
0.008982 0.573695 -0.100267 -0.062623 0.533513 -0.843305
0.022247 -0.47844 0.007434 0.906344 -0.107159 0.407985
0.120408 0.041815 -0.142553 0.484265 0.20781 -0.849226
-0.128669 -0.458073 0.032737 -0.89509 -0.177924 0.407172
-0.067767 0.58218 -0.048967 -0.303802 0.942608 -0.0712
0.01522 0.272625 0.125065 -0.112672 0.11244 0.98648
0.019715 -0.398975 0.025086 0.960981 -0.136965 0.238502
0.001157 0.5432 -0.114761 0.007791 0.386267 -0.922252
-0.114247 -0.684817 0.009552 -0.868981 -0.172997 0.450557
0.097338 -0.816077 -0.107921 -0.732015 0.002199 -0.676251
-0.125156 0.195674 0.021228 -0.935328 0.204157 0.284744
-0.122894 -0.224269 0.085893 -0.861304 -0.044678 0.506119
0.162756 0.251808 -0.068078 0.873091 -0.013214 -0.486039
0.157733 -0.219379 -0.08421 0.567078 -0.105826 -0.816601
0.596751 0.066822 0.036813 0.286549 -0.899303 0.124408
-0.291266 0.387951 -0.051927 -0.993539 0.008097 -0.091411
0.096835 -0.265668 0.083652 -0.163918 -0.151085 0.97391
0.293895 0.480394 -0.076648 0.69479 0.672288 -0.245474
0.121827 0.00923 -0.14457 0.427662 0.063819 -0.901135
-0.164611 0.46832 0.054023 -0.459688 -0.07594 0.884512
0.017297 -0.134323 -0.049491 0.811851 -0.249086 -0.522864
-0.055438 -0.863388 0.007492 0.036738 -0.998606 -0.036595
-0.015318 0.295922 -0.131334 0.020356 0.034311 -0.999053
0.12131 0.106453 -0.122389 0.526677 0.341037 -0.776637
0.199631 -0.359937 -0.034719 0.894672 0.166967 -0.412743
-0.401153 0.271705 -0.055489 -0.818614 0.538361 -0.185431
-0.069902 -0.379831 0.095547 0.164827 -0.228638 0.95914
0.193884 0.045861 -0.053291 0.910351 0.131753 -0.3918
0.047136 0.6492 0.042262 0.305399 -0.622326 0.715085
0.140733 -0.13714 -0.107543 0.483682 -0.250527 -0.838248
0.190483 0.33831 0.000263 0.977225 -0.093188 0.187781
0.04346 -0.283821 0.030485 -0.986469 -0.01767 0.161774
0.021993 -0.216033 0.062372 0.948435 -0.056236 0.311709
0.098531 0.787184 0.014745 0.943276 0.109736 0.310861
-0.295205 0.260347 -0.07498 0.487272 -0.648257 -0.580515
0.4976 0.167444 -0.005264 -0.645253 -0.760473 0.061052
-0.112022 0.252306 0.018212 -0.991578 0.093109 0.080162
0.159887 -0.462651 0.067723 0.101469 -0.121705 0.979778
-0.087706 0.359198 -0.106952 -0.545521 -0.170169 -0.819987
0.049695 0.005301 -0.153417 -0.19918 -0.188036 -0.960793
0.019201 -0.426685 -0.025966 0.970895 0.018489 -0.224488
0.08714 0.618802 -0.016899 0.875936 0.204491 0.42553
0.197409 0.547265 -0.009673 0.304686 0.74238 0.594848
0.015085 0.432239 0.096688 0.107962 0.148707 0.982937
0.331693 0.352783 -0.041299 0.38892 0.182906 0.897234
-0.134351 -0.093201 -0.036617 -0.897094 -0.055999 -0.429623
0.008458 -0.502624 0.026501 0.733564 -0.135334 0.66524
-0.12833 0.56014 -0.034207 -0.438849 0.865358 -0.221578
-0.060346 0.179007 0.099095 -0.439663 0.021418 0.896597
0.18287 0.274551 -0.014806 0.996931 -0.023736 -0.071456
-0.120291 -0.384067 -0.0433 -0.841506 -0.040318 -0.537374
0.104135 -0.048848 -0.143111 0.106938 -0.3346 -0.935274
0.103567 0.563152 0.010596 0.321282 0.712981 0.60627
-0.00929 0.674827 0.04851 -0.817875 -0.454286 0.329073
0.12003 0.060654 -0.137369 0.508785 0.214301 -0.832723
-0.120509 0.336245 -0.041014 -0.99984 -0.015754 0.003086
-0.013887 -0.47975 0.052879 0.589015 -0.257232 0.76535
-0.117813 -0.791409 -0.025025 -0.922465 -0.298547 0.213752
0.08751 -0.514177 -0.092433 -0.612779 -0.031437 -0.788213
-0.128756 0.397252 -0.036497 -0.926162 -0.354195 -0.004036
-0.011715 -0.047449 -0.127862 0.004091 -0.499783 -0.865438
0.184505 -0.612707 0.018302 0.330869 -0.115088 0.932327
0.018256 -0.565357 0.002491 0.82312 -0.022167 0.553291
0.01594 0.074342 0.136362 0.202724 0.058439 0.977369
-0.113408 -0.089769 -0.068134 -0.763679 -0.123223 -0.633665
0.095761 -0.867317 0.070079 -0.489837 -0.868848 -0.039525
0.135124 -0.706113 -0.093094 0.429323 0.029471 -0.902009
0.148986 0.249062 -0.09306 0.792002 -0.140055 -0.593463
0.066993 0.196219 -0.119716 -0.200212 -0.220843 -0.949649
0.199184 -0.004434 -0.044882 0.950407 0.074091 -0.301584
-0.354288 0.294415 -0.085551 -0.491451 0.328084 -0.803754
-0.128207 -0.012611 -0.055884 -0.922398 0.019433 -0.382831
0.039486 -0.244707 0.010229 -0.353262 -0.083387 0.820741
0.047837 0.493825 0.070578 0.101211 0.547666 0.830111
0.277138 0.455977 -0.014377 0.57964 0.147663 0.798706
0.199937 -0.45843 -0.028532 0.999214 0.002459 -0.033975
-0.076961 -0.464406 -0.092244 -0.361768 0.136069 -0.922196
-0.042218 0.458296 -0.131973 -0.019217 0.038629 -0.99763
0.589336 0.123327 0.046217 0.735345 0.674237 0.06338
0.165158 0.415192 -0.131179 0.287153 -0.374089 -0.881727
0.106272 -0.734403 -0.094501 -0.462811 -0.029812 -0.884893
0.413177 0.217922 -0.067911 -0.643429 -0.756584 0.111054
-0.270781 0.410946 -0.015426 -0.729358 0.647648 0.217741
-0.041048 0.46295 0.08442 -0.187845 0.438603 0.869035
0.177632 0.181334 -0.039116 0.926378 0.068286 -0.370087
0.032609 -0.125023 -0.074067 -0.839388 -0.296487 -0.455144
-0.116892 0.39326 0.05414 -0.783251 -0.283998 0.549662
0.425421 0.235279 -0.113189 0.295052 -0.453369 -0.838229
-0.038017 0.166083 -0.101439 -0.361449 -0.21607 -0.899546
0.263437 0.419616 -0.01165 -0.035632 -0.186061 0.981211
0.025461 -0.445099 -0.004615 0.987118 0.119622 -0.036006
0.088443 -0.030744 0.129349 0.113133 -0.063363 0.991328
0.193985 0.515839 -0.122171 0.116209 0.546963 -0.828969
-0.094873 -0.833541 0.099206 -0.642465 0.756908 0.108562
0.182585 0.245143 0.015213 0.998002 -0.013531 0.060852
-0.111438 0.27376 0.01126 -0.994509 0.020925 0.092089
-0.1334 -0.219213 -0.00242 -0.956255 -0.068255 -0.278907
0.085679 -0.686233 -0.074319 -0.755948 -0.005915 -0.654184
0.083712 -0.857953 0.114901 -0.947823 -0.134069 0.149151
-0.029374 0.737713 0.020011 -0.986061 -0.074593 0.146249
-0.100312 -0.3932 0.094192 -0.33645 -0.203793 0.909362
-0.042027 -0.222986 -0.091688 0.126328 0.008242 -0.991018
-0.236197 0.425963 0.019484 -0.650504 0.316477 0.687445
-0.109303 -0.380705 -0.057126 -0.710106 -0.026587 -0.703342
-0.095877 -0.858565 -0.08773 -0.811514 -0.530325 -0.129523
0.172368 -0.625351 0.020238 0.302228 0.065794 0.950413
-0.114313 -0.494486 0.040127 -0.843528 -0.240171 0.480088
0.046299 -0.192235 0.057436 -0.879107 -0.067368 0.464783
0.020759 -0.606788 0.001274 0.748013 0.023228 0.660138
0.064323 0.261286 0.121605 0.24686 0.068607 0.96578
-0.231732 0.324293 -0.063906 0.71136 -0.558791 -0.383145
-0.190058 0.471386 0.041756 -0.503957 0.124459 0.838111
-0.381982 0.196433 0.009002 0.581659 -0.538483 0.598017
0.063858 0.324825 0.113234 0.240408 0.127643 0.961699
-0.187012 0.357035 -0.013634 0.523351 -0.778975 0.338778
-0.003231 0.714614 -0.083027 -0.571666 -0.566372 -0.590175
0.059419 -0.627533 -0.052435 -0.79041 -0.115266 -0.60029
-0.105127 0.380209 0.062011 -0.731775 -0.206671 0.648235
0.075511 0.672374 0.036488 0.803452 -0.573671 0.13735
-0.349395 0.321464 -0.05845 -0.576546 0.806745 -0.101038
-0.068059 -0.807915 0.06124 -0.396257 0.469802 0.76729
-0.103134 0.048434 -0.090267 -0.797945 0.208029 -0.563033
-0.135474 -0.172494 0.063627 -0.957308 -0.005949 0.269751
0.008438 -0.235446 -0.060549 0.768614 -0.07742 -0.634594
0.097362 0.79988 0.012718 0.95996 0.118598 0.246079
-3.2e-05 0.253928 0.122338 -0.372984 0.064475 0.925589
-0.036647 -0.104569 -0.106949 0.160072 -0.243576 -0.955317
-0.113461 0.345253 -0.082272 -0.77779 -0.213426 -0.589579
-0.005581 0.396261 -0.129158 0.05308 6.2e-05 -0.998552
0.208767 0.511103 -0.122317 0.219808 0.499464 -0.835478
0.336117 0.346977 -0.137365 0.061005 -0.061189 -0.99455
-0.216512 0.453054 -0.072338 -0.485253 0.567269 -0.664728
0.205819 -0.520144 -0.021957 0.995906 0.038973 -0.019853
-0.040475 -0.226393 0.113963 0.107955 -0.173722 0.978727
0.103336 0.763774 -0.050937 0.972392 -0.115994 -0.195124
-0.042693 0.273673 -0.126891 -0.329743 -0.02896 -0.941778
-0.135282 -0.549777 -0.038049 -0.990005 -0.0662 -0.101619
0.326452 0.301176 -0.10793 -0.568382 -0.705082 -0.415294
0.193229 0.546522 -0.093473 0.301244 0.735307 -0.606628
0.066895 -0.551812 0.008736 -0.627266 0.018071 0.778364
-0.134835 0.000639 0.057566 -0.928961 -0.24483 0.253838
0.047836 -0.526143 -0.043281 -0.879725 -0.062398 -0.471242
-0.073348 -0.350976 -0.082631 -0.398614 -0.019675 -0.915051
0.003644 0.146437 0.129864 -0.123042 0.02141 0.992097
-0.477266 0.176383 0.004849 -0.683476 0.728568 0.032126
0.050104 -0.199604 0.062587 -0.809571 -0.080517 0.581104
0.256156 0.387379 -0.025444 -0.280695 -0.57717 0.764978
-0.002575 0.78554 0.074292 -0.57172 0.178558 0.791126
0.119926 0.108071 0.105517 0.490092 0.091335 0.865198
0.165571 0.309316 -0.081759 0.714121 -0.253101 -0.607343
-0.508662 0.13897 0.05523 -0.869723 0.490447 0.040143
0.04449 0.415501 0.096774 0.041664 0.197656 0.979083
0.076665 -0.431966 -0.080582 -0.690619 0.018312 -0.722949
-0.057385 0.56905 0.003309 -0.129315 0.796316 0.589701
-0.024747 -0.846814 -0.118615 0.94537 -0.107016 -0.286364
0.064598 0.635159 0.022309 0.619717 -0.28462 0.727362
-0.016412 -0.037637 -0.132459 -0.073565 -0.350065 -0.933547
0.053374 -0.520226 -0.054917 -0.874866 -0.074801 -0.47795
-0.059054 -0.198172 -0.093065 -0.287274 -0.107509 -0.951679
0.591385 0.083574 -0.002317 0.595698 0.259958 -0.758509
0.206196 0.041976 -0.003556 0.995274 0.067815 -0.056722
0.410645 0.264088 -0.03477 -0.084775 0.262484 0.955732
0.110767 -0.869883 0.091003 0.025648 -0.999601 0.009717
0.024846 -0.326551 0.042092 0.932621 -0.11725 0.319257
0.185216 -0.514789 0.039032 0.844537 -0.083903 0.528735
-0.016508 -0.013161 0.138014 -0.053141 -0.721109 0.667213
-0.102043 0.308032 0.046473 -0.871718 0.180283 0.453661
0.198082 -0.189007 0.050494 0.958644 -0.044499 0.279599
0.020539 -0.211498 -0.041958 0.930152 -0.009889 -0.361412
-0.082035 0.577061 -0.032218 -0.522803 0.825622 0.102025
0.094745 0.821188 -0.006047 0.841664 0.52227 0.116555
0.197995 0.512317 0.016991 0.296768 0.393011 0.865722
-0.110234 -0.670782 0.024007 -0.770591 -0.243084 0.582489
0.086142 -0.859786 -0.074087 -0.853626 -0.470252 -0.077451
-0.039662 -0.14542 0.123517 -0.057336 -0.060461 0.996374
0.174091 -0.860709 0.09352 0.754198 -0.523711 0.012183
0.565837 0.119563 0.053481 -0.48479 0.175212 0.849619
0.121362 -0.863524 -0.116382 0.151681 -0.638394 -0.733743
-0.129654 -0.523628 0.0042 -0.896421 -0.143948 0.416572
-0.128791 -0.360107 0.002739 -0.999888 0.009907 -0.001909
0.146462 0.109092 -0.101233 0.692514 0.251056 -0.676058
0.358496 0.295631 -0.127336 -0.310473 -0.369662 -0.871749
0.158434 0.183607 0.069658 0.734205 0.054698 0.676454
-0.139024 -0.174737 0.00167 -0.948124 -0.215828 -0.226629
-0.076704 0.284344 0.081138 -0.52662 0.003527 0.8423
-0.136093 -0.149561 0.06095 -0.960632 0.010432 0.276191
-0.02424 -0.848125 0.073444 0.981106 0.016773 0.148499
0.252714 0.44267 -0.136411 -0.049709 0.226239 -0.968926
-0.397295 0.275663 -0.025979 -0.698731 0.689221 0.183682
0.085409 -0.007078 -0.156984 0.089208 -0.136915 -0.98553
-0.522627 0.119867 0.074468 -0.725946 0.680918 0.084461
0.270728 0.35492 -0.113096 -0.49969 -0.727682 -0.460242
-0.085044 -0.35211 -0.076392 -0.523154 0.010785 -0.851907
-0.114425 0.148472 0.048839 -0.837969 0.076059 0.538655
0.095307 0.406777 0.092088 0.169443 0.210602 0.96227
0.322985 0.396462 -0.035009 0.646266 0.17957 0.726277
0.023669 -0.161087 0.072005 0.868247 -0.238652 0.434394
0.145103 -0.835204 0.161527 0.465257 0.844239 0.255001
0.167379 -0.844164 0.040553 0.839198 0.54199 -0.022975
0.057719 -0.693191 0.019916 -0.871974 0.155319 0.461985
0.620952 0.04936 0.081417 -0.827718 -0.554565 0.016418
0.113225 0.532674 -0.128005 0.068971 0.328365 -0.938725
-0.090967 0.571831 -0.052254 -0.452004 0.811693 -0.338655
0.199604 0.049137 -0.034252 0.9686 0.081713 -0.234142
-0.118222 -0.731182 -0.016945 -0.713689 0.306915 0.620787
0.098515 0.367475 0.097353 0.21875 0.084195 0.97171
0.110094 0.464985 0.075095 0.228171 0.371085 0.899429
-0.046373 -0.703361 -0.114111 0.330523 0.292945 -0.896521
-0.049792 0.032334 -0.1393 -0.313315 0.170733 -0.933913
-0.065948 0.089181 0.104235 -0.518003 0.040052 0.846336
-0.021341 0.694962 0.018574 -0.9555 -0.290559 0.033619
0.16471 -0.074741 -0.103557 0.717842 -0.099072 -0.687914
-0.035492 -0.85994 0.004032 0.411944 -0.891674 -0.148438
0.191804 -0.182613 0.072219 0.907679 -0.057188 0.406071
-0.125581 -0.3187 -0.024361 -0.952224 0.017703 -0.296628
-0.072891 0.155036 0.092799 -0.646458 0.001648 0.762736
-0.412861 0.171809 0.012615 0.681454 -0.726342 0.076297
0.372651 0.355953 -0.110308 0.698281 0.671823 -0.234428
-0.055404 0.002484 0.130259 -0.232793 0.367299 0.895494
0.148144 0.467093 -0.143216 0.165698 0.071069 -0.983364
0.206132 0.007018 -0.01441 0.991368 0.027412 -0.122058
0.001796 0.641831 0.01848 -0.737092 -0.237148 0.632517
-0.010342 0.462578 -0.129097 0.109272 0.04169 -0.993123
