0.199029 0.389953 -0.081770 0.975587 -0.201408 -0.066643 
0.036658 0.289919 -0.128115 -0.139908 -0.014733 -0.988840 
0.555477 0.096492 -0.012642 -0.733819 -0.665422 -0.115501 
0.082546 -0.636358 0.014617 -0.669080 0.241644 0.681421 
0.054676 -0.494014 -0.000942 -0.808669 -0.032269 0.587155 
0.070580 0.143248 -0.124987 0.024585 0.384817 -0.922333 
-0.197482 0.353946 -0.070098 0.569360 -0.689618 -0.446774 
0.591132 0.052491 -0.002829 0.844619 -0.431458 -0.141748 
0.090748 0.241454 0.112536 0.358430 0.075085 0.929504 
-0.215322 0.482443 -0.042791 -0.693821 0.575784 -0.427559 
-0.026994 -0.383831 -0.074914 0.521277 -0.038474 -0.847588 
0.195947 0.130121 -0.015428 0.834763 0.077064 -0.531306 
-0.053582 0.438917 -0.130153 -0.106561 -0.107778 -0.988303 
-0.019984 -0.279750 -0.083309 0.662095 -0.092968 -0.743301 
-0.129038 -0.613614 -0.028805 -0.997609 -0.031079 0.059947 
0.052897 -0.641280 -0.037814 -0.916759 -0.153484 -0.362948 
-0.070951 -0.430700 0.084723 0.142458 -0.248640 0.957820 
0.055401 0.326739 -0.135126 -0.396320 -0.027872 -0.917672 
0.293312 0.337778 -0.052609 -0.443816 -0.702163 0.552832 
0.119138 -0.361774 0.074830 -0.258003 -0.210479 0.942309 
0.197324 0.026981 0.060673 0.878093 0.102714 0.464762 
-0.201301 0.417020 0.035207 0.174203 -0.306991 0.932760 
0.248499 0.515311 -0.015347 0.625406 0.566009 0.535263 
0.182473 -0.219926 -0.066560 0.605127 -0.005887 -0.795750 
0.041095 0.806415 -0.114853 0.113479 0.362488 -0.920336 
-0.036534 -0.320204 0.097257 0.248854 -0.076833 0.965055 
-0.133416 -0.465715 0.018954 -0.908179 -0.135403 0.385969 
0.157642 -0.577768 -0.095888 0.485371 -0.085258 -0.869699 
0.190056 0.447544 0.037141 0.544934 0.129294 0.828104 
-0.071621 -0.567182 0.056058 0.398627 -0.179617 0.898602 
0.189813 -0.065840 -0.067459 0.870826 -0.033445 -0.488816 
-0.142640 -0.093200 -0.011503 -0.973275 0.000571 -0.217696 
0.078363 0.564276 0.013623 0.361036 0.493384 0.785676 
-0.008618 0.356521 0.110931 -0.264301 0.179933 0.943625 
0.298286 0.323657 -0.072359 -0.661562 -0.730215 0.156760 
-0.037703 0.000372 -0.137178 -0.161405 -0.060572 -0.984643 
0.523269 0.169599 -0.041007 0.367728 -0.347345 -0.859518 
-0.052250 0.303184 0.096429 -0.440807 -0.004973 0.896834 
0.203398 -0.364693 0.011448 0.950755 -0.057074 0.299221 
-0.036844 0.789001 -0.014924 -0.993602 0.064985 0.092173 
-0.193030 0.458778 -0.082623 -0.360511 0.388613 -0.846058 
0.206289 -0.161376 0.025492 0.986781 -0.075932 0.130955 
0.190483 0.403199 0.028461 0.935034 -0.128886 0.320740 
0.068222 -0.678642 -0.050706 -0.789797 -0.123560 -0.600645 
0.154967 -0.769601 -0.092072 0.660177 0.354916 -0.659157 
-0.034007 -0.789475 0.043348 0.543858 0.610186 0.575184 
0.069299 0.157712 0.127571 0.288811 0.031493 0.954744 
0.013386 -0.791888 -0.080079 0.948962 -0.222523 -0.201461 
0.130445 -0.255318 -0.094763 0.455097 -0.080996 -0.881708 
-0.016561 0.737387 0.058353 -0.761703 0.058187 0.643851 
0.375280 0.251856 -0.098271 -0.666239 -0.669401 -0.328610 
0.087415 0.616757 -0.016598 0.878017 0.195181 0.421261 
0.092448 0.714046 0.035554 0.972473 -0.054115 0.208581 
0.004394 -0.263952 -0.061351 0.773066 -0.114368 -0.623836 
0.193321 -0.026016 -0.062152 0.914123 0.023808 -0.403813 
0.011595 0.299826 -0.128350 0.116551 0.044313 -0.992153 
-0.000885 0.728185 -0.096586 -0.490237 -0.508282 -0.705927 
0.413945 0.217332 -0.102853 -0.497788 -0.845588 -0.136781 
0.059659 -0.383588 0.028539 -0.696190 -0.363907 0.618372 
0.214462 -0.095030 0.002437 0.998950 0.007249 -0.037105 
0.055033 -0.683285 -0.029052 -0.890630 -0.116416 -0.438872 
-0.140598 0.434764 0.054727 -0.597200 -0.296410 0.745101 
0.023408 0.270401 0.126407 -0.038085 0.118534 0.991904 
-0.067715 -0.503621 -0.098564 -0.140210 0.081212 -0.985941 
0.086545 -0.409537 0.044244 -0.627659 -0.328383 0.704798 
-0.042263 -0.568624 0.043063 0.425071 -0.218506 0.878082 
-0.096065 0.419945 0.070812 -0.657182 0.080610 0.749313 
0.199406 -0.446064 -0.001804 0.995319 -0.030540 0.087653 
0.006682 0.814935 0.065639 -0.535344 0.450782 0.711353 
-0.087013 -0.602830 0.055366 0.133571 -0.243142 0.950510 
0.197962 -0.651662 -0.017836 0.987241 -0.030977 0.145842 
0.046858 0.752555 0.085471 0.741136 0.308477 0.595669 
0.542263 0.175274 -0.028817 0.770423 -0.114008 -0.543330 
-0.112440 -0.851353 0.027212 -0.941229 -0.311956 -0.042189 
-0.119223 -0.719021 -0.073912 -0.784465 -0.144831 -0.599594 
0.271498 0.471515 -0.013141 0.605993 0.151270 0.774696 
-0.257391 0.351893 -0.096904 0.076415 -0.122583 -0.989366 
0.198744 0.383731 -0.052549 0.998280 -0.051629 0.013088 
0.007978 -0.703523 -0.079016 0.651319 0.191778 -0.732624 
0.292650 0.466441 -0.103243 0.563201 0.646483 -0.513150 
-0.128074 -0.161237 0.079132 -0.867172 0.011784 0.496132 
-0.077657 0.492305 0.064454 -0.257930 0.397305 0.880456 
-0.480703 0.128986 -0.006065 0.289252 -0.785776 -0.539553 
-0.473604 0.179896 0.007033 -0.759264 0.645821 0.077219 
-0.112659 -0.851683 0.060569 -0.959708 -0.273461 0.020896 
-0.136293 -0.452697 -0.027536 -0.960188 0.083470 -0.260682 
0.094577 0.243619 -0.136524 0.062755 -0.141584 -0.986664 
0.000999 -0.601329 0.017168 0.568091 0.057405 0.819792 
0.176115 -0.278447 -0.060929 0.635852 -0.195934 -0.745751 
-0.036840 -0.597760 0.031228 0.392377 -0.216028 0.893282 
0.101150 0.723037 -0.013216 0.966112 -0.252633 -0.031868 
0.199565 0.073794 -0.022897 0.985312 0.125030 -0.113448 
0.075974 -0.424551 -0.079774 -0.694016 0.003594 -0.719845 
0.027651 -0.305235 0.031619 0.994246 -0.010542 0.105603 
0.031517 0.386618 -0.128993 -0.138182 -0.011605 -0.989829 
-0.119531 -0.318623 -0.035354 -0.888263 0.064308 -0.439206 
0.193932 0.054450 0.058316 0.783772 0.278370 0.553436 
0.099025 0.740888 0.011940 0.975771 -0.106170 0.189568 
-0.252904 0.425102 -0.002234 -0.723775 0.537541 0.431846 
0.159114 -0.621558 0.025847 0.356430 -0.167602 0.910499 
-0.348549 0.320249 -0.029145 -0.676744 0.716225 0.167625 
-0.017349 0.851832 -0.023327 -0.620926 0.776786 -0.087120 
0.339365 0.301095 -0.052607 -0.563566 -0.578550 0.589017 
0.092220 0.824934 -0.005455 0.867666 0.461620 0.078409 
-0.432311 0.158138 -0.020032 0.507499 -0.855337 -0.092953 
0.238393 0.402060 -0.020222 -0.117226 -0.510804 0.844338 
-0.089380 0.431989 0.074811 -0.622220 0.107970 0.775291 
0.007345 0.480277 -0.125516 0.195385 0.131189 -0.968350 
-0.055143 -0.863904 0.031945 -0.002167 -0.999890 -0.014548 
-0.062122 0.162531 -0.092144 -0.341039 0.167325 -0.923173 
0.002964 0.591665 -0.088059 -0.135250 0.563855 -0.812515 
-0.047035 -0.799552 0.056151 0.035973 0.494557 0.853424 
0.010193 0.517051 -0.122258 0.008063 0.148946 -0.988673 
-0.002089 -0.321528 0.080679 0.555171 -0.164020 0.814765 
0.279976 0.472683 -0.107836 0.495079 0.653633 -0.571159 
-0.221792 0.442769 -0.075985 -0.484655 0.502308 -0.715798 
0.561474 0.094040 0.040649 -0.811180 -0.518153 0.260246 
0.171306 0.168933 0.056592 0.729552 0.091986 0.677623 
-0.116441 -0.657026 -0.087344 -0.683326 0.004287 -0.728814 
0.136194 0.233767 0.088588 0.679152 0.063746 0.730676 
0.061415 0.225280 0.125775 0.310382 0.125262 0.938919 
0.201261 -0.190475 0.039228 0.948686 -0.015854 0.315735 
0.147562 -0.451894 -0.099112 0.404559 0.156434 -0.900886 
0.157232 0.268630 -0.081395 0.872802 -0.108631 -0.474914 
0.110892 -0.554394 -0.103724 -0.358116 -0.104150 -0.926134 
-0.115536 -0.123301 0.096310 -0.715118 0.029696 0.698256 
-0.079598 -0.236333 -0.083960 -0.561889 -0.042516 -0.825576 
-0.022933 0.275396 0.113327 -0.259116 0.005970 0.965794 
0.184587 -0.773213 -0.042681 0.966129 0.088936 -0.210864 
0.176084 -0.232401 -0.071128 0.573674 -0.075748 -0.814540 
0.261335 0.353520 -0.060472 -0.702959 -0.691042 0.155465 
-0.030256 -0.765971 0.006906 0.574559 0.688996 0.441316 
-0.022779 -0.838635 0.031223 0.950990 0.278466 0.079486 
0.481380 0.179621 -0.004874 -0.596730 -0.794304 0.106970 
-0.002447 -0.320603 -0.059661 0.732234 -0.070313 -0.677390 
-0.045705 -0.057529 -0.121319 -0.125478 -0.327464 -0.935863 
-0.036669 0.802346 -0.050016 -0.992115 -0.069648 -0.095145 
-0.276375 0.267097 -0.053104 0.714761 -0.696869 -0.051125 
-0.160609 0.456442 0.053654 -0.429675 -0.261763 0.857967 
-0.112595 -0.670328 -0.089785 -0.634926 -0.037853 -0.767587 
0.086899 -0.685050 0.034974 -0.200157 0.131109 0.968758 
0.158372 0.416143 0.063019 0.730590 0.050336 0.680766 
0.020668 -0.449692 -0.023308 0.943325 0.066622 -0.323686 
0.022717 -0.407931 -0.003209 0.976836 -0.192862 -0.005656 
0.102803 -0.861808 -0.000699 -0.577343 -0.794838 -0.141344 
0.007794 -0.643533 0.015764 0.655234 -0.124937 0.744027 
-0.025042 -0.859040 0.058109 0.818510 -0.564140 0.029211 
0.159208 0.200993 -0.071496 0.766218 0.021226 -0.642184 
0.017918 0.004937 0.143411 0.011684 0.138681 0.989978 
-0.039397 0.765816 -0.020438 -0.994016 -0.061947 0.071122 
-0.215266 0.363964 0.012011 0.206007 -0.489620 0.845967 
0.050174 0.832947 0.061391 0.365341 0.550525 0.749278 
-0.088778 -0.040784 -0.108524 -0.650494 -0.202150 -0.731601 
-0.064197 0.337094 0.091131 -0.591948 -0.080996 0.798983 
-0.036937 -0.282597 0.102743 0.284062 -0.203974 0.934143 
0.125199 -0.759865 -0.101077 -0.225936 0.155013 -0.961101 
0.094206 0.747547 0.037077 0.904502 -0.158329 0.388596 
-0.019775 0.254283 0.114500 -0.340101 0.027290 0.937802 
0.067617 -0.817160 -0.017190 -0.937325 -0.321406 0.044729 
0.122005 0.053920 -0.137918 0.492030 0.215815 -0.842960 
0.417644 0.226788 -0.041720 -0.393284 -0.445801 0.764056 
0.152883 0.304987 0.064231 0.742140 0.024886 0.669653 
0.182377 0.250732 -0.018192 0.991917 -0.012495 -0.116658 
0.090333 -0.516102 0.027583 -0.525085 0.045959 0.849161 
0.055497 0.665679 0.086147 0.710845 -0.444821 0.496626 
-0.157132 0.405454 -0.086319 0.531609 -0.511715 -0.673553 
0.047124 0.731862 -0.108061 0.273136 -0.521740 -0.805965 
-0.111998 0.553135 0.018641 -0.094462 0.638743 0.717121 
-0.126653 0.492395 -0.102148 -0.384749 0.240892 -0.890782 
-0.067131 0.075709 0.107541 -0.421903 0.326931 0.844260 
0.029980 0.632076 -0.066585 -0.106000 0.258743 -0.958631 
0.043898 0.252882 0.126799 0.120455 0.058204 0.989662 
0.198673 -0.291821 -0.028423 0.878251 -0.085380 -0.470319 
-0.019783 0.609025 -0.029011 -0.930468 0.338794 0.092534 
-0.447033 0.217779 -0.022620 -0.729906 0.681463 -0.014103 
0.091248 -0.426255 0.039930 -0.622933 -0.373584 0.687273 
-0.094435 0.555613 0.017004 -0.031431 0.788567 0.613217 
-0.074856 -0.310377 0.105911 0.066566 -0.066756 0.995407 
0.017377 -0.247401 -0.045813 0.884218 -0.072337 -0.459686 
0.136730 -0.539011 -0.107439 0.216322 -0.005844 -0.971322 
0.205603 -0.231085 -0.019154 0.996743 -0.070716 -0.038045 
0.403839 0.325569 -0.100556 0.694090 0.701106 -0.154465 
0.021548 -0.117272 0.098526 0.657390 -0.338864 0.672275 
0.105823 -0.635315 0.032846 -0.485402 0.022325 0.862990 
-0.133843 -0.262170 0.021809 -0.984497 -0.166950 -0.022813 
-0.116471 0.217049 0.033858 -0.941308 0.205568 0.263904 
0.180743 -0.032249 -0.087743 0.841484 -0.047814 -0.535726 
-0.402830 0.256023 -0.068069 -0.734106 0.235725 -0.616440 
-0.035157 -0.245742 -0.091134 0.238636 0.038182 -0.968948 
-0.016362 0.150640 -0.108887 -0.321244 0.233758 -0.902862 
0.195618 -0.406051 0.032013 0.947623 -0.038851 0.316909 
0.018476 0.257195 0.127052 -0.061407 0.062306 0.995798 
-0.068717 0.414242 0.091651 -0.363676 0.145657 0.917921 
0.095030 -0.042849 -0.145687 0.034522 -0.328275 -0.943464 
0.009912 -0.369364 -0.042784 0.721080 0.020641 -0.691574 
-0.061540 -0.864039 0.099489 -0.004239 -0.999821 0.017272 
0.023110 0.747650 0.092954 -0.760948 0.395547 0.507228 
0.157869 -0.825285 0.048154 0.856892 0.488623 0.113157 
-0.143480 -0.149552 0.005764 -0.990605 -0.062054 -0.108910 
-0.141508 -0.138963 0.041108 -0.960719 -0.025231 0.272977 
0.081283 0.117881 -0.133005 0.153370 0.470267 -0.868139 
-0.123060 0.164953 0.029244 -0.910360 -0.091104 0.399543 
0.028198 -0.108855 -0.078102 -0.832357 -0.354731 -0.425472 
0.050099 -0.350173 -0.052908 -0.838548 -0.066334 -0.540067 
0.274265 0.434331 -0.138386 0.125859 0.305052 -0.940329 
0.302205 0.373399 -0.141528 -0.074606 -0.297550 -0.950165 
0.197953 -0.222336 0.048757 0.936563 0.031538 0.348120 
0.333455 0.291385 -0.073065 -0.625859 -0.695493 0.331990 
-0.022865 -0.775849 0.015775 0.742935 0.562352 0.354593 
0.028565 -0.160591 0.057371 0.899952 -0.282493 0.315408 
-0.011190 0.686362 0.053538 -0.807588 -0.289015 0.510363 
0.164066 -0.470132 -0.093844 0.507513 0.129230 -0.851448 
-0.419905 0.246939 -0.016409 -0.725137 0.683669 0.077553 
-0.113144 -0.766840 -0.081631 -0.869455 -0.025862 -0.493037 
0.025426 -0.566047 -0.012270 0.949964 0.073557 0.258726 
0.064183 0.808605 -0.106722 0.448077 0.362448 -0.811952 
-0.047841 0.052605 0.120901 -0.483202 0.166209 0.859158 
0.140078 0.465995 0.066048 0.349540 0.330876 0.876034 
-0.100127 0.479865 -0.117499 -0.428613 0.222120 -0.874479 
0.142139 -0.168618 0.100188 0.206047 -0.307801 0.927208 
0.183222 0.318145 -0.051779 0.880808 -0.317809 -0.350467 
0.100002 -0.584678 -0.093112 -0.600482 -0.114166 -0.791385 
0.030042 -0.290101 -0.008684 0.974463 -0.118040 -0.150150 
-0.294498 0.357481 -0.004624 -0.646523 0.460179 0.597389 
0.045557 -0.574265 -0.033289 -0.962444 -0.048159 -0.194900 
0.162188 -0.856558 -0.061338 0.913114 -0.336563 -0.053928 
-0.110313 0.256104 -0.060494 -0.976643 -0.040328 -0.207458 
0.041930 -0.361268 0.001859 -0.966619 -0.114279 0.226015 
-0.120487 -0.621624 0.011310 -0.931116 0.028695 0.362602 
-0.052552 -0.074891 0.126760 -0.229474 -0.087803 0.967239 
-0.143703 -0.059027 0.002818 -0.998695 0.027924 -0.036203 
-0.106259 0.304711 -0.080004 -0.813398 -0.111249 -0.570805 
-0.110343 0.566338 -0.014940 -0.127836 0.989169 0.060911 
-0.055645 0.024775 0.122858 -0.366767 0.270175 0.888336 
-0.243744 0.439176 -0.002967 -0.782161 0.514421 0.348291 
-0.011983 -0.390402 0.076310 0.567974 -0.218881 0.793392 
-0.109391 -0.840617 0.044029 -0.734873 0.677871 0.019265 
-0.450985 0.143647 0.016757 0.625058 -0.767857 0.130406 
-0.076381 0.539627 0.035905 -0.055667 0.676014 0.734215 
0.090157 0.743567 -0.080065 0.816354 -0.281318 -0.501024 
0.642839 0.033580 0.043496 0.979595 0.200290 0.008299 
-0.069570 0.205854 0.093366 -0.556467 0.121255 0.821674 
0.182865 0.212954 0.016208 0.998103 0.041438 0.042348 
0.013789 0.361718 -0.127336 0.037021 -0.037394 -0.998495 
0.022188 0.766698 0.083396 -0.653342 -0.136325 0.719263 
0.171040 0.495099 0.034748 0.574613 0.311016 0.754865 
0.120403 -0.610716 0.034416 -0.153389 0.203455 0.966175 
-0.067133 -0.774945 -0.133819 -0.417180 0.380943 -0.819943 
0.171075 0.562992 -0.082290 0.386804 0.762053 -0.513091 
-0.084937 -0.520426 0.072803 -0.029121 -0.239480 0.951627 
-0.078771 -0.115506 0.117973 -0.355046 0.004579 0.934000 
-0.086921 0.083739 0.090656 -0.506666 0.352455 0.765323 
-0.311946 0.337051 -0.003159 -0.427966 0.476221 0.765402 
-0.122456 0.023173 0.075930 -0.837436 0.195606 0.508941 
0.255141 0.446814 -0.006428 0.400879 -0.182950 0.896844 
-0.031876 0.173385 0.116660 -0.604290 0.141160 0.783344 
-0.035917 0.395904 -0.129197 -0.078877 -0.023951 -0.996015 
0.207022 0.022828 0.012936 0.999509 0.029260 0.005895 
-0.119317 -0.760727 -0.070391 -0.935365 -0.078989 -0.340950 
-0.122712 -0.253349 0.083038 -0.898584 -0.054289 0.433491 
-0.067241 -0.746856 -0.125455 -0.196048 0.123791 -0.965187 
0.177352 -0.668389 0.018509 0.498368 -0.156465 0.850363 
-0.500932 0.146076 0.064460 -0.546839 0.758223 0.340951 
0.191328 0.483718 0.027572 0.358898 0.265648 0.894139 
0.195617 0.436192 -0.132112 0.196679 -0.252406 -0.946088 
0.051881 -0.253432 0.055023 -0.808319 -0.083147 0.582016 
-0.023082 0.537705 -0.115643 -0.123701 0.321948 -0.938173 
0.068499 -0.476258 0.008370 -0.524231 0.083681 0.846721 
-0.130624 0.030614 0.059130 -0.863685 0.167609 0.473452 
-0.101618 -0.859150 0.115931 -0.767915 -0.553283 0.302980 
-0.216091 0.472802 -0.053223 -0.604108 0.571641 -0.554035 
0.122814 0.017855 0.121096 0.302987 0.243645 0.920242 
0.036991 -0.046454 0.128842 -0.155895 -0.406097 0.888968 
0.138015 -0.868655 0.132379 0.046696 -0.995539 0.074751 
-0.094490 -0.587707 0.056384 -0.405936 -0.106271 0.903844 
-0.003857 0.460908 0.089847 -0.014768 0.327634 0.944415 
0.050146 -0.154555 0.066386 -0.804962 0.008093 0.575218 
-0.008174 -0.203268 -0.076687 0.608280 0.035984 -0.792725 
-0.116348 0.413221 -0.104819 -0.559147 -0.322549 -0.762453 
0.004186 -0.193799 -0.065460 0.725110 0.038718 -0.687100 
0.026547 -0.320615 0.036959 0.983402 -0.060609 0.167095 
-0.060317 0.505943 -0.121328 -0.133677 0.292200 -0.946782 
-0.128849 0.069773 -0.024041 -0.979073 0.166265 -0.113644 
0.207208 -0.173941 0.013092 0.997408 -0.009850 0.069251 
0.023667 -0.659767 -0.054567 0.831548 0.169868 -0.518602 
-0.116288 0.055280 -0.065643 -0.822015 0.125389 -0.541998 
-0.542516 0.090119 0.082699 -0.674308 0.569601 0.407507 
0.119806 -0.134564 -0.116100 0.230470 -0.303029 -0.922467 
0.085026 0.678575 -0.019941 0.890284 -0.365480 -0.264638 
-0.118556 -0.699224 -0.016825 -0.885508 -0.397933 0.180060 
-0.101713 -0.740117 -0.099396 -0.817592 0.118864 -0.562686 
-0.096302 -0.482012 0.073889 -0.613346 -0.251070 0.743987 
-0.044502 -0.863298 0.022139 0.076810 -0.995403 -0.046388 
0.132953 -0.579444 0.040982 -0.140079 -0.189480 0.971350 
-0.093093 0.326946 -0.098514 -0.645398 -0.115158 -0.754939 
0.152403 0.570312 -0.024450 0.333386 0.762516 0.553252 
-0.024135 -0.276337 0.100213 0.357562 -0.275493 0.891176 
0.045813 0.132882 0.131109 0.100464 0.037407 0.994226 
-0.128215 0.171381 -0.004443 -0.993477 -0.000632 -0.097700 
0.176252 -0.739692 0.000412 0.223015 0.744111 0.624943 
-0.116911 -0.217897 -0.037368 -0.859135 -0.071189 -0.505876 
0.171298 -0.116587 -0.088157 0.757562 -0.139904 -0.637517 
0.151816 -0.083753 -0.113292 0.677637 -0.167104 -0.701745 
0.162986 -0.131349 0.101148 0.530354 -0.122389 0.837885 
0.009998 -0.539490 -0.054725 0.867130 0.039813 -0.496394 
-0.037307 0.531522 0.050319 -0.185351 0.545378 0.817015 
0.168893 -0.309813 -0.062798 0.700793 -0.024912 -0.712587 
0.054402 -0.450196 -0.057554 -0.767729 0.048724 -0.638506 
0.007960 0.777924 0.080929 -0.359251 -0.236688 0.870178 
-0.126070 -0.264685 0.072446 -0.931490 -0.122946 0.341273 
0.187461 -0.769109 -0.020049 0.950434 -0.300702 -0.030083 
-0.022764 0.048610 -0.142884 -0.175706 0.233810 -0.955723 
-0.018110 0.686777 -0.024169 -0.902414 -0.342374 -0.231324 
0.242075 0.431434 -0.136427 -0.194554 0.024985 -0.979681 
0.177545 0.297276 0.030242 0.944217 0.032630 0.326266 
-0.007391 0.634287 -0.044168 -0.768986 0.312286 -0.552695 
0.098981 -0.755883 -0.086250 -0.753581 0.006307 -0.653763 
0.205679 -0.371047 -0.013262 0.997707 0.015238 -0.048922 
0.549789 0.122802 0.040227 -0.832436 -0.326476 0.431442 
-0.090535 -0.316541 0.105541 -0.113116 -0.048028 0.990749 
0.155967 -0.167840 -0.091309 0.619083 -0.053952 -0.783180 
0.198496 0.551397 -0.016178 0.315910 0.788426 0.525948 
0.139996 -0.243992 -0.090788 0.494537 -0.129743 -0.859135 
0.037418 0.771793 -0.120883 0.088678 0.014291 -0.994458 
0.124319 -0.760289 0.023292 -0.059699 0.376232 0.912111 
0.098158 0.784637 -0.069847 0.946054 0.038622 -0.320718 
0.135895 0.015960 0.116606 0.416280 0.202515 0.885968 
-0.127194 -0.744878 -0.040985 -0.992800 -0.082026 0.050380 
-0.127410 -0.676480 -0.043539 -0.990437 -0.031660 0.122186 
0.012394 0.798211 -0.115163 -0.205767 0.225027 -0.951437 
0.071664 -0.783589 0.027677 -0.433330 -0.172252 0.830191 
0.061894 0.258997 -0.134215 -0.353261 -0.093308 -0.930305 
0.056524 -0.700799 -0.025549 -0.885857 -0.214233 -0.408487 
0.197323 0.374511 -0.077379 0.956179 -0.213232 -0.197944 
0.107808 0.252660 -0.134842 0.370396 -0.133328 -0.914353 
0.017743 -0.741685 -0.071098 0.917023 -0.035690 -0.391778 
-0.476578 0.119906 0.025869 0.695902 -0.713759 0.053505 
0.190368 -0.051702 -0.067864 0.880650 -0.056197 -0.469091 
-0.051698 0.588783 -0.058567 -0.385499 0.885427 -0.218555 
0.104406 -0.715714 -0.092524 -0.455749 0.087908 -0.880519 
0.207755 -0.154373 -0.015327 0.989431 -0.120506 -0.032386 
-0.018238 -0.480436 0.055837 0.525760 -0.266676 0.804361 
-0.056469 -0.210765 0.118602 -0.081118 -0.172444 0.979520 
-0.104624 0.241850 -0.068175 -0.808435 -0.308334 -0.499489 
-0.242252 0.313222 -0.065246 0.702906 -0.563332 -0.432721 
0.069105 -0.398311 -0.073699 -0.712725 -0.035639 -0.700062 
0.154424 0.214757 -0.077367 0.787413 -0.058972 -0.612335 
0.005408 -0.141861 -0.064471 0.799651 -0.126778 -0.586478 
-0.159311 0.509780 0.046914 -0.261101 0.435868 0.860965 
-0.002288 -0.455452 0.048454 0.751130 -0.161765 0.639786 
0.077243 -0.196762 0.087031 -0.489261 -0.074473 0.867768 
0.024672 0.730239 0.100813 -0.535704 -0.073378 0.798419 
-0.118185 -0.776297 -0.070500 -0.962711 -0.046788 -0.264011 
0.016209 0.670572 0.088066 -0.607540 -0.145871 0.752468 
-0.342060 0.265310 -0.086184 0.001636 -0.373704 -0.926919 
-0.049320 -0.319452 -0.089616 -0.002119 -0.059830 -0.995724 
0.128400 -0.604302 -0.100389 -0.030319 -0.153115 -0.982387 
0.206775 0.032186 0.000683 0.999376 0.026117 -0.020836 
0.134065 -0.513272 -0.107930 0.149785 0.003368 -0.987307 
0.059470 0.590642 0.018863 0.449230 0.005821 0.890537 
0.049515 -0.608875 -0.019016 -0.919573 -0.017526 0.378173 
-0.124089 -0.759086 -0.042597 -0.940627 -0.332422 0.014551 
0.239836 0.378122 -0.051514 -0.593687 -0.713152 0.371914 
-0.043611 0.244207 -0.124059 -0.534329 -0.115707 -0.837124 
-0.204067 0.381259 -0.095143 0.113670 -0.234024 -0.964559 
0.483076 0.194263 0.012175 0.048559 0.302898 0.875342 
-0.059718 -0.175951 -0.095405 -0.150607 -0.123919 -0.974277 
-0.134399 -0.179392 -0.013280 -0.920649 -0.161570 -0.348240 
0.170575 0.430704 0.050825 0.536156 0.103077 0.835804 
-0.031404 -0.862153 -0.106456 0.275178 -0.959629 -0.031568 
-0.189849 0.518848 -0.029944 -0.703446 0.689965 -0.164521 
0.032444 -0.194997 0.028987 0.523265 -0.168993 0.711898 
-0.128062 0.382660 -0.045340 -0.995874 -0.088787 -0.001565 
-0.234182 0.446788 -0.062414 -0.632422 0.600719 -0.488971 
0.059487 -0.769259 -0.009535 -0.997382 0.026650 -0.060308 
0.164460 -0.732389 -0.068621 0.808552 -0.118031 -0.575679 
-0.336798 0.324340 -0.011582 -0.582762 0.617032 0.519693 
-0.382293 0.192040 -0.016372 0.460874 -0.887085 0.017600 
0.123021 -0.660104 0.032835 0.082877 -0.139832 0.986351 
-0.073420 0.343621 -0.113984 -0.493786 -0.073994 -0.866325 
-0.107591 -0.855707 0.015001 -0.707965 -0.700766 -0.083158 
0.066280 -0.283421 0.066010 -0.710698 -0.148427 0.687587 
0.434725 0.203787 -0.078382 -0.521600 -0.849045 0.071289 
0.153428 -0.017823 0.105685 0.568119 0.093127 0.815994 
0.256832 0.361161 -0.106003 -0.573325 -0.766755 -0.276554 
-0.328529 0.339446 -0.045449 -0.680371 0.731816 -0.030244 
-0.034631 -0.699968 0.020787 -0.468331 0.122615 0.872520 
0.191254 -0.514360 0.027545 0.920532 -0.041670 0.386286 
0.305746 0.397008 -0.144679 0.079698 0.096310 -0.989375 
-0.112810 0.244834 -0.036213 -0.985905 0.144985 -0.042766 
-0.082622 0.403855 0.083009 -0.634916 0.009832 0.771823 
-0.052645 0.524801 0.051325 -0.160679 0.575065 0.801988 
0.176646 -0.407600 0.067446 0.539643 -0.067463 0.819182 
0.169888 -0.076804 -0.096770 0.759413 -0.090017 -0.644244 
0.047218 0.394791 0.101914 0.118103 0.319240 0.939480 
0.084836 0.842450 -0.011831 0.819603 0.566452 0.032510 
-0.115338 -0.029751 -0.078389 -0.834585 -0.058643 -0.547692 
0.294517 0.332275 -0.113201 -0.612361 -0.661170 -0.421748 
0.083080 -0.751535 -0.062492 -0.890710 0.071161 -0.446978 
-0.041930 0.040190 0.126400 -0.408852 0.184643 0.887484 
-0.064374 -0.166732 0.120456 -0.203216 -0.051546 0.975933 
0.044979 -0.548976 -0.020687 -0.962162 -0.017913 0.223099 
0.324286 0.443395 -0.091622 0.712760 0.680822 -0.153461 
-0.017695 -0.404369 0.075680 0.478901 -0.190102 0.856305 
0.519872 0.164223 0.021632 -0.298336 0.101120 0.946500 
0.289385 0.333173 -0.065678 -0.594732 -0.767315 0.229436 
0.138794 0.365585 -0.129480 0.589559 -0.195350 -0.783179 
-0.219074 0.381137 -0.096125 0.052032 -0.043796 -0.996599 
0.060384 0.298610 0.118864 0.276804 0.157784 0.946167 
0.012234 0.640944 0.028624 -0.603001 -0.303573 0.735684 
-0.030824 0.779755 -0.081059 -0.857997 -0.021461 -0.512559 
0.129102 -0.869833 0.054145 0.006740 -0.999762 -0.019680 
0.040138 -0.085654 -0.110047 -0.515033 -0.509356 -0.688203 
0.188458 -0.438900 0.048062 0.913474 -0.096472 0.393350 
0.180825 0.366030 0.033634 0.860813 -0.154316 0.482973 
-0.088811 -0.740957 -0.114261 -0.677308 0.074952 -0.731088 
-0.522658 0.119843 0.037195 -0.798274 0.599101 -0.059618 
0.199925 -0.447286 -0.017135 0.999836 -0.007714 0.004697 
-0.066500 0.519423 0.052383 -0.158897 0.563450 0.810567 
0.024860 0.631478 0.031832 -0.286538 -0.437774 0.847909 
-0.127798 0.167680 0.016205 -0.984476 -0.055581 0.152185 
-0.128131 -0.391650 -0.027051 -0.946655 0.071202 -0.306538 
0.124533 -0.830152 0.165602 0.046939 0.900008 0.419802 
0.028018 0.701560 -0.086664 -0.081406 -0.629337 -0.769017 
0.113281 0.375629 -0.143553 0.265765 -0.069571 -0.959139 
-0.082486 -0.160096 0.116622 -0.324482 -0.045672 0.943970 
-0.137010 -0.027024 -0.027452 -0.985059 0.073662 -0.151145 
-0.095548 0.191443 -0.064225 -0.758756 0.115236 -0.640580 
-0.126791 -0.698584 -0.039905 -0.970502 0.028579 0.234250 
-0.053649 0.473043 0.077918 -0.240412 0.440115 0.863662 
0.068246 -0.414282 -0.072181 -0.723914 -0.014602 -0.689400 
-0.126487 -0.720155 -0.059879 -0.974303 -0.031438 -0.213475 
0.199913 0.489078 -0.132133 0.147043 0.236309 -0.959645 
-0.012924 -0.528327 0.037858 0.431377 -0.165501 0.874295 
0.000876 -0.014614 0.136978 0.001319 -0.615136 0.774372 
-0.139600 0.490370 -0.096637 -0.417728 0.213721 -0.882748 
0.320950 0.447191 -0.072185 0.756658 0.632250 0.141448 
-0.062989 0.565825 0.007333 -0.100839 0.814150 0.571742 
0.038263 -0.265906 0.009077 -0.160108 -0.067205 0.902634 
0.107946 -0.719738 0.028171 0.537645 -0.109825 0.835371 
0.125697 -0.687948 0.028971 0.185878 -0.169987 0.967290 
0.168805 -0.349232 -0.063491 0.670582 0.083396 -0.736308 
0.079434 0.371879 0.100979 0.307869 0.201726 0.928941 
0.383819 0.345843 -0.102229 0.710652 0.692307 -0.115624 
-0.423613 0.165351 -0.030703 0.578096 -0.787017 -0.213008 
-0.064401 -0.191010 -0.092397 -0.313097 -0.108057 -0.942459 
-0.112494 0.297784 0.011673 -0.985407 -0.076630 0.148168 
-0.108363 -0.037986 -0.087978 -0.823570 -0.120110 -0.553768 
0.326518 0.428189 -0.058733 0.766911 0.429818 0.470089 
0.186859 0.533051 0.007315 0.264008 0.606931 0.749477 
-0.126584 -0.340700 -0.021186 -0.978385 0.043085 -0.193445 
0.358378 0.369602 -0.085655 0.708061 0.673429 0.211258 
0.175315 -0.063817 -0.090963 0.819243 -0.072094 -0.568874 
-0.125916 -0.391152 0.047979 -0.956376 0.156866 0.245740 
0.197046 -0.472472 0.008463 0.968764 -0.007559 0.245373 
0.060711 -0.264449 0.063637 -0.735273 -0.105160 0.669495 
-0.063115 -0.012117 -0.129679 -0.258597 -0.087421 -0.960775 
-0.031212 -0.861258 -0.089563 0.352173 -0.925474 0.125905 
0.174844 -0.049462 0.089506 0.688668 0.019750 0.724789 
-0.358853 0.302771 -0.010463 -0.449080 0.696007 0.556842 
0.195902 -0.409618 -0.046256 0.916645 -0.022352 -0.397005 
0.084533 -0.088578 0.101770 -0.315278 -0.426211 0.840893 
0.128389 -0.826356 0.147384 0.145832 0.979352 0.107567 
0.050968 -0.475319 -0.054437 -0.831328 0.012313 -0.555384 
0.169209 -0.617403 -0.082409 0.604986 -0.147850 -0.781635 
-0.111178 0.268114 0.016857 -0.989792 0.048026 0.128905 
0.114546 -0.003658 0.124937 0.342449 -0.491397 0.798495 
-0.143544 -0.117006 0.031541 -0.991983 -0.004632 0.123519 
-0.413334 0.171983 -0.023704 0.624237 -0.777080 -0.069817 
-0.440105 0.220883 -0.001286 -0.672999 0.659121 0.329132 
-0.076620 -0.492816 -0.095835 -0.267134 0.096253 -0.957495 
0.158864 0.432147 0.060748 0.752307 0.079931 0.653752 
0.117362 0.103711 -0.126799 0.523714 0.328356 -0.782562 
0.185012 -0.291251 -0.048175 0.761642 -0.158594 -0.627380 
0.018001 -0.154933 -0.042613 0.916977 -0.036050 -0.391579 
-0.086881 -0.349803 -0.075171 -0.580892 0.021657 -0.796237 
0.230250 0.543626 -0.036717 0.602680 0.758602 0.242967 
-0.120009 0.320228 -0.046371 -0.997398 -0.058556 -0.041163 
0.105214 0.286316 -0.137917 0.257967 -0.037361 -0.962882 
-0.069412 0.023070 0.119725 -0.340791 0.315768 0.884434 
-0.017202 -0.832050 -0.112710 0.423540 -0.897017 -0.090901 
-0.079569 -0.863017 0.129422 -0.049376 -0.996140 0.065877 
-0.083443 0.418514 0.081311 -0.603785 0.093273 0.791039 
-0.063618 -0.861329 -0.040769 0.036111 -0.999066 -0.014915 
0.205674 -0.227897 0.014114 0.997470 -0.049092 0.050604 
0.165489 -0.025938 -0.111573 0.782062 -0.029438 -0.620593 
-0.031762 0.220280 -0.123308 -0.295652 -0.275113 -0.914291 
-0.011474 0.728525 -0.087479 -0.678477 -0.486796 -0.546454 
-0.138072 0.001562 0.007705 -0.989623 -0.124695 -0.026666 
-0.114078 0.289705 -0.039281 -0.974127 -0.221820 -0.025517 
0.598615 0.074097 0.070530 -0.765470 -0.536594 0.307152 
0.550648 0.109867 0.024444 -0.948588 -0.282075 0.138517 
0.065865 0.751175 -0.106845 0.496976 -0.255343 -0.828120 
0.090067 -0.024471 -0.152518 0.038121 -0.262563 -0.962856 
0.034387 -0.305306 -0.016074 -0.993382 -0.074772 -0.083731 
0.091034 -0.119793 0.097953 -0.550080 -0.098641 0.828538 
-0.283277 0.394674 -0.071194 -0.672938 0.438306 -0.531025 
0.075427 -0.230432 0.081093 -0.483773 -0.114485 0.865158 
-0.135865 -0.470919 -0.033229 -0.950662 0.048486 -0.298777 
-0.078659 -0.830517 0.127561 -0.297880 0.935325 0.183366 
-0.325743 0.247046 0.004986 0.243725 -0.213152 0.942101 
0.233028 0.456771 0.009332 0.700117 0.041698 0.710385 
0.119240 -0.490021 0.047931 -0.597127 -0.127461 0.790913 
0.138526 0.296872 -0.116055 0.761890 -0.068408 -0.644058 
-0.089801 0.393722 0.076783 -0.609921 -0.061254 0.789799 
-0.326586 0.226874 -0.018169 0.676500 -0.722718 0.122286 
-0.016012 -0.044206 -0.129497 -0.040171 -0.446807 -0.891999 
0.039158 0.114096 -0.135298 -0.095949 0.401185 -0.910679 
0.183038 0.216168 0.002235 0.999645 0.025172 0.007945 
-0.070470 -0.816722 -0.137309 -0.635537 -0.028764 -0.768304 
0.118915 -0.845216 0.179209 -0.395233 0.247951 0.869566 
0.145352 0.487186 -0.139495 0.197082 0.289269 -0.936321 
0.102836 0.794637 -0.052554 0.931774 0.225355 -0.249225 
-0.003094 -0.126838 -0.080110 0.753888 -0.216392 -0.619113 
-0.120885 0.371901 -0.079376 -0.919706 -0.205846 -0.327900 
0.603854 0.102516 0.025585 0.866588 0.484131 -0.090119 
0.147337 0.364919 0.073082 0.653335 -0.051675 0.755042 
0.019924 -0.687120 -0.018892 0.876280 -0.177703 0.447524 
0.210079 -0.073982 -0.017219 0.939151 0.114824 -0.321918 
0.138922 -0.389209 -0.093661 0.519754 0.141833 -0.842265 
0.068668 -0.126132 -0.105780 -0.503976 -0.213964 -0.836567 
0.018542 -0.010930 0.140469 0.036217 -0.792703 0.607297 
0.009723 0.449142 0.093928 0.084537 0.347150 0.933232 
0.002197 0.856161 -0.049865 -0.390676 0.856474 -0.335465 
0.316737 0.444239 -0.104217 0.579696 0.675113 -0.453925 
-0.108509 0.290480 0.028844 -0.973432 -0.028704 0.223463 
-0.143776 -0.100655 0.027989 -0.994676 0.012835 0.096593 
0.208266 -0.094560 0.042760 0.936841 -0.015808 0.349322 
-0.064995 -0.420772 -0.084481 -0.241534 0.276674 -0.927526 
0.181817 0.313684 0.017633 0.918425 -0.042177 0.391401 
-0.455277 0.149282 -0.025937 0.359520 -0.817552 -0.439404 
-0.132201 -0.511187 -0.046906 -0.862730 0.065866 -0.500231 
0.053716 0.102984 0.134335 0.193841 0.003963 0.972050 
0.198436 -0.618965 -0.008317 0.992849 -0.057030 0.102533 
-0.018424 -0.185918 -0.084054 0.581675 -0.009587 -0.813245 
-0.050314 0.183582 -0.100511 -0.511191 -0.234930 -0.825787 
-0.046787 -0.332154 0.098413 0.232791 -0.096782 0.967583 
-0.065313 -0.664346 0.029119 0.289803 -0.254541 0.922281 
0.044249 0.352450 0.112555 0.117063 0.179809 0.975142 
-0.114255 -0.327316 0.090626 -0.794111 -0.068879 0.598304 
0.153725 -0.591466 0.040017 0.098516 -0.168622 0.978720 
0.211461 0.414131 -0.045928 -0.695947 -0.682284 0.102086 
0.089051 -0.839093 0.079691 -0.930656 0.358695 0.047203 
0.037397 -0.106021 0.095810 0.461963 -0.585304 0.663521 
0.248968 0.379417 -0.037377 -0.489322 -0.697176 0.517923 
0.008422 -0.385821 -0.045973 0.686949 0.083856 -0.720225 
0.105172 0.786541 -0.035989 0.999133 0.028199 -0.023048 
-0.050713 -0.591231 -0.102018 0.267662 -0.004207 -0.961623 
-0.110931 0.281652 0.015581 -0.987088 -0.022674 0.158173 
0.190593 0.171287 0.013682 0.979073 0.173461 0.088251 
0.028128 0.783961 -0.120386 -0.049936 0.086107 -0.994119 
0.017935 -0.777262 -0.066716 0.990678 -0.060782 -0.080267 
0.027121 0.802491 -0.116243 -0.081243 0.307167 -0.946531 
-0.472877 0.163669 -0.037880 -0.564712 0.497757 -0.657545 
0.019416 -0.640471 -0.053795 0.695878 0.158072 -0.698099 
0.109156 0.034197 0.120388 0.423365 0.279936 0.860845 
-0.083660 0.249516 0.078150 -0.649398 0.046976 0.758976 
-0.006528 0.855738 0.014546 -0.521115 0.833079 0.179386 
0.153931 -0.864329 -0.071260 0.588017 -0.807250 -0.047855 
0.059834 0.510731 -0.128595 -0.138292 0.091869 -0.985903 
0.043533 0.774509 0.085999 0.499760 -0.154109 0.839505 
0.635154 0.042236 0.002690 -0.573816 -0.278196 -0.678770 
0.008806 -0.118899 0.110974 0.628930 -0.218007 0.743686 
0.074083 -0.766469 -0.051286 -0.857509 0.219755 -0.465056 
0.050374 0.091327 -0.144288 -0.103181 0.236956 -0.965545 
0.085721 -0.852871 -0.069210 -0.978162 0.020990 -0.094265 
0.096417 -0.608056 -0.087559 -0.577032 -0.083196 -0.810877 
0.205664 0.023019 0.038608 0.984309 0.055213 0.165635 
0.491316 0.195862 -0.060068 -0.062085 -0.446924 -0.890850 
-0.202848 0.442028 -0.086456 -0.317909 0.394144 -0.861676 
-0.491793 0.101084 0.065679 0.833919 -0.360502 0.351096 
0.090723 -0.653865 0.029195 -0.435765 0.250895 0.855993 
0.107600 0.244632 0.105668 0.380762 0.069847 0.921634 
-0.138048 -0.014666 0.027452 -0.994539 0.044496 0.091974 
-0.241421 0.392208 0.022188 -0.312519 -0.098010 0.942397 
0.173747 0.300826 -0.061487 0.889239 -0.242192 -0.385507 
0.042903 -0.234347 0.032388 -0.993180 -0.028046 0.111364 
0.150104 -0.118982 0.108307 0.359084 -0.074093 0.929428 
-0.097007 -0.855481 -0.068082 -0.865870 -0.387573 0.059281 
-0.077905 -0.193219 0.114499 -0.243601 -0.054690 0.968126 
-0.151345 0.465963 0.058205 -0.273937 -0.068801 0.957190 
0.460949 0.217392 -0.011657 -0.382120 0.184970 0.903154 
0.052650 -0.070454 0.116342 0.064691 -0.544220 0.834499 
-0.106733 0.078032 -0.076690 -0.826790 0.163590 -0.537585 
0.022139 0.727519 -0.105738 -0.143800 -0.535500 -0.830700 
-0.013322 0.788867 0.058612 -0.868931 0.174421 0.458357 
0.202555 0.536810 -0.001557 0.259037 0.657573 0.707039 
-0.038154 0.316045 -0.128405 -0.194311 0.031455 -0.979940 
0.075422 0.775709 0.067691 0.720752 -0.190477 0.651705 
-0.109518 0.305167 0.025247 -0.951524 0.010145 0.307221 
-0.028418 -0.570028 0.036157 0.409524 -0.235210 0.881389 
0.043720 -0.424711 -0.019261 -0.992154 -0.021934 0.100802 
0.062081 -0.031554 -0.145960 -0.250085 -0.392685 -0.885012 
-0.119669 -0.338104 0.078233 -0.958311 -0.021010 0.282233 
0.125652 -0.823781 0.105969 0.057516 0.990708 0.112084 
0.111562 -0.036281 0.122882 0.348202 -0.101042 0.931263 
0.170016 0.045405 0.091284 0.639626 0.224236 0.733473 
-0.376576 0.245407 -0.080484 -0.125507 -0.278934 -0.950955 
0.076515 -0.453988 -0.081484 -0.705149 0.033371 -0.708239 
-0.016680 0.463015 -0.129731 0.108304 0.050022 -0.992803 
0.059801 -0.403882 -0.063157 -0.748464 -0.027029 -0.662611 
-0.104901 -0.128771 0.106900 -0.698485 0.060683 0.712984 
-0.008558 -0.434452 -0.066636 0.731538 0.046293 -0.680027 
0.105646 -0.129833 -0.118061 -0.062236 -0.215696 -0.972212 
-0.127771 -0.080630 -0.049438 -0.835430 -0.089306 -0.538661 
0.020001 0.863351 0.022427 -0.064021 0.995672 0.064968 
-0.015263 0.001047 -0.140772 -0.232765 -0.166981 -0.957926 
-0.019201 -0.801352 0.031793 0.917825 0.277361 0.283347 
0.208980 0.524294 0.006395 0.294619 0.558285 0.774924 
-0.060712 -0.863150 0.001292 0.014691 -0.999042 -0.038258 
-0.008492 -0.274808 0.094001 0.420897 -0.212567 0.881692 
0.238116 0.383422 -0.116991 -0.717552 -0.501104 -0.482730 
-0.112749 -0.358423 0.087460 -0.781684 -0.075877 0.618691 
0.148942 -0.845154 0.176967 0.551400 0.472339 0.658390 
0.558251 0.094044 0.024477 -0.772210 -0.628082 0.083162 
-0.238801 0.451595 -0.012702 -0.819637 0.542453 0.167779 
-0.204346 0.489112 0.020799 -0.722274 0.482764 0.488623 
0.190195 -0.490260 -0.067296 0.841264 0.006608 -0.540314 
0.007891 -0.781244 -0.025793 0.839843 -0.188284 0.508745 
0.175472 -0.403440 -0.071024 0.656929 0.077377 -0.749269 
0.162882 -0.849175 -0.013522 0.909953 -0.390243 -0.104852 
0.101808 -0.109429 0.106252 -0.546046 -0.104768 0.831070 
-0.430461 0.159104 0.003466 0.507568 -0.859541 0.049598 
-0.063781 0.134050 0.100847 -0.546732 0.072438 0.832321 
-0.112780 0.306559 -0.068003 -0.936593 -0.120293 -0.325112 
0.089422 0.752670 0.050037 0.882227 0.039511 0.458957 
-0.063906 -0.225062 -0.091028 -0.205691 0.004039 -0.976380 
0.129925 -0.500328 0.053458 -0.546529 -0.131621 0.826826 
0.081923 0.680579 -0.035434 0.951069 -0.165900 -0.249488 
0.349912 0.325718 -0.043417 0.207886 0.118763 0.957166 
0.114682 -0.746468 -0.097761 -0.342385 -0.043048 -0.932186 
0.144825 0.188034 -0.088167 0.683081 0.062169 -0.727411 
-0.098309 -0.836688 0.096930 -0.711023 0.694487 0.109664 
0.044728 -0.441565 -0.014903 -0.959462 -0.047429 0.258763 
0.196635 -0.662668 -0.041241 0.931232 -0.182154 -0.306439 
-0.064094 -0.439030 -0.089687 -0.136990 0.260014 -0.954961 
-0.055825 0.351854 0.099115 -0.497407 -0.052710 0.862581 
0.032028 -0.243808 0.022346 0.921417 -0.045282 0.383644 
0.195970 -0.336006 -0.032626 0.825755 0.123449 -0.547424 
0.464733 0.232646 -0.014823 -0.221555 0.396998 0.885464 
-0.124071 -0.510010 0.018692 -0.819195 -0.151153 0.552878 
0.117194 0.067875 -0.137132 0.497214 0.211205 -0.841512 
-0.061963 0.357062 -0.120423 -0.369771 -0.046532 -0.927875 
0.017661 -0.639164 0.004360 0.822952 -0.076371 0.558673 
0.232260 0.381146 -0.078573 -0.713650 -0.700441 0.000563 
-0.019146 0.366432 0.106814 -0.076023 0.010300 0.995562 
-0.100235 -0.240607 0.107476 -0.398877 -0.028744 0.914391 
-0.116286 0.236758 -0.001088 -0.881522 0.459214 0.040029 
-0.085189 -0.817751 0.056664 -0.494907 0.814267 0.294278 
0.044271 -0.310757 -0.046525 -0.863110 -0.008523 -0.504866 
-0.120217 -0.499790 0.028186 -0.809274 -0.239152 0.536529 
0.197246 -0.487009 -0.055224 0.930876 0.019656 -0.358670 
0.023329 0.214862 -0.124288 0.111117 -0.194116 -0.966462 
0.149287 -0.863236 -0.021069 0.420994 -0.898463 0.084869 
0.132823 -0.012407 -0.142299 0.495449 0.049360 -0.866400 
-0.125113 -0.302011 0.061290 -0.964504 -0.182813 0.189268 
0.095163 -0.641256 0.026690 -0.564127 0.317022 0.760891 
0.199461 -0.206342 -0.050734 0.817830 -0.040038 -0.572222 
-0.132166 -0.256709 0.053180 -0.948364 -0.200692 0.243528 
-0.058181 -0.632060 -0.105364 0.165646 0.060744 -0.982484 
0.080978 -0.714461 0.036407 -0.066458 -0.002395 0.996115 
-0.141913 -0.073282 -0.014690 -0.964847 0.015225 -0.258543 
-0.102857 -0.303046 0.103567 -0.470002 -0.061504 0.869371 
0.208452 0.511944 0.012941 0.280771 0.372248 0.883459 
-0.051746 -0.537093 0.054193 0.413999 -0.190299 0.890061 
0.016356 0.271476 -0.127770 0.130650 -0.047962 -0.989885 
0.135835 -0.403539 -0.097366 0.433313 0.082430 -0.894687 
-0.128836 -0.278576 -0.005190 -0.989673 -0.059192 -0.124517 
0.186917 -0.020972 0.075722 0.759397 0.090578 0.643322 
-0.495745 0.148011 -0.023750 -0.846866 0.236354 -0.453510 
-0.110664 0.051440 0.090271 -0.632929 0.216083 0.736424 
0.198082 -0.179049 0.052642 0.966688 -0.057238 0.249379 
-0.311904 0.347568 -0.013987 -0.571809 0.678349 0.453975 
0.198994 -0.585355 -0.047909 0.978775 -0.016218 -0.195441 
-0.074653 -0.590315 0.051894 0.459726 -0.220936 0.859246 
0.044342 -0.332990 0.026497 -0.961017 -0.069826 0.240836 
-0.141476 -0.111055 -0.014844 -0.943750 -0.057039 -0.322711 
0.048526 0.219158 0.128189 0.071520 0.051945 0.995466 
0.205070 -0.226412 -0.033294 0.985425 -0.083588 -0.139157 
0.005339 -0.760956 -0.091825 0.782848 0.134758 -0.606727 
0.024740 -0.393233 -0.010773 0.971457 -0.099127 -0.189909 
0.081923 0.099599 -0.141824 0.142716 0.416762 -0.895911 
0.150431 0.199364 -0.081817 0.746678 0.017643 -0.664529 
0.178730 0.282953 0.026804 0.938673 -0.013092 0.344456 
-0.014257 -0.619738 -0.081236 0.677283 0.011714 -0.735609 
0.156352 -0.622390 -0.089254 0.476007 -0.154402 -0.865570 
-0.028884 0.144232 -0.108220 -0.215282 0.447286 -0.862822 
0.630209 0.033779 0.071451 -0.913043 -0.382042 -0.008606 
-0.559916 0.066623 0.037020 -0.834506 0.535157 -0.010150 
-0.057322 -0.607482 0.038934 0.536234 -0.220724 0.790152 
0.122904 -0.865561 0.151507 -0.066575 -0.985550 0.155205 
-0.084281 0.519806 0.049497 -0.078629 0.500781 0.861133 
-0.045400 -0.646407 -0.102548 0.384819 0.067157 -0.920001 
0.150530 -0.819927 0.059736 0.662176 0.705789 0.245361 
-0.028264 -0.749421 0.000537 0.515603 -0.419116 0.735343 
-0.126180 -0.414704 0.052794 -0.923094 -0.050081 0.378512 
0.149382 0.142112 -0.088551 0.739667 0.123455 -0.661024 
-0.391414 0.274757 -0.072413 -0.670263 0.512578 -0.522296 
0.203782 -0.282142 -0.019046 0.954845 -0.052687 -0.278088 
0.116031 0.147345 0.106029 0.533520 0.032947 0.844290 
-0.139713 -0.168075 -0.001380 -0.938404 -0.184172 -0.289298 
-0.104458 -0.445238 0.077796 -0.754645 -0.095085 0.649116 
-0.138762 0.004629 0.035260 -0.977933 -0.189100 0.084757 
0.425871 0.250608 -0.120648 0.349592 -0.312413 -0.880377 
0.009031 0.215378 -0.126609 0.085631 -0.155183 -0.981510 
-0.397105 0.183509 0.008616 0.615059 -0.735969 0.268287 
-0.098113 -0.816147 -0.102231 -0.806717 -0.348081 -0.473453 
0.056082 -0.714719 0.025360 -0.899631 0.093736 0.407000 
0.204564 0.511370 -0.123042 0.185770 0.528910 -0.826800 
-0.334849 0.332641 -0.028001 -0.675987 0.728088 0.106350 
-0.063487 -0.146049 -0.099345 -0.223104 -0.156614 -0.960205 
0.045456 -0.300921 0.035472 -0.960766 -0.045249 0.266391 
0.164233 0.432818 -0.136956 0.182728 -0.202311 -0.961957 
0.084801 0.554073 0.024350 -0.302182 0.732759 0.593082 
-0.059267 -0.829003 -0.144154 -0.314408 -0.119691 -0.929604 
-0.019954 -0.056064 -0.123037 0.007552 -0.430150 -0.901855 
-0.098384 -0.357446 0.100535 -0.345464 -0.159585 0.911924 
-0.003462 -0.768688 -0.108665 0.803202 0.320280 -0.501224 
-0.280430 0.263147 -0.039695 0.698699 -0.709548 0.088174 
0.259427 0.482523 -0.114792 0.471699 0.543585 -0.694142 
-0.050393 0.587632 -0.030409 -0.383380 0.830196 0.340637 
0.205242 -0.212939 -0.036777 0.981402 -0.028688 -0.181186 
-0.005652 0.647915 0.007300 -0.847020 -0.208941 0.487207 
0.000487 0.788384 -0.113511 -0.366526 0.149847 -0.917574 
0.057749 -0.537784 0.000190 -0.719873 -0.013881 0.693857 
0.532526 0.162227 -0.033838 0.515116 -0.270904 -0.808762 
0.115253 0.451618 0.079048 0.273211 0.332018 0.899562 
0.024131 -0.695267 -0.030675 0.916444 -0.161301 0.361275 
-0.112760 -0.496998 0.041994 -0.848083 -0.233024 0.475368 
-0.001851 -0.528745 -0.070164 0.797249 0.047102 -0.601768 
-0.130475 -0.201671 0.072583 -0.924121 -0.060673 0.376228 
0.026850 -0.281467 0.041625 0.984987 -0.010787 0.161294 
0.093406 0.336773 0.102782 0.311303 0.128860 0.941207 
0.169202 0.242382 -0.055804 0.892408 0.022345 -0.450515 
0.108864 0.307619 -0.137893 0.349263 -0.065360 -0.934162 
0.009206 0.311926 0.119212 -0.219945 0.174587 0.958445 
-0.055335 -0.239379 -0.093129 -0.086970 0.034173 -0.994572 
0.096139 -0.231335 -0.096127 -0.343634 -0.051301 -0.936712 
-0.082508 -0.827732 0.104903 -0.249782 0.960048 0.103919 
-0.053574 0.411304 -0.127632 -0.186648 -0.076163 -0.978935 
-0.022023 0.201374 0.119588 -0.482423 0.148086 0.862920 
0.180649 -0.073915 -0.081725 0.810905 -0.045860 -0.582654 
0.084725 -0.825805 -0.062168 -0.549106 -0.831974 -0.063668 
-0.047863 0.222587 -0.116174 -0.564835 -0.291242 -0.771806 
-0.129156 -0.231842 0.071669 -0.934979 -0.074472 0.344641 
0.000075 -0.812297 -0.025958 0.953929 -0.116336 0.276098 
0.063255 0.127736 0.129168 0.149705 0.021625 0.987919 
0.375370 0.286048 -0.038749 -0.136471 -0.007142 0.985900 
-0.114252 -0.010906 -0.081770 -0.850739 -0.005180 -0.525380 
0.108558 -0.677629 -0.090800 -0.395932 0.055078 -0.915679 
0.607279 0.099015 0.046818 0.800723 0.594535 0.026097 
0.205892 -0.389093 -0.011263 0.998530 0.002323 -0.027900 
0.591218 0.121716 0.041501 0.725707 0.686233 0.037836 
0.383478 0.327719 -0.123186 0.550088 0.398458 -0.733586 
0.043685 -0.104072 -0.100155 -0.527537 -0.470632 -0.702327 
-0.117961 0.360255 0.021592 -0.938878 -0.238460 0.244163 
-0.132974 -0.188245 0.068833 -0.914095 -0.059689 0.397876 
-0.044203 -0.712239 -0.115992 0.433652 0.255389 -0.862519 
-0.122125 -0.282959 0.079858 -0.942187 -0.030316 0.326585 
-0.571572 0.030773 0.027614 -0.905974 -0.233512 0.042990 
-0.326908 0.332684 -0.073404 -0.515450 0.722167 -0.454396 
0.194917 0.098982 0.003791 0.955715 -0.132017 0.147159 
-0.488241 0.117382 0.063257 0.839958 -0.250462 0.479447 
-0.058551 0.424158 0.091625 -0.206501 0.226832 0.950467 
-0.123810 -0.580745 -0.072978 -0.779807 0.041349 -0.623979 
0.210935 -0.060836 0.033412 0.936081 0.095360 0.338206 
0.138063 -0.868151 0.025056 0.127640 -0.985579 -0.095926 
0.110716 -0.869896 0.055705 -0.006652 -0.999783 -0.018903 
-0.025696 -0.848788 -0.016082 0.683601 -0.714896 -0.108400 
-0.261543 0.283651 -0.035940 0.712929 -0.688698 0.120211 
0.180895 -0.555126 0.037029 0.639894 -0.179258 0.743113 
-0.046701 -0.863054 -0.088527 0.040907 -0.998177 0.038561 
-0.064583 -0.863707 0.114568 -0.014208 -0.999661 0.021252 
-0.518526 0.122645 0.018684 -0.856228 0.468137 -0.192946 
-0.136206 -0.112986 -0.028449 -0.926000 -0.075407 -0.369076 
0.021022 -0.747572 -0.054686 0.982047 -0.173363 -0.067988 
0.185548 -0.762790 -0.033589 0.883623 -0.016172 -0.418508 
0.084152 0.787353 0.055319 0.783827 0.316524 0.525655 
0.168084 0.465470 0.047208 0.637935 0.166375 0.751842 
0.025912 -0.505237 -0.001281 0.947437 -0.060881 0.292734 
-0.106378 -0.364364 -0.059850 -0.729927 0.057195 -0.680503 
0.178060 0.467070 -0.137117 0.143879 0.037239 -0.988560 
-0.125073 -0.459238 0.040704 -0.834243 -0.227849 0.501082 
-0.388420 0.214755 -0.068871 -0.159626 -0.369053 -0.901423 
0.020740 -0.421190 -0.011945 0.994773 0.024995 -0.090545 
0.021836 -0.511982 -0.028417 0.880209 0.007247 -0.470948 
0.001509 -0.793641 -0.021424 0.885520 -0.167798 0.428633 
0.011851 0.150897 0.130699 -0.094736 0.027364 0.994919 
0.420036 0.310763 -0.083075 0.622770 0.777101 0.049112 
0.102171 -0.148375 -0.112778 -0.041761 -0.252125 -0.966567 
0.171866 0.263921 -0.050359 0.891968 -0.029772 -0.450684 
-0.105489 -0.511742 0.047422 -0.812029 -0.135749 0.564744 
-0.076087 0.051247 -0.118770 -0.672503 0.241376 -0.699201 
0.044789 -0.399344 -0.000336 -0.954142 -0.149073 0.255266 
-0.110202 -0.499872 -0.075604 -0.713461 0.113842 -0.691178 
-0.274423 0.407342 -0.060316 -0.653658 0.726297 -0.206462 
0.152579 0.458065 0.062079 0.593901 0.226177 0.770784 
-0.170884 0.450188 -0.091420 -0.194804 0.177155 -0.964014 
-0.224326 0.326312 -0.044161 0.679645 -0.731263 -0.048275 
-0.033573 0.478706 0.079894 -0.135113 0.407791 0.901155 
-0.113521 0.314442 0.012747 -0.968881 -0.050780 0.240660 
0.051856 0.573857 -0.103625 -0.044202 0.551125 -0.832096 
0.180848 0.215094 0.032783 0.975673 0.082495 0.202390 
-0.107141 -0.680841 0.022750 -0.669454 -0.318728 0.670613 
0.062090 -0.552163 0.004717 -0.688706 0.014779 0.724715 
-0.132946 0.060249 -0.014745 -0.939065 0.281492 -0.182480 
0.410247 0.314332 -0.109677 0.601015 0.529348 -0.598426 
-0.310801 0.285482 0.006331 -0.000858 0.017757 0.996835 
0.026096 -0.636827 -0.041880 0.953030 0.046223 -0.259599 
0.171512 -0.551745 -0.087347 0.689994 -0.034463 -0.722907 
0.448781 0.230463 -0.096207 0.515970 -0.180685 -0.821202 
-0.011507 0.649219 -0.006665 -0.987023 -0.042244 0.127505 
0.117906 -0.673381 0.031428 0.147080 -0.083855 0.984937 
-0.347755 0.215468 -0.045796 0.575298 -0.785713 -0.218647 
0.191057 -0.010736 -0.066680 0.905057 0.065121 -0.418617 
0.185218 0.412529 0.040210 0.724341 -0.097586 0.681000 
0.076231 0.476837 -0.138175 -0.299004 0.180627 -0.935849 
0.332184 0.410738 -0.130014 0.506500 0.569236 -0.644601 
-0.123819 -0.546479 0.009992 -0.820689 -0.179697 0.536512 
0.163607 -0.812166 0.026693 0.884539 -0.079120 0.450321 
-0.128979 -0.547683 -0.057583 -0.918200 0.057024 -0.390396 
0.535788 0.174054 0.024663 -0.249437 0.483183 0.799784 
0.081101 -0.285871 -0.090401 -0.551163 0.036064 -0.832706 
-0.071687 -0.517885 -0.099272 -0.188014 0.103962 -0.976209 
0.021320 0.599950 0.025058 -0.348516 -0.026545 0.927844 
0.096667 0.710036 0.007342 0.737035 -0.667227 0.088152 
-0.010310 0.399523 0.105267 0.020641 0.092957 0.994951 
