-0.046991 -0.833862 0.129193 -0.042917 1.105456 0.397138
0.064746 0.861076 -0.039109 0.236237 -1.287440 0.082688
-0.565392 0.049535 0.052184 -0.452529 -0.520007 0.629122
0.633188 0.023000 0.058562 0.506593 -0.733425 0.296748
0.037477 0.217565 -0.123567 -0.776581 -0.657503 0.019722
0.172931 -0.326673 -0.058483 -0.158966 -1.015109 -0.029707
-0.181061 0.500985 0.038569 -0.849388 -0.515925 0.050736
-0.128483 -0.114353 0.075525 0.226213 -0.934452 -0.186766
0.415935 0.314555 -0.095124 0.542426 -0.736100 0.173955
-0.135626 -0.505382 -0.003239 0.129160 1.195833 0.179881
0.150658 0.538379 -0.117666 1.119345 -0.073651 -0.016497
0.192922 -0.004642 0.066289 -0.346188 -0.907226 -0.031569
0.181891 -0.656375 -0.064055 0.017741 1.249378 0.018224
-0.315306 0.240024 -0.060148 -0.789943 -0.625634 0.035304
-0.068885 -0.808408 -0.139290 -0.071930 0.978931 0.142459
0.059094 0.340590 0.111961 -0.652726 -0.779941 0.023906
0.024992 -0.048500 -0.125701 -0.075473 -0.859671 -0.521971
-0.060723 0.127572 0.102054 0.153648 -0.955008 -0.168731
0.024933 0.656079 0.057972 -0.159177 1.003568 -0.064998
-0.062000 -0.306555 -0.088709 0.085228 -0.922974 -0.398706
0.169663 -0.848718 0.029021 -0.072019 0.954402 0.542222
0.072706 -0.173637 0.084994 0.066812 -1.002055 0.040695
-0.050974 0.493180 -0.126885 -0.890171 -0.421318 0.176341
0.064854 -0.498037 0.007644 -0.031871 -0.993261 -0.071773
-0.079276 -0.341298 0.103736 -0.001755 -0.998396 -0.058516
-0.114879 0.292292 -0.030048 -0.111588 -1.012681 -0.001114
0.497600 0.167444 -0.005264 0.650491 -0.609073 0.405561
0.242958 0.375901 -0.051150 0.618215 -0.769028 -0.184619
-0.084307 -0.682407 0.029032 0.023567 1.097780 0.048702
0.133262 0.167461 0.095801 -0.571090 -0.820848 -0.097295
-0.126329 0.028278 -0.055012 -0.050720 -0.988612 -0.336431
0.169852 0.106126 -0.073247 -0.810415 -0.580816 0.080993
-0.441073 0.172740 0.032395 -0.427985 -0.507592 0.663529
0.025467 -0.020526 0.132002 0.103962 -1.002496 -0.080711
0.192334 -0.161150 -0.059755 -0.638557 -0.781646 -0.016541
0.159114 0.470954 0.053271 -0.737654 -0.650442 -0.005135
0.097531 -0.806394 -0.107425 -0.020498 1.101103 -0.020690
-0.091739 -0.145859 -0.082548 -0.125247 -0.918468 -0.430715
0.037853 0.722848 -0.104028 1.099976 -0.067833 -0.016928
-0.279553 0.404082 -0.030337 -0.789448 -0.609473 -0.134160
0.048866 -0.208688 -0.062580 0.211063 -0.935712 -0.217237
0.107660 -0.340281 0.075989 -0.021915 -0.993643 0.010515
0.115696 0.341688 -0.138315 -0.511471 -0.878377 0.101889
0.149337 -0.860422 0.173924 -0.179296 -1.101677 0.038094
0.094386 -0.719297 0.035544 -0.039311 1.049984 -0.033266
-0.028518 -0.626515 -0.092678 -0.039792 1.049150 -0.033722
0.177238 -0.488933 -0.083533 0.809244 -0.462601 -0.380133
0.176807 0.250404 -0.037954 -0.749880 -0.677876 0.090610
-0.044771 -0.454442 -0.092754 -0.044756 1.053118 -0.043009
0.187065 -0.448173 0.048947 0.720987 -0.562886 -0.314902
-0.015867 0.080776 -0.136113 -0.041271 -0.744267 -0.673025
-0.039318 0.431803 0.094450 -0.288248 -0.958054 0.036093
-0.009065 -0.825808 0.001226 -0.033943 1.023043 -0.014986
-0.002575 0.785540 0.074292 -0.076368 1.339336 -0.197054
0.244408 0.527103 -0.026941 0.849400 -0.548654 -0.138392
0.153075 -0.034351 -0.124126 -0.784060 -0.654597 0.067337
-0.134379 -0.229413 0.003384 0.197708 -1.021678 -0.098459
0.008996 0.227922 0.127878 -0.020295 -1.003662 0.034213
0.056609 -0.390481 -0.059883 0.022306 -0.977524 0.015514
-0.045300 0.563884 0.015328 -0.857213 -0.580005 0.073097
0.177339 -0.237405 0.077748 -0.034574 -1.032595 0.022154
0.085814 -0.587655 -0.081729 -0.052791 1.037024 -0.049851
-0.040064 -0.189343 0.120925 0.116260 -1.026048 -0.051872
0.314934 0.395247 -0.143504 0.676278 -0.707521 -0.174357
-0.017701 0.322242 -0.129827 -0.761898 -0.622304 -0.053254
-0.134835 0.000639 0.057566 0.254712 -0.920478 -0.259776
0.040012 0.565884 -0.106587 -0.205577 -0.928432 -0.372440
-0.040982 0.817452 -0.036782 0.203589 -1.255132 0.084815
0.153995 0.298777 0.063129 -0.456791 -0.858347 0.050786
-0.037584 -0.526836 0.050435 -0.009991 1.059549 0.009583
0.204004 -0.130749 0.050710 -0.155107 -1.019713 0.032440
0.152535 -0.609453 0.034113 0.845926 -0.284651 -0.541425
0.096983 0.762277 0.028814 -0.075030 1.322172 -0.188697
-0.104401 -0.708145 -0.094208 -0.054311 1.058601 -0.060100
0.013550 -0.282726 0.076321 -0.119136 -1.029944 0.039003
0.587857 0.123381 0.056836 0.520488 -0.709285 0.365117
-0.119344 0.135941 -0.039584 -0.107728 -0.863484 -0.515700
-0.200873 0.463823 -0.075115 -0.837337 -0.447717 0.187796
0.086971 0.549134 0.032376 -0.756802 -0.644915 0.018005
-0.121675 0.391336 0.037026 -0.564285 -0.832155 0.013987
0.180332 -0.762408 -0.043393 0.018261 1.261801 0.009224
0.173069 0.432550 -0.135453 0.690736 -0.664164 -0.266359
-0.125132 -0.373087 -0.035256 0.044069 1.134905 0.067592
-0.104514 -0.832185 -0.039155 -0.073193 0.932784 0.572654
0.423138 0.211839 -0.102999 0.632560 -0.705277 0.181281
0.066152 0.098722 0.130778 -0.014892 -1.004802 0.002826
0.202069 -0.000737 -0.034613 -0.469457 -0.879223 -0.039135
-0.123409 -0.577200 -0.073258 0.046005 1.184293 0.064407
-0.194203 0.349638 -0.054920 -0.587387 -0.795696 -0.108573
0.075926 -0.691517 -0.059707 -0.055173 1.067570 -0.064724
-0.008281 -0.738024 -0.103115 -0.051206 1.021184 -0.041585
0.076764 0.655234 -0.043043 1.089539 -0.107712 -0.037155
-0.063510 -0.007642 -0.129949 0.034772 -0.854103 -0.519500
-0.108545 -0.449610 0.071842 0.165663 1.265838 0.212098
0.055152 0.441769 0.089703 -0.763138 -0.646353 0.024648
-0.113483 0.185901 0.048984 0.177192 -0.997620 -0.031247
-0.515116 0.123292 0.083722 -0.478464 -0.560072 0.584755
0.041022 0.398225 -0.130859 -0.781219 -0.617163 -0.035968
0.202233 -0.533110 -0.005008 0.656443 -0.589886 -0.472737
0.096693 -0.868006 0.083472 -0.150543 -1.045257 0.046959
0.114513 -0.044841 0.121178 0.006975 -0.971495 -0.183854
0.103320 -0.867370 -0.038531 -0.079591 0.967558 0.564727
-0.397531 0.250002 0.007528 -0.550224 -0.621040 0.459833
0.143771 0.577094 -0.034038 1.064603 -0.118340 -0.023379
0.326452 0.301176 -0.107930 0.639161 -0.728754 -0.213317
0.108022 0.086477 -0.137483 -0.752662 -0.659202 -0.021230
-0.105778 -0.586729 0.041585 0.088600 1.183550 0.124943
0.555107 0.100666 -0.027023 0.538306 -0.603742 0.491306
-0.045996 0.188029 -0.103978 -0.056933 -0.957159 -0.366787
-0.287503 0.297021 0.004120 -0.724820 -0.652683 -0.215631
0.126728 0.221099 -0.111153 -0.642938 -0.793490 0.002692
0.193183 -0.327790 0.050315 -0.080482 -1.014994 0.042375
-0.095555 0.553790 -0.077322 -0.963654 -0.281865 0.321468
0.285250 0.470949 -0.105165 0.639893 -0.712370 -0.199038
-0.031241 0.305182 0.109492 -0.117667 -0.995574 -0.067736
-0.033642 0.735674 -0.002800 0.592835 -0.819061 -0.098010
-0.141525 -0.051412 -0.013991 0.215286 -0.951253 -0.070370
0.482746 0.246825 -0.047805 0.618927 -0.593824 0.451750
-0.057823 -0.093212 0.123919 0.180625 -1.029069 -0.035849
0.131230 0.383134 0.084284 -0.671290 -0.744666 0.011754
0.188669 0.165717 0.027851 -0.756974 -0.677519 0.054419
0.093859 0.467924 -0.144573 -0.735888 -0.682059 -0.011005
0.064968 -0.400930 0.025155 0.114294 -1.033116 0.049590
0.121788 -0.165486 -0.108244 -0.062833 -1.023223 -0.066683
-0.031633 -0.220190 -0.089597 -0.083181 -0.978164 -0.228478
-0.116587 0.363853 -0.085224 -0.653521 -0.792674 -0.071401
-0.093157 0.488041 0.061785 -0.880953 -0.418894 0.188862
-0.493414 0.137855 -0.023795 -0.477413 -0.565232 0.611412
-0.140094 -0.135697 -0.012975 0.219334 -0.970953 -0.116565
-0.170059 0.533756 -0.042299 -0.859454 -0.549528 0.133950
0.324274 0.345469 -0.038317 0.671892 -0.702907 -0.221091
0.190483 0.338310 0.000263 -0.778990 -0.629011 0.036568
0.031870 -0.115500 -0.078763 -0.237065 -0.935156 -0.261865
-0.442571 0.203070 -0.043649 -0.403003 -0.754651 0.467852
-0.080696 0.014429 0.117234 0.294880 -0.933696 0.009776
-0.109536 -0.844414 0.077678 -0.032875 1.117303 0.378867
-0.126144 -0.324246 0.039144 -0.025119 -0.969241 -0.042514
-0.005197 0.671907 -0.044914 -0.201529 -0.967508 -0.201789
0.140494 -0.135152 0.108874 -0.093188 -1.020905 -0.017632
-0.053233 0.395268 -0.126442 -0.620739 -0.784067 -0.030635
-0.115243 -0.208261 0.097560 0.191047 -0.978998 -0.080389
0.301187 0.441288 -0.031859 0.694176 -0.707915 -0.134865
0.137957 -0.420372 -0.097674 0.898600 -0.400229 -0.310924
-0.128382 0.440219 -0.106211 -0.726489 -0.647242 0.094899
0.118516 -0.283368 -0.098087 0.525802 -0.734809 0.162790
-0.036463 -0.859062 -0.068718 -0.109569 0.861639 0.738187
-0.019075 -0.638627 0.023007 -0.041379 1.070301 -0.043922
0.023389 0.830036 -0.098532 0.210332 -1.241857 0.083220
0.104728 0.776588 -0.047779 1.087479 -0.041173 0.003158
0.128813 0.031155 0.116266 -0.086894 -1.008527 0.016079
0.014108 -0.523097 -0.045127 -0.053134 1.041419 -0.051991
0.192641 0.070872 0.049911 -0.812323 -0.618138 0.060509
-0.092234 -0.758370 0.018449 -0.020938 1.038830 -0.000178
0.407410 0.252534 -0.033281 0.561534 -0.581963 0.528179
-0.040580 -0.095457 -0.110005 -0.123393 -0.910647 -0.425672
0.032970 0.723196 0.100036 -0.071208 1.299439 -0.174390
0.126423 -0.503352 0.050809 0.109313 -0.947980 -0.195473
-0.271079 0.366295 -0.094709 -0.759148 -0.630547 -0.156760
-0.240585 0.362010 0.017490 -0.720338 -0.669064 -0.204836
0.042126 -0.237027 0.024790 0.223098 -1.048226 0.029606
-0.041219 -0.419929 0.081463 -0.001336 -1.002888 -0.071793
0.235367 0.393845 -0.122730 0.634205 -0.760144 -0.216805
0.037052 -0.325480 -0.031121 -0.145583 -0.984768 0.003791
-0.071443 0.231708 0.088478 0.076242 -1.013974 -0.036060
-0.090763 0.265432 -0.093986 -0.264082 -0.890677 -0.372921
-0.127761 0.547946 0.023594 -0.839183 -0.449971 0.149396
0.160622 -0.844451 -0.075919 -0.096056 0.922314 0.660516
0.207066 -0.205817 -0.005486 -0.190260 -1.005385 -0.004066
-0.003932 0.083521 0.132085 0.182540 -1.017539 -0.032710
-0.384103 0.290542 -0.050090 -0.740787 -0.575021 0.272716
0.200120 -0.438656 -0.020322 0.681832 -0.640414 -0.375272
-0.105644 0.311779 0.037268 -0.065357 -1.046620 0.030480
-0.038207 0.591487 -0.060476 -0.830260 -0.511541 0.101318
-0.000207 -0.352000 0.074364 0.060025 -1.028824 -0.006972
0.229232 0.513093 -0.111498 1.076321 -0.172238 -0.046234
-0.116123 -0.481026 -0.066258 0.060040 1.173653 0.083831
0.033872 0.864128 0.023692 0.192938 -1.247727 0.084049
0.061597 -0.780231 0.025109 -0.055543 1.072311 -0.067033
0.077689 0.237589 0.119345 -0.375383 -0.910562 -0.019169
0.204587 -0.282638 -0.015802 -0.087220 -1.006982 0.040347
0.091402 -0.578374 0.028099 -0.052689 1.035722 -0.049217
0.346510 0.394950 -0.080430 0.646348 -0.709644 -0.172628
0.075374 -0.655588 0.018592 -0.055653 1.073726 -0.067722
0.087770 -0.072949 -0.134172 -0.074368 -0.928238 -0.431142
0.054375 -0.470341 -0.058848 0.028040 -1.019310 0.022903
-0.245280 0.303553 -0.048345 -0.580225 -0.813779 -0.133315
-0.315405 0.297100 -0.095592 -0.762336 -0.591363 0.174029
0.176631 0.230618 0.040204 -0.796027 -0.609602 0.044830
0.212163 0.447217 0.019951 -0.073334 -0.928459 -0.216385
-0.130602 -0.393539 0.028212 0.015349 1.241614 0.010480
-0.070572 0.125973 -0.099705 -0.069470 -0.872954 -0.498051
-0.126809 -0.748478 -0.037788 -0.023673 1.042041 -0.005667
0.129698 0.148989 -0.104618 -0.562316 -0.832846 -0.022666
-0.097679 0.195003 -0.060874 -0.042332 -1.006272 -0.064748
0.031562 0.038652 -0.155154 -0.181700 -0.926599 -0.344670
-0.110938 0.108929 0.063320 -0.067635 -0.932983 -0.412108
0.131940 -0.696771 -0.094129 0.010047 1.251285 0.005887
0.188220 0.362210 -0.083956 -0.642707 -0.741504 -0.012012
-0.099191 -0.259801 -0.063374 -0.009729 -0.857590 -0.534634
0.052976 0.119703 -0.133902 -0.768261 -0.641174 0.015423
-0.073183 0.349019 0.087998 -0.148761 -1.039101 0.033822
-0.005073 -0.372770 -0.056495 0.040641 -0.981242 -0.002340
-0.188597 0.398943 0.025320 -0.428588 -0.939026 -0.066589
0.018201 -0.776789 -0.059293 -0.049763 0.998200 -0.030947
0.049382 -0.616388 -0.037750 -0.040884 1.036627 -0.030892
-0.567894 0.038771 -0.010564 -0.442768 -0.544466 0.633573
0.100287 0.025882 -0.154713 -0.741088 -0.699187 -0.114580
-0.122707 -0.643899 -0.003352 -0.000542 1.153612 0.006509
-0.313814 0.353606 -0.045234 -0.804252 -0.588837 -0.052513
0.137100 0.090710 0.098194 -0.407003 -0.894895 -0.015742
0.548077 0.169690 0.031288 0.504315 -0.687349 0.391734
0.157551 -0.864544 0.096394 -0.180869 -1.110151 0.047879
-0.128870 -0.259869 0.065612 -0.051433 -0.935141 -0.388417
0.031782 0.622394 -0.070567 -0.180682 -0.959983 -0.331984
-0.004228 0.609351 0.006858 -0.197407 -0.920093 -0.396494
0.063707 -0.739497 -0.022761 -0.039374 1.063558 -0.038301
-0.096964 0.066878 -0.093271 -0.154735 -0.768834 -0.671608
0.042494 0.335652 -0.129289 -0.826555 -0.538185 0.088494
0.141201 -0.107443 -0.115537 -0.496734 -0.890175 -0.022919
-0.035347 -0.515002 -0.096589 -0.022447 1.090824 -0.021473
-0.136286 0.510091 -0.091474 -0.983487 -0.151600 0.343703
-0.063203 -0.799862 0.053120 0.048594 1.153346 0.128045
0.154341 0.313540 -0.099246 -0.628131 -0.609439 0.004770
0.196512 -0.564373 -0.057266 0.780801 -0.528183 -0.372522
0.146212 -0.770373 -0.098973 -0.020535 1.106583 -0.020655
0.175816 -0.664048 0.019947 0.013476 1.264725 0.006866
0.029381 0.535270 0.046360 -0.454786 -0.870417 -0.107866
-0.081930 -0.863353 0.026991 -0.064838 0.974755 0.496154
-0.020569 0.018537 0.136794 0.085866 -0.959950 -0.306779
0.147389 -0.289858 0.081465 -0.069685 -1.016853 0.031353
0.015652 -0.435824 0.027406 0.193596 -1.028243 -0.002837
-0.007624 -0.828803 -0.112310 -0.070847 0.975062 0.504125
-0.109241 -0.037988 0.096262 0.227941 -0.965730 0.006660
0.111759 -0.399008 0.063918 0.066061 -1.043541 0.048347
-0.024291 -0.857111 0.050071 -0.069068 0.983235 0.518728
0.078762 -0.326876 -0.088376 -0.102832 -1.008638 0.029646
-0.072578 -0.584758 -0.103535 -0.033585 1.045639 -0.022638
0.041953 0.490991 -0.126656 -0.658288 -0.737204 -0.089027
0.193850 0.056863 -0.049944 -0.617154 -0.816493 0.004938
-0.031812 0.793051 0.016567 0.733062 -0.739975 0.084361
-0.130216 0.061642 0.033247 -0.088468 -0.910497 -0.465312
0.104038 -0.832618 0.147978 -0.322373 -0.975125 0.026318
-0.024057 0.794982 -0.094485 0.194283 -1.155791 0.054462
0.027280 -0.326405 0.028806 0.193465 -0.961011 -0.195788
0.023834 -0.140591 0.085094 0.228959 -0.999042 -0.110074
0.074617 0.501303 0.064567 -0.758728 -0.641863 0.053446
-0.059341 -0.244379 0.112523 0.216478 -1.001120 0.004543
0.076637 0.171548 -0.119019 -0.727329 -0.678829 -0.010813
0.128615 -0.556636 -0.107355 0.881743 -0.476833 -0.246767
0.079500 0.814228 -0.091774 0.208390 -1.280701 0.083383
0.013260 -0.433683 -0.038634 0.126910 -1.004901 -0.016874
0.002066 -0.585726 -0.064782 -0.046240 1.026885 -0.035813
0.193222 -0.385139 0.041174 0.849394 -0.507487 -0.267215
0.199251 -0.590938 -0.002490 0.800535 -0.499797 -0.339332
0.209978 -0.116528 -0.027419 -0.521606 -0.856307 0.103545
-0.079726 -0.860243 -0.115996 -0.118725 0.877343 0.624567
0.174651 -0.054203 0.089752 0.051103 -1.037496 0.022379
0.019282 -0.215065 0.073027 -0.129687 -0.966633 -0.084342
0.010028 -0.659876 -0.065909 -0.052972 1.039346 -0.050982
-0.008012 -0.582294 0.025917 -0.050162 1.003312 -0.033436
0.093634 0.708484 0.008902 1.099747 -0.087583 -0.007799
0.111311 0.321687 0.097877 -0.469936 -0.809995 0.010019
0.008458 -0.502624 0.026501 -0.043669 1.021785 -0.026465
0.082731 -0.529355 -0.086899 0.443125 -0.790320 -0.351517
-0.395548 0.222869 -0.069188 -0.733467 -0.616541 0.238957
-0.045164 0.554078 -0.103898 -0.914707 -0.325405 0.235922
-0.127457 -0.429955 -0.036727 0.135576 1.208138 0.185543
0.117265 0.398226 -0.144269 -0.783560 -0.627453 0.035129
-0.055501 0.065149 0.113755 0.113788 -1.001798 -0.006868
0.194472 0.394294 0.007836 -0.662737 -0.753014 0.104429
-0.127473 0.081223 -0.027507 -0.070699 -0.922341 -0.414572
0.075061 0.181304 0.123712 -0.240691 -0.992297 0.018995
0.107206 -0.861564 -0.114768 -0.098588 0.924393 0.543701
-0.015475 -0.694924 0.025133 -0.054615 1.060413 -0.061240
0.047366 0.811607 0.075618 -0.080095 1.387120 -0.220322
-0.109112 -0.529347 0.040292 0.074016 1.134944 0.114897
-0.011691 0.433143 -0.129449 -0.341664 -0.896032 -0.167511
0.039275 -0.073079 0.117302 0.157604 -0.947558 -0.207138
0.363995 0.265117 -0.066827 0.735789 -0.598623 0.179907
0.618528 0.085861 0.028303 0.569590 -0.632728 0.373319
0.442770 0.209084 -0.030881 0.661058 -0.583694 0.422426
0.022671 -0.146295 -0.032847 -0.100937 -0.982344 -0.111852
-0.091620 -0.759955 -0.110938 -0.052048 1.026284 0.030853
0.296271 0.344173 -0.126158 0.651767 -0.721288 -0.195662
-0.096305 -0.285492 0.106765 0.255961 -0.942418 0.011989
0.120374 -0.199716 0.096301 -0.085248 -0.999705 -0.039205
-0.125581 -0.318700 -0.024361 0.162985 -1.036582 0.001716
-0.140748 0.459700 0.060301 -0.894149 -0.429839 0.157925
-0.516892 0.108515 0.016900 -0.428016 -0.535267 0.660262
0.088630 -0.825940 0.040850 -0.043753 0.998853 0.321145
0.216965 0.550068 -0.072195 1.069224 -0.199358 -0.047673
0.203905 -0.355626 -0.023121 0.044071 -0.997139 -0.012547
0.052477 0.590894 0.021821 -0.227575 -0.955519 -0.321536
-0.054053 -0.478083 0.070265 0.014823 1.265060 0.008602
0.128163 -0.819450 0.085782 -0.323015 -1.032095 0.017049
0.053144 -0.549964 -0.005499 -0.052878 1.038134 -0.050392
0.077275 0.725480 0.068140 -0.065391 1.180795 -0.002984
-0.075286 -0.147647 0.119428 0.225029 -0.922724 -0.180443
0.082521 0.298713 -0.141377 -0.769598 -0.615037 -0.004936
-0.143449 -0.090042 0.029330 0.107663 -0.996405 -0.161957
0.131871 0.221540 0.093753 -0.591351 -0.782546 0.042803
-0.151298 0.390723 -0.053552 -0.560558 -0.823514 -0.072373
0.183136 0.201212 -0.012620 -0.714367 -0.729721 -0.010657
-0.111053 0.238913 0.039530 -0.103316 -0.992285 0.027349
-0.012477 0.738956 -0.093644 0.790654 -0.744849 0.070911
-0.094538 0.570204 -0.011989 -0.887517 -0.360105 0.285961
0.201471 -0.276468 0.039017 -0.008351 -1.009655 0.042940
-0.126166 -0.574481 -0.005665 0.085031 1.174364 0.118565
0.065627 -0.014035 -0.153583 -0.199224 -0.865184 -0.454863
0.200605 0.533950 0.001605 1.132530 -0.135794 -0.021097
-0.246113 0.437455 -0.006955 -0.743432 -0.644689 -0.133863
0.172362 -0.741388 0.004278 0.013371 1.256766 0.001580
-0.023353 0.740928 0.048536 0.164511 1.153663 -0.023866
-0.085044 -0.352110 -0.076392 0.116396 -0.969367 -0.241624
0.026855 0.381302 0.106211 -0.639195 -0.778983 0.036741
-0.100571 -0.525693 -0.088191 0.112412 1.184265 0.157625
0.087305 -0.643920 -0.077432 -0.053590 1.047265 -0.054838
0.522520 0.214984 -0.038457 0.546241 -0.500858 0.636109
0.074630 -0.247855 -0.084498 -0.035531 -1.004536 -0.056859
-0.009149 -0.123412 0.120960 -0.010317 -0.987891 -0.021304
-0.060346 0.179007 0.099095 -0.117296 -0.939310 -0.317460
0.211207 -0.042150 -0.005453 0.019130 -0.995292 -0.108892
0.003040 -0.828255 -0.058027 -0.053365 1.005818 0.454453
0.134841 0.549647 0.008236 -0.042765 -0.960098 -0.368715
-0.036352 0.755687 -0.051601 0.655357 -0.777201 0.198173
0.121553 -0.468095 -0.106037 0.864860 -0.486678 -0.243750
0.074487 -0.819570 -0.064029 -0.045788 0.999302 -0.025067
-0.020015 0.271466 -0.130919 -0.442585 -0.898457 -0.120825
-0.203904 0.504206 -0.018562 -0.724799 -0.578069 0.009018
0.122800 -0.677661 0.030521 -0.001381 1.209974 -0.010221
0.185216 -0.514789 0.039032 0.734994 -0.531622 -0.375857
0.253631 0.438249 -0.007162 0.657105 -0.654856 -0.310341
0.206196 0.041976 -0.003556 -0.527899 -0.898242 0.016127
-0.111826 -0.803104 -0.079404 -0.053002 1.039725 -0.051166
0.076162 -0.144992 -0.105456 -0.049071 -0.976457 -0.092235
0.085566 0.583616 -0.096046 0.038191 -1.005812 -0.226439
-0.007496 0.854205 -0.041737 0.239780 -1.297979 0.080585
0.175412 0.415372 0.048933 -0.749373 -0.658951 0.169073
0.175163 -0.400439 -0.070990 0.748776 -0.585814 -0.277242
0.184024 0.289108 -0.004782 -0.767220 -0.611144 0.122585
0.176840 0.304948 -0.055652 -0.746363 -0.659527 0.017963
-0.118676 -0.694428 -0.004879 -0.009087 1.101043 -0.004080
0.143851 -0.549874 0.048056 0.748868 -0.556603 -0.365357
-0.072462 0.532226 0.042321 -0.899502 -0.347659 0.247793
-0.039891 0.034179 -0.142614 -0.159132 -0.881710 -0.478128
-0.003732 -0.471318 -0.066030 -0.050562 1.008446 -0.035935
0.249282 0.452229 -0.133631 0.632304 -0.721339 -0.067564
-0.487560 0.165737 0.016656 -0.528722 -0.628921 0.537589
-0.024750 -0.030540 0.132763 0.201768 -0.975204 -0.060054
0.076665 -0.431966 -0.080582 -0.032902 -1.005904 0.020623
0.192365 0.110178 -0.029469 -0.624426 -0.777832 -0.009670
-0.335880 0.287612 0.002368 -0.785684 -0.613212 0.112510
-0.124657 -0.048942 -0.060243 -0.006284 -0.925952 -0.424078
0.103371 -0.385516 -0.100341 0.706746 -0.633767 -0.371990
0.392542 0.247544 -0.117321 0.572473 -0.526320 0.575062
-0.100310 -0.022145 -0.100890 0.029667 -0.837730 -0.574600
0.097309 0.816862 -0.020934 0.196824 -1.233634 0.085878
0.151799 0.075897 -0.107247 -0.773124 -0.652477 0.047400
0.045463 -0.280779 -0.048928 -0.212888 -0.983732 -0.054004
0.160361 0.169622 -0.072786 -0.805511 -0.596826 0.063604
0.201214 -0.187759 0.039381 -0.204943 -0.975645 0.030786
0.145172 0.265841 -0.102164 -0.801273 -0.623984 0.018118
-0.122506 -0.173862 -0.037499 0.330938 -0.882436 -0.300029
0.077090 0.051354 0.129904 0.024007 -1.018001 0.010281
-0.135905 -0.193249 0.056310 0.271559 -0.947892 -0.212117
-0.326596 0.227455 -0.014669 -0.704702 -0.685888 -0.019478
-0.408521 0.175058 -0.003206 -0.545927 -0.621070 0.474387
-0.134351 -0.093201 -0.036617 0.146601 -0.885036 -0.374406
0.198020 -0.479944 0.004185 0.723011 -0.529637 -0.405700
-0.075423 -0.062386 -0.111047 -0.152726 -0.790077 -0.627662
0.111916 0.266839 0.102655 -0.504755 -0.848903 0.035815
-0.014534 -0.130347 -0.089799 -0.008340 -0.941479 -0.418815
-0.096074 -0.407459 0.090764 0.056455 1.168390 0.084678
0.632328 0.038784 0.013421 0.548093 -0.718220 0.288839
-0.003145 -0.254072 -0.071494 0.067514 -0.979919 -0.198495
-0.104596 -0.660472 -0.095871 -0.042671 1.040100 -0.034979
0.103673 0.543029 -0.124426 0.995500 -0.380191 -0.051644
0.084354 0.224852 -0.132665 -0.730783 -0.685970 0.091599
-0.182353 0.363965 -0.006455 -0.224853 -0.979701 -0.168107
0.056134 -0.281393 0.055047 -0.103852 -0.986567 -0.077397
-0.118802 0.040350 0.078342 0.213257 -0.979699 -0.084741
-0.070574 -0.637866 0.038085 -0.002077 1.102606 0.006428
0.481250 0.201416 -0.061582 0.600075 -0.561743 0.512244
-0.083505 -0.861387 0.140539 -0.050104 1.118590 0.382347
-0.040276 -0.392999 -0.080019 0.156552 -1.025087 0.032994
0.567434 0.141184 -0.006876 0.523064 -0.604859 0.495568
-0.080284 0.309172 -0.107209 -0.602150 -0.794321 0.010925
0.052518 -0.671211 -0.024676 -0.051394 1.043059 -0.049838
0.277606 0.499221 -0.068702 0.732775 -0.620872 -0.196052
0.133735 -0.869794 0.055196 -0.256895 -1.075978 0.036165
0.165026 0.497141 -0.133522 1.074560 -0.169319 -0.018129
0.329036 0.437902 -0.081517 0.666944 -0.715362 -0.077566
-0.049491 -0.739062 -0.124156 -0.052645 1.035158 -0.048942
0.184770 0.019799 -0.076067 -0.758398 -0.641640 0.024994
0.177505 -0.051870 -0.089192 -0.585499 -0.836789 0.025084
-0.457573 0.159502 -0.043178 -0.504163 -0.617844 0.532565
-0.020552 -0.323021 -0.077447 -0.135077 -0.988506 0.035466
-0.026027 -0.280648 0.099486 -0.066037 -0.988759 -0.066909
-0.015260 -0.693983 -0.092594 -0.054871 1.063696 -0.062838
-0.114308 -0.218635 -0.042351 0.155865 -0.934017 -0.246480
-0.059015 -0.657192 -0.107430 -0.043776 1.049208 -0.000880
0.198848 -0.636864 -0.026393 0.857167 -0.393414 -0.389543
0.464899 0.251175 -0.089597 0.587707 -0.600458 0.496575
0.108326 -0.462426 0.041887 -0.100680 -0.994032 -0.144646
0.115610 -0.757261 0.021750 -0.010891 1.165960 -0.018119
0.312846 0.387927 -0.026266 0.682208 -0.674048 -0.180473
0.162697 0.565745 -0.083255 1.081208 -0.071453 0.037279
-0.053591 -0.165795 -0.097369 -0.353375 -0.865139 -0.320605
0.393078 0.293995 -0.128683 0.549773 -0.663480 0.209961
-0.010473 0.823353 0.042949 -0.028681 1.162493 -0.057389
-0.090341 0.151521 0.077396 -0.020947 -1.031696 -0.100986
0.138040 -0.651870 -0.093034 0.020987 1.260762 0.018398
-0.004963 0.689671 0.063474 -0.054512 1.230371 -0.122890
0.102448 -0.294788 0.081136 -0.076609 -1.006084 0.040153
0.060721 0.072938 -0.151087 -0.154047 -0.951205 -0.298407
0.186787 -0.205760 -0.064337 -0.392862 -0.882629 -0.010532
0.139115 -0.509714 -0.106519 0.827389 -0.491246 -0.311103
-0.043073 -0.263741 -0.093179 0.130697 -0.925172 -0.262033
-0.103203 -0.804702 -0.003451 -0.019811 1.086431 -0.021417
0.091601 -0.850247 0.001400 -0.063303 0.961982 0.526985
-0.467172 0.134532 0.041834 -0.486011 -0.556798 0.577159
-0.002772 0.486274 -0.126743 -0.843080 -0.497080 0.167558
-0.000522 0.337727 0.112824 -0.241204 -0.993822 0.036659
0.040621 0.261593 0.126635 -0.246968 -0.978255 0.001565
-0.434508 0.229007 -0.005916 -0.366138 -0.530689 0.344475
0.286465 0.337172 -0.060426 0.661300 -0.718815 -0.222544
0.111220 -0.742981 -0.096253 -0.015334 1.139611 -0.008393
0.138515 0.458990 -0.144714 0.540827 -0.775684 -0.082517
0.020787 -0.392271 -0.024381 -0.143779 -0.974913 0.017819
-0.048196 -0.763340 0.021302 -0.032235 1.026215 -0.009094
0.003422 0.183995 0.129585 0.020935 -1.076130 0.047445
0.025573 -0.698130 -0.049958 -0.035210 1.035255 -0.019423
-0.067168 -0.861621 -0.036951 -0.048687 1.001764 0.474113
0.025622 -0.469551 -0.016064 0.185467 -0.984290 -0.082294
-0.063726 0.078798 -0.119663 -0.148396 -0.929338 -0.411560
-0.129164 -0.628975 -0.044244 0.047660 1.150278 0.070333
0.185856 -0.189884 0.080527 0.075714 -1.047825 -0.016823
0.175938 -0.802420 -0.025719 0.004012 1.266905 -0.012219
0.011612 0.441889 0.095585 -0.432735 -0.890131 0.015390
0.475573 0.224759 -0.006370 0.531753 -0.539302 0.595512
0.185567 0.565798 -0.040913 1.049729 -0.106126 -0.000196
-0.548325 0.086569 0.068217 -0.477234 -0.557669 0.585243
-0.081152 -0.432277 -0.082540 -0.004167 1.100183 0.131140
0.218899 0.414499 -0.022263 0.601484 -0.776278 -0.189277
-0.021204 0.694486 0.004417 -0.154674 -1.006531 -0.195444
-0.221951 0.427127 -0.085614 -0.774089 -0.618674 -0.015729
0.056992 0.690474 0.084151 -0.060698 1.282402 -0.151587
-0.025671 -0.056758 -0.122729 -0.157318 -0.910389 -0.468619
-0.030624 0.132336 -0.114963 -0.043006 -0.964629 -0.348675
0.011012 0.125725 -0.125791 -0.390317 -0.872157 -0.222859
-0.042145 0.373585 0.105171 -0.008815 -1.034060 0.016124
0.036560 0.479328 0.079719 -0.813034 -0.569454 0.098848
-0.079902 -0.558420 0.061200 0.115986 1.170569 0.168254
0.159092 -0.807083 0.031620 0.003130 1.238399 -0.010183
-0.497645 0.095001 0.056408 -0.437815 -0.537166 0.652560
-0.003522 0.229612 -0.128313 -0.660895 -0.732856 -0.022153
0.058298 0.645941 0.032832 -0.029920 -0.965988 -0.357916
-0.112283 0.255652 -0.007752 -0.292369 -0.949845 -0.152122
0.006538 0.288792 0.121680 -0.108539 -1.012579 -0.104962
0.196584 -0.724580 -0.026868 0.014868 1.257897 0.009835
-0.117285 0.333437 0.002191 0.028230 -1.021052 -0.165919
0.070833 -0.320436 0.064505 -0.016546 -0.984547 0.035088
0.067943 -0.024985 0.131567 0.158441 -1.008956 -0.101668
0.249449 0.492239 -0.002806 1.106320 -0.135094 0.014478
-0.151811 0.421512 0.037929 -0.288395 -0.926435 -0.152099
0.154454 -0.187197 -0.091622 -0.135382 -0.988771 0.035722
0.106865 -0.003247 0.128218 -0.017065 -1.021791 0.037279
0.200381 0.495828 0.020369 0.596436 -0.757398 -0.242139
0.194539 -0.458241 -0.057514 0.701526 -0.553414 -0.432798
0.081327 -0.132563 0.091022 0.028775 -1.021868 0.035204
0.016392 0.039257 0.138223 0.317489 -0.946434 -0.035905
0.009369 0.186692 -0.116971 -0.846834 -0.508203 0.090613
-0.128085 0.389240 -0.004644 -0.842982 -0.500891 0.124874
0.080764 0.793115 0.057615 -0.080806 1.396242 -0.224764
-0.002465 -0.778390 -0.113921 -0.052092 1.028058 -0.045485
0.049935 0.756025 0.079679 -0.079245 1.376227 -0.215018
-0.020894 0.716492 -0.053610 0.770393 -0.719907 0.090781
-0.003577 0.554769 -0.110179 -0.773114 -0.552298 0.149119
0.206617 0.484376 -0.132163 1.124808 -0.144365 -0.031633
0.072785 0.692803 -0.061099 1.085050 -0.166220 -0.019030
0.083497 0.627644 -0.012279 -0.108918 -0.977527 -0.309792
0.003941 -0.781679 -0.020247 -0.050916 1.012985 -0.038146
-0.288931 0.269509 -0.078692 -0.525337 -0.803428 -0.226916
-0.012894 -0.428514 -0.070783 -0.055738 -0.946290 -0.182058
0.214383 -0.109195 0.013450 -0.296139 -0.950035 -0.087878
0.163027 -0.735348 -0.070055 0.015424 1.264519 0.005371
0.080346 0.417607 -0.143355 -0.607991 -0.788228 0.025504
0.149969 0.126719 0.081871 -0.767430 -0.619806 0.001216
0.109992 -0.014350 -0.151016 -0.643814 -0.733815 -0.164580
0.047198 -0.362258 0.022468 -0.087872 -0.972880 0.011235
0.141964 -0.829146 0.131508 -0.097564 -1.064251 0.032527
-0.051933 -0.821721 0.089827 0.027761 1.122918 0.256323
-0.005876 -0.227500 0.103548 0.071883 -1.034985 -0.040101
-0.397206 0.185957 -0.041537 -0.688059 -0.619783 0.238372
-0.373116 0.216605 0.009580 -0.766414 -0.655917 0.172095
0.337843 0.361478 -0.136908 0.667340 -0.720510 -0.137713
0.310405 0.439086 -0.118373 0.679051 -0.669696 -0.169323
0.057818 -0.228584 0.067186 -0.051738 -1.004660 -0.064408
0.146097 -0.355088 0.078075 0.046627 -1.023989 0.013353
-0.095232 -0.501700 0.067513 0.103335 1.169177 0.148772
-0.277353 0.345596 0.008911 -0.639353 -0.726586 -0.090972
0.086585 0.142055 0.120873 -0.054091 -1.035198 0.031845
-0.001778 0.124358 0.129435 0.132581 -1.026601 -0.119457
-0.111509 0.257593 -0.051474 -0.166018 -0.967673 0.025121
0.037915 0.760297 -0.120435 1.086468 -0.120188 -0.006456
0.065426 -0.457294 0.005317 0.026901 -1.016389 -0.123142
-0.035704 -0.785466 -0.144988 -0.053831 1.050357 -0.056343
0.172424 0.395175 -0.119781 -0.674510 -0.737578 -0.044621
0.062887 0.300638 0.117507 -0.780527 -0.651485 0.070083
-0.271588 0.272033 -0.042205 -0.767750 -0.673036 -0.171128
0.102064 0.473152 0.073901 -0.524084 -0.844668 -0.035979
-0.086466 0.474308 -0.123264 -0.900243 -0.357693 0.211979
