0.09878474 -0.025884109 0.3893225
0.051031906 0.024521248 0.39849073
0.0022470704 0.07468265 0.39549696
-0.046087462 0.123075984 0.3804322
-0.09250309 0.16823082 0.35375416
-0.1355895 0.20877518 0.31627336
-0.1740375 0.2434771 0.26912874
-0.20667884 0.27128223 0.21375272
-0.23252185 0.29134572 0.15182787
-0.25078118 0.3030579 0.08523576
-0.26090214 0.30606294 0.015999703
-0.26257706 0.3002695 -0.053776484
-0.2557552 0.2858537 -0.12197283
-0.24064377 0.26325345 -0.18651709
-0.2177019 0.23315555 -0.24544819
-0.18762672 0.1964744 -0.29697552
-0.151332 0.1543246 -0.33953345
-0.1099206 0.10798687 -0.37182885
-0.06465073 0.058869112 -0.3928806
-0.016897839 0.008463694 -0.4020488
0.03188698 -0.041697703 -0.39905506
0.080221504 -0.09009101 -0.38399032
0.12663712 -0.13524584 -0.35731226
0.16972357 -0.17579024 -0.3198314
0.20817155 -0.21049215 -0.27268678
0.24081296 -0.2382973 -0.21731074
0.26665592 -0.25836077 -0.15538591
0.28491524 -0.27007294 -0.08879379
0.29503617 -0.27307796 -0.01955778
0.29671112 -0.26728457 0.050218396
0.28988925 -0.25286877 0.1184147
0.2747778 -0.23026855 0.18295893
0.25183597 -0.2001706 0.24189006
0.2217608 -0.16348949 0.29341742
0.1854661 -0.121339686 0.33597532
0.14405468 -0.07500195 0.36827078
-0.08316866 -0.030400006 0.26696283
-0.07520776 -0.028801857 0.2694895
-0.06698977 -0.028621431 0.27166802
-0.058764387 -0.02986422 0.2734323
-0.050781533 -0.03249245 0.27472863
-0.043283768 -0.03642627 0.27551764
-0.036498904 -0.04154616 0.27577543
-0.0306331 -0.04769654 0.2754941
-0.025864592 -0.05469054 0.2746822
-0.022338243 -0.062315635 0.2733644
-0.020161223 -0.0703402 0.2715808
-0.019399665 -0.078520335 0.26938552
-0.020076722 -0.086607546 0.26684526
-0.022171821 -0.09435608 0.26403725
-0.02562128 -0.1015305 0.26104683
-0.03032033 -0.10791284 0.2579648
-0.036126167 -0.113309145 0.25488484
-0.042862367 -0.117555454 0.25190052
-0.05032429 -0.1205228 0.24910252
-0.05828519 -0.12212093 0.24657586
-0.06650318 -0.122301355 0.24439731
-0.07472856 -0.121058576 0.24263304
-0.08271141 -0.118430346 0.24133673
-0.09020918 -0.11449651 0.24054767
-0.09699406 -0.10937663 0.24028993
-0.10285986 -0.103226244 0.24057126
-0.107628375 -0.09623225 0.24138317
-0.11115472 -0.08860713 0.24270093
-0.113331735 -0.0805826 0.24448456
-0.11409329 -0.07240246 0.24667984
-0.113416225 -0.064315245 0.24922006
-0.111321144 -0.056566723 0.25202808
-0.10787167 -0.04939229 0.2550185
-0.10317263 -0.043009967 0.2581005
-0.0973668 -0.037613653 0.2611805
-0.0906306 -0.03336733 0.26416484
0.19426593 -0.12834992 0.071465105
0.18213661 -0.15053831 0.05903124
0.16938545 -0.16970237 0.042777244
0.15639988 -0.1852598 0.023196992
0.14357443 -0.19673795 0.00088540465
0.13129887 -0.20378797 -0.023479596
0.11994609 -0.20619571 -0.049157675
0.10986115 -0.20388801 -0.07536861
0.10135038 -0.19693497 -0.10131601
0.09467241 -0.18554787 -0.12621148
0.09003014 -0.17007269 -0.1492986
0.08756464 -0.15097965 -0.16987582
0.08735082 -0.12884887 -0.18731797
0.08939517 -0.104352765 -0.20109507
0.09363557 -0.07823568 -0.21078846
0.099943176 -0.051291145 -0.21610367
0.108126335 -0.024337836 -0.21687919
0.117936425 0.0018052235 -0.21309143
0.12907535 0.026343763 -0.2048555
0.14120468 0.048532173 -0.19242164
0.15395585 0.067696236 -0.17616764
0.16694142 0.08325367 -0.15658739
0.17976683 0.094731785 -0.13427581
0.19204246 0.101781845 -0.10991078
0.20339519 0.10418957 -0.08423271
0.21348014 0.10188188 -0.05802177
0.22199091 0.09492884 -0.03207437
0.2286689 0.08354173 -0.0071789026
0.23331115 0.06806656 0.015908182
0.23577665 0.04897352 0.036485426
0.23599046 0.026842743 0.053927567
0.23394611 0.0023466647 0.06770465
0.22970572 -0.023770437 0.07739806
0.22339812 -0.050714966 0.082713276
0.21521497 -0.07766827 0.08348879
0.20540488 -0.10381135 0.07970105
0.29910064 -0.006985366 0.2157417
0.312452 -0.005268127 0.19596042
0.3244238 -0.0073993774 0.17535366
0.33465242 -0.0133143775 0.15454756
0.34282705 -0.02283339 0.13417429
0.34869918 -0.03566718 0.11485286
0.35209057 -0.05142581 0.09717038
0.352898 -0.069630474 0.08166414
0.35109714 -0.08972803 0.06880523
0.34674248 -0.111107774 0.058984395
0.3399665 -0.13312018 0.05250004
0.330975 -0.15509628 0.04954915
0.3200412 -0.17636852 0.050221436
0.3074974 -0.19629043 0.05449647
0.29372463 -0.2142567 0.062244307
0.27914143 -0.22972146 0.07322958
0.26419082 -0.2422148 0.08711846
0.24932717 -0.25135717 0.10348901
0.23500206 -0.25687075 0.12184378
0.2216507 -0.25858796 0.14162508
0.20967884 -0.25645673 0.16223183
0.19945022 -0.25054172 0.18303794
0.19127567 -0.24102274 0.20341119
0.18540347 -0.2281889 0.22273262
0.18201211 -0.21243027 0.24041507
0.18120463 -0.19422558 0.25592136
0.18300556 -0.17412807 0.26878026
0.1873602 -0.15274832 0.2786011
0.19413616 -0.13073595 0.28508544
0.20312764 -0.108759806 0.28803632
0.21406142 -0.08748763 0.28736404
0.22660527 -0.06756572 0.283089
0.240378 -0.049599428 0.27534118
0.25496128 -0.03413466 0.26435593
0.26991186 -0.021641292 0.250467
0.2847755 -0.012498936 0.23409648
-0.13910525 0.011101239 0.11397469
-0.15132539 0.02313697 0.09502129
-0.15955411 0.03691379 0.07512384
-0.16354144 0.052013103 0.054886904
-0.1631662 0.06797612 0.034925368
-0.15843977 0.08431782 0.015845751
-0.14950578 0.10054165 -0.0017722119
-0.13663568 0.11615467 -0.017393202
-0.12022053 0.1306825 -0.0305426
-0.1007591 0.14368369 -0.040820867
-0.07884267 0.15476324 -0.047915697
-0.055137236 0.16358446 -0.051611513
-0.030363 0.16987938 -0.051796038
-0.005272774 0.17345667 -0.04846364
0.019371111 0.17420766 -0.04171559
0.042819865 0.17210956 -0.03175693
0.06436102 0.16722608 -0.018890217
0.083340034 0.15970562 -0.003506435
0.09918026 0.14977668 0.013927007
0.11140041 0.13774094 0.032880425
0.11962915 0.123964116 0.052777875
0.123616464 0.108864814 0.0730148
0.123241216 0.092901796 0.09297635
0.11851479 0.07656009 0.11205597
0.1095808 0.06033626 0.12967393
0.0967107 0.044723228 0.14529493
0.08029554 0.030195402 0.15844433
0.060834106 0.017194225 0.16872257
0.038917698 0.0061146775 0.17581742
0.015212272 -0.0027065473 0.17951323
-0.009561958 -0.00900145 0.17969775
-0.03465217 -0.012578752 0.17636538
-0.05929607 -0.013329755 0.16961731
-0.08274482 -0.011231643 0.15965866
-0.10428598 -0.0063481675 0.14679195
-0.123265 0.0011722874 0.13140815
-0.16775173 0.37143567 0.05878464
-0.17315826 0.37206727 0.033806574
-0.17415595 0.37304407 0.008280443
-0.1707145 0.37433633 -0.017018171
-0.16293849 0.37590477 -0.041320585
-0.15106416 0.3777018 -0.06388835
-0.13545233 0.37967277 -0.084035784
-0.116577335 0.3817578 -0.10115071
-0.09501271 0.38389358 -0.114713095
-0.071413666 0.38601512 -0.12431085
-0.046497237 0.38805807 -0.12965237
-0.021020532 0.38996026 -0.13057536
0.004242394 0.39166397 -0.12705173
0.028523903 0.39311737 -0.11918861
0.051086225 0.39427635 -0.107224844
0.07124382 0.39510566 -0.091524005
0.088384226 0.3955801 -0.07256312
0.1019866 0.39568532 -0.05091833
0.11163768 0.39541805 -0.027247293
0.117044196 0.39478642 -0.0022691917
0.11804192 0.39380965 0.023256937
0.11460045 0.3925174 0.048555546
0.10682444 0.39094892 0.07285794
0.0949501 0.3891519 0.09542573
0.07933825 0.38718095 0.11557316
0.060463272 0.3850959 0.13268808
0.038898647 0.38296014 0.14625046
0.015299607 0.3808386 0.15584822
-0.009616807 0.37879568 0.16118973
-0.03509351 0.37689343 0.16211274
-0.06035642 0.37518975 0.15858911
-0.084637925 0.37373632 0.15072599
-0.10720026 0.37257734 0.13876222
-0.12735786 0.37174806 0.12306139
-0.14449824 0.37127358 0.10410052
-0.15810063 0.37116838 0.082455724
-0.09229117 0.071891636 0.39839134
-0.1437905 0.073122054 0.38259533
-0.19298229 0.06695505 0.36149213
-0.2383719 0.053577997 0.335723
-0.2785802 0.033397377 0.30607095
-0.31238544 0.0070263073 0.27343687
-0.3387604 -0.024733897 0.23881236
-0.35690385 -0.060918212 0.20324945
-0.3662644 -0.100427225 0.16782877
-0.3665577 -0.14206044 0.13362649
-0.35777476 -0.18455292 0.1016818
-0.34018248 -0.22661343 0.07296539
-0.31431547 -0.2669641 0.048349775
-0.28095955 -0.3043789 0.0285829
-0.24112833 -0.33772087 0.014265358
-0.19603197 -0.36597702 0.005832173
-0.14704081 -0.38828886 0.0035395846
-0.09564336 -0.40397832 0.0074572563
-0.04340128 -0.41256878 0.017466158
0.008098114 -0.41379923 0.033262193
0.057289895 -0.4076322 0.05436535
0.10267949 -0.39425516 0.08013447
0.14288774 -0.37407455 0.109786525
0.17669302 -0.34770343 0.14242066
0.20306802 -0.3159432 0.17704515
0.22121148 -0.27975893 0.21260805
0.23057202 -0.2402499 0.24802876
0.23086527 -0.1986167 0.28223106
0.22208238 -0.15612425 0.3141757
0.20449013 -0.11406374 0.34289208
0.17862307 -0.07371308 0.36750773
0.1452672 -0.036298316 0.3872746
0.10543595 -0.0029563121 0.40159217
0.060339637 0.025299862 0.41002533
0.011348456 0.04761165 0.4123179
-0.040049013 0.06330116 0.40840027
-0.16472043 0.2733378 -1.128518
-0.02142248 0.16182032 -1.1613588
0.13064504 0.057335287 -1.1640635
0.28686178 -0.03694254 -1.1365495
0.44248104 -0.118148625 -1.0796531
0.59277445 -0.18381545 -0.9951029
0.73317534 -0.23194788 -0.8854678
0.8594179 -0.26108333 -0.75407946
0.9676661 -0.27033657 -0.6049296
1.054631 -0.2594266 -0.44255036
1.1176702 -0.22868457 -0.2718752
1.1548682 -0.17904496 -0.098090395
1.165095 -0.112015806 0.07352404
1.1480395 -0.02963373 0.23775339
1.1042202 0.0655979 0.38960776
1.0349684 0.17078578 0.5244732
0.9423883 0.28273374 0.6382518
0.82929295 0.3980402 0.7274864
0.69911873 0.5132018 0.7894658
0.5558206 0.62471944 0.82230675
0.4037531 0.72920436 0.8250113
0.24753645 0.8234822 0.7974974
0.09191723 0.90468824 0.74060094
-0.0583764 0.97035515 0.6560506
-0.19877724 1.0184876 0.5464157
-0.32501972 1.047623 0.41502726
-0.43326795 1.0568762 0.26587746
-0.52023286 1.0459661 0.10349812
-0.583272 1.0152243 -0.06717692
-0.62047005 0.9655847 -0.2409617
-0.63069665 0.8985556 -0.41257596
-0.61364126 0.8161735 -0.57680535
-0.5698221 0.72094184 -0.72865975
-0.5005703 0.615754 -0.8635252
-0.40799016 0.5038061 -0.9773038
-0.2948949 0.38849956 -1.0665385
0.3069891 -0.73402655 0.25233743
0.2465782 -0.73248905 0.31523073
0.19185065 -0.7172385 0.3814102
0.14446923 -0.68873817 0.448865
0.105873674 -0.64785427 0.51554555
0.07723665 -0.5958288 0.5794257
0.059428304 -0.5342425 0.63856465
0.05298975 -0.46496683 0.6911653
0.058116555 -0.39010668 0.73562956
0.074653 -0.31193644 0.7706064
0.1020966 -0.23283143 0.795033
0.13961351 -0.1551952 0.80816716
0.18606381 -0.081386656 0.8096099
0.24003614 -0.01364848 0.7993173
0.29989046 0.04596117 0.777602
0.36380833 0.09563103 0.7451241
0.4298475 0.13385206 0.70287013
0.49600142 0.15946281 0.65212417
0.56026006 0.1716851 0.594428
0.62067103 0.17014763 0.53153455
0.6753986 0.15489703 0.46535513
0.7227799 0.12639678 0.3979004
0.7613755 0.0855128 0.33121985
0.79001254 0.03348726 0.2673396
0.80782086 -0.02809894 0.20820072
0.81425947 -0.097374626 0.15560004
0.8091327 -0.17223482 0.11113572
0.7925962 -0.250405 0.07615897
0.7651526 -0.32950997 0.05173242
0.72763574 -0.40714622 0.03859821
0.68118536 -0.48095474 0.03715554
0.6272131 -0.54869294 0.0474481
0.56735873 -0.6083026 0.06916326
0.5034409 -0.65797246 0.10164125
0.43740177 -0.69619346 0.14389513
0.37124783 -0.72180426 0.19464111
-0.25145754 0.19657359 -0.64395404
-0.14270233 0.18642977 -0.6792855
-0.029265195 0.17924362 -0.6953878
0.08540716 0.17523351 -0.69177145
0.19783045 0.1745213 -0.66854644
0.30458882 0.17712861 -0.6264184
0.40243834 0.1829762 -0.56666744
0.48840603 0.19188644 -0.49110907
0.55987966 0.20358856 -0.40203893
0.6146878 0.21772702 -0.30216363
0.65116477 0.23387223 -0.19451755
0.6682026 0.25153357 -0.08237171
0.6652833 0.2701745 0.030866582
0.64249575 0.2892286 0.1417565
0.60053235 0.30811682 0.24692875
0.5406681 0.3262654 0.3431878
0.46472186 0.34312278 0.42760882
0.3750013 0.35817683 0.4976266
0.27423254 0.3709702 0.5511139
0.16547719 0.381114 0.58644545
0.052040085 0.38830015 0.60254776
-0.062632225 0.39231026 0.5989314
-0.17505555 0.39302245 0.57570636
-0.28181398 0.3904152 0.53357834
-0.37966353 0.38456756 0.4738273
-0.46563122 0.37565732 0.39826894
-0.5371049 0.3639552 0.30919886
-0.59191287 0.34981674 0.20932351
-0.6283899 0.33367154 0.10167751
-0.6454277 0.31601018 -0.010468325
-0.6425085 0.29736927 -0.12370657
-0.61972094 0.27831522 -0.23459649
-0.57775754 0.25942695 -0.33976877
-0.5178932 0.2412784 -0.4360278
-0.441947 0.22442098 -0.5204488
-0.3522265 0.20936692 -0.5904667

