-0.059382 -0.538848 -0.015983 -0.004047 0.908699 0.161805
0.037501 0.262240 -0.010272 0.053258 -0.920332 0.050680
0.108929 -0.147888 0.004854 -0.043933 0.998805 0.019022
0.115816 -0.136955 0.006721 -0.033994 0.987836 0.019252
0.083934 -0.019051 -0.014570 0.108032 -0.858390 -0.004562
0.042477 0.331481 -0.016615 0.065883 -0.943829 0.047477
-0.011298 0.165513 0.031854 -0.019673 1.039671 -0.012295
0.116528 -0.061113 0.010428 -0.029844 0.997156 0.005978
-0.057959 -0.553154 -0.020463 0.009240 0.944824 0.136233
0.127029 -0.410250 -0.016812 -0.017113 0.994905 0.029201
-0.062612 -0.588258 -0.024616 -0.003373 0.933835 0.166805
0.137127 -0.556220 -0.029279 -0.014063 1.011980 0.032759
0.128519 -0.323222 -0.005311 -0.019029 0.952641 0.050134
0.034772 0.274629 -0.010889 0.047380 -0.915662 0.051003
-0.056589 -0.501642 -0.013147 -0.000851 0.933436 0.144078
0.132986 -0.595585 -0.030332 -0.019272 0.996071 0.035350
0.034140 0.300964 -0.013242 0.049803 -0.937903 0.049356
0.593436 0.087069 0.033208 0.524427 -0.591404 0.410608
-0.513960 0.104007 0.057197 -0.516572 -0.565648 0.522600
-0.010748 0.037945 0.001665 -0.044461 -0.814109 0.063473
0.053438 0.122926 -0.005446 0.070200 -0.926434 0.030984
0.056648 0.276580 -0.014616 0.064555 -0.894919 0.041212
0.172560 0.455965 -0.062677 0.670043 -0.517811 -0.094076
0.084521 0.186792 0.024059 -0.065449 1.045869 -0.038264
-0.031797 0.000253 0.023418 -0.017685 0.993135 0.021608
-0.054007 -0.728590 -0.036691 -0.028532 0.897412 0.236118
-0.058137 -0.781803 -0.023309 -0.056612 0.856375 0.303613
0.108768 -0.091938 0.008421 -0.044965 1.009431 0.011367
0.040993 0.552825 -0.061488 0.763245 -0.254735 -0.110924
0.051941 -0.809231 -0.018203 -0.073598 0.818045 0.376324
0.036347 0.296710 -0.014316 0.047553 -0.904964 0.047415
-0.362670 0.258495 -0.044487 -0.732709 -0.602339 0.109879
-0.102897 0.471327 -0.026603 -0.647859 -0.380305 0.022138
0.042246 0.318433 -0.013439 0.053422 -0.929617 0.053662
-0.057716 -0.409182 0.001653 0.031341 0.947863 0.098580
0.025483 0.315907 -0.013925 0.035466 -0.942468 0.044980
-0.184117 0.409597 -0.035864 -0.677515 -0.548311 0.003758
-0.028695 0.426804 -0.031639 0.043011 -0.802122 0.031158
0.052748 -0.761717 -0.021002 -0.052186 0.868704 0.288304
0.041273 -0.774972 -0.010509 -0.060638 0.847009 0.322700
-0.064979 0.638417 -0.021597 -0.317058 -0.504868 0.065217
0.034093 0.256311 -0.009640 0.046168 -0.938923 0.051354
0.112190 -0.022874 0.012331 -0.032806 1.006692 -0.002222
0.024925 0.289289 -0.014804 0.034239 -0.913248 0.049741
0.133850 -0.370508 -0.009785 -0.016373 0.958348 0.045845
0.427079 0.252645 -0.053576 0.617995 -0.633178 0.311739
-0.024484 0.351821 -0.025384 0.042703 -0.858186 0.023461
-0.052952 -0.310326 0.011092 0.009261 0.973202 0.086906
0.055772 0.410128 -0.029602 0.016837 -0.868625 0.027549
0.133805 -0.488798 -0.024264 -0.015847 0.997288 0.028585
0.039027 0.302088 -0.015687 0.059952 -0.929410 0.048626
0.022932 -0.758151 0.057531 -0.089756 0.723772 0.408830
-0.010880 0.060614 -0.002101 -0.041730 -0.851957 0.051147
0.034585 -0.799117 0.006708 -0.077013 0.807243 0.383374
-0.045349 -0.210693 0.018101 0.001509 1.017809 0.063962
0.280113 0.411833 -0.081159 0.609911 -0.730891 -0.125265
0.129198 -0.522161 -0.027830 -0.011178 0.968390 0.027078
0.076910 0.035876 -0.022604 0.127682 -0.908465 -0.028854
-0.060517 -0.616082 -0.027911 0.002640 0.949116 0.156305
-0.052484 -0.436456 -0.005461 0.012037 0.896909 0.121411
-0.056757 -0.767576 -0.037173 -0.043287 0.892027 0.271888
-0.004358 0.237071 0.032864 -0.012042 1.054040 -0.028015
0.020309 0.275078 -0.012875 0.029785 -0.920556 0.044982
0.039071 0.266864 -0.012725 0.049501 -0.900145 0.047785
0.122470 -0.187704 0.003374 -0.025135 0.955984 0.034176
0.128952 -0.452462 -0.020029 -0.020228 1.021768 0.029672
0.116922 -0.095996 0.005814 -0.031021 1.013972 -0.002583
0.133706 -0.539923 -0.028057 -0.017263 1.012848 0.031725
0.119186 -0.113378 0.007980 -0.027335 0.986085 0.017900
0.035201 0.266624 -0.010532 0.054922 -0.960211 0.045442
0.025928 0.186671 -0.005733 0.034512 -0.929237 0.048892
0.123464 -0.335369 -0.008772 -0.030035 0.987469 0.035872
0.125937 -0.273084 -0.000701 -0.021384 0.949340 0.053560
0.042390 0.308261 -0.016618 0.067693 -0.916506 0.049251
0.038588 0.229951 -0.008483 0.051908 -0.935288 0.044150
0.030823 0.255200 -0.011321 0.044025 -0.916162 0.051845
0.110597 -0.121809 0.005184 -0.035287 1.007258 0.002685
0.101007 0.474718 -0.056904 0.756446 -0.343403 -0.094858
0.044466 0.255173 -0.011134 0.061329 -0.914658 0.045736
0.028476 0.303887 -0.013747 0.047079 -0.956450 0.053915
0.134361 -0.435478 -0.015848 -0.015625 0.972059 0.048257
0.031725 0.313802 -0.013669 0.048377 -0.920274 0.054167
0.136795 -0.522429 -0.027282 -0.008318 0.995668 0.028207
-0.015339 0.148700 0.034368 -0.052282 1.070170 -0.004158
0.025131 0.360180 -0.021222 0.065883 -0.916706 0.026799
0.000640 0.341579 -0.021495 0.029378 -0.908438 0.024520
0.125753 -0.797999 -0.008156 -0.068415 0.851801 0.342923
0.044197 0.214950 -0.006881 0.055859 -0.916702 0.043959
-0.036012 -0.097115 0.023089 -0.016618 1.027352 0.043680
0.028700 0.298795 -0.014714 0.043166 -0.930416 0.047206
0.025630 0.312873 -0.014156 0.039886 -0.921356 0.046667
0.125892 -0.740448 -0.015880 -0.044654 0.930491 0.200706
0.033020 0.335072 -0.020297 0.046617 -0.890864 0.028551
0.035459 0.345406 -0.017411 0.059926 -0.945019 0.051112
0.076974 0.248692 0.027676 -0.072926 1.054223 -0.043692
0.035436 0.311402 -0.013310 0.055055 -0.938378 0.051987
-0.052231 -0.793691 -0.044179 -0.049593 0.891896 0.296987
0.032379 0.255644 -0.011163 0.045781 -0.888658 0.050973
-0.057112 -0.361846 0.005757 0.024936 0.969943 0.089164
0.045613 0.208424 -0.006238 0.062077 -0.936993 0.040232
