0.265911 0.431016 -0.139739 0.645209 -0.816765 -0.170905
-0.103457 -0.861329 0.075195 -0.156608 0.853454 0.514661
-0.570355 0.028389 0.057912 -0.378239 -0.487550 0.739834
0.205150 -0.243615 0.012184 -0.034797 -1.055299 -0.088365
-0.013334 0.853279 0.006438 0.105094 -1.486244 0.083522
0.640311 0.023019 0.076990 0.601109 -0.583278 0.353004
-0.268053 0.403673 -0.076131 -0.714168 -0.666040 0.092815
0.047091 0.156603 0.130363 -0.053712 -1.014211 -0.054942
-0.127755 -0.481867 -0.050661 0.041948 1.159592 0.086127
0.198383 -0.684531 -0.022317 -0.024303 1.306952 -0.028998
-0.100487 -0.090885 -0.082804 -0.256190 -1.021224 -0.157434
0.045287 0.511780 0.060742 0.541243 -0.618894 -0.203728
0.465312 0.236595 -0.016706 0.655437 -0.495645 0.450020
0.019949 0.280649 -0.127573 -0.173438 -1.008291 -0.185258
0.166318 0.013443 -0.105806 0.003419 -1.065738 -0.007338
0.135684 -0.842239 0.180538 -0.162367 0.845592 0.503076
-0.432377 0.212433 -0.049296 -0.486964 -0.568514 0.525449
-0.114345 -0.267119 0.095283 0.133292 -1.040682 -0.032763
-0.035704 -0.785466 -0.144988 -0.066051 1.049485 0.273077
0.121118 -0.459321 0.052848 0.592904 -0.832736 -0.225429
0.039275 -0.073079 0.117302 0.059445 -1.072094 0.026688
-0.125597 0.127628 -0.026710 -0.128616 -0.978170 -0.102361
-0.089552 0.333096 0.068783 0.009641 -1.085568 0.006850
0.175101 0.301432 0.038196 0.302598 -1.006277 -0.127200
-0.030050 0.494679 -0.127421 0.321664 -0.895838 -0.208942
-0.040540 -0.673605 0.021606 -0.001590 1.077347 0.182931
-0.050085 -0.296802 -0.091408 -0.230112 -0.960489 -0.229547
0.130283 -0.868830 -0.045301 -0.174580 0.626060 0.760109
0.076220 0.670320 -0.044070 1.159183 -0.076087 -0.175156
0.000332 0.043417 -0.148060 -0.153491 -1.009797 -0.197114
0.092709 -0.567681 -0.090263 -0.018870 1.203739 0.002854
0.208823 0.516600 0.011113 0.959460 -0.294180 -0.215086
-0.124519 0.501187 0.057599 -0.792092 -0.562285 -0.021645
0.197009 0.034794 0.059554 -0.008978 -1.024602 -0.059288
0.055707 -0.152901 -0.088633 0.078054 -1.071945 -0.034063
-0.044155 -0.431485 0.079613 0.042179 1.177155 0.080627
-0.113008 -0.023898 0.089599 -0.131718 -1.002402 -0.085409
0.098480 -0.361100 -0.099313 0.472943 -0.911112 -0.254117
0.342878 0.333704 -0.042617 0.748392 -0.643522 -0.053277
0.030324 0.738298 0.102695 -0.093584 1.344407 -0.136985
0.186765 0.161590 -0.027070 -0.063497 -1.012681 -0.047829
0.068225 -0.285348 0.067597 -0.025759 -1.031859 0.048490
0.096486 0.413418 -0.145615 -0.023643 -1.038725 -0.145652
-0.282467 0.263881 -0.028458 -0.767539 -0.453936 0.095346
-0.114970 0.326472 -0.071395 -0.395238 -0.849604 -0.150860
0.189166 -0.117986 -0.065324 0.135061 -1.002736 -0.109899
0.164733 -0.142734 0.098342 -0.011015 -1.034532 -0.056628
-0.122560 -0.625098 -0.078480 0.008001 1.106410 0.062958
0.568799 0.151166 0.014968 0.591681 -0.632323 0.296926
-0.048361 0.586866 -0.026618 -0.081906 -0.848906 -0.172442
0.062073 0.817145 -0.102796 0.093592 -1.542420 0.089490
-0.164064 0.514665 -0.072509 -0.866784 -0.590790 -0.024235
0.009280 -0.449802 -0.046839 -0.055735 -1.045914 -0.102392
-0.119808 -0.781983 -0.031436 -0.014037 1.064006 0.154855
0.059583 -0.769496 0.009583 0.001431 1.134290 0.045920
-0.487891 0.131836 0.073712 -0.366474 -0.472061 0.634228
0.175757 -0.465939 -0.082743 0.628347 -0.783902 -0.297269
0.079305 0.392625 0.097660 -0.009114 -1.016090 -0.131733
0.114753 0.566581 -0.106493 1.098593 -0.130767 -0.149592
0.075347 0.143150 -0.124476 -0.025358 -1.014209 -0.057239
-0.102065 -0.554320 0.048346 0.105637 1.204259 0.147720
-0.144041 -0.144957 0.019327 -0.144553 -1.006714 -0.121090
0.137764 0.249513 -0.109075 0.102334 -1.027815 -0.131595
0.192896 -0.552925 0.018215 0.533390 -0.882848 -0.207531
-0.216711 0.415805 0.034834 -0.806339 -0.633838 -0.083359
-0.054336 -0.152413 0.122028 -0.028059 -1.064633 -0.080517
0.113008 -0.754425 -0.096320 -0.023216 1.268358 -0.021442
-0.128680 -0.376998 0.003773 0.026857 1.149268 0.084487
-0.056040 0.108085 0.106486 -0.057765 -0.993138 -0.118862
-0.025416 0.703626 0.006533 -0.918858 -0.265842 0.317058
0.087469 0.263871 0.111877 0.705024 -0.722135 -0.190098
0.090383 0.805076 0.030080 0.145491 -1.364253 0.062371
0.412268 0.236454 -0.117251 0.752833 -0.521571 0.260923
0.150401 0.156800 0.079774 0.108197 -1.024954 -0.095846
0.144788 -0.262320 -0.085803 0.169347 -0.983550 -0.213596
-0.113936 0.238052 0.019905 -0.106933 -1.008968 -0.101347
-0.133592 0.003650 -0.038774 -0.370252 -0.982092 -0.039988
0.052209 -0.053218 -0.133086 0.006461 -1.001685 -0.216442
0.307242 0.443273 -0.039792 0.674887 -0.703102 -0.252799
0.025255 -0.184526 0.055347 -0.122475 -0.988333 -0.067642
0.013458 0.029400 0.139927 -0.003488 -1.069212 0.036078
0.203431 -0.409439 0.004035 0.552541 -0.841130 -0.232423
-0.010131 -0.659795 -0.079757 -0.004848 1.122956 0.061574
0.194137 0.411194 0.017782 0.853899 -0.413144 -0.104287
-0.085098 0.224839 -0.081177 -0.103585 -1.002452 -0.041320
0.076222 -0.547661 0.017041 0.154165 -0.968985 -0.206518
0.090311 -0.835815 0.083536 -0.096287 0.875925 0.470098
-0.065218 -0.862135 -0.067182 -0.142002 0.817219 0.515039
-0.112000 0.436007 -0.113693 -0.381320 -0.825305 -0.230433
0.182051 -0.784144 -0.013349 -0.052750 1.284377 -0.068334
0.110529 0.045923 0.116599 0.023197 -1.013168 -0.006488
-0.018948 0.414857 0.102412 0.025736 -1.054648 -0.079022
-0.013071 0.262156 0.116968 0.034277 -1.050776 -0.040174
-0.028065 -0.798814 0.048205 -0.003857 1.104031 0.079043
0.014865 -0.348809 -0.037916 -0.000654 -1.009143 -0.130923
-0.095247 -0.188333 -0.072421 -0.211208 -1.005796 -0.179710
0.178417 0.474276 -0.136630 0.879777 -0.543237 -0.165820
0.208129 -0.060035 0.041048 0.054845 -1.060926 -0.017478
-0.036503 0.776456 -0.056610 -0.969543 -0.158853 0.324643
0.152217 -0.332295 0.077894 0.173047 -1.028427 -0.150939
0.183179 -0.596793 -0.072895 0.518520 -0.937254 -0.172853
-0.037775 0.125328 -0.116210 -0.238753 -0.961177 -0.170140
-0.367397 0.248458 0.009789 -0.704507 -0.642670 0.250945
-0.349395 0.321464 -0.058450 -0.833943 -0.663400 -0.027428
0.078139 0.677903 0.051662 -0.037127 1.233317 -0.032830
0.346543 0.319597 -0.133341 0.735924 -0.683081 -0.022250
-0.019114 -0.289864 0.095354 -0.089102 -1.059349 0.057085
0.000794 -0.538600 -0.067383 -0.042469 1.064071 0.116143
0.011593 -0.801633 -0.068747 -0.031336 1.172459 0.041187
0.054594 -0.270457 -0.061902 0.105446 -1.029974 -0.179606
0.187329 0.388738 -0.108595 0.481082 -0.860000 -0.224632
-0.002303 -0.590024 0.019509 0.033125 1.083184 0.164027
0.126701 0.574167 -0.018821 1.027553 -0.174231 -0.119881
-0.062290 -0.856193 0.153709 -0.147146 0.678306 0.590221
-0.461362 0.138642 -0.010758 -0.463465 -0.538822 0.572009
0.250045 0.526814 -0.065828 0.652756 -0.800814 -0.183195
0.173167 -0.852395 0.041133 -0.172745 0.714082 0.664915
0.264717 0.348954 -0.079303 0.854527 -0.541939 -0.173936
0.351463 0.408063 -0.106503 0.705042 -0.663314 -0.093160
-0.026073 0.407748 -0.129751 -0.522233 -0.846560 -0.092920
0.106303 0.324242 -0.140386 -0.136052 -1.016086 -0.072704
0.168591 0.095759 -0.079823 -0.164404 -0.996687 -0.115299
-0.128669 -0.458073 0.032737 -0.008771 1.188930 0.018124
0.203503 -0.019750 -0.034455 -0.022175 -1.016637 -0.121452
0.577123 0.072000 -0.016509 0.510106 -0.723726 0.271549
-0.012465 -0.205205 -0.079788 -0.164727 -1.043061 -0.022459
0.180349 0.302518 -0.045941 -0.000637 -0.981964 -0.232743
-0.352078 0.228676 -0.070549 -0.793666 -0.605158 0.144728
-0.059897 -0.425461 -0.086865 0.005009 1.131633 0.051080
-0.119129 -0.674038 -0.006697 0.044447 1.172913 0.084738
-0.114494 -0.367256 0.084883 0.065549 1.177404 0.108537
0.114426 -0.618530 0.036171 -0.038184 1.252953 -0.034632
-0.112418 -0.270858 -0.043795 -0.228254 -1.023794 -0.115866
-0.247685 0.343135 0.012553 -0.721151 -0.625353 -0.071424
0.070348 -0.705876 -0.045835 -0.017125 1.056247 0.120291
-0.249681 0.324835 -0.083664 -0.703104 -0.686770 0.056500
-0.065262 -0.574631 -0.103491 0.024482 1.117771 0.078961
-0.191114 0.398883 -0.096827 -0.875799 -0.609134 -0.055794
-0.136068 -0.230406 0.028298 -0.227621 -0.988565 -0.156612
0.108579 0.049395 -0.146723 -0.076979 -0.998837 -0.137347
0.065142 -0.415798 0.017761 -0.032563 -1.002945 -0.142801
0.140549 0.499712 0.046765 1.054341 -0.161907 -0.142271
0.169621 -0.368199 -0.067071 0.503814 -0.914209 -0.173768
-0.121560 0.361221 -0.001417 -0.507253 -0.827684 -0.126830
0.165461 -0.025991 0.097244 -0.051550 -1.036664 -0.033800
0.057278 0.576209 0.020057 0.975358 -0.154317 -0.227229
0.042331 0.610066 -0.078175 1.109496 -0.118811 -0.157399
0.137114 -0.705642 0.019380 -0.025685 1.248861 -0.018804
0.017678 0.349007 0.113313 0.009350 -1.069986 0.020104
0.137177 -0.156917 -0.104868 0.083967 -1.079480 -0.111152
-0.570127 0.031047 -0.018050 -0.466685 -0.544081 0.599264
0.008265 0.690236 -0.071320 0.367829 -0.624124 -0.073329
0.126809 -0.844830 -0.117132 -0.110322 0.795482 0.573903
0.411906 0.308885 -0.060213 0.703647 -0.424118 0.226673
0.096831 -0.492930 -0.099356 0.464755 -0.829795 -0.162533
0.205050 -0.158046 0.036803 0.050891 -1.055168 0.009967
0.008500 -0.515933 0.023298 0.021458 1.131498 0.070825
0.063574 -0.696002 0.029398 -0.033868 1.085043 0.114996
0.086839 -0.206533 0.090141 -0.047330 -1.059564 0.007116
-0.129548 0.039878 0.057023 -0.098462 -1.056642 0.004024
0.054947 0.862901 -0.045792 0.093801 -1.571789 0.094389
-0.142438 -0.037932 0.020746 -0.236180 -1.039391 -0.098790
-0.094507 -0.861663 -0.000701 -0.119582 0.949104 0.378938
0.041953 0.490991 -0.126656 0.607935 -0.677819 -0.233706
0.105261 0.782726 -0.036624 0.096508 -1.469269 0.085273
-0.100310 -0.022145 -0.100890 -0.283854 -1.046083 -0.011350
0.080615 -0.635101 -0.071805 -0.017732 1.169724 0.011314
-0.107197 0.052750 -0.082315 -0.171877 -0.991877 -0.102162
-0.114830 0.565151 -0.036473 -0.807844 -0.562920 0.000338
0.194342 0.102718 0.011119 0.088717 -1.040285 -0.038007
0.593625 0.110140 0.066743 0.573557 -0.689837 0.271026
-0.543454 0.094306 0.052015 -0.401860 -0.423702 0.776801
-0.007283 -0.122570 -0.086500 -0.220659 -0.979634 -0.137324
-0.059911 -0.049925 0.126582 0.030302 -1.037622 -0.021175
-0.116774 -0.169983 0.096428 0.068234 -1.043276 -0.040557
-0.422561 0.200095 0.018150 -0.581411 -0.556399 0.404981
0.511478 0.217694 -0.064646 0.665659 -0.545582 0.422271
-0.025618 0.479729 0.080449 0.135663 -0.996756 -0.146211
0.182720 0.208746 0.022685 -0.007884 -1.020226 -0.124988
0.052664 -0.617389 -0.012170 -0.054199 1.121551 0.029082
-0.249984 0.438323 -0.020452 -0.828448 -0.624908 -0.122707
0.201110 -0.331886 0.030899 0.034104 -1.037817 0.012735
0.177408 -0.410612 0.066625 0.041087 -1.031545 -0.098239
0.073688 -0.140217 0.085941 -0.007205 -1.069878 0.057746
0.168646 -0.730106 -0.062168 -0.043696 1.289468 -0.058776
-0.152695 0.432436 0.044567 -0.613291 -0.681433 -0.068334
0.130633 -0.256663 0.084953 0.006450 -1.042910 -0.058836
0.000853 0.687100 0.071620 -0.109043 1.373081 -0.164931
0.196088 -0.183612 -0.056194 0.067763 -1.037275 0.011225
-0.020496 0.333509 -0.129191 -0.052199 -0.978310 -0.175945
0.005568 0.744238 -0.109958 -0.804206 -0.533702 0.143430
0.200934 -0.482728 -0.023745 0.486191 -0.871146 -0.177157
-0.055060 -0.694305 -0.114148 -0.020253 1.119425 0.024837
0.053476 -0.401606 -0.055959 -0.017040 -0.996771 -0.027750
0.632328 0.038784 0.013421 0.552920 -0.609882 0.455120
-0.094804 0.398587 0.073240 -0.006267 -1.014629 -0.178812
-0.136123 -0.093606 0.059766 -0.034969 -1.065568 -0.103162
0.037477 0.217565 -0.123567 -0.134618 -0.982421 -0.192026
0.062891 -0.484530 0.005562 -0.031539 -1.046989 -0.053565
0.097754 -0.107805 -0.121872 -0.038688 -1.059199 -0.018029
-0.131973 0.065927 -0.001944 -0.134134 -1.007182 -0.093276
-0.126875 -0.610168 -0.008290 0.041876 1.159831 0.085962
0.120960 0.438388 0.080876 0.697397 -0.325772 -0.132879
0.526919 0.199292 0.008619 0.639903 -0.576112 0.388815
0.402217 0.230775 -0.054440 0.719146 -0.518443 0.330232
0.146866 -0.829829 0.118907 -0.121592 0.737961 0.622421
0.003677 -0.128327 0.112139 -0.019521 -1.028767 -0.001819
-0.124269 -0.728708 -0.065703 0.021385 1.189310 0.051725
0.009979 -0.405416 0.047009 0.161293 -0.997367 -0.133766
-0.030881 -0.836419 0.099010 -0.091694 0.905470 0.357875
0.135849 -0.802418 0.049854 -0.057770 1.004956 0.216442
0.119926 0.108071 0.105517 -0.053479 -1.027067 0.030411
-0.061896 -0.490887 0.069542 0.027688 1.157773 0.069646
-0.127736 -0.319130 0.027787 -0.089950 -1.045784 -0.130984
0.072847 -0.775766 -0.053400 -0.016280 1.159530 0.016406
-0.090341 0.151521 0.077396 0.009267 -1.065326 0.006759
-0.010467 0.811162 0.052549 -0.388008 -0.878812 0.031064
0.034332 0.423621 -0.128629 0.059934 -1.010913 -0.171542
-0.100035 -0.641919 0.043084 0.060736 1.159804 0.108560
-0.003653 -0.720929 0.006126 0.001163 1.140164 0.075645
0.048866 -0.208688 -0.062580 -0.019514 -0.999469 -0.178464
-0.112860 -0.354416 -0.051190 0.050289 -1.016168 -0.095094
-0.002070 -0.719582 -0.091197 -0.043485 1.047213 0.160458
0.103074 -0.392606 0.060108 0.346185 -0.975568 -0.197537
-0.042808 0.354736 0.104643 -0.025794 -1.058298 -0.042776
-0.028648 0.585835 -0.084552 0.938946 -0.172322 -0.155622
0.153681 0.155074 -0.081672 -0.078545 -0.970834 -0.044448
-0.073628 0.371983 -0.117157 -0.382948 -0.893034 -0.255281
0.135809 -0.628873 -0.096582 -0.041205 1.234664 -0.038157
0.162549 0.334341 -0.097871 0.124493 -0.994796 -0.149315
-0.060341 0.230850 0.095289 -0.047574 -1.039061 -0.067988
-0.085872 -0.766003 -0.117007 -0.008185 1.117048 0.057637
0.174376 0.099604 0.068172 0.066789 -1.045288 -0.112460
-0.120538 0.194464 -0.021167 -0.210261 -1.043607 -0.146280
-0.108541 0.093948 0.073191 -0.101128 -1.016196 -0.097502
-0.023871 0.156008 0.121039 -0.039636 -1.025688 0.015330
0.190749 -0.636129 0.011224 -0.035228 1.271010 -0.037413
0.262986 0.379059 -0.028154 0.511618 -0.916780 -0.182048
-0.126197 -0.127905 -0.044184 -0.261130 -0.998473 -0.223096
0.001610 -0.340893 0.073689 -0.053668 -1.039962 -0.063898
-0.063347 -0.860650 -0.126109 -0.145495 0.679874 0.665775
-0.058843 -0.757618 0.019406 -0.031235 1.109316 0.043200
0.086269 -0.827947 -0.029545 -0.155954 0.867024 0.484184
0.020130 -0.252102 0.066273 0.090299 -1.076206 -0.023061
0.350911 0.279795 -0.063752 0.605417 -0.648509 0.214580
-0.067132 0.051323 0.112761 0.042340 -1.112728 -0.036953
-0.298803 0.316067 0.006377 -0.846232 -0.611903 0.032490
-0.023862 -0.234341 0.110382 0.079247 -1.129437 0.003396
-0.004506 -0.054788 -0.122874 -0.165774 -1.007440 -0.060451
-0.298040 0.368145 -0.042055 -0.770249 -0.569442 0.030316
0.167294 -0.517403 0.055670 0.541389 -0.879180 -0.209328
0.056982 -0.336919 0.044532 0.153630 -0.988939 -0.146837
-0.020190 -0.834579 0.003773 -0.104805 0.940144 0.331570
0.158631 -0.042357 -0.116980 -0.081191 -0.990114 -0.227660
-0.013497 0.177140 -0.114284 -0.109946 -1.011407 -0.035521
0.307955 0.450491 -0.106254 0.670765 -0.713642 -0.176270
-0.123326 0.149967 0.025655 -0.122469 -1.018964 -0.126129
0.054452 0.843274 0.051935 0.135380 -1.486521 0.081149
0.101028 0.542224 0.032434 1.176093 0.006389 -0.169675
0.021897 0.646448 0.038198 0.913727 -0.215206 -0.240482
0.018665 -0.146783 -0.042315 -0.068248 -0.990659 -0.162384
0.114817 0.517203 -0.134191 0.928548 -0.320795 -0.206449
0.068227 -0.004192 -0.156260 -0.204640 -0.991239 -0.147217
0.242831 0.480185 -0.124840 0.775014 -0.590728 -0.111993
0.157525 -0.207873 0.090847 0.042184 -1.021867 -0.043101
0.308576 0.360525 -0.137756 0.575029 -0.844500 -0.236584
-0.134822 -0.536830 -0.042689 0.071051 1.192285 0.110233
-0.066081 0.286203 0.088237 -0.035657 -1.006020 -0.056637
-0.132541 -0.069125 -0.042484 -0.229611 -0.975096 -0.175878
0.034915 -0.311420 -0.000030 -0.015089 -1.067221 -0.000249
-0.048114 -0.352500 -0.087655 -0.192000 -0.988271 -0.232202
-0.206883 0.486650 -0.050891 -0.796812 -0.546927 -0.014545
0.126156 0.364404 0.088130 -0.038131 -1.000601 -0.099798
-0.051362 -0.153834 -0.098940 -0.418077 -0.958049 -0.171135
-0.073081 0.270444 -0.110212 -0.202400 -0.971436 -0.166276
-0.180441 0.452660 -0.089038 -0.730376 -0.604969 0.013414
0.013834 -0.651477 0.007362 -0.016651 1.102645 0.061477
0.093546 -0.845711 0.137672 -0.164090 0.695753 0.569171
0.061007 -0.517208 -0.065217 0.041482 -1.033531 -0.185983
-0.059656 0.515800 0.056407 -0.434842 -0.911543 -0.036551
0.206670 0.036350 0.005623 0.049946 -1.055903 0.035548
-0.047985 -0.546596 0.050596 -0.001370 1.113746 0.138653
-0.387240 0.287615 -0.038250 -0.810575 -0.616567 -0.071984
0.198159 0.381679 -0.027946 0.474978 -0.899712 -0.234777
0.038221 0.077177 0.133039 0.025061 -1.025718 -0.058976
0.178820 0.214711 -0.034046 -0.108512 -1.022925 -0.061914
0.079891 -0.309257 -0.089751 0.340685 -0.956312 -0.221085
-0.220789 0.473421 0.008344 -0.875001 -0.577810 -0.050990
-0.064101 -0.628532 -0.105770 0.013423 1.122893 0.067912
0.175744 -0.805094 -0.062593 -0.037853 1.269381 -0.045459
0.033147 0.333988 -0.127146 -0.058608 -1.062732 0.030991
-0.361085 0.205887 -0.022175 -0.764157 -0.592595 0.180348
-0.054108 0.558773 0.018675 -0.761457 -0.577078 0.101134
0.165574 0.352600 0.053829 0.129864 -1.063830 -0.068200
0.273856 0.478554 -0.017203 0.670463 -0.736646 -0.200835
0.092602 0.239080 -0.135876 -0.156687 -1.020651 -0.116151
0.152196 0.417958 -0.136213 0.502259 -0.814830 -0.237710
-0.069486 -0.203186 0.116392 -0.059724 -1.082219 -0.045857
0.201389 -0.335538 -0.022099 0.014023 -1.037480 -0.085790
0.008652 -0.762311 -0.024470 -0.017352 1.147751 0.018996
0.059935 0.465774 0.082263 0.725353 -0.656680 -0.175731
0.103349 -0.746172 0.027851 -0.025997 1.240666 -0.010381
0.087984 -0.053565 0.123564 0.026973 -1.061857 -0.032297
-0.105419 -0.441472 0.077159 0.017633 1.133871 0.065464
0.477640 0.184168 -0.002076 0.651783 -0.536421 0.436593
0.081737 0.637997 -0.002887 0.992920 -0.228329 -0.108631
0.132994 0.095954 -0.118376 0.023629 -1.033067 -0.042120
0.170685 0.446306 0.048771 0.801342 -0.584030 -0.106891
0.444268 0.276526 -0.107222 0.649771 -0.550919 0.365151
-0.021782 0.074791 0.127118 0.009640 -1.024109 0.005977
-0.119976 -0.676860 -0.082125 -0.000787 1.105706 0.065280
0.114609 -0.869787 0.052894 -0.193918 0.686451 0.681632
0.388358 0.338558 -0.109357 0.762209 -0.473264 0.302081
0.131270 0.280915 0.090222 0.031499 -1.037557 0.006561
0.183549 -0.248255 0.071665 0.013248 -1.065570 -0.067840
-0.183168 0.361724 -0.061775 -0.486581 -0.837243 0.008466
0.153865 -0.413042 -0.087357 0.513033 -0.874925 -0.231599
-0.112901 0.242352 -0.038815 -0.111735 -0.983729 -0.113876
0.081362 0.714190 -0.070717 0.950236 -0.294532 -0.140762
0.096194 0.213101 0.113185 -0.022002 -1.040105 0.035357
0.163467 0.559881 -0.091360 0.829456 -0.414638 -0.140353
-0.126667 -0.532589 0.008771 0.072854 1.127312 0.204700
0.095936 -0.412015 -0.095681 0.315412 -0.964313 -0.220305
0.007828 0.194969 0.129713 0.122339 -1.026124 -0.096676
-0.128253 0.387575 -0.044508 -0.365375 -0.874459 -0.176551
0.608113 0.096235 0.015804 0.521050 -0.693695 0.353251
0.200352 -0.599676 -0.022907 0.523973 -0.860948 -0.164858
0.167904 -0.750200 0.021691 -0.016776 1.220197 -0.002876
0.177250 -0.094218 0.090061 0.095069 -1.090790 0.032177
0.201556 -0.276556 -0.026131 -0.033222 -1.045253 0.025598
-0.093492 -0.489136 -0.087216 0.067508 1.204580 0.101945
-0.037056 -0.007746 0.142621 -0.028017 -1.057884 -0.061666
-0.009079 -0.458404 0.055227 -0.066429 -1.030016 -0.024310
-0.137173 -0.443252 -0.019563 0.062786 1.122400 0.116554
-0.297475 0.317573 -0.096828 -0.808546 -0.657888 -0.010590
-0.066227 0.448615 -0.129287 -0.696844 -0.675967 -0.184602
-0.181891 0.527504 -0.027639 -0.854396 -0.559954 -0.078743
0.144334 -0.205307 -0.095404 -0.053531 -1.022581 -0.042842
-0.114435 -0.560289 -0.081629 0.096468 1.199324 0.138359
0.207596 0.429884 -0.127610 0.947779 -0.327535 -0.078945
0.142022 0.205180 0.085809 -0.058779 -0.984886 -0.103545
0.191730 -0.649162 -0.056236 -0.023576 1.270313 -0.022036
-0.145007 0.414109 -0.084549 -0.587444 -0.767008 -0.148116
0.075058 0.855001 0.008948 0.092527 -1.585384 0.093640
0.111026 0.173525 -0.109942 -0.101303 -0.976633 -0.094428
-0.011852 -0.269342 -0.077821 -0.216824 -1.000420 -0.140175
0.168916 0.246434 0.050628 -0.069459 -1.041514 -0.069187
0.220067 0.549748 -0.034766 0.801470 -0.636329 -0.109073
-0.028674 0.747087 0.028645 -0.988710 -0.324348 0.359047
0.477418 0.252056 -0.070646 0.702338 -0.485182 0.441535
0.052917 0.041931 -0.158186 -0.238759 -0.976671 -0.223635
0.194446 0.082248 -0.040921 0.010279 -1.043398 -0.108791
0.120488 0.370692 -0.140409 -0.077466 -0.999105 -0.056956
-0.077335 -0.811680 -0.131099 -0.048281 1.051280 0.137301
0.024828 -0.537256 -0.017104 -0.073548 1.004144 0.224876
0.039479 -0.213691 0.019329 0.106211 -0.999235 -0.115626
0.073822 0.784539 0.070749 -0.084945 1.359498 -0.131602
0.099602 -0.061181 -0.138858 0.009006 -1.045062 -0.080163
-0.010077 0.653124 0.002605 -0.864396 -0.419996 0.199429
0.093201 0.774041 -0.082507 0.115553 -1.399136 0.070893
0.042998 0.772938 -0.119968 0.091861 -1.285712 0.030087
0.079213 -0.238079 -0.087788 0.004700 -1.006528 -0.113012
0.025597 -0.454265 0.001500 -0.035019 -1.031394 -0.036352
-0.079718 0.127072 -0.092731 -0.121524 -1.029785 -0.106799
0.155353 0.039563 0.100435 -0.049472 -1.031037 -0.119776
0.259975 0.367333 -0.123456 0.714004 -0.713396 -0.166095
-0.055569 -0.386363 0.090840 -0.088296 -1.067397 -0.051626
0.013903 0.643856 -0.059799 1.161156 -0.058464 -0.130566
0.166405 0.259542 -0.061546 0.035868 -1.046517 -0.024961
-0.061734 -0.309360 0.104634 0.005592 -1.044319 -0.025600
0.115135 -0.005496 -0.149571 0.092289 -1.024094 -0.143385
-0.227887 0.365072 -0.095691 -0.807009 -0.593472 -0.023770
-0.075423 -0.062386 -0.111047 -0.343155 -1.012644 -0.082936
0.205328 0.471178 0.023810 0.962490 -0.331945 -0.132572
0.090327 0.723218 0.046638 -0.087145 1.345130 -0.129511
0.153750 -0.866208 0.081865 -0.214330 0.685641 0.716866
-0.020312 -0.835608 -0.061702 -0.068484 0.927401 0.384558
-0.038446 0.017885 -0.140571 -0.514901 -0.913079 -0.041440
0.308080 0.315941 -0.106588 0.642780 -0.586249 0.053988
0.292131 0.483990 -0.060130 0.505040 -0.879358 -0.186713
0.232385 0.436013 0.006558 0.565632 -0.779701 -0.187725
0.180874 -0.550372 -0.078368 0.540012 -0.885055 -0.214078
-0.106130 -0.507756 0.047463 0.088423 1.192012 0.123886
0.155892 -0.781316 -0.097602 -0.034940 1.241403 -0.025214
0.193985 0.515839 -0.122171 0.856583 -0.501547 -0.134780
-0.472145 0.164750 0.044699 -0.693603 -0.658757 0.311873
0.030852 0.251416 0.127550 -0.117051 -0.991336 -0.047515
-0.018868 -0.464030 -0.080884 0.038267 1.139177 0.088432
0.008323 -0.583301 -0.057522 -0.020811 1.098417 0.080423
0.209169 -0.112078 0.038891 0.054442 -1.054164 -0.070600
-0.011806 -0.171743 0.114564 -0.056650 -1.091866 -0.021978
0.027132 0.842515 -0.086598 0.099019 -1.550158 0.089600
-0.128129 -0.220253 -0.015818 -0.266737 -0.976537 -0.215615
-0.108343 0.458499 0.062913 -0.371758 -0.942415 -0.144724
-0.162767 0.380385 -0.005158 -0.415896 -0.876649 -0.190959
0.434285 0.204556 -0.073501 0.653057 -0.442807 0.463324
-0.112836 -0.075611 0.094382 -0.180602 -0.998001 -0.063791
-0.119144 0.084664 -0.052280 -0.183187 -1.002749 -0.159556
-0.070526 0.571637 -0.074364 -0.846104 -0.602434 -0.006342
0.107660 -0.340281 0.075989 0.056657 -1.063051 0.027121
-0.435236 0.161894 -0.039540 -0.555903 -0.552599 0.467492
0.166925 0.571540 -0.039428 1.107299 -0.035658 -0.165536
0.543390 0.176319 -0.026706 0.646768 -0.586995 0.365582
0.321616 0.373253 -0.037204 0.750402 -0.749250 -0.160962
0.066065 -0.472750 -0.071560 0.147942 -0.985796 -0.201354
-0.001733 0.308462 0.116373 -0.028509 -1.058809 0.017596
-0.131505 -0.586528 -0.046256 0.056337 1.157105 0.104178
-0.097140 -0.412323 -0.065384 0.034383 1.178131 0.070969
0.066277 0.303911 -0.138177 -0.220923 -0.969110 -0.231748
-0.018315 0.848013 -0.037896 0.148485 -1.485360 0.078410
-0.128150 0.504678 -0.097488 -0.803431 -0.672368 -0.122536
0.101456 0.004549 0.131291 -0.043375 -1.048724 0.034502
0.146230 -0.379811 0.075888 0.270940 -0.988133 -0.178077
-0.072504 -0.801959 0.051564 0.020164 1.101444 0.089349
-0.052159 0.231392 -0.115721 -0.107489 -1.017163 -0.174091
0.188313 -0.407545 -0.057685 0.378286 -0.881832 -0.245242
0.092413 0.825351 -0.034820 0.082121 -1.523979 0.089794
-0.114708 -0.716969 -0.017643 0.032707 1.138327 0.088619
-0.024442 -0.076738 0.128913 0.057125 -1.075965 -0.067180
0.027957 -0.095479 -0.089014 -0.009269 -1.017589 -0.145227
-0.504713 0.130862 -0.004867 -0.551517 -0.603917 0.487794
0.032493 -0.140125 0.069304 -0.034738 -1.023621 0.002644
-0.094978 0.184203 -0.066284 -0.030345 -1.002747 -0.069485
0.093968 -0.789089 0.043991 0.032930 1.163268 0.074117
-0.133527 -0.414186 0.029258 0.078583 1.170786 0.139901
-0.070168 -0.863903 0.104164 -0.141538 0.808716 0.500362
0.165903 -0.681660 -0.071062 -0.021468 1.333896 -0.034658
0.076171 0.452221 -0.141621 0.014001 -1.031051 -0.077478
0.349995 0.282501 -0.110005 0.753018 -0.690556 0.005196
0.017602 -0.636831 -0.054771 -0.017485 1.064493 0.128509
0.023873 0.376758 -0.127806 -0.249390 -0.982189 -0.181511
0.188669 0.165717 0.027851 0.118906 -0.990057 -0.105699
0.021110 -0.741697 -0.061440 -0.036840 1.141427 0.120758
0.601087 0.068228 0.056874 0.508081 -0.682366 0.325880
0.207641 -0.177547 -0.014582 0.047378 -1.052265 -0.064885
0.133047 -0.868708 0.132581 -0.141087 0.684153 0.580118
0.184024 0.289108 -0.004782 -0.066337 -0.977746 -0.103031
0.044723 0.114567 -0.135539 -0.244900 -0.966353 -0.181968
0.053849 0.681484 0.087321 -0.078726 1.282743 -0.098832
-0.221951 0.427127 -0.085614 -0.810472 -0.613672 -0.025242
0.213316 -0.068016 -0.001158 0.031543 -1.012189 -0.038387
0.156694 -0.500653 -0.099821 0.572084 -0.841990 -0.215745
-0.068974 -0.258139 -0.089831 -0.425075 -0.935500 -0.205476
-0.110567 0.361573 0.044435 -0.686594 -0.681204 -0.057357
0.550706 0.115845 0.031410 0.467312 -0.669030 0.359564
-0.107434 0.278478 0.032722 -0.187365 -1.023498 -0.034566
0.178997 -0.677743 0.015336 -0.031118 1.245762 -0.024772
-0.093030 -0.133105 -0.083406 -0.219959 -1.026054 -0.126063
-0.250755 0.395524 0.018521 -0.820018 -0.607145 -0.116145
0.130998 -0.580751 -0.104384 0.606844 -0.771279 -0.250611
-0.042545 0.295032 -0.127504 -0.304382 -0.986695 -0.191493
-0.069542 0.471722 0.075323 0.878682 -0.366904 -0.152762
-0.136340 -0.163468 0.058897 0.039000 -1.052685 -0.093249
0.125159 -0.514695 0.048521 0.488249 -0.900941 -0.150477
0.019180 -0.413586 -0.026371 -0.167146 -1.024187 -0.135394
0.133419 -0.716889 -0.094761 -0.014190 1.252309 -0.005179
0.191358 0.333447 -0.018638 0.227388 -1.011107 -0.215863
0.063784 0.386832 -0.139351 -0.081519 -0.986805 -0.051627
-0.102640 0.283184 -0.082388 -0.017414 -0.997763 -0.239423
0.086088 0.679218 0.005824 1.053606 0.080529 -0.159378
-0.455960 0.204423 -0.007487 -0.536005 -0.544241 0.525476
-0.125064 -0.127950 0.081882 -0.185288 -1.004106 -0.084996
0.153460 -0.330198 -0.076183 0.404574 -0.951426 -0.225072
0.003239 -0.785456 -0.106890 -0.010963 1.118622 0.052225
0.204951 -0.523248 -0.012540 0.701091 -0.726386 -0.164832
-0.098938 -0.838948 -0.077480 -0.016937 0.987386 0.327660
0.169830 -0.294034 0.075604 -0.010517 -1.015284 -0.014140
-0.070980 -0.245130 0.112397 -0.062411 -1.004168 -0.066941
0.176550 0.048747 -0.085157 -0.109163 -1.003020 -0.047431
0.092128 -0.105808 0.101362 -0.024308 -1.022935 0.040581
0.188646 0.369609 0.017526 0.370146 -0.913217 -0.134735
0.027077 -0.349783 0.018110 -0.002825 -1.079646 0.031162
-0.131726 -0.271663 0.022680 -0.405885 -0.886974 -0.133040
-0.105822 0.056567 0.091735 -0.118536 -1.078283 -0.045686
0.016451 0.569139 0.025612 1.062106 -0.080914 -0.133759
0.226847 0.387538 -0.095194 0.648362 -0.772315 -0.212610
0.106388 0.752021 -0.008401 0.207950 -1.251307 0.005166
-0.037084 -0.610817 0.029360 -0.021047 1.067838 0.078000
0.053127 0.016643 0.140322 -0.034092 -1.040040 -0.063282
0.172394 0.397370 0.050518 0.292533 -0.949214 -0.118365
-0.033950 0.817119 0.005531 -0.884176 -0.370681 0.306044
0.073849 0.573858 -0.104691 1.035579 -0.175683 -0.193881
0.020594 -0.682127 -0.063032 -0.020776 1.132437 0.057781
0.341155 0.383769 -0.074479 0.682358 -0.635980 -0.064508
0.044099 -0.473301 -0.036429 0.025230 -1.008965 -0.128610
0.192419 -0.434915 0.036641 0.544915 -0.863503 -0.169921
0.083834 0.101108 0.124548 -0.011994 -1.043001 -0.005817
0.077242 0.194977 -0.120437 -0.165204 -0.998057 -0.128362
0.201426 -0.210707 0.036978 -0.022803 -1.024574 -0.033120
0.011612 0.441889 0.095585 -0.033456 -0.985724 -0.051839
-0.326596 0.227455 -0.014669 -0.773887 -0.630938 0.106499
-0.091223 0.566961 -0.002604 -1.012451 -0.107453 0.267247
-0.087486 0.316260 -0.101875 -0.284896 -0.966301 -0.006224
-0.129882 -0.202137 0.074139 0.132244 -1.019276 -0.133376
0.153011 -0.861183 -0.011727 -0.104225 0.843839 0.466572
0.061963 -0.558327 -0.062062 -0.085227 1.103984 0.159136
0.377705 0.343566 -0.069895 0.737373 -0.618437 0.036113
-0.096702 -0.849263 0.132243 -0.111316 0.792591 0.546917
0.006173 0.513616 -0.122812 -0.330245 -0.808097 -0.057777
-0.421475 0.237938 0.002418 -0.407434 -0.588689 0.584351
0.030712 -0.035258 0.130554 0.013476 -1.075934 -0.035115
-0.518739 0.111537 0.091455 -0.555386 -0.593277 0.510658
-0.136591 -0.494544 -0.002714 0.013146 1.137827 0.058788
0.162809 -0.611398 0.027875 0.523791 -0.846741 -0.190566
0.430813 0.254281 -0.029542 0.801933 -0.529280 0.172278
-0.342308 0.280021 0.003580 -0.833683 -0.619755 -0.078632
0.122044 -0.294529 -0.096195 0.515302 -0.835884 -0.223974
0.090792 -0.862661 -0.053283 -0.125011 0.760193 0.640093
-0.042104 0.531245 -0.114088 -0.035034 -0.902523 -0.236562
-0.127866 -0.331994 -0.010844 -0.290995 -0.977436 -0.186040
-0.071009 -0.824686 0.093252 -0.086821 0.888533 0.413493
0.146970 0.216778 -0.087232 -0.130443 -1.022949 -0.025870
