0.046503603 0.17372927 0.06489048
0.05736954 0.1727087 0.058614492
0.06698456 0.17179677 0.050538715
0.075056486 0.17102116 0.04090852
0.081340075 0.17040546 0.03001652
0.0856444 0.16996838 0.018193655
0.08783867 0.16972318 0.005799164
0.087856226 0.16967733 -0.0067903455
0.08569652 0.16983221 -0.019192357
0.08142519 0.17018314 -0.031030038
0.07517199 0.17071941 -0.04194372
0.06712695 0.17142478 -0.05160178
0.057534512 0.17227776 -0.05971077
0.04668612 0.1732525 -0.066024296
0.03491141 0.17431931 -0.07035053
0.022568151 0.17544582 -0.072558016
0.010031374 0.17659782 -0.0725797
-0.0023179874 0.17774023 -0.07041489
-0.014104705 0.17883843 -0.066129394
-0.024970654 0.179859 -0.0598534
-0.034585662 0.18077095 -0.051777624
-0.04265759 0.18154655 -0.042147428
-0.04894118 0.18216224 -0.03125543
-0.053245507 0.18259934 -0.019432552
-0.055439778 0.18284452 -0.0070380727
-0.05545734 0.18289039 0.0055514406
-0.053297628 0.18273549 0.017953457
-0.0490263 0.18238458 0.029791137
-0.042773105 0.18184829 0.040704817
-0.034728073 0.18114293 0.05036287
-0.025135629 0.18028994 0.058471847
-0.014287241 0.17931522 0.06478538
-0.0025125288 0.17824839 0.069111615
0.009830735 0.1771219 0.07131912
0.022367505 0.1759699 0.071340784
0.034716867 0.17482747 0.06917599
0.12962157 0.033437684 -0.041321356
0.13497148 0.01787318 -0.03302326
0.13765904 0.0010436177 -0.02600354
0.13760261 -0.016539644 -0.020475483
0.13480392 -0.03434234 -0.01660705
0.12934795 -0.051823564 -0.014515802
0.121400535 -0.068452135 -0.014265262
0.111203134 -0.083722815 -0.015863055
0.09906559 -0.097171605 -0.01926062
0.08535669 -0.10838987 -0.024354734
0.07049297 -0.117036775 -0.03099062
0.054926068 -0.12284955 -0.03896662
0.03912896 -0.1256516 -0.048040424
0.023581654 -0.12535778 -0.057936314
0.008756539 -0.12197701 -0.0683536
-0.0048959325 -0.11561203 -0.07897576
-0.016960943 -0.106456205 -0.08948007
-0.027071897 -0.09478778 -0.099547334
-0.03492158 -0.08096126 -0.10887167
-0.040271487 -0.065396726 -0.11716978
-0.042959057 -0.048567176 -0.124189496
-0.042902634 -0.030983925 -0.12971754
-0.040103927 -0.01318123 -0.13358597
-0.03464797 0.004300019 -0.13567725
-0.026700553 0.020928582 -0.13592775
-0.016503148 0.03619926 -0.13432997
-0.0043656006 0.049648054 -0.1309324
0.009343304 0.060866322 -0.1258383
0.024207016 0.06951321 -0.11920242
0.039773926 0.07532598 -0.11122641
0.055571016 0.07812803 -0.102152616
0.07111831 0.07783422 -0.092256725
0.08594343 0.07445345 -0.08183944
0.09959592 0.06808847 -0.07121727
0.11166091 0.058932662 -0.06071297
0.12177187 0.04726423 -0.05064571
-0.09180798 -0.103571355 0.026397467
-0.09617203 -0.09267089 0.044895466
-0.09696597 -0.08045411 0.06306579
-0.09416566 -0.0672922 0.08035636
-0.08785622 -0.0535851 0.096241795
-0.07822931 -0.039749272 0.110239424
-0.06557746 -0.026205119 0.12192394
-0.050285105 -0.013364181 0.1309403
-0.032816894 -0.0016166121 0.13701458
-0.013703577 0.008680642 0.1399622
0.006474111 0.017214708 0.13969359
0.027103046 0.023726266 0.13621692
0.047556464 0.028017495 0.12963781
0.067212865 0.02995798 0.12015619
0.08547502 0.029488763 0.108060144
0.10178804 0.026624115 0.093717195
0.11565626 0.02145107 0.07756315
0.12665829 0.014126804 0.060088847
0.13445987 0.0048738774 0.041825242
0.13882393 -0.0060265977 0.023327217
0.13961786 -0.018243378 0.0051568896
0.13681754 -0.031405274 -0.012133665
0.1305081 -0.045112383 -0.028019093
0.120881185 -0.058948226 -0.04201674
0.10822934 -0.072492376 -0.053701248
0.09293699 -0.08533332 -0.06271763
0.07546877 -0.09708089 -0.068791896
0.056355454 -0.10737814 -0.07173951
0.036177777 -0.1159122 -0.071470894
0.015548851 -0.12242375 -0.06799423
-0.004904557 -0.12671497 -0.06141513
-0.02456097 -0.12865546 -0.051933505
-0.042823125 -0.12818626 -0.039837457
-0.059136145 -0.12532161 -0.025494516
-0.07300436 -0.12014857 -0.009340474
-0.08400639 -0.112824306 0.008133823
-0.23273055 -0.15824029 0.09238285
-0.22400689 -0.1488105 0.12415488
-0.21496698 -0.13386989 0.1536429
-0.20588548 -0.11387238 0.17995092
-0.19703837 -0.08942562 0.2022796
-0.1886944 -0.0612724 0.21995047
-0.18110716 -0.030268118 0.23242663
-0.17450714 0.0026451387 0.23932897
-0.16909492 0.036467336 0.24044779
-0.16503489 0.0701708 0.2357491
-0.16245048 0.102731496 0.22537565
-0.16142017 0.13316002 0.20964262
-0.16197526 0.1605319 0.18902808
-0.16409892 0.18401538 0.1641584
-0.1677266 0.20289695 0.13578922
-0.17274807 0.21660292 0.1047825
-0.17901078 0.22471683 0.07208039
-0.1863244 0.22699216 0.038676515
-0.19446675 0.22335973 0.0055858484
-0.20319043 0.21392995 -0.026186232
-0.21223035 0.19898933 -0.055674236
-0.22131184 0.17899184 -0.08198225
-0.23015894 0.15454507 -0.104310915
-0.2385029 0.12639183 -0.12198183
-0.24609017 0.09538755 -0.13445796
-0.25269017 0.06247428 -0.14136031
-0.25810242 0.02865209 -0.14247912
-0.26216242 -0.005051368 -0.13778041
-0.26474684 -0.03761205 -0.12740697
-0.26577714 -0.06804058 -0.11167398
-0.26522204 -0.09541243 -0.09105945
-0.26309842 -0.11889591 -0.066189766
-0.25947073 -0.1377775 -0.03782057
-0.25444925 -0.15148348 -0.006813854
-0.24818654 -0.15959738 0.025888242
-0.2408729 -0.16187271 0.059292115
-0.03582994 0.0971083 0.22381061
0.00049106264 0.10194081 0.22452801
0.03627532 0.10752352 0.21892416
0.070435554 0.1136868 0.20716935
0.10193382 0.12024337 0.18962075
0.12981308 0.12699403 0.16681156
0.15322617 0.13373363 0.13943478
0.17146175 0.14025742 0.108322315
0.18396573 0.14636718 0.07441946
0.19035822 0.15187724 0.038756344
0.19044492 0.15662022 0.0024165427
0.18422323 0.16045198 -0.033495713
0.1718822 0.16325608 -0.067889325
0.15379679 0.16494738 -0.09971919
0.13051654 0.1654744 -0.12801819
0.10274878 0.16482121 -0.15192652
0.07133723 0.1630076 -0.17071769
0.037236318 0.16008872 -0.18382075
0.0014821813 0.15615323 -0.19083758
-0.034838863 0.1513207 -0.19155496
-0.070623115 0.14573799 -0.18595113
-0.10478333 0.13957472 -0.17419633
-0.13628158 0.13301814 -0.15664771
-0.16416086 0.1262675 -0.13383847
-0.18757394 0.11952788 -0.10646172
-0.20580956 0.11300409 -0.07534924
-0.21831354 0.10689434 -0.041446395
-0.224706 0.10138427 -0.0057832804
-0.22479269 0.0966413 0.0305565
-0.21857104 0.092809536 0.06646875
-0.20622998 0.09000542 0.10086234
-0.18814461 0.088314146 0.13269219
-0.16486435 0.08778711 0.16099122
-0.1370966 0.08844031 0.18489952
-0.10568505 0.090253904 0.20369071
-0.071584135 0.093172796 0.21679378
0.038213387 -0.04975471 0.051133186
0.04066292 -0.056658942 0.041069303
0.043011084 -0.061683964 0.029925443
0.045186535 -0.06467708 0.018040199
0.047123168 -0.06554737 0.0057747066
0.048762146 -0.06426836 -0.0064983666
0.050053667 -0.06087892 -0.018406102
0.05095849 -0.055482052 -0.029586682
0.051449116 -0.048241723 -0.039700396
0.051510643 -0.03937794 -0.048439946
0.051141202 -0.029159999 -0.05553979
0.050352022 -0.0178984 -0.0607842
0.04916707 -0.0059352927 -0.06401382
0.04762236 0.0063658115 -0.06513052
0.045764823 0.018631157 -0.06410037
0.043650903 0.030488059 -0.06095469
0.041344825 0.04157627 -0.055789035
0.038916662 0.051558863 -0.04876037
0.036440194 0.060132533 -0.04008226
0.03399066 0.06703678 -0.030018367
0.031642497 0.07206179 -0.018874507
0.02946705 0.075054914 -0.0069892704
0.027530413 0.075925194 0.0052762255
0.02589143 0.07464618 0.017549314
0.024599914 0.07125674 0.029457038
0.02369509 0.06585988 0.04063762
0.023204463 0.058619555 0.050751336
0.023142934 0.049755763 0.05949089
0.023512373 0.039537832 0.06659073
0.024301559 0.028276233 0.07183513
0.02548651 0.016313136 0.07506475
0.027031217 0.0040120296 0.07618146
0.028888755 -0.008253315 0.07515131
0.031002678 -0.02011022 0.07200562
0.033308752 -0.03119843 0.06683997
0.035736915 -0.041181028 0.05981131
-0.042284265 -0.045740515 -0.10148831
-0.030896235 -0.052699145 -0.1022167
-0.018469177 -0.057606723 -0.10256893
-0.0053806715 -0.06031414 -0.10253431
0.007971587 -0.06073913 -0.102113865
0.021181904 -0.058868773 -0.101320416
0.03384889 -0.054759905 -0.100178026
0.04558765 -0.048537366 -0.09872144
0.056041524 -0.040390246 -0.09699488
0.06489287 -0.030566067 -0.09505084
0.071872756 -0.019363329 -0.09294838
0.076769084 -0.007122446 -0.090751365
0.0794331 0.0057846755 -0.08852656
0.07978383 0.01896584 -0.086341575
0.077810645 0.03202054 -0.0842628
0.0735735 0.04455214 -0.082353376
0.067201115 0.05617985 -0.08067135
0.058887135 0.06655038 -0.0792678
0.048884165 0.07534863 -0.07818539
0.037496123 0.082307264 -0.07745699
0.025069064 0.08721484 -0.07710476
0.011980565 0.089922264 -0.077139385
-0.0013716929 0.090347245 -0.07755983
-0.014582023 0.08847688 -0.078353286
-0.027249003 0.08436802 -0.07949567
-0.038987767 0.07814549 -0.08095226
-0.049441643 0.06999836 -0.08267882
-0.05829299 0.06017418 -0.08462285
-0.06527287 0.048971448 -0.08672532
-0.070169196 0.036730573 -0.08892233
-0.0728332 0.023823457 -0.091147125
-0.07318395 0.010642296 -0.09333211
-0.07121077 -0.002412416 -0.09541088
-0.06697361 -0.0149440095 -0.09732031
-0.060601234 -0.02657172 -0.09900235
-0.05228725 -0.03694226 -0.100405894
0.06256041 -0.0916456 -0.10699415
0.07917968 -0.09521454 -0.09178909
0.09506164 -0.095053755 -0.075422384
0.10972372 -0.09116813 -0.05839133
0.12272042 -0.08367574 -0.041213397
0.13365683 -0.0728042 -0.02441053
0.14220065 -0.058883857 -0.008493289
0.14809231 -0.042337697 0.0060546994
0.15115276 -0.02366844 0.018791396
0.15128905 -0.003443336 0.029329818
0.148497 0.017723078 0.03734975
0.14286147 0.039187647 0.04260751
0.13455367 0.060298227 0.044943336
0.123826064 0.08041334 0.044286262
0.11100457 0.098921806 0.040656265
0.096478775 0.11526129 0.03416363
0.08069004 0.12893528 0.025005635
0.0641181 0.13952833 0.013460521
0.047266476 0.14671856 -0.000120881945
0.030647188 0.15028751 -0.015325967
0.014765233 0.15012673 -0.031692658
0.00010316074 0.1462411 -0.048723713
-0.012893535 0.1387487 -0.06590165
-0.023829956 0.12787716 -0.08270453
-0.032373786 0.113956824 -0.09862177
-0.03826544 0.09741065 -0.11316975
-0.041325897 0.078741394 -0.12590647
-0.041462176 0.058516297 -0.13644487
-0.03867013 0.037349895 -0.14446479
-0.033034597 0.01588532 -0.14972256
-0.024726812 -0.0052252337 -0.1520584
-0.013999198 -0.025340348 -0.15140131
-0.0011777058 -0.043848835 -0.14777133
0.013348088 -0.06018831 -0.14127868
0.029136816 -0.07386231 -0.13212068
0.04570876 -0.084455356 -0.120575584
0.10345456 -0.00052344333 -0.011864673
0.1009667 0.0052761855 -0.024935454
0.09646028 0.009551265 -0.038053617
0.09007221 0.012171899 -0.05082058
0.081996605 0.013058467 -0.06284842
0.072478816 0.012184015 -0.073771685
0.06180806 0.009575125 -0.08325846
0.050308555 0.0053110644 -0.09102052
0.038329694 -0.0004786025 -0.096821986
0.026235467 -0.0076179625 -0.10048661
0.014393332 -0.015890101 -0.10190302
0.0031631268 -0.025043646 -0.10102822
-0.007113944 -0.0348005 -0.09788875
-0.016125597 -0.04486419 -0.09258003
-0.023598032 -0.05492893 -0.085263334
-0.029304195 -0.06468893 -0.07616099
-0.033070717 -0.073847614 -0.06554959
-0.034783144 -0.082126714 -0.053751517
-0.03438945 -0.08927468 -0.04112528
-0.031901594 -0.09507432 -0.02805448
-0.027395172 -0.099349394 -0.014936319
-0.021007108 -0.10197003 -0.0021693618
-0.0129315 -0.10285659 0.00985848
-0.0034137047 -0.10198214 0.020781754
0.0072570527 -0.09937325 0.030268531
0.018756561 -0.09510919 0.03803058
0.03073542 -0.08931952 0.04383205
0.042829644 -0.082180165 0.047496673
0.054671776 -0.07390802 0.04891309
0.06590198 -0.064754486 0.04803828
0.07617905 -0.054997634 0.044898823
0.0851907 -0.04493395 0.039590098
0.09266313 -0.034869205 0.032273408
0.09836931 -0.025109207 0.023171073
0.10213583 -0.01595052 0.012559659
0.10384825 -0.007671415 0.000761592
-0.03499033 0.03712927 0.07351738
-0.026436139 0.034756567 0.07810777
-0.017115122 0.0331536 0.081336476
-0.0073104817 0.032369085 0.08310542
0.0026798556 0.032426838 0.08336085
0.012552358 0.03332512 0.08209499
0.02200704 0.03503664 0.07934631
0.03075662 0.037509378 0.07519833
0.038535267 0.04066822 0.06977709
0.04510662 0.044417173 0.06324729
0.050271004 0.048642337 0.05580736
0.05387152 0.05321532 0.047683347
0.055798765 0.057997186 0.03912209
0.055994157 0.06284264 0.030383734
0.054451786 0.06760443 0.021733776
0.05121851 0.07213791 0.0134350415
0.046392556 0.076305315 0.005739687
0.040120576 0.079980016 -0.0011184644
0.03259313 0.083050355 -0.006931044
0.024038931 0.085423075 -0.011521433
0.014717913 0.08702604 -0.014750142
0.0049132835 0.08781055 -0.016519085
-0.0050770594 0.087752804 -0.016774507
-0.014949569 0.08685451 -0.015508646
-0.024404246 0.085143 -0.012759967
-0.033153832 0.08267025 -0.008611988
-0.040932477 0.07951142 -0.0031907428
-0.04750382 0.075762466 0.0033390447
-0.052668214 0.0715373 0.0107789785
-0.05626873 0.06696432 0.018902984
-0.058195967 0.062182456 0.027464239
-0.058391374 0.05733701 0.036202595
-0.056848995 0.052575205 0.044852562
-0.053615715 0.048041727 0.053151295
-0.048789766 0.043874327 0.06084664
-0.04251779 0.040199623 0.0677048

