-0.318136 0.002136 0.012146
0.031621 0.032553 -0.004835
0.033720 0.033886 -0.005251
0.039475 0.251112 -0.005503
0.031029 0.032998 -0.005258
0.036166 0.034721 -0.005126
-0.053757 -0.130101 0.017820
-0.058787 -0.625213 -0.030691
0.035552 0.033865 -0.005180
0.032739 0.033766 -0.005310
0.135008 -0.477186 -0.024498
0.035454 0.032711 -0.005108
0.056090 -0.023086 0.000276
0.032212 0.034464 -0.005193
-0.276152 0.340427 -0.041066
0.116715 -0.117336 -0.003051
0.040249 0.313963 -0.009281
0.000316 0.368726 -0.015903
0.037845 0.247171 -0.005391
0.108787 0.448088 -0.043778
0.033779 0.768355 -0.035291
0.031522 0.033626 -0.005098
0.032747 0.034446 -0.004990
0.036083 0.251320 -0.005419
0.037233 0.035210 -0.005236
0.013724 -0.067015 0.002547
0.062148 -0.075146 0.000954
-0.039310 0.215550 -0.006301
-0.018443 0.432914 -0.018995
0.128509 -0.506594 -0.028669
0.034757 0.034147 -0.005009
-0.060173 -0.842963 0.063878
0.013372 0.299584 -0.007860
0.032334 0.033684 -0.005146
0.033251 0.035711 -0.006208
0.298925 0.381340 -0.088298
0.026143 0.607299 -0.026722
0.039274 0.031675 -0.004933
0.037707 0.248291 -0.004978
0.036627 0.249271 -0.005246
0.033778 0.034237 -0.005307
0.032576 0.032955 -0.005177
0.037152 0.251898 -0.005378
0.058195 0.373088 -0.027898
0.038057 0.251212 -0.005471
0.034062 0.033794 -0.005169
0.034786 0.033343 -0.005343
0.036502 0.034073 -0.005448
0.032841 0.032192 -0.005165
0.121676 -0.297721 -0.001543
0.039274 0.250036 -0.005462
0.034846 0.033891 -0.005336
0.034139 0.033673 -0.005276
-0.047676 -0.050096 0.010705
0.035687 0.247886 -0.005106
0.034972 0.034606 -0.005070
0.083310 -0.012641 0.000619
0.063605 0.007655 -0.001481
0.112657 -0.352256 -0.004233
-0.061824 -0.786469 -0.055831
-0.058182 -0.551476 -0.024048
0.039495 0.250060 -0.005304
0.118715 -0.834238 0.082522
0.030468 0.033261 -0.005257
0.036062 0.248941 -0.005306
0.040135 0.251422 -0.005681
0.061023 0.230134 -0.002968
0.036922 0.249669 -0.005267
0.051184 0.290443 -0.008706
0.015735 0.006539 -0.001287
0.034775 0.719426 0.012170
0.028835 -0.002119 0.000648
0.022989 0.248767 -0.006244
-0.070155 0.461503 -0.015128
0.098014 0.481657 -0.045870
-0.058827 -0.473286 -0.012144
0.127695 -0.807402 -0.036514
0.127019 -0.659176 -0.027625
0.028531 0.328379 -0.013510
-0.010679 -0.019370 0.005378
-0.051337 -0.308555 0.017570
0.034769 0.034423 -0.005234
0.103239 -0.076417 0.000358
0.030251 0.033708 -0.005144
0.032713 0.034284 -0.005179
0.121620 -0.204846 0.003643
0.035290 0.035440 -0.005424
0.037146 0.251378 -0.005483
0.039327 0.251166 -0.005485
0.274850 0.214317 -0.046068
0.033592 0.033637 -0.003692
0.035616 0.033357 -0.005166
0.049926 0.251688 -0.006014
0.035372 0.033119 -0.005451
0.035439 0.250743 -0.005371
-0.050897 -0.258658 0.020256
0.344487 0.096215 0.001317
0.009909 0.048106 -0.001557
0.033862 0.768247 0.008128
0.036018 0.046161 -0.005383
