-0.057673 -0.487975 -0.011512 0.009387 0.930547 0.157564
0.029590 0.306645 -0.005609 0.032843 -1.017483 0.061190
0.137904 -0.546452 -0.023915 0.001831 1.001956 0.033872
0.132059 -0.359066 -0.004369 0.003687 0.965793 0.066493
0.065926 0.027696 -0.000937 0.030348 -0.922939 -0.008289
0.037082 0.276897 -0.003420 0.022585 -0.990168 0.060795
-0.044733 -0.076392 0.021514 0.033325 0.901681 0.045751
0.137466 -0.605045 -0.029487 0.018064 0.982956 0.013501
-0.056839 -0.449381 -0.002570 0.025285 0.923114 0.151210
0.126555 -0.418671 -0.011321 -0.024198 0.952077 0.075762
-0.063957 -0.568767 -0.027733 0.000541 0.946410 0.090190
0.140322 -0.554030 -0.024251 0.005574 0.999624 0.034478
0.127422 -0.256561 -0.000736 0.007430 0.955145 0.045975
0.029740 0.356621 -0.011294 0.047761 -1.005960 0.059763
-0.051476 -0.254184 0.020683 -0.022676 0.925964 0.096857
0.141879 -0.555371 -0.023523 -0.000931 0.998254 0.056180
0.008086 0.344235 -0.010382 0.028862 -0.987263 0.051605
0.577177 0.108685 0.026615 0.536612 -0.708852 0.319477
-0.506068 0.105802 0.040991 -0.461102 -0.538864 0.594043
0.017681 -0.018934 0.002468 -0.080044 -0.926498 -0.011741
0.063279 0.135589 -0.005094 0.098252 -0.962122 -0.006349
0.052122 0.342272 -0.014051 -0.013133 -0.948366 0.055335
0.185618 0.450416 -0.054309 0.693140 -0.389950 -0.038588
0.129590 -0.289568 -0.000369 0.012332 0.954982 0.056069
-0.050380 -0.288783 0.019749 -0.010015 0.942294 0.100193
-0.062045 -0.544800 -0.024030 0.002695 0.944706 0.120929
-0.064506 -0.777570 -0.053832 -0.059873 0.891661 0.235022
0.124141 -0.380974 -0.009543 -0.022725 0.954569 0.056524
0.039333 0.637427 -0.018366 0.084219 -0.816969 -0.141287
0.068346 -0.779136 -0.029360 -0.072602 0.869061 0.407445
0.034646 0.342146 -0.008997 0.043108 -0.992971 0.064185
-0.339845 0.274996 -0.036096 -0.698765 -0.618425 0.162662
-0.105548 0.487145 -0.023307 -0.709705 -0.396964 0.142498
0.038761 0.396932 -0.018271 0.061752 -0.994574 0.038833
-0.055456 -0.419537 0.003922 0.036888 0.931056 0.129505
0.035708 0.282152 -0.004418 0.027462 -0.996091 0.058762
-0.203052 0.403203 -0.040439 -0.636406 -0.619997 -0.020795
-0.031041 0.466881 -0.020510 0.132304 -0.782459 0.057086
0.041432 -0.769550 -0.028139 -0.040157 0.921973 0.295278
0.137940 -0.564257 -0.026603 -0.000853 1.000615 0.021966
-0.075163 0.670204 -0.018062 0.057345 -0.771590 0.114855
0.044911 0.153538 -0.004938 0.004675 -0.971516 0.012052
0.128173 -0.382287 -0.008165 -0.014784 0.967262 0.066909
0.037967 0.234338 -0.001768 0.014993 -0.989364 0.050082
0.137908 -0.503106 -0.017936 -0.009669 0.963137 0.083087
0.428775 0.255860 -0.068047 0.642079 -0.564959 0.390087
-0.008469 0.433845 -0.020371 0.117864 -0.930174 0.024459
-0.053362 -0.227788 0.021549 -0.021815 0.923619 0.088971
0.077155 0.435098 -0.031129 -0.131007 -0.864417 0.055361
0.128992 -0.320910 -0.000914 0.006961 0.959577 0.066239
0.026734 0.254257 -0.002214 0.014118 -0.985124 0.059425
0.026737 -0.760201 0.005929 -0.075734 0.807296 0.391322
0.000648 0.040168 0.000914 -0.101731 -0.918160 0.017529
0.030218 -0.807320 -0.039550 -0.066927 0.861917 0.419278
-0.054305 -0.392833 0.007253 0.032990 0.944977 0.107267
0.279413 0.400799 -0.084252 0.699081 -0.617078 -0.147313
0.141283 -0.592961 -0.028528 0.009681 1.004107 0.012451
0.065662 0.077297 -0.004363 0.065577 -0.938241 -0.011298
-0.067207 -0.602872 -0.030871 -0.008495 0.953090 0.090603
-0.059593 -0.518128 -0.018033 0.002068 0.944265 0.146127
-0.061498 -0.720557 -0.049753 -0.043162 0.903359 0.204066
-0.031242 0.157357 0.025651 0.048795 0.911996 -0.004313
0.024594 0.343223 -0.008118 0.038313 -1.014005 0.066340
0.035636 0.288493 -0.004210 0.028081 -1.002532 0.061141
0.122198 -0.343895 -0.005660 -0.017463 0.959346 0.053978
0.124991 -0.331096 -0.002394 -0.001253 0.956484 0.067161
0.129560 -0.392170 -0.005696 -0.001114 0.965745 0.083844
0.139712 -0.529988 -0.021437 -0.006384 0.982579 0.066275
0.139375 -0.536616 -0.022530 0.004391 0.988101 0.045733
0.020008 0.318500 -0.006373 0.025906 -1.007257 0.067086
0.044897 0.118810 -0.005158 -0.009353 -0.969060 0.000872
0.130131 -0.317008 -0.001824 0.008471 0.954611 0.062285
0.131824 -0.344164 -0.003091 0.004957 0.963072 0.070333
0.036268 0.264100 -0.003703 0.025667 -0.996246 0.053663
0.043695 0.185132 -0.003610 0.015369 -0.986979 0.028205
0.036131 0.317028 -0.006300 0.039857 -1.014550 0.061672
0.142845 -0.571844 -0.025279 0.012496 0.993106 0.040904
0.116609 0.443445 -0.041291 0.645846 -0.384474 -0.029326
0.035749 0.311425 -0.005299 0.037271 -1.014782 0.063016
-0.004460 0.090322 -0.001721 -0.135978 -0.917108 0.030444
0.137624 -0.579295 -0.026441 0.009292 1.017440 0.012756
0.034908 0.312598 -0.006169 0.037278 -1.017437 0.059730
0.116114 -0.172246 -0.001104 -0.024044 0.915686 0.025042
-0.052671 -0.166545 0.017718 0.019889 0.918606 0.054956
0.037297 0.328114 -0.007081 0.034586 -0.997976 0.063056
0.037144 0.435675 -0.024050 0.060425 -0.961800 0.026051
0.119264 -0.746460 -0.033720 -0.017032 1.012134 0.072387
0.020878 0.389696 -0.015516 0.048286 -1.013342 0.046447
-0.050867 -0.325421 0.015986 0.003757 0.949143 0.099901
0.034047 0.305644 -0.004826 0.034731 -1.010232 0.061733
0.037938 0.255881 -0.002852 0.019391 -0.995833 0.054324
0.123280 -0.708014 -0.030676 -0.007736 1.023834 0.015733
0.068739 0.390105 -0.025235 -0.118735 -0.902293 0.052685
0.034567 0.305086 -0.005493 0.033567 -1.014667 0.058484
0.109740 -0.093014 0.005979 -0.047120 0.922589 0.018544
0.033379 0.333086 -0.007348 0.042689 -1.011983 0.064928
-0.063218 -0.753266 -0.052960 -0.054544 0.909055 0.217611
-0.001478 0.386976 -0.016512 0.078913 -0.967916 0.021333
-0.051625 -0.357639 0.010239 0.019995 0.951383 0.093752
0.039987 0.206556 -0.002066 0.015013 -0.993153 0.039764
