-0.053985 -0.535645 -0.012918 -0.000857 0.900955 0.143076
0.039343 0.292452 -0.005174 0.042841 -0.922867 0.075579
0.116487 -0.271596 -0.001947 -0.039085 0.950432 0.032410
0.122287 -0.246776 0.000493 -0.029110 0.941721 0.031391
0.085022 -0.020696 -0.014707 0.108644 -0.841749 0.006833
0.043214 0.367889 -0.012985 0.057273 -0.967047 0.065861
-0.021888 0.064959 0.023191 -0.011651 0.982087 -0.016571
0.124925 -0.181257 0.003415 -0.020293 0.941987 0.017487
-0.053037 -0.557720 -0.019621 0.009327 0.932367 0.125263
0.131311 -0.470249 -0.019683 -0.013519 0.963150 0.034487
-0.056796 -0.580867 -0.020449 0.001061 0.928673 0.143497
0.138303 -0.568613 -0.026746 -0.013208 0.987318 0.032323
0.133984 -0.408118 -0.011358 -0.015093 0.915759 0.061547
0.036112 0.299278 -0.005281 0.037332 -0.919772 0.073665
-0.053748 -0.514090 -0.013741 0.001939 0.922917 0.130468
0.132365 -0.596720 -0.027623 -0.021121 0.974297 0.034085
0.036122 0.325361 -0.007765 0.039509 -0.940843 0.071671
0.584642 0.094145 0.029678 0.552149 -0.654046 0.441806
-0.518535 0.099550 0.048564 -0.486487 -0.542788 0.621232
0.011286 0.015808 0.016501 -0.051541 -0.694449 0.128763
0.054007 0.146821 -0.001543 0.057277 -0.891151 0.067648
0.057795 0.313288 -0.012458 0.062179 -0.924145 0.056505
0.180067 0.458693 -0.064371 0.683998 -0.526587 -0.105748
0.093108 0.049885 0.017582 -0.057838 0.972136 -0.034562
-0.041511 -0.104014 0.015371 -0.014402 0.926905 0.025453
-0.042998 -0.706452 -0.029330 -0.017905 0.890066 0.208235
-0.043751 -0.761640 -0.014238 -0.040725 0.854048 0.264679
0.117704 -0.228155 0.000990 -0.038286 0.953784 0.027839
0.055520 0.541858 -0.057007 0.830042 -0.204007 -0.142501
0.051269 -0.794514 -0.010838 -0.074167 0.764305 0.396958
0.037427 0.328666 -0.010160 0.039898 -0.926889 0.064810
-0.364081 0.247949 -0.031590 -0.716111 -0.618684 0.169174
-0.124804 0.437078 -0.033263 -0.672901 -0.461420 0.034248
0.043485 0.338316 -0.008488 0.044719 -0.938014 0.073655
-0.053344 -0.432104 -0.000669 0.022955 0.921229 0.097280
0.027483 0.347410 -0.009507 0.029558 -0.958725 0.063481
-0.203045 0.395506 -0.040005 -0.727028 -0.579265 0.016698
-0.013559 0.468870 -0.027508 0.062144 -0.851392 0.040151
0.054356 -0.751114 -0.023445 -0.053734 0.840229 0.301543
0.044064 -0.768153 -0.008744 -0.062307 0.815724 0.342792
-0.063508 0.645043 -0.023256 -0.273400 -0.621423 0.081066
0.037154 0.278528 -0.003204 0.035067 -0.922334 0.081712
0.120501 -0.142431 0.005524 -0.022544 0.950201 0.006697
0.028118 0.321584 -0.009904 0.030541 -0.930115 0.068976
0.138319 -0.441303 -0.014498 -0.013574 0.924815 0.055637
0.418508 0.265412 -0.073534 0.614321 -0.658331 0.253608
-0.008186 0.415739 -0.021453 0.060458 -0.912217 0.034768
-0.052300 -0.371709 0.008980 0.002498 0.937220 0.094895
0.060875 0.426715 -0.029885 0.033345 -0.916882 0.037642
0.135945 -0.519281 -0.023803 -0.013656 0.964602 0.031010
0.040895 0.333548 -0.010864 0.052193 -0.941661 0.070028
0.033270 -0.775429 0.075736 -0.091676 0.726560 0.438434
0.011962 0.037941 0.012240 -0.048421 -0.725496 0.117338
0.038581 -0.794987 0.022998 -0.078881 0.774661 0.409171
-0.049799 -0.299578 0.011621 -0.002094 0.979956 0.071530
0.282486 0.388220 -0.083265 0.619444 -0.727788 -0.126624
0.130760 -0.542600 -0.026218 -0.010025 0.941177 0.026892
0.079046 0.053421 -0.024478 0.132839 -0.918675 -0.026681
-0.053828 -0.613242 -0.024111 0.004435 0.938809 0.143581
-0.048615 -0.454786 -0.006303 0.010628 0.877770 0.115131
-0.044500 -0.742626 -0.031794 -0.028502 0.893138 0.229502
-0.015048 0.125230 0.023684 0.003697 0.987510 -0.033135
0.023539 0.303359 -0.007661 0.023017 -0.929294 0.062936
0.039872 0.296044 -0.008506 0.041638 -0.916328 0.066553
0.128893 -0.297005 -0.003036 -0.019506 0.908591 0.049254
0.132723 -0.502923 -0.021431 -0.017948 0.995278 0.034008
0.125128 -0.202633 -0.000187 -0.021310 0.960611 0.003342
0.135101 -0.560249 -0.025798 -0.017062 0.989483 0.032955
0.126006 -0.227625 0.001360 -0.020285 0.940686 0.029845
0.036939 0.296839 -0.005232 0.042289 -0.953636 0.072874
0.029036 0.211906 0.001322 0.020634 -0.907119 0.080724
0.129574 -0.426900 -0.014110 -0.026520 0.948216 0.047496
0.131011 -0.365236 -0.006833 -0.017671 0.912115 0.067305
0.043990 0.346336 -0.012456 0.060223 -0.939532 0.068711
0.040237 0.244559 -0.003686 0.040624 -0.915929 0.072309
0.032886 0.273980 -0.004497 0.032369 -0.910798 0.075423
0.117597 -0.230482 -0.000866 -0.027491 0.953657 0.010652
0.114155 0.479271 -0.054127 0.789257 -0.333501 -0.120003
0.044410 0.287726 -0.006567 0.049454 -0.927697 0.065589
0.032243 0.336382 -0.007584 0.038066 -0.959793 0.078866
0.138357 -0.492580 -0.019580 -0.013664 0.944476 0.055573
0.033507 0.344565 -0.008518 0.039032 -0.934346 0.074654
0.139058 -0.546443 -0.026297 -0.005782 0.969076 0.028716
-0.029196 -0.016669 0.026429 -0.047744 1.013244 0.009648
0.028021 0.407609 -0.017777 0.056449 -0.947630 0.043127
0.008107 0.390161 -0.017988 0.034874 -0.943363 0.038327
0.128939 -0.787688 -0.025327 -0.077358 0.801722 0.378655
0.045924 0.252621 -0.003333 0.048641 -0.923117 0.068268
-0.042893 -0.218477 0.017851 -0.017272 0.979834 0.059024
0.031109 0.332793 -0.009836 0.036631 -0.947212 0.066498
0.028073 0.350347 -0.009791 0.031849 -0.939808 0.066300
0.128131 -0.731737 -0.025719 -0.050964 0.916584 0.213617
0.034439 0.364615 -0.017159 0.040492 -0.917787 0.042308
0.037153 0.385135 -0.013113 0.051938 -0.967566 0.071213
0.084337 0.111815 0.021471 -0.066334 0.975128 -0.038898
0.036686 0.349481 -0.008494 0.045280 -0.955199 0.074217
-0.040624 -0.768025 -0.035505 -0.035567 0.894071 0.254701
0.034066 0.285574 -0.005672 0.035721 -0.899233 0.072592
-0.055630 -0.400333 0.002283 0.017845 0.940722 0.088903
0.045364 0.235709 -0.001999 0.047962 -0.927331 0.066315
