0.021258652 0.20612527 0.03611294
0.010406123 0.20440172 0.048531987
0.0015543159 0.20095262 0.062123522
-0.0050278045 0.19588277 0.07647459
-0.009140253 0.18934622 0.09114914
-0.010658067 0.18154158 0.10570127
-0.00953513 0.172706 0.11968884
-0.005805563 0.16310793 0.13268684
0.00041730702 0.153039 0.14430033
0.008944413 0.14280516 0.15417646
0.019516664 0.13271736 0.16201511
0.0318128 0.123082094 0.16757815
0.04545924 0.11419214 0.17069651
0.060041353 0.10631763 0.17127548
0.07511602 0.09969781 0.16929744
0.09022526 0.094533816 0.16482249
0.104909934 0.09098255 0.15798661
0.11872389 0.089151934 0.14899752
0.1312474 0.089097574 0.13812831
0.14209993 0.09082113 0.12570927
0.15095174 0.09427023 0.11211771
0.15753388 0.09934008 0.09776665
0.1616463 0.105876625 0.083092116
0.16316414 0.11368126 0.06853996
0.16204119 0.122516856 0.0545524
0.15831164 0.13211493 0.0415544
0.15208876 0.14218386 0.029940907
0.14356165 0.15241769 0.02006479
0.1329894 0.1625055 0.012226127
0.12069327 0.17214075 0.0066631045
0.10704682 0.18103069 0.0035447292
0.09246473 0.18890521 0.002965767
0.07739005 0.19552505 0.004943814
0.062280834 0.20068903 0.009418752
0.04759614 0.20424029 0.016254628
0.033782177 0.20607091 0.025243726
0.1373674 0.06671989 -0.01448651
0.14497006 0.05008912 0.0024430607
0.14910261 0.031164918 0.01812074
0.14963953 0.010522287 0.032070175
0.14656448 -0.011211555 0.043867517
0.1399709 -0.033376258 0.053154312
0.13005912 -0.055298317 0.059648372
0.11713032 -0.07631166 0.06315239
0.101577334 -0.095777825 0.0635599
0.08387272 -0.11310531 0.06085851
0.06455442 -0.12776768 0.055130307
0.044209443 -0.13931938 0.046549354
0.023455914 -0.14740944 0.03537635
0.002924461 -0.15179202 0.021950793
-0.016761087 -0.15233397 0.0066806264
-0.035002615 -0.14901885 -0.009970188
-0.051245853 -0.14194736 -0.027495723
-0.064997256 -0.13133438 -0.045363482
-0.075839 -0.11750238 -0.06303054
-0.08344166 -0.10087158 -0.07996014
-0.08757422 -0.08194738 -0.0956378
-0.08811113 -0.061304756 -0.10958723
-0.085036084 -0.039570913 -0.12138457
-0.0784425 -0.0174062 -0.13067137
-0.068530716 0.004515864 -0.13716544
-0.055601917 0.02552922 -0.14066945
-0.040048923 0.04499538 -0.14107697
-0.022344314 0.06232287 -0.13837557
-0.0030260198 0.076985225 -0.13264737
0.01731895 0.088536926 -0.12406642
0.038072474 0.09662697 -0.11289342
0.058603913 0.101009555 -0.09946787
0.07828949 0.10155153 -0.0841977
0.096531 0.0982364 -0.06754688
0.11277423 0.09116491 -0.05002135
0.12652566 0.08055193 -0.032153603
-0.16507873 -0.07315089 0.0044926777
-0.1699525 -0.055505633 0.025641669
-0.17146312 -0.035047937 0.04465715
-0.16956471 -0.012399372 0.06096135
-0.16431494 0.011751879 0.07405889
-0.15587333 0.036672007 0.08355178
-0.14449635 0.06160381 0.08915159
-0.1305297 0.08578974 0.09068818
-0.114397764 0.10849495 0.08811486
-0.09659068 0.12902953 0.08150982
-0.0776495 0.14676958 0.07107373
-0.058149777 0.16117603 0.05712373
-0.038683962 0.17181118 0.04008365
-0.019843549 0.17835186 0.020471245
-0.002200976 0.18059938 -0.0011175498
0.013707694 0.17848541 -0.024026789
0.02739909 0.17207421 -0.047560386
0.038457192 0.16156054 -0.07100329
0.046546023 0.14726388 -0.09364319
0.0514198 0.12961861 -0.1147922
0.052930426 0.109160915 -0.13380767
0.05103202 0.08651237 -0.15011187
0.045782246 0.06236112 -0.16320938
0.037340615 0.037440956 -0.17270228
0.025963638 0.0125091635 -0.1783021
0.011996992 -0.011676777 -0.17983869
-0.0041349456 -0.034381982 -0.17726538
-0.021942034 -0.05491656 -0.17066033
-0.040883206 -0.07265659 -0.16022426
-0.060382925 -0.087063044 -0.14627427
-0.07984872 -0.09769819 -0.12923418
-0.098689124 -0.10423888 -0.109621786
-0.11633171 -0.10648641 -0.08803298
-0.13224038 -0.10437244 -0.06512374
-0.14593177 -0.09796122 -0.041590147
-0.1569899 -0.08744756 -0.01814725
-0.24336925 -0.12576321 0.10444566
-0.23700745 -0.11212986 0.13118015
-0.2303989 -0.09400147 0.15502886
-0.22374435 -0.07192885 0.17526719
-0.21724601 -0.04658267 0.19128019
-0.21110132 -0.018733062 0.2025813
-0.20549703 0.010773793 0.20882714
-0.20060338 0.041041322 0.20982799
-0.19656906 0.07114987 0.20555335
-0.19351667 0.100184605 0.19613318
-0.19153896 0.12726335 0.18185367
-0.190696 0.15156329 0.1631487
-0.1910134 0.1723461 0.14058661
-0.19248155 0.1889803 0.11485296
-0.1950558 0.20096044 0.08672962
-0.19865796 0.20792258 0.05707113
-0.20317858 0.2096551 0.026778635
-0.20848027 0.20610544 -0.0032274341
-0.21440199 0.19738138 -0.032035366
-0.2207638 0.18374804 -0.058769897
-0.22737235 0.16561964 -0.0826186
-0.23402692 0.14354703 -0.10285693
-0.24052525 0.11820085 -0.11886991
-0.24666995 0.0903512 -0.13017105
-0.25227422 0.060844358 -0.13641688
-0.25716788 0.030576825 -0.13741773
-0.2612022 0.000468269 -0.1331431
-0.26425457 -0.028566461 -0.12372292
-0.2662323 -0.055645175 -0.1094434
-0.26707527 -0.0799451 -0.09073845
-0.26675785 -0.10072791 -0.068176374
-0.26528972 -0.117362104 -0.042442724
-0.26271546 -0.12934226 -0.01431939
-0.2591133 -0.1363044 0.015339106
-0.2545927 -0.13803694 0.045631602
-0.24929097 -0.13448727 0.07563768
-0.11807363 0.19222131 0.18329293
-0.07874618 0.18133536 0.21308033
-0.03739431 0.16448462 0.23671329
0.0047255233 0.14218105 0.25347373
0.04633353 0.11510239 0.26285237
0.086165495 0.08407131 0.26456428
0.123011135 0.050030783 0.25855735
0.15575087 0.014015049 0.2450142
0.18338999 -0.022881515 0.22434631
0.20508865 -0.059537902 0.19718167
0.22018756 -0.094840296 0.16434558
0.22822791 -0.12771603 0.12683588
0.22896549 -0.15716623 0.08579217
0.2223778 -0.182296 0.04246161
0.20866506 -0.20234184 -0.0018392354
0.1882439 -0.21669467 -0.04576432
0.16173479 -0.22491834 -0.08797901
0.12994322 -0.22676301 -0.1272006
0.093835175 -0.22217268 -0.16223739
0.054507673 -0.2112867 -0.19202486
0.013155825 -0.19443598 -0.2156578
-0.02896399 -0.17213242 -0.23241821
-0.07057201 -0.14505374 -0.24179685
-0.110404015 -0.11402264 -0.24350873
-0.14724962 -0.07998212 -0.23750183
-0.17998937 -0.04396639 -0.2239587
-0.2076285 -0.007069789 -0.2032908
-0.22932714 0.029586572 -0.17612614
-0.24442604 0.06488894 -0.14329007
-0.25246644 0.09776467 -0.1057804
-0.253204 0.12721482 -0.06473669
-0.24661633 0.15234461 -0.021406144
-0.23290358 0.17239048 0.022894695
-0.21248241 0.18674329 0.06681978
-0.18597332 0.19496699 0.10903448
-0.15418175 0.19681168 0.14825608
0.092529714 -0.1584681 0.07889042
0.10182439 -0.16501735 0.047944244
0.10985807 -0.16605192 0.015985865
0.11638664 -0.1615404 -0.016013727
0.12121173 -0.15161985 -0.0470822
0.12418673 -0.13659166 -0.07627559
0.12522125 -0.116912514 -0.10270681
0.12428387 -0.093180336 -0.12557282
0.12140307 -0.066116214 -0.14417881
0.116666354 -0.036542483 -0.15795949
0.11021765 -0.005357693 -0.16649608
0.102252945 0.026490573 -0.16952927
0.093014196 0.05803466 -0.16696686
0.08278213 0.08831609 -0.15888669
0.071867645 0.116414785 -0.14553429
0.060602367 0.14147699 -0.12731537
0.049328595 0.16274118 -0.10478352
0.03838887 0.17956129 -0.078623325
0.028115593 0.19142622 -0.04962967
0.018820904 0.19797549 -0.01868347
0.010787226 0.19901006 0.013274919
0.0042586625 0.19449852 0.045274496
-0.0005664304 0.18457796 0.07634297
-0.0035414398 0.16954976 0.10553636
-0.0045759603 0.1498706 0.13196759
-0.003638573 0.12613845 0.1548336
-0.0007577762 0.09907432 0.1734396
0.0039789453 0.069500595 0.18722026
0.010427639 0.03831582 0.19575687
0.018392343 0.006467562 0.19879004
0.02763109 -0.025076516 0.19622764
0.03786316 -0.055357933 0.18814746
0.04877765 -0.08345665 0.17479508
0.060042925 -0.10851883 0.15657616
0.07131669 -0.12978305 0.13404432
0.082256414 -0.14660315 0.107884124
0.12160148 -0.048983894 -0.123367056
0.10844889 -0.036711868 -0.1389131
0.09205746 -0.026102526 -0.15247902
0.072925195 -0.017478228 -0.16365267
0.051633462 -0.011101 -0.17209454
0.028829148 -0.0071646385 -0.17754808
0.0052052047 -0.005788736 -0.17984763
-0.018520607 -0.007015098 -0.1789233
-0.04162736 -0.01080646 -0.17480321
-0.06341298 -0.017047623 -0.1676125
-0.08321555 -0.025548965 -0.15756966
-0.100433335 -0.03605215 -0.14497988
-0.1145432 -0.048238076 -0.13022564
-0.12511644 -0.061736472 -0.113755286
-0.13183175 -0.07613716 -0.09606923
-0.13448513 -0.091002636 -0.077704884
-0.13299595 -0.10588119 -0.059220213
-0.12740943 -0.12032074 -0.04117687
-0.11789535 -0.13388257 -0.024123099
-0.10474275 -0.14615461 -0.008577045
-0.08835132 -0.15676394 0.00498889
-0.06921906 -0.16538824 0.016162544
-0.047927313 -0.17176545 0.024604395
-0.025122995 -0.17570183 0.030057948
-0.0014990494 -0.17707773 0.032357488
0.022226758 -0.17585137 0.031433165
0.045333527 -0.17206 0.027313067
0.06711914 -0.16581884 0.020122346
0.08692169 -0.1573175 0.01007952
0.10413947 -0.14681432 -0.0025102608
0.11824935 -0.1346284 -0.017264485
0.12882257 -0.12113002 -0.033734832
0.13553791 -0.106729314 -0.05142089
0.13819127 -0.091863856 -0.069785245
0.13670209 -0.0769853 -0.08826991
0.13111557 -0.06254574 -0.10631326
0.09837482 -0.0749273 -0.12005159
0.11485127 -0.07563445 -0.10388796
0.13000852 -0.07267364 -0.08672033
0.14338605 -0.06613485 -0.06907035
0.15457739 -0.056216747 -0.051474277
0.16324247 -0.043220695 -0.034466784
0.16911805 -0.02754156 -0.018564612
0.17202555 -0.009655748 -0.0042509735
0.17187667 0.0098932665 0.008039258
0.1686759 0.030511523 0.017932605
0.16252051 0.051572558 0.025128514
0.15359756 0.0724364 0.029408306
0.14217812 0.092469156 0.030641958
0.1286092 0.1110621 0.028791975
0.11330304 0.12765032 0.023914576
0.09672476 0.14172979 0.016157951
0.07937806 0.15287271 0.0057577863
0.061790008 0.16074051 -0.0069699064
0.04449502 0.1650941 -0.021638416
0.028018545 0.16580126 -0.03780207
0.012861293 0.16284044 -0.0549697
-0.0005162284 0.15630166 -0.07261967
-0.011707563 0.14638355 -0.090215735
-0.020372659 0.13338748 -0.10722325
-0.026248213 0.11770835 -0.12312541
-0.02915572 0.09982255 -0.13743906
-0.029006835 0.080273524 -0.14972928
-0.02580607 0.05965527 -0.15962264
-0.019650698 0.03859426 -0.16681853
-0.010727741 0.017730415 -0.17109834
0.00069168955 -0.00230233 -0.17233199
0.014260624 -0.020895276 -0.17048201
0.029566757 -0.037483506 -0.16560462
0.04614505 -0.051562972 -0.15784799
0.06349175 -0.06270588 -0.14744784
0.0810798 -0.07057369 -0.13472013
0.098537095 -0.020017993 -0.0037255688
0.09718939 -0.02262181 -0.012908712
0.09471706 -0.026306294 -0.021466656
0.0911952 -0.030959496 -0.029139375
0.08673086 -0.03644003 -0.03569373
0.08145965 -0.042581372 -0.040930577
0.07554175 -0.04919692 -0.0446908
0.06915697 -0.05608567 -0.04686013
0.062499303 -0.0630383 -0.04737267
0.055771053 -0.06984357 -0.046212845
0.049176633 -0.0762947 -0.04341588
0.042916432 -0.08219566 -0.03906678
0.03718065 -0.087367184 -0.03329768
0.032143574 -0.09165212 -0.02628387
0.027958248 -0.09492026 -0.018238476
0.024751842 -0.097072326 -0.009405928
0.02262178 -0.09804292 -5.4614153e-05
0.021632787 -0.09780255 0.009531332
0.021814905 -0.096358515 0.019060645
0.02316261 -0.0937547 0.0282438
0.025634944 -0.09007021 0.036801737
0.02915679 -0.08541702 0.044474456
0.033621144 -0.07993648 0.051028818
0.03889236 -0.073795125 0.05626567
0.044810258 -0.067179576 0.060025882
0.051195033 -0.06029083 0.062195215
0.0578527 -0.0533382 0.06270777
0.06458095 -0.046532936 0.061547928
0.07117536 -0.04008181 0.058750965
0.07743557 -0.034180842 0.05440188
0.08317134 -0.029009327 0.04863277
0.08820842 -0.024724396 0.041618973
0.09239375 -0.021456245 0.033573564
0.09560015 -0.01930418 0.02474102
0.09773022 -0.01833359 0.015389709
0.09871921 -0.018573958 0.0058037634
-0.09220862 0.05033055 0.09634838
-0.0792449 0.046969224 0.10877841
-0.06428742 0.04484784 0.1190563
-0.047790624 0.044030853 0.12686978
-0.030255793 0.044543087 0.13198146
-0.012215698 0.046368983 0.134236
0.0057815295 0.049453057 0.13356487
0.023189032 0.05370161 0.1299885
0.039477915 0.058985535 0.12361556
0.054153234 0.06514429 0.11463968
0.06676909 0.071990766 0.10333357
0.07694216 0.0793169 0.09004079
0.08436334 0.086900115 0.07516518
0.08880713 0.094510004 0.059158817
0.090138525 0.1019153 0.042507973
0.08831705 0.108891055 0.0257186
0.083398074 0.11522527 0.009300824
0.07553104 0.12072551 -0.006246485
0.064955 0.12522465 -0.02045095
0.051991273 0.128586 -0.032880995
0.03703379 0.13070737 -0.043158893
0.02053701 0.13152435 -0.05097238
0.003002171 0.13101211 -0.05608405
-0.01503794 0.12918621 -0.058338575
-0.033035163 0.12610215 -0.057667453
-0.050442666 0.1218536 -0.0540911
-0.06673154 0.116569676 -0.047718152
-0.08140686 0.1104109 -0.03874226
-0.094022706 0.10356444 -0.027436158
-0.10419579 0.096238315 -0.014143376
-0.11161695 0.0886551 0.00073220953
-0.11606075 0.081045225 0.01673859
-0.11739214 0.073639914 0.033389438
-0.11557068 0.06666416 0.050178807
-0.1106517 0.060329936 0.066596575
-0.10278467 0.054829694 0.082143895

