-0.301055 0.023235 0.008281
0.043068 0.046688 -0.005216
0.044625 0.047449 -0.005583
0.045169 0.241471 -0.005652
0.040562 0.046964 -0.005509
0.045732 0.048242 -0.005353
-0.052636 -0.121282 0.012403
-0.060238 -0.608822 -0.035008
0.044700 0.047897 -0.005346
0.043868 0.048154 -0.005636
0.138410 -0.437884 -0.023691
0.043787 0.045958 -0.005210
0.065308 -0.002511 -0.000337
0.042851 0.047664 -0.005526
-0.286710 0.328767 -0.044008
0.122093 -0.104563 -0.003739
0.048664 0.298295 -0.009601
0.001895 0.349188 -0.015091
0.044149 0.237880 -0.005663
0.117493 0.434713 -0.041103
0.028645 0.777506 -0.041465
0.041669 0.046678 -0.005424
0.044870 0.047987 -0.005449
0.042499 0.241028 -0.005614
0.046472 0.049280 -0.005441
0.024566 -0.041559 0.001420
0.072967 -0.049380 0.000374
-0.042985 0.223083 -0.008856
-0.018997 0.416409 -0.018921
0.131679 -0.472248 -0.028250
0.044950 0.047939 -0.005308
-0.069820 -0.839913 0.051951
0.018446 0.284923 -0.008274
0.044716 0.047181 -0.005567
0.041627 0.048723 -0.006317
0.299015 0.398101 -0.091874
0.023557 0.618065 -0.027852
0.048561 0.045931 -0.005171
0.044074 0.239015 -0.005251
0.043754 0.239904 -0.005618
0.042868 0.047985 -0.005528
0.042984 0.047082 -0.005493
0.042892 0.242541 -0.005551
0.065782 0.355350 -0.025201
0.044167 0.241636 -0.005686
0.043230 0.047807 -0.005384
0.045747 0.047042 -0.005656
0.045192 0.047910 -0.005576
0.043055 0.046226 -0.005410
0.123750 -0.266393 -0.001660
0.046574 0.240677 -0.005595
0.043463 0.047546 -0.005531
0.044409 0.047670 -0.005562
-0.045285 -0.037209 0.006627
0.043782 0.239050 -0.005546
0.044879 0.048230 -0.005351
0.090882 0.002331 -0.000380
0.068745 0.023216 -0.001901
0.114697 -0.318074 -0.004169
-0.053602 -0.776503 -0.071351
-0.060132 -0.538160 -0.027374
0.045743 0.240385 -0.005542
0.124889 -0.837048 0.084964
0.041502 0.046984 -0.005597
0.043749 0.240032 -0.005669
0.044914 0.241564 -0.005577
0.066419 0.226471 -0.003708
0.044278 0.240633 -0.005585
0.057563 0.275932 -0.008698
0.023515 0.023981 -0.002046
0.032353 0.713070 0.007368
0.040154 0.014451 -0.000380
0.031204 0.240778 -0.006517
-0.085360 0.455241 -0.015986
0.105744 0.471564 -0.042946
-0.060698 -0.465100 -0.015034
0.123717 -0.801222 -0.045541
0.127219 -0.637975 -0.028883
0.039075 0.313619 -0.013091
-0.005414 -0.004399 0.002973
-0.050175 -0.312765 0.012544
0.045118 0.048517 -0.005519
0.110076 -0.061216 -0.000719
0.041594 0.046575 -0.005514
0.044596 0.047684 -0.005579
0.125099 -0.181274 0.002810
0.046498 0.049506 -0.005714
0.043466 0.241905 -0.005718
0.045919 0.241113 -0.005647
0.284928 0.215931 -0.043490
0.043753 0.047342 -0.004158
0.044032 0.047205 -0.005328
0.055831 0.241528 -0.006159
0.046734 0.047281 -0.005753
0.041838 0.241706 -0.005709
-0.049196 -0.259400 0.014883
0.347262 0.097258 0.002710
0.017087 0.060378 -0.002812
0.029291 0.766649 -0.001044
0.043550 0.058718 -0.005628
