0.341155 0.383769 -0.074479 0.690790 -0.694209 -0.138284
-0.109725 -0.853761 0.080305 -0.065791 1.127387 0.401062
-0.570355 0.028389 0.057912 -0.336184 -0.755129 0.495870
0.183549 -0.248255 0.071665 0.086598 -1.013787 0.025692
-0.002683 0.840328 0.041513 -0.022402 1.233679 -0.063099
-0.183168 0.361724 -0.061775 -0.610175 -0.766265 -0.069562
0.644670 0.023963 0.062290 0.472146 -0.674486 0.351284
0.097852 0.069725 -0.147073 -0.628295 -0.771326 -0.065373
-0.096043 -0.480377 -0.084055 0.097563 1.167531 0.140250
-0.135281 -0.107972 0.062921 0.159153 -0.988063 -0.166458
0.195458 -0.718416 -0.008378 0.011789 1.272412 -0.000708
0.049237 0.255425 0.125902 -0.240543 -0.945501 0.026208
0.100457 0.582587 -0.094370 1.077817 -0.169697 -0.054521
-0.421475 0.237938 0.002418 -0.587948 -0.635057 0.429919
0.106865 -0.003247 0.128218 0.046788 -1.007374 0.041754
0.050852 0.327337 -0.132952 -0.812741 -0.550534 0.084333
0.159918 -0.491454 -0.097979 0.785794 -0.476977 -0.359731
-0.024534 -0.810627 -0.145935 -0.052358 1.031475 -0.047149
0.489134 0.194083 -0.058471 0.617500 -0.562863 0.477645
-0.025618 0.479729 0.080449 -0.671617 -0.753066 0.016347
0.124704 -0.842821 0.179914 -0.245270 -1.038051 0.016341
-0.128213 0.145204 -0.004403 0.032431 -0.993234 -0.120914
-0.091518 -0.362279 0.100790 0.293679 -0.970398 -0.085236
-0.018631 -0.216125 -0.084108 -0.074254 -0.941763 -0.342650
-0.086116 -0.633768 0.046358 0.063378 1.120121 0.115318
0.179100 0.378825 0.039986 -0.579955 -0.789655 0.066436
0.188669 0.165717 0.027851 -0.791258 -0.636975 0.020294
0.194702 -0.068820 -0.057333 -0.395327 -0.863441 0.007918
0.071082 0.677889 0.072829 -0.028499 1.316356 -0.112180
0.040068 -0.378683 -0.017006 -0.014429 -1.003747 0.032390
0.014003 0.770880 -0.119734 0.880129 -0.569764 -0.123416
-0.103344 0.511012 -0.106299 -0.944704 -0.310121 0.261133
0.130283 -0.868830 -0.045301 -0.070963 0.953678 0.558007
0.080637 -0.577317 0.021316 -0.049356 1.013394 0.146391
-0.075423 -0.062386 -0.111047 -0.096980 -0.793750 -0.579460
0.144788 -0.262320 -0.085803 0.039049 -0.993966 0.039736
0.250045 0.526814 -0.065828 1.087754 -0.102168 -0.042553
-0.067132 0.051323 0.112761 0.231963 -0.959275 -0.238619
-0.013497 0.177140 -0.114284 -0.121600 -0.947989 -0.410138
0.200398 -0.396616 0.018412 0.080431 -0.966540 0.018370
-0.077009 -0.647639 -0.106967 -0.030780 1.077790 -0.029310
0.020130 -0.252102 0.066273 0.062729 -1.008953 -0.012584
-0.321111 0.307150 -0.094567 -0.797481 -0.626965 -0.055131
0.187329 0.388738 -0.108595 -0.702418 -0.760349 0.049627
0.017340 -0.738635 -0.023837 -0.053264 1.043093 -0.052806
-0.132319 -0.255788 0.001567 0.184981 -1.011072 -0.039530
-0.082082 0.295499 0.077533 -0.039963 -1.035264 -0.033422
-0.212118 0.494441 -0.011088 -0.886213 -0.377825 0.240570
0.008012 -0.117757 0.111972 0.033530 -1.033092 -0.089622
0.135809 -0.628873 -0.096582 -0.002459 1.203803 -0.005903
-0.106484 -0.491608 0.054681 0.052274 1.174591 0.076903
0.062282 -0.061981 -0.132582 -0.092715 -0.925471 -0.416903
0.550706 0.115845 0.031410 0.477150 -0.669594 0.409747
-0.119808 -0.781983 -0.031436 -0.033116 1.026216 -0.014832
0.146970 0.216778 -0.087232 -0.771803 -0.624630 0.010760
-0.019974 0.608783 -0.049179 -0.592672 -0.671847 0.065536
0.122127 0.493833 0.056238 -0.672117 -0.735954 -0.001811
-0.474794 0.140614 0.063241 -0.502506 -0.629269 0.532315
-0.094000 -0.355442 -0.070298 0.177230 -1.006263 -0.004297
-0.080284 0.309172 -0.107209 -0.476217 -0.840028 -0.078867
-0.107197 0.052750 -0.082315 -0.182903 -0.787130 -0.618693
0.177250 -0.094218 0.090061 -0.033599 -1.014584 0.047365
0.097595 0.117105 0.117586 -0.069932 -1.001348 0.035262
0.197009 0.034794 0.059554 -0.426334 -0.897094 0.059957
0.107660 -0.340281 0.075989 -0.102465 -1.010949 0.048675
0.187072 -0.525366 0.034534 0.630898 -0.733319 -0.289918
0.388885 0.240381 -0.102880 0.651830 -0.572323 0.427221
0.135849 -0.802418 0.049854 -0.018573 1.120752 -0.014050
0.104728 0.776588 -0.047779 1.113908 -0.126064 -0.010445
0.010762 -0.486389 0.027206 -0.069783 -0.972076 0.024092
0.207641 -0.177547 -0.014582 -0.102295 -1.005871 0.034578
-0.023871 0.156008 0.121039 0.138523 -1.009828 0.012570
-0.288332 0.365676 -0.003007 -0.783717 -0.632034 -0.103597
0.041953 0.490991 -0.126656 -0.833530 -0.451544 0.185201
-0.044669 -0.859805 -0.049604 -0.104301 0.951481 0.505296
-0.003341 0.029856 -0.150126 -0.164132 -0.895834 -0.475495
0.000794 -0.538600 -0.067383 -0.053619 1.047644 -0.055022
0.194446 0.082248 -0.040921 -0.739668 -0.683651 0.012150
-0.115243 -0.208261 0.097560 0.230791 -0.971445 0.007418
0.144985 -0.780454 -0.104201 0.018491 1.280313 0.006535
-0.037832 0.404944 -0.129316 -0.773139 -0.619807 0.009348
-0.036508 0.733564 -0.033976 -0.336415 -0.882848 0.121075
0.263437 0.419616 -0.011650 0.630599 -0.720592 -0.191007
-0.302141 0.254303 -0.004621 -0.550515 -0.838662 -0.101226
0.098739 -0.168531 0.098740 -0.102196 -0.984094 -0.078561
-0.028065 -0.798814 0.048205 -0.052518 1.033518 -0.048144
0.141777 0.252945 0.081610 -0.777488 -0.629975 0.019506
0.045896 0.555733 0.026532 -0.511497 -0.829381 -0.254592
0.098480 -0.361100 -0.099313 0.662504 -0.702347 -0.288272
-0.131505 -0.586528 -0.046256 -0.024851 1.208091 0.181876
0.112282 -0.169473 -0.108572 -0.150327 -1.003274 0.036522
0.180349 0.302518 -0.045941 -0.743102 -0.651762 -0.008070
-0.106795 0.527270 0.044555 -0.901046 -0.378905 0.217214
0.017678 0.349007 0.113313 -0.396597 -0.912316 0.051186
0.073822 0.784539 0.070749 -0.073663 1.304656 -0.180168
-0.125394 -0.118546 -0.047740 0.073308 -0.953062 -0.284132
-0.137164 0.038200 0.010001 0.177396 -0.899722 -0.415307
0.095307 0.406777 0.092088 -0.740580 -0.680002 0.098553
0.166318 0.013443 -0.105806 -0.534520 -0.869486 0.027206
-0.102693 0.422140 0.065351 -0.676513 -0.725241 -0.046807
-0.059911 -0.049925 0.126582 0.138307 -1.016510 0.008284
0.096486 0.413418 -0.145615 -0.685041 -0.715127 0.024278
-0.016354 0.718317 0.058560 0.079764 1.169646 -0.090232
0.121118 -0.459321 0.052848 0.816633 -0.517903 -0.281404
0.585952 0.048656 -0.025665 0.561856 -0.741429 0.262839
-0.118122 0.312208 -0.008292 -0.739966 -0.677009 -0.039916
-0.007283 -0.122570 -0.086500 -0.153726 -0.925843 -0.396514
0.054594 -0.270457 -0.061902 -0.017783 -1.016912 -0.016597
-0.023243 0.834799 -0.062667 0.186747 -1.251028 0.082309
0.136119 -0.648832 0.032677 0.007205 1.244975 0.000150
-0.216711 0.415805 0.034834 -0.588413 -0.749084 -0.284197
0.001610 -0.340893 0.073689 0.216052 -1.010644 0.004745
0.178417 0.474276 -0.136630 1.086103 -0.054771 -0.054970
0.279737 0.461315 -0.119505 0.700067 -0.702950 -0.114570
0.187142 0.547222 -0.005348 1.081848 -0.102582 0.036102
-0.043018 -0.554486 0.046735 0.017721 1.079719 0.046033
0.002811 -0.644728 -0.068503 -0.034402 1.020680 -0.014852
-0.435236 0.161894 -0.039540 -0.510935 -0.580904 0.539247
0.013458 0.029400 0.139927 -0.024792 -0.971959 -0.192816
-0.352078 0.228676 -0.070549 -0.745592 -0.626245 0.192032
0.081737 0.637997 -0.002887 -0.154867 -0.954973 -0.286889
-0.136011 0.557766 -0.028627 -1.008826 -0.190339 0.313309
-0.276681 0.386694 -0.083227 -0.806291 -0.608175 -0.082613
0.084743 0.148328 -0.121539 -0.776262 -0.620238 0.036237
0.205328 0.471178 0.023810 -0.350352 -0.949756 -0.087441
0.076719 -0.508696 -0.082561 -0.235107 -0.968832 0.029849
-0.082637 0.201773 0.084630 0.017035 -1.018498 0.041634
0.198825 -0.621113 -0.043649 0.748505 -0.532043 -0.361659
0.009280 -0.449802 -0.046839 0.176125 -1.005720 -0.046141
0.443090 0.292070 -0.068414 0.572863 -0.490357 0.581438
0.063574 -0.696002 0.029398 -0.051669 1.022638 -0.042846
-0.042753 -0.860460 0.127657 -0.087382 1.063988 0.412312
-0.018072 -0.305372 -0.077695 -0.043164 -0.985471 -0.136015
0.083240 -0.078196 0.111063 0.056434 -1.005909 0.033201
-0.075924 0.220054 -0.090276 -0.215451 -0.954846 -0.200442
-0.119810 0.223560 -0.013886 -0.003014 -1.008431 -0.059043
0.205672 -0.285266 0.005108 -0.127119 -0.985031 0.019983
0.140786 -0.069050 -0.124887 -0.551742 -0.824253 -0.021024
0.075460 -0.673398 -0.061031 -0.051482 1.066986 -0.058680
0.011593 -0.801633 -0.068747 -0.056190 1.080603 -0.071071
0.018031 -0.619590 0.004872 -0.051718 1.023271 -0.043154
-0.033872 -0.181856 0.120825 0.174373 -0.943098 -0.287301
-0.142438 -0.037932 0.020746 0.136511 -0.988818 -0.130103
0.052110 0.250443 -0.129476 -0.774898 -0.669887 0.033015
-0.053411 0.374818 0.100807 -0.217097 -0.979787 0.002458
-0.127165 -0.379363 0.035508 0.050895 1.180438 0.071420
-0.152028 0.453279 -0.095756 -0.688568 -0.674735 0.019351
-0.570127 0.031047 -0.018050 -0.537355 -0.622359 0.506384
-0.121827 -0.296407 0.079245 0.119478 -0.995493 0.022325
0.197395 -0.541881 -0.055959 0.804284 -0.347423 -0.554818
0.308576 0.360525 -0.137756 0.620998 -0.706803 -0.224631
0.174869 -0.810518 -0.031785 0.019532 1.271276 0.010275
-0.022607 -0.702542 0.027511 -0.049254 1.004958 0.035611
-0.119129 -0.674038 -0.006697 -0.000786 1.111397 0.005271
0.388358 0.338558 -0.109357 0.739847 -0.651958 -0.182845
0.082668 0.845625 -0.032552 0.194335 -1.243097 0.082380
-0.065262 -0.574631 -0.103491 0.041838 1.134490 0.064218
-0.052559 0.078240 -0.125983 -0.157764 -0.921517 -0.351812
0.175101 0.301432 0.038196 -0.762243 -0.641807 -0.013712
-0.518393 0.096780 0.024239 -0.435619 -0.553479 0.646548
0.209694 -0.031629 0.031896 -0.514092 -0.834076 0.018435
-0.079648 -0.753300 0.023949 -0.055913 1.029828 0.006118
-0.026827 0.558006 0.026394 -0.850540 -0.435948 0.235237
-0.387240 0.287615 -0.038250 -0.732786 -0.682716 0.153625
-0.002070 -0.719582 -0.091197 -0.054486 1.058761 -0.060435
0.008265 0.690236 -0.071320 -0.076829 -0.987638 -0.271595
-0.106739 -0.849651 -0.008869 -0.069281 0.978706 0.503891
-0.126216 -0.189821 -0.027317 0.152563 -0.993524 -0.069155
0.297112 0.324293 -0.076328 0.672667 -0.705037 -0.172797
0.503241 0.164873 0.008468 0.604067 -0.589029 0.415019
-0.108541 0.093948 0.073191 0.189514 -0.952460 -0.098715
-0.099411 -0.827775 -0.082300 -0.084994 0.944038 0.436621
0.093331 -0.848555 -0.102840 -0.093746 0.919402 0.542144
0.198159 0.381679 -0.027946 -0.730611 -0.672203 0.035672
0.050800 0.633907 -0.066030 -0.321795 -0.931857 -0.302127
0.140028 -0.869321 0.116654 -0.315632 -1.021039 0.019066
0.115135 -0.005496 -0.149571 -0.381158 -0.907546 -0.228173
0.157054 -0.422528 -0.086909 0.797865 -0.559888 -0.281787
-0.113008 -0.023898 0.089599 0.265655 -0.983141 -0.019201
-0.128756 0.397252 -0.036497 -0.656950 -0.755258 -0.056458
0.148699 -0.865613 0.021838 -0.102006 0.919233 0.559572
0.034915 -0.311420 -0.000030 -0.046124 -1.027426 0.037445
0.059935 0.465774 0.082263 -0.710092 -0.709708 0.049507
0.148888 0.147277 0.081724 -0.693361 -0.728939 0.067882
0.604974 0.099082 0.071316 0.491246 -0.682169 0.390904
0.144953 0.071274 0.095911 -0.004085 -1.031966 0.039177
0.454425 0.239659 -0.019743 0.660511 -0.612928 0.404426
0.199625 -0.443756 -0.031941 0.695252 -0.477139 -0.568967
0.062073 0.817145 -0.102796 0.184713 -1.244424 0.084911
0.018068 -0.551235 0.003236 -0.052600 1.034573 -0.048657
0.072847 -0.775766 -0.053400 -0.054961 1.064848 -0.063399
0.099206 0.736419 0.007036 0.952399 -0.481949 -0.056571
0.021897 0.646448 0.038198 0.003089 -1.008686 -0.280665
0.138565 0.342375 0.079932 -0.803163 -0.612111 0.061304
0.030712 -0.035258 0.130554 0.167849 -1.028643 0.037346
-0.109462 0.401751 -0.105270 -0.707193 -0.695455 -0.062021
0.350911 0.279795 -0.063752 0.639471 -0.665266 -0.209843
-0.164064 0.514665 -0.072509 -0.878357 -0.427223 0.196936
-0.068622 -0.115596 0.120883 0.259035 -0.950816 0.039514
-0.127866 -0.331994 -0.010844 0.129819 -0.985047 -0.083150
0.086869 0.714224 -0.061253 1.056592 -0.197381 -0.025972
0.086241 -0.845931 0.048113 -0.056878 1.022634 0.493453
0.165903 -0.681660 -0.071062 0.009893 1.251498 0.002134
-0.433770 0.178190 0.026737 -0.433243 -0.645868 0.540197
-0.063347 -0.860650 -0.126109 -0.102721 0.917143 0.589097
0.047091 0.156603 0.130363 0.104312 -0.931467 -0.360835
-0.092516 0.159401 -0.072835 -0.062291 -0.952749 -0.332362
0.167074 -0.383434 0.072942 -0.064970 -1.013891 0.042594
-0.042104 0.531245 -0.114088 -0.811004 -0.547651 0.034325
-0.136591 -0.494544 -0.002714 0.114011 1.173116 0.172331
0.043932 0.556667 -0.111961 -0.141556 -1.005762 -0.248277
-0.110567 0.361573 0.044435 -0.501649 -0.846098 -0.051910
0.103349 -0.746172 0.027851 -0.035585 1.098920 -0.045176
0.182432 0.227216 0.011230 -0.762006 -0.653999 0.020964
0.065931 -0.125819 -0.104019 -0.081454 -0.911243 -0.449530
0.139908 0.349416 -0.124013 -0.710133 -0.699902 0.131940
-0.124269 -0.728708 -0.065703 -0.050842 1.012030 -0.037680
-0.013071 0.262156 0.116968 -0.034979 -1.014315 0.042574
-0.223064 0.327751 -0.026356 -0.709597 -0.651398 -0.052395
0.182285 -0.160503 -0.069073 -0.280255 -0.948162 0.025286
0.153681 0.155074 -0.081672 -0.746871 -0.677649 0.017546
0.052857 -0.437681 -0.002182 -0.068289 -1.018733 0.043166
0.104934 -0.516933 0.036052 -0.019832 -0.984076 0.022046
0.048866 -0.208688 -0.062580 -0.094209 -0.989247 -0.103873
0.032028 0.869659 -0.006054 0.174600 -1.224184 0.084261
-0.382521 0.192103 -0.011438 -0.471362 -0.521835 0.576526
-0.071379 -0.773940 -0.131133 -0.046261 1.041174 -0.041042
0.052535 -0.112799 0.070116 0.177563 -1.031619 -0.016301
-0.072234 -0.418805 0.088023 0.138472 1.213692 0.188100
-0.016297 -0.054832 -0.123542 -0.271507 -0.803242 -0.559028
-0.061734 -0.309360 0.104634 -0.026822 -0.979794 -0.142951
0.245386 0.371959 -0.112337 0.643101 -0.704503 -0.138544
0.292131 0.483990 -0.060130 0.691685 -0.696295 -0.150438
-0.518739 0.111537 0.091455 -0.418926 -0.713897 0.416015
0.295049 0.361163 -0.029368 0.655599 -0.734195 -0.152878
-0.000901 0.356488 -0.128218 -0.787161 -0.612927 0.062740
-0.014251 0.471358 -0.129032 -0.802439 -0.581436 0.127191
-0.070980 -0.245130 0.112397 0.128636 -0.997234 -0.091256
-0.128936 -0.389839 -0.023675 0.126107 1.189979 0.177187
-0.102065 -0.554320 0.048346 0.118367 1.190093 0.164915
0.086269 -0.827947 -0.029545 -0.008410 1.119656 0.020570
0.059535 -0.617201 -0.054202 -0.039765 1.064353 -0.039209
0.192108 -0.148445 0.073395 -0.083300 -1.027984 0.012748
0.112327 0.590307 -0.037537 1.073281 -0.223576 -0.060810
0.018569 0.761411 0.077193 -0.076389 1.339600 -0.197183
0.199785 0.550525 -0.084103 1.132754 -0.082272 0.001052
-0.056040 0.108085 0.106486 0.213138 -1.000154 -0.018196
0.054452 0.843274 0.051935 -0.076008 1.334715 -0.194805
0.193046 -0.468952 0.022094 0.746893 -0.537954 -0.394670
-0.050124 -0.391381 -0.082436 0.094943 -1.007004 0.007817
0.104533 0.291327 0.103950 -0.723027 -0.677577 0.025116
-0.144041 -0.144957 0.019327 0.009763 -1.022071 0.009560
0.434285 0.204556 -0.073501 0.571787 -0.578336 0.517754
-0.020190 -0.834579 0.003773 -0.064570 0.953011 0.496389
0.190749 -0.636129 0.011224 0.724056 -0.607824 -0.244682
0.092948 0.289338 -0.140113 -0.802542 -0.575255 0.038655
0.009275 0.086227 0.136806 -0.079231 -1.023497 0.042477
-0.191871 0.370662 0.010902 -0.366445 -0.839440 -0.349325
-0.037084 -0.610817 0.029360 -0.029468 1.058306 -0.020740
0.342878 0.333704 -0.042617 0.625470 -0.718570 -0.095266
0.018665 -0.146783 -0.042315 -0.014553 -1.053573 0.048942
0.143312 0.518136 -0.129698 1.021603 -0.250629 0.036725
0.171697 -0.304598 -0.060214 -0.059586 -0.999853 -0.072341
0.242759 0.422563 -0.136699 0.965369 -0.417709 -0.093651
0.052075 0.106255 -0.139514 -0.130680 -0.994394 -0.273720
0.078308 0.065419 0.128249 0.182162 -0.948229 -0.187925
-0.222084 0.388787 -0.096190 -0.775257 -0.635012 -0.106892
0.150850 0.299685 -0.100789 -0.747298 -0.677228 0.018321
0.071772 -0.298142 0.067780 0.040677 -1.006566 0.025576
0.201290 -0.379533 -0.034815 0.636866 -0.763061 -0.105064
-0.033438 0.760632 0.014769 0.754159 -0.659126 0.197290
0.165138 0.087144 -0.088189 -0.760266 -0.670020 -0.004019
-0.065363 -0.187029 -0.092567 0.079924 -0.904213 -0.447390
0.608113 0.096235 0.015804 0.568371 -0.689251 0.349884
0.249449 0.492239 -0.002806 0.726655 -0.663547 -0.048998
-0.367397 0.248458 0.009789 -0.747125 -0.647861 0.220174
-0.024240 -0.848125 0.073444 -0.067268 1.121428 0.399945
-0.124554 0.083264 -0.039337 -0.103445 -0.853194 -0.520724
0.130633 -0.256663 0.084953 -0.076098 -1.012979 0.044669
0.011612 0.441889 0.095585 -0.779385 -0.660098 0.056804
0.198538 0.027316 -0.044075 -0.762320 -0.655525 -0.018024
0.107567 -0.825932 0.106362 -0.189564 -1.099034 0.041270
0.186765 0.161590 -0.027070 -0.701458 -0.721839 0.021431
0.103074 -0.392606 0.060108 0.094062 -1.019452 -0.015022
-0.105778 -0.541943 -0.086259 0.050030 1.192866 0.070392
-0.025100 -0.391574 0.082539 0.252392 -1.039757 -0.004561
0.543390 0.176319 -0.026706 0.703042 -0.633387 0.282013
-0.119976 -0.676860 -0.082125 -0.016821 1.072012 -0.005743
-0.487560 0.165737 0.016656 -0.479429 -0.570333 0.563430
0.027239 -0.201525 0.047477 -0.132625 -0.990374 0.001647
-0.097140 -0.412323 -0.065384 0.091180 1.157575 0.131756
-0.107434 0.278478 0.032722 -0.146223 -0.987378 0.023985
0.201426 -0.210707 0.036978 -0.402604 -0.900888 0.030447
0.179656 -0.302228 0.073170 -0.051171 -1.008961 0.034225
-0.200873 0.463823 -0.075115 -0.729744 -0.670487 0.134665
0.079891 -0.309257 -0.089751 -0.225396 -0.955301 -0.056982
0.052917 0.041931 -0.158186 -0.159390 -0.939884 -0.359315
-0.405637 0.224352 -0.065407 -0.743798 -0.641655 0.165772
0.295698 0.412419 -0.141884 0.687559 -0.664923 -0.294409
0.201110 -0.331886 0.030899 -0.089200 -0.990386 0.026713
0.133419 -0.716889 -0.094761 0.013231 1.272697 0.000686
0.152196 0.417958 -0.136213 -0.715528 -0.696277 -0.027041
-0.014835 0.681438 -0.024184 -0.245719 -0.901861 -0.383717
-0.033950 0.817119 0.005531 0.677342 -0.802248 0.204923
0.045287 0.511780 0.060742 -0.817840 -0.574166 0.062607
0.059583 -0.769496 0.009583 -0.052963 1.039227 -0.050924
-0.091223 0.566961 -0.002604 -0.964459 -0.234334 0.296262
0.151197 -0.139960 0.105322 0.076694 -1.005286 -0.021079
-0.012679 -0.767032 -0.119036 -0.019722 1.052231 -0.003131
0.632328 0.038784 0.013421 0.510039 -0.657163 0.411665
0.119033 0.239313 -0.125366 -0.833209 -0.555056 0.079159
0.567178 0.098098 -0.016575 0.533662 -0.653169 0.398252
-0.066227 0.448615 -0.129287 -0.861960 -0.484268 0.139326
-0.055060 -0.694305 -0.114148 -0.027579 1.047513 -0.013829
-0.157130 0.514318 0.045033 -0.871081 -0.378883 0.187279
-0.109053 -0.304407 -0.050438 0.100720 -0.957193 -0.216130
-0.134315 -0.239460 0.050653 0.143745 -1.016161 -0.144590
-0.127540 -0.460922 -0.047873 0.113229 1.180679 0.160222
-0.259316 0.291339 -0.020879 -0.704516 -0.689408 -0.114595
-0.298803 0.316067 0.006377 -0.708615 -0.655515 -0.219277
-0.023267 0.211673 0.116546 -0.156349 -0.995642 0.037663
-0.090341 0.151521 0.077396 -0.052986 -1.017346 -0.022256
-0.014400 -0.358014 -0.067347 0.077844 -0.989384 0.010841
-0.122560 -0.625098 -0.078480 0.103071 1.186505 0.142052
-0.024057 0.794982 -0.094485 0.209348 -1.262502 0.083567
0.091072 0.492369 -0.138051 -0.517435 -0.835281 -0.123300
0.109437 -0.229247 -0.099970 0.731264 -0.692542 -0.185861
-0.037775 0.125328 -0.116210 -0.221495 -0.879047 -0.496025
0.205622 -0.077632 0.051634 0.042862 -1.000758 -0.057216
0.016672 0.596376 0.022568 -0.246684 -0.970384 -0.233466
-0.132541 -0.069125 -0.042484 -0.043773 -0.915480 -0.443307
0.201388 -0.580911 -0.013775 0.831217 -0.518422 -0.257117
-0.036580 -0.005288 -0.137016 -0.050139 -0.881001 -0.445727
0.171524 0.012966 0.096702 -0.220776 -0.999135 0.029544
-0.059656 0.515800 0.056407 -0.569814 -0.821210 -0.001579
-0.453562 0.207278 -0.029617 -0.619196 -0.615422 0.396630
-0.134822 -0.536830 -0.042689 0.113232 1.165288 0.165823
0.215517 0.426637 0.003868 -0.278879 -0.972239 -0.031675
0.144318 0.536723 0.017482 -0.306987 -0.924780 -0.212510
0.174376 0.099604 0.068172 -0.756506 -0.697793 0.053256
0.168646 -0.730106 -0.062168 0.008044 1.262022 -0.013582
0.213316 -0.068016 -0.001158 -0.265102 -0.970557 0.037725
0.009037 -0.670292 0.008147 -0.046542 1.034847 -0.039185
0.130998 -0.580751 -0.104384 0.749218 -0.540298 -0.350084
-0.084460 -0.107151 -0.093841 -0.054179 -0.887410 -0.472289
0.136806 0.042366 -0.131708 -0.754741 -0.658380 -0.067144
0.140762 0.194842 0.087868 -0.700428 -0.686000 0.000684
0.251575 0.369323 -0.049385 0.593481 -0.761061 -0.146440
-0.247685 0.343135 0.012553 -0.735620 -0.644906 -0.155042
-0.475985 0.139307 -0.022372 -0.494715 -0.588807 0.469878
0.062891 -0.484530 0.005562 0.074356 -1.032867 0.053393
0.090383 0.805076 0.030080 -0.072799 1.293576 -0.174773
-0.023862 -0.234341 0.110382 0.351062 -0.932384 -0.047500
0.053920 -0.369217 0.028362 0.055378 -0.979370 -0.013427
0.203503 -0.019750 -0.034455 -0.722816 -0.717536 0.029777
-0.073628 0.371983 -0.117157 -0.661832 -0.718110 0.025844
-0.324006 0.341230 -0.060903 -0.758614 -0.634137 0.011415
-0.051106 0.326071 0.097701 -0.083349 -0.994250 -0.001194
0.307242 0.443273 -0.039792 0.628308 -0.765407 -0.175515
0.013236 0.074248 -0.143057 -0.194593 -0.870108 -0.526143
0.187199 0.339493 0.011741 -0.762823 -0.650827 -0.029701
-0.068352 0.261990 -0.111980 -0.029224 -0.916855 -0.394476
0.166405 0.259542 -0.061546 -0.769383 -0.655456 0.029839
-0.181891 0.527504 -0.027639 -0.936160 -0.301913 0.278068
-0.121734 -0.342906 0.068761 0.552225 -0.841146 -0.127463
-0.129548 0.039878 0.057023 0.208325 -0.986657 -0.027203
0.121765 0.118777 -0.117059 -0.758398 -0.649457 0.082557
0.056609 -0.390481 -0.059883 -0.127763 -0.978627 -0.102077
0.143455 -0.356881 -0.085245 0.693411 -0.646003 -0.314628
0.077242 0.194977 -0.120437 -0.733854 -0.675803 0.095487
-0.121560 0.361221 -0.001417 -0.348206 -0.920759 -0.175580
0.103673 0.543029 -0.124426 0.900983 -0.490916 -0.063996
-0.061896 -0.490887 0.069542 0.060277 1.151119 0.087690
-0.100717 -0.149246 -0.073009 0.180221 -0.957985 -0.210041
-0.112805 0.006392 -0.084068 -0.036489 -0.905690 -0.476924
0.193985 0.515839 -0.122171 1.111138 -0.087939 -0.040977
0.080914 0.675803 0.024078 -0.144375 -0.987741 -0.260499
-0.018868 -0.464030 -0.080884 -0.037516 -0.967507 -0.001974
0.008323 -0.583301 -0.057522 -0.051928 1.025964 -0.044466
0.189271 -0.031105 0.073524 -0.615184 -0.791992 -0.019974
0.429222 0.254591 -0.120797 0.732669 -0.599256 0.288633
0.349995 0.282501 -0.110005 0.603731 -0.717213 -0.201458
0.012744 -0.293434 -0.045213 -0.069949 -1.003199 -0.055436
-0.084331 -0.178318 0.114569 0.193918 -0.966229 -0.169531
-0.012032 0.791781 0.060417 -0.056084 1.230130 -0.125287
0.027132 0.842515 -0.086598 0.226146 -1.277013 0.082214
-0.063491 -0.681987 0.022232 -0.051519 1.020718 -0.041911
0.210528 -0.142442 0.015002 0.025477 -1.034854 0.035666
0.063853 -0.175059 -0.090123 -0.115144 -0.969640 -0.208483
-0.083931 0.118237 -0.091101 -0.139337 -0.944044 -0.379319
-0.128669 -0.458073 0.032737 0.118551 1.175489 0.170518
0.138838 0.409774 0.078169 -0.594991 -0.828636 0.029613
-0.135188 -0.185674 0.063140 -0.034180 -0.984397 -0.252663
0.034310 0.731277 -0.109301 1.123368 -0.096418 -0.014007
0.113789 -0.520556 -0.106432 0.741218 -0.598843 -0.289852
0.121553 -0.468095 -0.106037 0.829085 -0.483336 -0.304178
0.017416 0.710343 0.088150 -0.052209 1.192497 -0.105477
0.402217 0.230775 -0.054440 0.708907 -0.538975 0.387777
-0.084219 0.250031 0.077602 0.000376 -1.005306 0.026602
0.139249 -0.031437 0.113221 -0.116920 -0.994364 0.025847
0.048747 -0.513930 -0.047153 -0.417777 -0.844609 -0.073583
0.146951 -0.524592 0.055667 0.704937 -0.594744 -0.375371
0.322985 0.396462 -0.035009 0.573548 -0.746801 -0.209874
0.023803 -0.036111 -0.133003 -0.135022 -0.827651 -0.569622
-0.001733 0.308462 0.116373 -0.078791 -1.011845 -0.040649
0.175627 0.119995 -0.056656 -0.726176 -0.706362 0.036619
-0.070533 -0.864088 0.060756 -0.071959 0.949918 0.566344
-0.069542 0.471722 0.075323 -0.887482 -0.352611 0.168963
-0.109211 -0.115975 0.102006 0.292245 -0.948434 -0.054839
-0.042545 0.295032 -0.127504 -0.770537 -0.637122 -0.007036
0.174253 -0.853738 0.056510 -0.343360 -0.893365 0.078063
-0.072504 -0.801959 0.051564 0.000800 1.081578 0.254765
-0.119501 0.124560 0.042603 -0.062718 -1.030256 0.045624
-0.024442 -0.076738 0.128913 0.164596 -1.001268 -0.034339
0.027957 -0.095479 -0.089014 -0.205785 -0.882524 -0.482053
0.576833 0.068288 0.030566 0.572001 -0.646181 0.425240
0.093968 -0.789089 0.043991 -0.053077 1.040685 -0.051634
-0.112771 0.280819 -0.039094 -0.243851 -0.952645 -0.030712
-0.009079 -0.458404 0.055227 -0.159500 -0.993420 0.028307
-0.177216 0.435421 0.038951 -0.763956 -0.639291 -0.141031
-0.101523 -0.792061 0.007564 -0.054623 1.060512 -0.061288
0.220067 0.549748 -0.034766 1.054155 -0.229399 0.022301
0.019949 0.280649 -0.127573 -0.768664 -0.655373 0.005617
0.055185 -0.643413 0.006032 -0.025154 1.053464 -0.012163
-0.092874 -0.835118 0.116508 -0.037694 1.120337 0.375954
-0.178522 0.418158 -0.095410 -0.778435 -0.597272 0.004657
-0.036503 0.776456 -0.056610 0.894687 -0.545211 0.077380
0.168512 -0.041192 -0.105239 -0.608009 -0.828549 0.077713
-0.226042 0.346522 -0.085324 -0.525293 -0.791650 -0.123939
-0.038003 -0.766870 0.019913 -0.053723 1.048977 -0.055671
-0.110448 0.319461 -0.077324 -0.688493 -0.712045 -0.129241
-0.281421 0.290217 -0.087914 -0.703491 -0.671973 -0.199001
-0.137851 -0.194062 0.014519 0.190023 -0.987157 -0.026938
-0.065390 -0.862912 -0.005859 -0.096145 0.934980 0.552463
-0.090585 -0.077246 0.112202 0.216429 -1.026328 -0.008877
-0.127716 -0.636368 -0.026514 0.026677 1.121226 0.045089
0.128898 -0.103669 0.113117 -0.034724 -0.999120 0.009265
0.004126 0.415474 -0.128330 -0.780118 -0.605242 0.011169
0.189166 -0.117986 -0.065324 -0.243844 -1.013795 0.087742
0.179758 -0.770954 -0.053721 0.015402 1.270885 0.003154
-0.028648 0.585835 -0.084552 -0.747421 -0.604532 0.026941
0.198179 0.070080 0.034930 -0.707690 -0.714566 -0.024227
0.568799 0.151166 0.014968 0.573509 -0.629614 0.402446
0.084981 -0.263633 -0.091406 -0.036557 -0.994038 0.006571
-0.250755 0.395524 0.018521 -0.461166 -0.854843 -0.133400
0.170403 0.492514 0.036252 -0.544756 -0.865250 0.043302
0.087333 -0.599439 -0.081349 -0.019987 1.102361 -0.000649
0.350557 0.364188 -0.130888 0.671505 -0.673424 -0.209833
0.090327 0.723218 0.046638 -0.066716 1.273948 -0.158023
-0.127692 0.074247 0.030789 0.097348 -0.937835 -0.297599
0.474581 0.229370 -0.077533 0.690122 -0.503564 0.457601
0.063784 0.386832 -0.139351 -0.790772 -0.567728 0.153419
0.128813 0.031155 0.116266 -0.072684 -0.968148 0.014589
0.014865 -0.348809 -0.037916 -0.108038 -1.047689 0.058258
0.321261 0.433059 -0.115087 0.635048 -0.719619 -0.158777
-0.262981 0.418690 -0.059066 -0.683775 -0.721300 -0.077417
-0.048361 0.586866 -0.026618 -0.732942 -0.579402 0.081224
0.181432 -0.207204 0.081717 0.047189 -1.002992 0.021022
0.145616 -0.747177 0.028766 0.016516 1.271363 0.003387
0.044099 -0.473301 -0.036429 -0.097548 -1.005022 0.027282
-0.053486 -0.287806 -0.092166 -0.107660 -0.915902 -0.387343
0.627479 0.064820 0.080868 0.498000 -0.633007 0.459222
-0.107579 0.470267 -0.115464 -0.841023 -0.478616 0.135508
0.500783 0.228105 -0.036849 0.634011 -0.565123 0.434396
-0.001382 -0.009596 0.143749 0.118250 -1.005313 -0.041832
0.026342 -0.508790 -0.004585 0.057833 -0.997292 -0.107561
-0.105822 0.056567 0.091735 0.145465 -1.024195 0.002230
0.242831 0.480185 -0.124840 1.018623 -0.250339 -0.061855
0.013670 0.207358 -0.123986 -0.093448 -0.963900 -0.385336
0.020594 -0.682127 -0.063032 -0.054962 1.019541 -0.017387
0.090556 0.700841 -0.013043 1.102171 -0.113910 -0.017530
-0.119171 -0.746128 -0.010115 -0.052248 1.030060 -0.046460
0.083870 0.564013 0.011422 -0.279978 -0.926338 -0.329773
0.168916 0.246434 0.050628 -0.779271 -0.583084 0.086223
0.053127 0.016643 0.140322 -0.119169 -1.000511 0.012731
-0.240874 0.435318 0.007248 -0.364411 -0.856125 -0.256890
-0.086707 -0.860987 -0.061134 -0.098042 0.890453 0.724465
0.205150 -0.243615 0.012184 -0.187263 -0.986479 0.070363
-0.018948 0.414857 0.102412 -0.747325 -0.652511 0.044252
-0.354739 0.314352 -0.067555 -0.769529 -0.631316 0.115128
0.458923 0.193180 -0.030251 0.548627 -0.565754 0.531354
0.167427 -0.560880 0.042365 0.764064 -0.470506 -0.453102
-0.058011 -0.009237 0.133432 0.214819 -1.008938 -0.025871
0.017126 -0.760964 -0.072489 -0.054388 1.057501 -0.059822
0.148404 -0.345615 0.078275 0.104018 -0.978823 0.019404
-0.455124 0.142556 0.026765 -0.540383 -0.615502 0.491149
0.183179 -0.596793 -0.072895 0.787941 -0.503577 -0.376498
-0.154786 0.394979 -0.071125 -0.683011 -0.664794 -0.056798
0.152981 -0.531767 -0.100925 0.891305 -0.356898 -0.331707
0.039275 -0.073079 0.117302 0.214026 -1.010635 -0.001348
0.208823 0.516600 0.011113 1.065174 -0.117239 0.023264
-0.126667 -0.532589 0.008771 0.061600 1.164464 0.089365
0.162809 -0.611398 0.027875 0.669266 -0.649046 -0.334873
-0.342308 0.280021 0.003580 -0.736305 -0.675593 0.084520
0.090792 -0.862661 -0.053283 -0.089939 0.907930 0.633839
0.086839 -0.206533 0.090141 0.402975 -0.927476 -0.129447
-0.558471 0.066782 0.064469 -0.544620 -0.616265 0.507599
-0.127736 -0.319130 0.027787 0.071614 -0.993581 -0.231406
0.019420 -0.698022 -0.022005 -0.052315 1.030921 -0.046879
0.097754 -0.107805 -0.121872 -0.272893 -0.851078 -0.464268
0.204371 0.406911 -0.059181 0.568744 -0.784250 -0.184622
0.046113 -0.589728 -0.027529 -0.047238 1.059303 -0.049179
0.206894 0.007023 -0.004235 -0.240865 -0.946272 -0.092901
-0.037889 -0.603844 -0.097515 -0.042814 1.077644 0.093489
-0.298040 0.368145 -0.042055 -0.802532 -0.632379 -0.015714
0.028818 -0.280765 0.025228 -0.137432 -1.030350 0.044230
0.176550 0.048747 -0.085157 -0.741148 -0.674624 0.030119
0.146866 -0.829829 0.118907 -0.153075 -1.077264 0.035556
0.351463 0.408063 -0.106503 0.633428 -0.741543 -0.199291
-0.036647 -0.104569 -0.106949 -0.153390 -0.779861 -0.612463
0.201744 -0.199470 -0.047568 -0.052467 -1.018211 0.004243
0.151623 -0.863160 0.158451 -0.186368 -1.074837 0.042375
