-0.282467 0.263881 -0.028458 -0.875438 -0.635890 -0.053100
0.166487 -0.863168 0.101955 -0.165902 0.653600 0.623381
0.633188 0.023000 0.058562 0.510229 -0.755512 0.272910
0.067462 0.861281 -0.029529 0.190141 -1.339519 0.016644
0.066271 -0.272402 -0.077542 -0.097785 -1.034534 -0.075180
0.253670 0.376972 -0.127566 0.738191 -0.672260 -0.211597
0.056788 0.107627 0.132670 -0.000283 -1.053520 0.020902
-0.129164 -0.628975 -0.044244 0.002861 1.108265 0.107211
-0.565392 0.049535 0.052184 -0.413932 -0.448352 0.784351
-0.095555 0.553790 -0.077322 -0.856428 -0.509910 0.004234
0.196512 -0.564373 -0.057266 0.555594 -0.850312 -0.242847
0.083765 0.028673 -0.159729 -0.145419 -1.019867 -0.094490
-0.128483 -0.114353 0.075525 -0.102659 -1.058027 -0.035839
0.064428 0.400687 0.098021 -0.023101 -1.002876 -0.150732
0.482746 0.246825 -0.047805 0.706477 -0.583225 0.289642
-0.027474 0.279697 -0.130511 -0.205912 -0.972279 -0.116140
-0.096074 -0.407459 0.090764 0.037004 1.141533 0.055426
-0.079726 -0.860243 -0.115996 -0.146912 0.792094 0.580193
0.140494 -0.135152 0.108874 0.159173 -0.993599 -0.233899
-0.071698 -0.860972 0.146810 -0.121888 0.711583 0.546711
0.143771 0.577094 -0.034038 1.058213 0.054680 -0.158481
0.132208 -0.795903 -0.116553 -0.021291 1.198459 -0.000619
-0.127473 0.081223 -0.027507 0.101425 -1.066704 -0.005387
0.181814 0.239085 0.022795 0.210860 -0.987391 -0.188140
0.183054 -0.393644 0.062295 0.217294 -0.973461 -0.273627
-0.004963 0.689671 0.063474 -0.076647 1.213609 -0.073682
-0.092989 0.253998 0.068836 -0.107116 -1.013261 -0.048856
0.206196 0.041976 -0.003556 -0.020479 -1.010251 -0.129733
-0.215097 0.440460 0.033680 -0.792681 -0.621233 0.016900
-0.044771 -0.454442 -0.092754 0.033558 1.160443 0.075798
-0.425458 0.163950 0.024953 -0.459679 -0.547646 0.648633
-0.075423 -0.062386 -0.111047 -0.299683 -1.010484 -0.076800
0.094386 -0.719297 0.035544 -0.008944 1.148308 0.028883
0.192334 -0.161150 -0.059755 0.000194 -1.037975 -0.014872
0.011401 -0.241265 0.086606 0.007602 -0.991322 -0.108876
-0.114751 -0.229642 -0.040469 -0.279944 -0.988784 -0.142995
0.041953 0.490991 -0.126656 0.006032 -0.964914 -0.052663
-0.004846 0.741597 -0.101968 -0.903392 -0.384089 0.106638
0.053144 -0.549964 -0.005499 0.078516 1.167344 0.129567
0.016933 -0.049886 0.124943 0.187017 -1.013800 -0.068435
0.112910 -0.413044 -0.102253 0.430468 -0.907651 -0.274166
-0.115428 0.395196 -0.097785 -0.428190 -0.939279 -0.035700
-0.092234 -0.758370 0.018449 0.009469 1.130682 0.070080
0.126728 0.221099 -0.111153 -0.097170 -1.007992 -0.104257
0.029381 0.535270 0.046360 1.071892 -0.046862 -0.158170
-0.008281 -0.738024 -0.103115 -0.021225 1.131069 0.022999
0.567434 0.141184 -0.006876 0.655815 -0.600114 0.302286
0.022671 -0.146295 -0.032847 -0.054428 -1.013249 -0.125807
0.288121 0.475551 -0.034051 0.595136 -0.825327 -0.250487
0.051346 -0.388125 0.017275 0.069057 -1.069208 -0.020530
0.187064 0.421969 0.039574 0.477968 -0.844970 -0.261962
-0.005027 0.148238 -0.112422 -0.174841 -0.984884 -0.185815
-0.102013 0.014334 0.104456 -0.035384 -1.054118 -0.027766
0.077689 0.237589 0.119345 -0.120671 -1.030909 -0.011324
-0.093157 0.488041 0.061785 -0.561132 -0.853619 -0.141487
0.100209 0.717510 -0.011440 1.051700 -0.163714 -0.101386
0.393078 0.293995 -0.128683 0.697996 -0.519100 0.274780
-0.125132 -0.373087 -0.035256 0.095015 1.182112 0.142281
-0.077686 -0.531136 0.066060 0.120425 1.228662 0.121328
-0.284252 0.381480 -0.075820 -0.727066 -0.666958 0.064478
0.115696 0.341688 -0.138315 -0.059899 -0.980235 -0.055578
0.165026 0.497141 -0.133522 0.612245 -0.696632 -0.240072
0.087305 -0.643920 -0.077432 -0.018155 1.211932 -0.001368
-0.060723 0.127572 0.102054 -0.019232 -1.025191 -0.030354
0.196584 -0.724580 -0.026868 -0.014659 1.309821 -0.019587
0.202504 -0.232388 0.035226 0.041041 -1.025557 -0.092135
0.161140 -0.536257 0.051999 0.405034 -0.904899 -0.252954
0.324274 0.345469 -0.038317 0.655291 -0.761037 -0.181559
0.047366 0.811607 0.075618 -0.078289 1.253150 -0.088654
-0.034283 -0.639106 0.024704 0.004658 1.142558 0.047066
-0.127115 -0.290993 0.057749 -0.012424 -1.059045 -0.036347
0.006747 0.634781 -0.058793 1.141449 0.036009 -0.149528
-0.395548 0.222869 -0.069188 -0.650362 -0.628758 0.449959
0.177505 -0.051870 -0.089192 -0.002692 -1.033039 -0.020137
0.172931 -0.326673 -0.058483 0.135060 -0.954956 -0.169116
-0.049178 -0.863475 0.019704 -0.146033 0.700053 0.655960
0.123682 -0.866498 -0.000030 -0.254136 0.508053 0.908226
-0.129854 -0.510989 -0.051131 0.019876 1.159813 0.059617
0.121241 0.019500 0.121160 -0.040465 -1.057739 0.041711
0.149969 0.126719 0.081871 0.001944 -1.060685 0.015490
-0.098624 0.361419 0.062696 -0.061551 -0.991460 -0.097847
-0.039891 0.034179 -0.142614 -0.209192 -1.016510 -0.141034
-0.032987 0.833224 -0.049539 0.097128 -1.468132 0.085603
0.138616 0.115931 -0.106564 0.000220 -1.038055 -0.132851
0.096705 -0.302328 0.077990 0.041821 -1.040043 -0.003036
-0.047216 -0.558977 -0.101419 -0.033725 1.069941 0.081922
0.194539 -0.458241 -0.057514 0.360751 -0.964260 -0.209254
-0.137139 -0.021619 -0.022712 -0.176691 -1.029371 -0.085490
-0.197311 0.455914 -0.082199 -0.836167 -0.604026 0.016305
0.176840 0.304948 -0.055652 -0.055029 -0.985916 -0.060618
-0.059768 -0.178259 0.121252 0.027129 -1.013526 -0.067418
-0.114587 0.238633 -0.027165 -0.144433 -1.024943 -0.018712
0.086438 0.779313 -0.093835 0.250667 -1.238328 0.009145
-0.053486 -0.287806 -0.092166 -0.276706 -0.968761 -0.184772
0.023834 -0.140591 0.085094 -0.016786 -1.048572 -0.116686
0.133436 0.311578 0.086523 0.015880 -1.069109 -0.052874
-0.194203 0.349638 -0.054920 -0.741348 -0.692687 -0.101701
-0.104401 -0.708145 -0.094208 -0.000840 1.119403 0.048096
0.213316 -0.068016 -0.001158 0.240146 -0.959726 -0.094191
-0.515116 0.123292 0.083722 -0.413178 -0.486316 0.775940
0.003941 -0.781679 -0.020247 0.005018 1.103964 0.080158
0.140226 -0.637223 0.030553 -0.017080 1.210715 0.006356
-0.092516 0.159401 -0.072835 -0.161590 -1.010244 -0.087594
0.041022 0.398225 -0.130859 -0.143646 -0.951509 -0.130921
-0.140094 -0.135697 -0.012975 -0.109070 -1.049669 -0.117266
-0.000522 0.337727 0.112824 -0.021020 -1.028703 -0.070018
0.140549 0.499712 0.046765 0.965306 0.220457 -0.127173
0.218640 0.534678 -0.006895 0.596646 -0.729545 -0.044389
0.076162 -0.144992 -0.105456 -0.011628 -0.986471 -0.159367
0.139115 -0.509714 -0.106519 0.268349 -0.990652 -0.219217
-0.050974 0.493180 -0.126885 -0.046245 -1.040525 -0.088424
0.174651 -0.054203 0.089752 -0.053954 -1.032401 -0.033850
0.195103 0.128707 -0.017246 -0.074626 -0.999639 -0.129411
-0.345495 0.291303 -0.089833 -0.781376 -0.640773 0.045705
-0.041087 -0.340146 0.096400 -0.003706 -1.086238 -0.012859
0.090544 0.576991 -0.102284 1.169935 0.151088 -0.223278
0.161749 -0.787460 0.020919 -0.023675 1.284265 -0.019803
0.337843 0.361478 -0.136908 0.519175 -0.869479 -0.221105
-0.033642 0.735674 -0.002800 -0.903768 -0.302789 0.138112
-0.091739 -0.145859 -0.082548 -0.248903 -0.978975 -0.180241
0.130444 -0.834530 0.173685 -0.154432 0.710530 0.648370
-0.039318 0.431803 0.094450 0.089300 -1.042374 -0.060623
-0.240585 0.362010 0.017490 -0.769031 -0.613325 0.061342
0.077275 0.725480 0.068140 -0.063450 1.290428 -0.083140
-0.482691 0.157420 -0.034075 -0.341810 -0.384224 0.725906
-0.120516 0.347506 -0.018462 -0.364336 -0.929559 -0.153929
0.037477 0.217565 -0.123567 -0.175387 -0.960711 -0.125643
0.204004 -0.130749 0.050710 -0.070886 -1.013570 0.001216
0.003560 -0.821783 -0.091452 -0.082914 0.936644 0.354690
0.083497 0.627644 -0.012279 1.061943 -0.131275 -0.144909
-0.068174 -0.782273 -0.136766 -0.001792 1.133968 0.042165
-0.397531 0.250002 0.007528 -0.754250 -0.617866 0.159051
0.002498 -0.047365 -0.127323 -0.180093 -0.963390 -0.207367
0.026726 -0.669983 -0.030686 0.008606 1.150899 0.053234
-0.104274 0.035493 -0.093993 -0.323197 -0.982851 -0.137239
0.172424 0.395175 -0.119781 -0.031565 -0.945269 -0.177221
-0.051707 0.581807 -0.016561 -0.871116 -0.419975 0.172326
0.016392 0.039257 0.138223 0.046848 -1.051368 0.000302
-0.037832 0.404944 -0.129316 -0.161492 -0.986188 -0.194979
0.578162 0.078856 0.058451 0.515173 -0.658920 0.419495
0.409337 0.222693 -0.060323 0.729372 -0.440560 0.444866
-0.105058 -0.838419 0.067923 -0.089131 0.893756 0.454338
0.242958 0.375901 -0.051150 0.530455 -0.804733 -0.195900
0.008014 0.206002 0.129019 -0.099838 -1.002661 -0.070040
0.014865 -0.348809 -0.037916 -0.016139 -0.984221 -0.193621
0.065479 0.125385 -0.131214 -0.032786 -1.028739 -0.077226
0.157448 -0.684582 -0.078833 -0.025550 1.217931 -0.013904
-0.154407 0.525308 0.038365 -0.858841 -0.570154 -0.057810
0.167000 0.046620 -0.100175 -0.068953 -1.022991 -0.029341
0.148780 -0.229904 0.087679 -0.057689 -0.996628 -0.021568
0.023389 0.830036 -0.098532 0.195768 -1.367401 0.043287
0.497600 0.167444 -0.005264 0.638578 -0.579747 0.376696
-0.051773 -0.380656 -0.084144 -0.185817 -1.012949 -0.149864
-0.090763 0.265432 -0.093986 -0.285291 -1.052437 -0.044912
0.379186 0.295452 -0.040307 0.700989 -0.513134 0.351070
-0.134964 -0.472986 0.012343 0.108542 1.183064 0.158169
0.190944 0.349830 0.001275 0.154158 -1.002226 -0.138981
-0.025146 0.558939 -0.106054 0.886291 -0.420703 -0.084237
0.204660 -0.339725 0.017052 0.007739 -1.038386 -0.018114
-0.007645 -0.615066 -0.075117 -0.059517 1.077872 0.189235
0.094555 0.807146 0.019617 0.093296 -1.487354 0.085627
0.142274 0.227107 0.083313 -0.060733 -1.003095 -0.152445
0.040715 0.468444 0.083441 0.256938 -0.990373 -0.118745
-0.027582 -0.180188 -0.089202 -0.097379 -1.019304 -0.150353
-0.118676 -0.694428 -0.004879 0.043734 1.153005 0.090432
-0.154701 0.547533 -0.035318 -0.766394 -0.606222 -0.022035
-0.121698 -0.766237 -0.047387 -0.013651 1.126311 0.030480
0.122375 -0.064849 -0.134537 0.004473 -1.011369 -0.095540
0.008458 -0.502624 0.026501 0.070894 1.084447 0.170080
0.096693 -0.868006 0.083472 -0.115184 0.796152 0.476306
0.069583 -0.784124 -0.049953 -0.052129 1.042511 0.163842
-0.128026 0.182541 0.015444 0.006881 -1.066797 0.022393
-0.340050 0.328019 -0.028622 -0.753430 -0.569600 0.036912
0.002498 0.862155 0.005396 0.105183 -1.460304 0.081244
0.285250 0.470949 -0.105165 0.686708 -0.791262 -0.169313
0.198138 -0.616795 -0.005049 0.469516 -0.900371 -0.230169
-0.085949 -0.243336 0.110959 -0.018943 -1.033291 0.043854
0.178283 0.039953 0.084682 0.050347 -1.033818 -0.071720
0.074501 -0.454575 0.011778 -0.035694 -1.022606 -0.196957
0.106272 -0.734403 -0.094501 -0.040226 1.291174 -0.045657
0.107206 -0.861564 -0.114768 -0.172766 0.595738 0.829563
-0.120231 -0.441478 -0.051958 0.035024 1.114117 0.086040
0.061597 -0.780231 0.025109 -0.051875 1.039811 0.164112
0.229232 0.513093 -0.111498 0.690168 -0.746830 -0.159455
-0.059015 -0.657192 -0.107430 0.020924 1.120912 0.073667
0.175245 0.219374 -0.043346 0.024506 -1.041443 -0.091659
-0.103370 -0.827957 -0.004657 -0.093628 0.875417 0.428894
-0.093656 -0.065999 0.110195 -0.021654 -1.036889 -0.079627
0.016409 -0.330280 0.059817 0.012360 -1.035969 0.025553
0.140886 -0.471401 0.063168 0.571318 -0.851343 -0.193542
-0.516892 0.108515 0.016900 -0.467430 -0.536702 0.658738
-0.100035 -0.641919 0.043084 0.017589 1.132702 0.065794
-0.143551 -0.069613 0.025405 -0.279848 -0.999763 -0.205739
0.171957 -0.259311 -0.069397 -0.056725 -1.005343 -0.088232
0.160622 -0.844451 -0.075919 -0.149368 0.812094 0.555734
-0.022231 -0.732664 0.018717 -0.021369 1.097128 0.083180
0.069274 0.334231 0.110784 0.022334 -1.031714 0.030425
-0.278225 0.299512 -0.091304 -0.781905 -0.604192 0.100980
0.076196 -0.224988 0.082118 -0.046967 -1.014461 -0.054099
-0.130602 -0.393539 0.028212 0.029696 1.139696 0.079107
0.003164 -0.417371 0.052669 0.029165 -1.098909 -0.066929
0.301224 0.320416 -0.099513 0.625697 -0.718825 -0.161128
0.104890 0.471649 -0.145134 0.960909 -0.283510 -0.154993
-0.151811 0.421512 0.037929 -0.644399 -0.691620 -0.025890
-0.110938 0.108929 0.063320 0.009109 -1.013503 -0.071246
0.020539 -0.211498 -0.041958 0.010182 -1.016109 -0.127752
-0.128638 -0.562490 -0.010418 0.089037 1.194010 0.131207
0.025900 0.279447 0.124969 -0.004041 -1.094186 0.065845
-0.138545 -0.172777 0.039647 -0.159503 -1.043949 -0.145956
0.067936 -0.611563 0.001332 -0.006973 1.165213 0.025684
-0.567894 0.038771 -0.010564 -0.269760 -0.348183 0.752422
-0.140500 0.011738 0.030902 -0.172371 -1.024290 -0.141080
-0.100201 -0.317806 -0.061903 -0.165248 -1.049947 -0.081512
0.072270 -0.205465 -0.088313 -0.035648 -1.012020 -0.211005
0.138838 0.409774 0.078169 0.160943 -1.013442 -0.076264
0.056609 -0.390481 -0.059883 0.057454 -1.087172 0.008263
-0.053972 0.053134 0.116501 -0.056305 -1.037799 -0.030590
0.082731 -0.529355 -0.086899 0.374733 -0.900900 -0.112864
0.122044 -0.294529 -0.096195 0.394701 -0.914254 -0.260857
0.145073 -0.625173 -0.094311 -0.036809 1.274319 -0.035446
0.042494 0.335652 -0.129289 -0.140568 -0.951093 -0.121077
-0.008012 -0.582294 0.025917 0.039954 1.119184 0.124115
-0.042268 0.235863 0.106872 -0.041905 -1.034251 -0.066680
0.004293 -0.457220 -0.054436 -0.177588 -0.975256 -0.158005
0.072785 0.692803 -0.061099 0.901743 -0.391816 -0.140301
0.061269 -0.580656 -0.058247 -0.113415 1.069970 0.061452
0.064065 -0.046016 -0.140204 -0.132759 -1.006480 -0.180492
0.204827 -0.266100 -0.016074 -0.077098 -0.973262 -0.091391
0.115529 0.280420 -0.133877 -0.033363 -1.027390 -0.019174
-0.136286 0.510091 -0.091474 -0.846198 -0.633060 -0.075807
-0.128420 -0.293380 -0.003518 -0.325648 -0.934029 -0.184620
0.202233 -0.533110 -0.005008 0.565649 -0.836645 -0.276101
0.165044 -0.392900 -0.077424 0.527378 -0.878956 -0.163230
-0.001778 0.124358 0.129435 -0.042785 -1.050801 -0.047177
0.029558 0.749189 0.097217 -0.084412 1.348138 -0.127227
-0.031812 0.793051 0.016567 -0.989235 -0.124428 0.299076
-0.213841 0.489424 -0.035068 -0.841764 -0.557491 -0.082031
-0.005061 -0.098244 -0.096293 -0.273670 -0.968881 -0.119007
0.624563 0.055690 0.108053 0.544401 -0.705356 0.264727
-0.051933 -0.821721 0.089827 -0.046148 0.994290 0.301312
0.601027 0.087739 0.003960 0.542175 -0.590298 0.448386
0.160361 0.169622 -0.072786 -0.005894 -1.007710 -0.035507
-0.004228 0.609351 0.006858 -0.694851 -0.676539 0.140972
-0.123409 -0.577200 -0.073258 0.033999 1.173745 0.071952
-0.058474 -0.112450 0.122724 -0.085249 -1.038074 -0.003065
0.191369 0.095697 0.032232 -0.017829 -1.063072 -0.039883
0.052477 0.590894 0.021821 1.177761 0.044020 -0.183857
-0.030936 -0.826743 -0.143144 -0.048401 0.961734 0.294491
0.194294 -0.286334 0.055364 -0.017298 -1.069113 -0.080266
0.080914 0.675803 0.024078 1.144992 0.265957 -0.253199
0.090927 -0.162524 0.095994 -0.016228 -1.014282 0.043698
0.029668 -0.229539 0.032897 0.241429 -0.976878 -0.260260
0.128163 -0.819450 0.085782 -0.141892 0.773141 0.590516
0.053186 -0.091910 0.095215 0.097590 -1.063417 -0.091359
-0.045996 0.188029 -0.103978 -0.096820 -1.047472 0.006149
0.079789 -0.358367 0.057437 -0.028707 -1.024299 -0.048021
0.253631 0.438249 -0.007162 0.464717 -0.776906 -0.156508
-0.324734 0.233565 -0.004051 -0.790207 -0.636430 -0.004208
0.005127 0.394141 0.104844 0.032904 -1.038918 0.000498
-0.024057 0.794982 -0.094485 -0.289394 -1.099225 0.139746
0.169663 -0.848718 0.029021 -0.133982 0.697257 0.621857
-0.426288 0.165886 -0.038496 -0.549373 -0.671505 0.402453
-0.116622 0.338582 -0.074727 -0.136433 -0.988282 -0.185096
0.206530 -0.001725 0.033079 0.003977 -1.033199 -0.043237
0.117265 0.398226 -0.144269 -0.019656 -0.979514 -0.147614
0.295698 0.412419 -0.141884 0.526799 -0.843565 -0.256996
-0.288826 0.372435 -0.010144 -0.861808 -0.581434 -0.093277
0.075061 0.181304 0.123712 -0.089390 -1.028695 -0.077626
0.354748 0.372997 -0.084339 0.720513 -0.523134 0.179251
-0.054625 0.336636 0.098417 -0.087761 -1.023082 -0.066498
0.127665 -0.355485 -0.095657 0.501481 -0.896918 -0.180596
0.154454 -0.187197 -0.091622 0.126866 -1.027231 -0.105759
-0.020894 0.716492 -0.053610 -0.866963 -0.490476 0.154212
-0.063726 0.078798 -0.119663 -0.304051 -0.981210 -0.154586
-0.082637 0.201773 0.084630 -0.054629 -1.030191 -0.102821
-0.105778 -0.586729 0.041585 0.074104 1.177182 0.175021
0.155376 -0.711028 0.007616 -0.039770 1.254068 -0.042519
-0.384103 0.290542 -0.050090 -0.781599 -0.640615 0.019564
0.088630 -0.825940 0.040850 -0.129542 0.829865 0.491390
0.216965 0.550068 -0.072195 0.792940 -0.628883 -0.143164
-0.004856 -0.535520 -0.074785 -0.033198 1.101767 0.022882
0.021897 0.646448 0.038198 1.123362 -0.071849 -0.129939
0.077090 0.051354 0.129904 -0.017173 -1.042977 0.029412
0.006725 -0.296361 -0.052230 -0.001621 -0.976411 -0.213513
-0.242579 0.446877 -0.013206 -0.768876 -0.626331 -0.074891
-0.091628 -0.612784 -0.099847 -0.092062 1.020790 0.158825
-0.296418 0.303713 0.006180 -0.784291 -0.627567 -0.001611
0.078762 -0.326876 -0.088376 0.217733 -0.965795 -0.247841
0.071433 -0.047664 0.126795 0.055361 -0.975446 -0.148378
-0.105306 0.431863 0.064166 -0.497892 -0.816963 -0.168475
-0.245280 0.303553 -0.048345 -0.830812 -0.610530 -0.012642
0.095008 -0.464064 -0.097474 0.524516 -0.883126 -0.204102
0.029071 0.560248 -0.107841 1.172333 0.013230 -0.227601
0.162697 0.565745 -0.083255 1.075307 -0.057480 -0.118866
0.184024 0.289108 -0.004782 0.050331 -1.031988 -0.159175
-0.076175 0.445755 -0.127168 -0.487020 -0.847194 -0.098042
-0.002575 0.785540 0.074292 -0.120717 1.384629 -0.182712
0.084673 -0.518485 0.024344 0.061801 -1.009157 -0.095533
-0.479237 0.173661 0.016911 -0.430156 -0.515260 0.644078
0.187065 -0.448173 0.048947 0.467937 -0.878907 -0.173722
0.169422 0.360111 0.049177 -0.098988 -1.035965 -0.009253
-0.071227 -0.453559 0.080354 0.100153 1.207793 0.118866
0.034540 0.672111 0.094611 -0.048108 1.196788 -0.033969
0.202069 -0.000737 -0.034613 -0.025617 -1.017843 -0.082032
0.111512 0.562147 0.005160 1.109292 -0.016177 -0.174105
-0.025337 0.285623 0.112741 -0.083046 -0.999273 -0.068953
0.104805 0.788397 -0.045207 0.103444 -1.433744 0.081914
0.031347 -0.170886 0.042625 -0.010926 -1.023212 0.004562
0.201534 0.402473 -0.032430 0.398412 -0.913393 -0.187411
-0.023353 0.740928 0.048536 -0.894832 -0.091304 0.266878
0.063707 -0.739497 -0.022761 -0.035206 1.177752 -0.012255
0.108022 0.086477 -0.137483 -0.039090 -1.016473 -0.025770
-0.072462 0.532226 0.042321 -0.949814 -0.321446 0.224268
0.147389 -0.289858 0.081465 -0.008153 -1.032343 -0.035513
-0.439803 0.219833 0.001444 -0.471997 -0.519966 0.658662
0.200132 -0.411034 0.014851 0.501201 -0.796911 -0.157043
-0.236955 0.377311 -0.097219 -0.816330 -0.625771 -0.099273
-0.019758 0.550070 0.038456 -0.134281 -0.979660 -0.146677
0.158076 -0.456046 -0.094408 0.533566 -0.856705 -0.219617
0.522520 0.214984 -0.038457 0.694364 -0.489055 0.437912
-0.315306 0.240024 -0.060148 -0.787198 -0.578898 0.153006
0.548077 0.169690 0.031288 0.623283 -0.553836 0.299653
0.086269 -0.827947 -0.029545 -0.014174 1.030618 0.220482
0.453553 0.204878 -0.078541 0.599783 -0.677376 0.086413
0.133547 -0.403043 0.070328 0.405563 -0.936643 -0.157775
-0.087532 -0.251831 -0.077470 -0.215659 -1.036494 -0.125702
-0.130216 0.061642 0.033247 0.007812 -1.065302 -0.138766
0.175938 -0.802420 -0.025719 -0.008281 1.277354 -0.004812
-0.098556 -0.814889 -0.102662 -0.034559 1.029009 0.223755
0.200381 0.495828 0.020369 0.564403 -0.779140 -0.123370
-0.071373 -0.497482 -0.097599 -0.011698 1.148503 0.054265
-0.009065 -0.825808 0.001226 -0.082591 0.918534 0.368024
-0.089401 0.312059 0.069922 -0.107629 -1.013311 -0.112289
0.060721 0.072938 -0.151087 -0.015258 -0.984640 -0.155797
-0.015867 0.080776 -0.136113 -0.404297 -0.955994 -0.075937
-0.256030 0.422039 -0.065473 -0.826559 -0.593248 -0.011046
0.169328 -0.753130 -0.058064 -0.039071 1.298284 -0.052809
0.141201 -0.107443 -0.115537 -0.052566 -1.044762 -0.068561
-0.073628 0.371983 -0.117157 -0.473600 -0.861005 -0.161075
0.169736 -0.003065 -0.103187 -0.036242 -1.015316 -0.048428
0.154341 0.313540 -0.099246 -0.109895 -1.008549 -0.129881
-0.178475 0.507247 -0.065036 -0.761239 -0.603464 -0.072191
0.203310 -0.096280 -0.040536 -0.036713 -1.002045 -0.174951
0.097450 0.131301 0.117414 0.085554 -1.017928 -0.054560
0.027586 -0.609218 -0.026631 0.008568 1.133449 0.054745
-0.041321 -0.498859 0.059347 -0.007771 1.056222 0.195990
-0.134351 -0.093201 -0.036617 -0.309348 -0.962980 -0.167225
0.126209 0.065838 0.106369 -0.061479 -0.996660 -0.050297
0.207066 -0.205817 -0.005486 0.055302 -1.046172 -0.094868
0.091402 -0.578374 0.028099 -0.004047 1.142703 0.036592
-0.122506 -0.173862 -0.037499 -0.271143 -1.037835 -0.025674
0.315877 0.438604 -0.048670 0.738166 -0.677327 -0.148018
0.026717 0.859559 -0.060307 0.104888 -1.363051 0.061764
-0.100310 -0.022145 -0.100890 -0.415084 -0.965440 -0.164003
0.074603 0.732459 -0.092481 0.967436 -0.250608 -0.093717
-0.078600 -0.861797 -0.028556 -0.035562 0.906843 0.411553
-0.469578 0.126464 0.017240 -0.377433 -0.477391 0.733151
-0.385542 0.190150 -0.030203 -0.508419 -0.573665 0.546291
0.128615 -0.556636 -0.107355 0.546098 -0.909362 -0.172882
-0.124657 -0.048942 -0.060243 -0.267434 -1.039490 -0.007789
-0.134379 -0.229413 0.003384 -0.109836 -0.999392 -0.146132
0.111916 0.266839 0.102655 0.025866 -1.065619 0.006561
0.590984 0.122108 0.035866 0.573701 -0.617564 0.414809
0.011931 -0.193720 0.092485 -0.016600 -1.023787 -0.160134
0.435257 0.274296 -0.117625 0.644439 -0.488323 0.478793
0.632328 0.038784 0.013421 0.524238 -0.682035 0.332369
0.392542 0.247544 -0.117321 0.629368 -0.744889 0.019995
-0.091802 0.511734 -0.110293 -0.420619 -0.900115 -0.178742
0.006051 0.025602 -0.152067 -0.273238 -0.991848 -0.062555
-0.115243 -0.208261 0.097560 -0.057265 -1.023147 -0.119885
-0.128382 0.440219 -0.106211 -0.605818 -0.819600 -0.036271
-0.038639 -0.686188 0.019359 -0.011886 1.145344 0.026334
-0.154786 0.394979 -0.071125 -0.719305 -0.661133 -0.130484
0.475573 0.224759 -0.006370 0.694367 -0.557552 0.249231
-0.120051 0.563684 -0.007149 -0.950305 -0.373945 0.096322
0.027498 -0.343875 0.007591 -0.033127 -1.042158 -0.013536
-0.065850 -0.716183 -0.120704 0.029464 1.170643 0.067540
0.108659 -0.100324 0.111923 -0.012761 -1.069151 0.054881
0.008420 -0.660421 0.011711 0.016637 1.107494 0.156087
-0.104596 -0.660472 -0.095871 -0.092465 1.103598 0.039012
0.136135 -0.042010 0.113848 -0.102720 -1.049976 -0.048354
-0.043330 -0.012029 -0.134973 -0.387427 -0.958784 -0.089682
-0.038207 0.591487 -0.060476 1.123379 -0.081289 -0.124085
-0.123166 -0.446902 0.049556 0.010202 1.063197 0.157481
0.555107 0.100666 -0.027023 0.513854 -0.666573 0.220358
-0.080284 0.309172 -0.107209 -0.366237 -0.994302 -0.072877
-0.018677 -0.257546 -0.084220 -0.189703 -1.012495 -0.137530
0.169852 0.106126 -0.073247 -0.036916 -1.068971 -0.055950
0.102108 -0.863842 0.150980 -0.181426 0.671701 0.663693
0.133735 -0.869794 0.055196 -0.129255 0.723965 0.614965
-0.024750 -0.030540 0.132763 -0.065633 -1.030844 -0.019430
-0.012021 -0.393385 -0.063705 -0.209962 -0.971713 -0.216093
0.077794 0.824070 -0.085155 0.110022 -1.531831 0.084581
-0.065049 0.393197 0.095114 0.088586 -1.053838 0.013555
0.133262 0.167461 0.095801 -0.014256 -1.050850 0.047620
0.185188 -0.493880 0.044538 0.410938 -0.955602 -0.181403
0.020787 -0.392271 -0.024381 -0.006590 -1.017632 -0.119827
-0.018918 0.234655 -0.128310 -0.256270 -1.013084 -0.037869
-0.000642 -0.142945 -0.072237 -0.079074 -1.037252 -0.190936
0.025276 -0.517372 -0.021794 -0.100601 1.067270 0.088018
0.077242 0.194977 -0.120437 0.034395 -1.092764 -0.008264
-0.015260 -0.693983 -0.092594 -0.022554 1.140383 0.036358
0.175816 -0.664048 0.019947 -0.035818 1.234788 -0.027133
-0.084307 -0.682407 0.029032 0.048359 1.151451 0.096483
0.464899 0.251175 -0.089597 0.738644 -0.525344 0.293827
0.115610 -0.757261 0.021750 -0.008564 1.151766 0.030011
-0.007165 -0.136351 0.118246 0.006938 -1.078618 0.054219
-0.192107 0.505376 0.022361 -0.863655 -0.530113 0.235463
0.415935 0.314555 -0.095124 0.815242 -0.540644 -0.024324
-0.010473 0.823353 0.042949 0.089869 -1.354784 0.055476
-0.090341 0.151521 0.077396 -0.056363 -1.046619 -0.021100
-0.128279 -0.337218 0.008172 -0.173987 -1.022546 -0.132992
-0.114242 0.311769 0.008724 -0.151464 -1.004927 -0.155123
0.054177 0.651504 -0.062794 1.114387 -0.063011 -0.205689
0.027102 0.102384 -0.138153 -0.127075 -1.026259 -0.171003
-0.120841 0.166922 -0.026250 -0.199514 -1.005824 -0.123841
-0.041219 -0.419929 0.081463 -0.045274 -1.044671 -0.009192
0.098104 -0.601861 -0.089473 -0.015344 1.275563 -0.008802
0.001495 -0.375028 0.067840 -0.068832 -1.029333 -0.001908
0.081086 0.512381 -0.132661 1.090798 -0.023168 -0.210198
0.051883 -0.262755 0.053581 0.006241 -1.066148 -0.051116
-0.188597 0.398943 0.025320 -0.754433 -0.684409 -0.104459
-0.119653 -0.372054 0.076257 0.112595 1.193989 0.151138
0.152425 -0.362833 0.076076 0.076425 -1.046285 -0.038083
0.042977 -0.170375 -0.064680 -0.132121 -0.977683 -0.182704
0.168168 -0.166990 0.094031 0.077528 -1.078503 0.038954
0.163524 0.303411 0.054551 0.073290 -0.988701 -0.132939
-0.128085 0.389240 -0.004644 -0.178058 -0.956494 -0.211599
0.034578 -0.307257 -0.016711 -0.057383 -1.005947 -0.191656
0.198374 0.079214 -0.026392 -0.020297 -1.030249 -0.044327
0.031857 0.847293 0.054565 0.086816 -1.475810 0.086616
-0.063203 -0.799862 0.053120 -0.067858 1.001461 0.213892
-0.071425 -0.284911 0.108053 -0.035351 -1.050964 0.029682
0.095139 -0.429640 0.041739 0.161692 -1.044915 -0.155509
0.141964 -0.829146 0.131508 -0.123068 0.796032 0.480271
0.122800 -0.677661 0.030521 -0.013141 1.217673 0.007320
-0.122707 -0.643899 -0.003352 -0.005704 1.087999 0.112733
-0.082624 -0.352982 0.102866 -0.013361 -1.040673 -0.018203
0.049764 0.594334 -0.089469 0.978594 -0.269233 -0.182573
0.442770 0.209084 -0.030881 0.623896 -0.572820 0.415417
0.185567 0.565798 -0.040913 0.969275 -0.009242 -0.151781
-0.548325 0.086569 0.068217 -0.482584 -0.571542 0.556374
-0.081152 -0.432277 -0.082540 0.058296 1.160658 0.131965
-0.017701 0.322242 -0.129827 -0.169280 -0.979152 -0.107805
-0.020987 0.174034 0.122611 -0.023387 -1.060460 0.055848
0.067536 0.547743 0.029264 1.114740 0.015323 -0.232999
-0.021204 0.694486 0.004417 -0.960613 -0.137806 0.236563
0.103320 -0.867370 -0.038531 -0.063576 0.899700 0.363170
-0.059187 -0.862780 -0.077786 -0.129394 0.879588 0.404259
0.227068 0.411287 -0.126512 0.498004 -0.847138 -0.253511
0.036825 0.158072 -0.118541 -0.032957 -1.000428 -0.147957
-0.049218 -0.220928 0.115925 -0.042961 -1.041118 0.042716
0.047037 0.009071 0.142629 0.048303 -1.073961 0.035242
0.164037 0.536263 -0.115144 1.012898 0.065887 -0.175131
0.086665 -0.644484 0.022163 -0.002406 1.146225 0.037399
0.203905 -0.355626 -0.023121 -0.076139 -0.995961 -0.058329
0.179214 -0.593691 0.026114 0.355943 -0.931916 -0.301881
0.094202 -0.694834 -0.082392 -0.031003 1.212231 -0.015004
0.363995 0.265117 -0.066827 0.790493 -0.541348 0.059998
0.031870 -0.115500 -0.078763 -0.078385 -0.993141 -0.121374
-0.497645 0.095001 0.056408 -0.426914 -0.524865 0.661455
0.199585 0.393188 -0.086612 0.350597 -0.972789 -0.069821
-0.023960 -0.087624 0.128462 0.051338 -1.061910 0.030950
0.126781 -0.789965 0.047083 -0.024079 1.136409 0.014669
-0.159168 0.460058 0.055112 -0.593051 -0.849231 -0.032274
-0.335880 0.287612 0.002368 -0.856335 -0.619553 -0.002895
0.013550 -0.282726 0.076321 0.052609 -1.068342 -0.009288
-0.014251 0.471358 -0.129032 0.298246 -0.829516 -0.216877
-0.093342 -0.094403 -0.089069 -0.345254 -1.022427 -0.106183
-0.011174 0.658727 -0.028251 0.735871 -0.586192 -0.072274
0.121788 -0.165486 -0.108244 -0.112833 -1.006215 -0.041337
0.190222 0.170556 -0.011288 -0.033696 -0.993351 -0.060423
0.113277 -0.253097 -0.099529 0.241898 -0.993029 -0.207954
0.200120 -0.438656 -0.020322 0.516080 -0.934307 -0.178473
-0.020569 0.018537 0.136794 0.000247 -1.011364 0.010676
-0.125043 -0.169282 0.084098 0.016679 -1.046915 0.001887
0.120374 -0.199716 0.096301 -0.015369 -1.015823 0.011652
-0.121675 0.391336 0.037026 -0.197034 -1.021053 -0.049446
0.080764 0.793115 0.057615 -0.234573 -0.028092 0.061646
-0.002465 -0.778390 -0.113921 -0.034682 1.159614 -0.005662
-0.026501 -0.774544 0.020867 -0.054135 1.149531 0.028171
0.081028 0.456143 0.083194 0.139191 -0.937734 -0.185677
0.125159 -0.514695 0.048521 0.397506 -0.948739 -0.228535
0.206617 0.484376 -0.132163 0.667149 -0.758167 -0.162021
0.058382 -0.178066 0.074531 0.002351 -1.092672 0.060989
0.019962 -0.749708 -0.042179 -0.045303 1.141329 0.114006
0.028007 0.793740 -0.119002 0.095071 -1.360063 0.074738
0.087609 -0.791828 -0.087012 -0.035995 1.084198 0.122060
0.049695 0.005301 -0.153417 0.003239 -1.054895 -0.085982
0.162988 0.261747 0.054950 -0.061389 -1.044429 0.008853
0.051092 0.504730 0.064359 0.239994 -0.933612 -0.212946
-0.129654 -0.523628 0.004200 0.101416 1.192563 0.146510
-0.039727 0.765021 -0.031491 -1.003793 -0.079222 0.462880
-0.373116 0.216605 0.009580 -0.888170 -0.550965 0.021736
-0.091620 -0.759955 -0.110938 -0.017061 1.188825 0.011481
-0.274692 0.346884 -0.096356 -0.823517 -0.625295 -0.085512
0.093102 0.727418 0.030066 0.823528 -0.341768 -0.171644
0.011612 0.441889 0.095585 0.308510 -0.855542 -0.208260
0.205768 -0.299256 0.009408 0.040570 -1.033970 -0.076025
0.153075 -0.034351 -0.124126 0.079926 -1.017045 -0.129070
0.191662 -0.604719 -0.063050 0.530117 -0.908327 -0.212995
-0.014192 -0.309697 0.089700 0.044592 -1.062834 -0.036655
-0.442571 0.203070 -0.043649 -0.579395 -0.576799 0.455802
0.077100 0.384171 -0.143860 0.038981 -0.987236 -0.157934
-0.127458 0.377869 -0.046167 -0.022160 -1.001931 -0.128880
-0.046991 -0.833862 0.129193 -0.100422 0.868925 0.419549
0.076665 -0.431966 -0.080582 0.001066 -1.043379 -0.175807
0.098433 0.766183 0.019240 0.079988 -1.260495 0.072894
-0.020312 -0.835608 -0.061702 -0.123536 0.791075 0.548336
-0.118802 0.040350 0.078342 -0.051756 -1.012721 -0.015862
0.555011 0.103424 0.036230 0.569285 -0.717030 0.106133
0.176438 -0.219262 -0.071176 0.110882 -1.008526 -0.056957
