0.059547238 -0.7 0.0
0.059250273 -0.7 -0.0033943425
0.058368396 -0.7 -0.006685549
0.056928404 -0.7 -0.0097736195
0.054974053 -0.7 -0.012564723
0.05256472 -0.7 -0.014974055
0.04977362 -0.7 -0.016928406
0.04668555 -0.7 -0.018368397
0.043394342 -0.7 -0.019250272
0.04 -0.7 -0.019547239
0.036605656 -0.7 -0.019250272
0.03331445 -0.7 -0.018368397
0.03022638 -0.7 -0.016928405
0.027435277 -0.7 -0.014974054
0.025025945 -0.7 -0.012564723
0.023071595 -0.7 -0.00977362
0.021631602 -0.7 -0.006685551
0.020749727 -0.7 -0.0033943446
0.02045276 -0.7 -2.951551e-09
0.020749727 -0.7 0.0033943437
0.021631602 -0.7 0.00668555
0.023071593 -0.7 0.009773619
0.025025945 -0.7 0.012564722
0.027435277 -0.7 0.014974056
0.030226381 -0.7 0.016928406
0.03331445 -0.7 0.018368397
0.036605656 -0.7 0.019250274
0.04 -0.7 0.019547239
0.043394342 -0.7 0.019250272
0.046685547 -0.7 0.018368397
0.04977362 -0.7 0.016928406
0.05256472 -0.7 0.014974056
0.05497405 -0.7 0.012564726
0.056928404 -0.7 0.009773623
0.058368392 -0.7 0.0066855536
0.059250273 -0.7 0.0033943474
0.10249643 -0.625 0.0
0.10154697 -0.625 -0.010852392
0.098727435 -0.625 -0.021375038
0.0941235 -0.625 -0.031248216
0.087875046 -0.625 -0.040171932
0.08017193 -0.625 -0.047875047
0.07124821 -0.625 -0.0541235
0.061375037 -0.625 -0.058727436
0.050852396 -0.625 -0.06154697
0.040000003 -0.625 -0.06249643
0.029147606 -0.625 -0.06154697
0.018624963 -0.625 -0.058727436
0.00875178 -0.625 -0.054123495
-0.00017193332 -0.625 -0.047875043
-0.007875044 -0.625 -0.040171932
-0.014123496 -0.625 -0.03124822
-0.018727437 -0.625 -0.021375043
-0.021546971 -0.625 -0.010852398
-0.022496432 -0.625 -9.4366985e-09
-0.021546971 -0.625 0.010852396
-0.018727437 -0.625 0.02137504
-0.014123499 -0.625 0.031248214
-0.007875048 -0.625 0.04017193
-0.00017192587 -0.625 0.04787505
0.008751789 -0.625 0.0541235
0.018624965 -0.625 0.05872744
0.02914761 -0.625 0.061546974
0.04 -0.625 0.06249643
0.05085239 -0.625 0.06154697
0.061375033 -0.625 0.05872744
0.07124821 -0.625 0.0541235
0.08017193 -0.625 0.04787505
0.08787504 -0.625 0.04017194
0.09412349 -0.625 0.031248227
0.098727435 -0.625 0.021375053
0.10154697 -0.625 0.010852408
0.14098176 -0.55 0.0
0.13944763 -0.55 -0.017535299
0.13489181 -0.55 -0.034537796
0.12745276 -0.55 -0.050490882
0.117356524 -0.55 -0.06490983
0.10490983 -0.55 -0.077356525
0.09049088 -0.55 -0.08745278
0.0745378 -0.55 -0.09489182
0.057535306 -0.55 -0.09944762
0.040000007 -0.55 -0.100981764
0.022464698 -0.55 -0.09944762
0.005462207 -0.55 -0.09489182
-0.010490891 -0.55 -0.08745277
-0.024909832 -0.55 -0.07735652
-0.03735652 -0.55 -0.06490983
-0.04745277 -0.55 -0.05049089
-0.054891817 -0.55 -0.034537803
-0.059447624 -0.55 -0.01753531
-0.060981765 -0.55 -1.5247823e-08
-0.059447624 -0.55 0.017535305
-0.054891817 -0.55 0.0345378
-0.047452778 -0.55 0.05049088
-0.037356526 -0.55 0.06490982
-0.024909817 -0.55 0.07735653
-0.010490876 -0.55 0.08745278
0.0054622106 -0.55 0.094891824
0.022464704 -0.55 0.09944763
0.04 -0.55 0.100981764
0.0575353 -0.55 0.09944762
0.074537784 -0.55 0.094891824
0.09049088 -0.55 0.08745278
0.104909815 -0.55 0.07735653
0.11735651 -0.55 0.06490984
0.12745276 -0.55 0.0504909
0.13489181 -0.55 0.03453782
0.13944763 -0.55 0.017535325
0.032683633 -0.475 0.0
0.032794785 -0.475 0.0012704736
0.033124864 -0.475 0.0025023443
0.03366384 -0.475 0.003658183
0.034395337 -0.475 0.0047028693
0.03529713 -0.475 0.005604662
0.036341816 -0.475 0.006336159
0.037497655 -0.475 0.006875135
0.038729526 -0.475 0.0072052134
0.04 -0.475 0.007316366
0.041270472 -0.475 0.0072052134
0.042502344 -0.475 0.006875135
0.043658182 -0.475 0.0063361586
0.04470287 -0.475 0.0056046615
0.04560466 -0.475 0.0047028693
0.04633616 -0.475 0.0036581834
0.046875134 -0.475 0.002502345
0.047205213 -0.475 0.0012704744
0.047316365 -0.475 1.1047405e-09
0.047205213 -0.475 -0.001270474
0.046875134 -0.475 -0.0025023445
0.04633616 -0.475 -0.0036581827
0.04560466 -0.475 -0.004702869
0.04470287 -0.475 -0.005604662
0.043658182 -0.475 -0.006336159
0.042502344 -0.475 -0.0068751355
0.041270472 -0.475 -0.007205214
0.04 -0.475 -0.007316366
0.038729526 -0.475 -0.0072052134
0.037497655 -0.475 -0.0068751355
0.036341816 -0.475 -0.006336159
0.03529713 -0.475 -0.005604662
0.034395337 -0.475 -0.0047028703
0.03366384 -0.475 -0.0036581843
0.033124864 -0.475 -0.0025023462
0.032794785 -0.475 -0.0012704754
-0.07922202 -0.4 0.0
-0.07741077 -0.4 0.020702686
-0.07203206 -0.4 0.04077633
-0.0632493 -0.4 0.05961101
-0.051329374 -0.4 0.076634444
-0.036634445 -0.4 0.09132937
-0.019611008 -0.4 0.103249304
-0.0007763356 -0.4 0.112032056
0.019297307 -0.4 0.11741077
0.03999999 -0.4 0.11922202
0.06070269 -0.4 0.11741077
0.08077633 -0.4 0.112032056
0.099611014 -0.4 0.1032493
0.11663444 -0.4 0.091329366
0.13132936 -0.4 0.076634444
0.1432493 -0.4 0.05961102
0.15203205 -0.4 0.040776342
0.15741077 -0.4 0.0207027
0.15922202 -0.4 1.8002025e-08
0.15741077 -0.4 -0.020702694
0.15203205 -0.4 -0.040776335
0.1432493 -0.4 -0.059611008
0.13132937 -0.4 -0.07663444
0.11663443 -0.4 -0.09132938
0.099611 -0.4 -0.103249304
0.08077632 -0.4 -0.11203206
0.06070268 -0.4 -0.11741078
0.04 -0.4 -0.11922202
0.019297313 -0.4 -0.11741077
-0.0007763244 -0.4 -0.11203206
-0.019611001 -0.4 -0.103249304
-0.03663443 -0.4 -0.09132938
-0.05132936 -0.4 -0.07663446
-0.06324929 -0.4 -0.059611034
-0.07203205 -0.4 -0.04077636
-0.07741077 -0.4 -0.020702718
0.15882015 -0.325 0.0
0.157015 -0.325 -0.020632904
0.15165442 -0.325 -0.040638883
0.14290127 -0.325 -0.059410077
0.13102153 -0.325 -0.076376125
0.116376124 -0.325 -0.09102152
0.09941007 -0.325 -0.10290128
0.080638885 -0.325 -0.11165442
0.060632907 -0.325 -0.117015004
0.040000007 -0.325 -0.11882015
0.019367095 -0.325 -0.117015004
-0.00063887984 -0.325 -0.11165442
-0.019410085 -0.325 -0.10290127
-0.036376126 -0.325 -0.091021515
-0.051021516 -0.325 -0.076376125
-0.06290127 -0.325 -0.059410084
-0.071654424 -0.325 -0.040638894
-0.077015005 -0.325 -0.020632915
-0.078820154 -0.325 -1.7941344e-08
-0.077015005 -0.325 0.02063291
-0.071654424 -0.325 0.040638886
-0.06290128 -0.325 0.059410073
-0.051021524 -0.325 0.07637612
-0.03637611 -0.325 0.09102153
-0.019410066 -0.325 0.10290128
-0.0006388761 -0.325 0.11165443
0.0193671 -0.325 0.11701501
0.04 -0.325 0.11882015
0.0606329 -0.325 0.117015004
0.08063887 -0.325 0.11165443
0.099410065 -0.325 0.10290128
0.11637611 -0.325 0.09102153
0.1310215 -0.325 0.07637614
0.14290127 -0.325 0.0594101
0.15165442 -0.325 0.040638912
0.157015 -0.325 0.020632934
0.01303776 -0.25 0.0
0.013447378 -0.25 0.004681944
0.014663782 -0.25 0.009221628
0.016650015 -0.25 0.01348112
0.019345725 -0.25 0.017330995
0.022669004 -0.25 0.020654274
0.026518881 -0.25 0.023349985
0.03077837 -0.25 0.025336217
0.035318054 -0.25 0.026552621
0.039999995 -0.25 0.02696224
0.044681944 -0.25 0.026552621
0.049221627 -0.25 0.025336217
0.05348112 -0.25 0.023349984
0.057330996 -0.25 0.020654274
0.060654275 -0.25 0.017330995
0.063349985 -0.25 0.0134811215
0.06533621 -0.25 0.009221631
0.066552624 -0.25 0.0046819467
0.06696224 -0.25 4.071185e-09
0.066552624 -0.25 -0.0046819453
0.06533621 -0.25 -0.009221629
0.063349985 -0.25 -0.013481119
0.060654275 -0.25 -0.017330993
0.05733099 -0.25 -0.020654276
0.053481117 -0.25 -0.023349985
0.049221627 -0.25 -0.025336219
0.04468194 -0.25 -0.026552623
0.04 -0.25 -0.02696224
0.035318054 -0.25 -0.026552621
0.030778373 -0.25 -0.025336219
0.026518881 -0.25 -0.023349985
0.022669008 -0.25 -0.020654276
0.019345727 -0.25 -0.017330997
0.016650017 -0.25 -0.013481124
0.014663784 -0.25 -0.009221635
0.013447378 -0.25 -0.0046819504
0.00947848 -0.175 0.0
0.00994217 -0.175 0.0053000064
0.011319153 -0.175 0.010438974
0.013567589 -0.175 0.01526076
0.016619157 -0.175 0.019618856
0.020381143 -0.175 0.023380842
0.02473924 -0.175 0.026432412
0.029561024 -0.175 0.028680846
0.03469999 -0.175 0.030057829
0.039999995 -0.175 0.03052152
0.045300007 -0.175 0.030057829
0.05043897 -0.175 0.028680846
0.055260763 -0.175 0.02643241
0.059618853 -0.175 0.02338084
0.06338084 -0.175 0.019618856
0.06643241 -0.175 0.015260762
0.068680845 -0.175 0.010438977
0.070057824 -0.175 0.0053000096
0.07052152 -0.175 4.6086215e-09
0.070057824 -0.175 -0.005300008
0.068680845 -0.175 -0.010438975
0.06643241 -0.175 -0.015260759
0.06338084 -0.175 -0.019618854
0.059618853 -0.175 -0.023380844
0.055260755 -0.175 -0.026432412
0.05043897 -0.175 -0.028680848
0.045300003 -0.175 -0.03005783
0.04 -0.175 -0.03052152
0.03469999 -0.175 -0.030057829
0.029561028 -0.175 -0.028680848
0.024739243 -0.175 -0.026432412
0.020381147 -0.175 -0.023380844
0.01661916 -0.175 -0.01961886
0.013567591 -0.175 -0.015260765
0.011319155 -0.175 -0.0104389815
0.00994217 -0.175 -0.005300014
0.24431726 -0.1 0.0
0.24121323 -0.1 -0.035479322
0.23199543 -0.1 -0.06988062
0.21694395 -0.1 -0.102158636
0.19651613 -0.1 -0.13133262
0.17133263 -0.1 -0.15651612
0.14215863 -0.1 -0.17694396
0.109880626 -0.1 -0.19199543
0.07547933 -0.1 -0.20121323
0.040000014 -0.1 -0.20431727
0.0045206733 -0.1 -0.20121323
-0.029880613 -0.1 -0.19199543
-0.06215865 -0.1 -0.17694394
-0.09133262 -0.1 -0.1565161
-0.116516106 -0.1 -0.13133262
-0.13694394 -0.1 -0.10215865
-0.15199542 -0.1 -0.069880635
-0.16121322 -0.1 -0.035479344
-0.16431728 -0.1 -3.085105e-08
-0.16121322 -0.1 0.035479333
-0.15199542 -0.1 0.06988063
-0.13694397 -0.1 0.10215863
-0.11651612 -0.1 0.1313326
-0.09133259 -0.1 0.15651613
-0.06215862 -0.1 0.17694396
-0.029880606 -0.1 0.19199544
0.0045206845 -0.1 0.20121324
0.040000003 -0.1 0.20431727
0.075479314 -0.1 0.20121323
0.109880604 -0.1 0.19199544
0.14215863 -0.1 0.17694396
0.1713326 -0.1 0.15651613
0.1965161 -0.1 0.13133264
0.21694392 -0.1 0.10215867
0.2319954 -0.1 0.069880664
0.24121323 -0.1 0.035479374
-0.103921466 -0.025 0.0
-0.10173497 -0.025 0.0249917
-0.09524194 -0.025 0.049224038
-0.084639646 -0.025 0.07196073
-0.07025025 -0.025 0.09251094
-0.05251094 -0.025 0.11025025
-0.031960726 -0.025 0.12463965
-0.009224042 -0.025 0.13524194
0.015008293 -0.025 0.14173497
0.039999988 -0.025 0.14392146
0.0649917 -0.025 0.14173497
0.08922403 -0.025 0.13524194
0.11196074 -0.025 0.124639645
0.13251093 -0.025 0.110250235
0.15025023 -0.025 0.09251094
0.16463965 -0.025 0.07196074
0.17524195 -0.025 0.04922405
0.18173498 -0.025 0.024991715
0.18392146 -0.025 2.1731537e-08
0.18173498 -0.025 -0.024991708
0.17524195 -0.025 -0.04922404
0.16463965 -0.025 -0.071960725
0.15025026 -0.025 -0.09251093
0.13251093 -0.025 -0.11025026
0.11196072 -0.025 -0.12463965
0.089224026 -0.025 -0.13524194
0.06499169 -0.025 -0.14173497
0.04 -0.025 -0.14392146
0.015008301 -0.025 -0.14173497
-0.009224031 -0.025 -0.13524194
-0.03196072 -0.025 -0.12463965
-0.052510925 -0.025 -0.11025026
-0.07025023 -0.025 -0.09251095
-0.08463963 -0.025 -0.071960755
-0.09524193 -0.025 -0.04922407
-0.10173497 -0.025 -0.024991736
0.22661448 0.05 0.0
0.22377938 0.05 -0.032405265
0.21536025 0.05 -0.063825905
0.20161289 0.05 -0.09330724
0.182955 0.05 -0.11995348
0.15995347 0.05 -0.142955
0.13330723 0.05 -0.1616129
0.10382591 0.05 -0.17536025
0.07240527 0.05 -0.18377939
0.040000014 0.05 -0.18661448
0.0075947307 0.05 -0.18377939
-0.023825906 0.05 -0.17536025
-0.05330725 0.05 -0.16161288
-0.079953484 0.05 -0.14295499
-0.10295499 0.05 -0.11995348
-0.121612884 0.05 -0.09330725
-0.13536024 0.05 -0.06382593
-0.1437794 0.05 -0.032405283
-0.14661449 0.05 -2.8178004e-08
-0.1437794 0.05 0.032405276
-0.13536024 0.05 0.06382591
-0.1216129 0.05 0.093307234
-0.102955006 0.05 0.11995347
-0.07995346 0.05 0.142955
-0.053307228 0.05 0.1616129
-0.023825899 0.05 0.17536026
0.007594742 0.05 0.1837794
0.040000003 0.05 0.18661448
0.072405264 0.05 0.18377939
0.1038259 0.05 0.17536026
0.13330722 0.05 0.1616129
0.15995346 0.05 0.142955
0.18295497 0.05 0.119953506
0.20161286 0.05 0.09330727
0.21536025 0.05 0.06382595
0.22377938 0.05 0.032405313
0.06288759 0.125 0.0
0.062539876 0.125 -0.003974388
0.061507296 0.125 -0.007828016
0.059821233 0.125 -0.011443794
0.05753291 0.125 -0.014711859
0.054711856 0.125 -0.017532911
0.051443793 0.125 -0.019821234
0.047828015 0.125 -0.021507297
0.04397439 0.125 -0.022539873
0.04 0.125 -0.022887588
0.03602561 0.125 -0.022539873
0.032171983 0.125 -0.021507297
0.028556205 0.125 -0.019821232
0.02528814 0.125 -0.01753291
0.02246709 0.125 -0.014711859
0.020178767 0.125 -0.011443795
0.018492702 0.125 -0.007828018
0.017460126 0.125 -0.00397439
0.017112412 0.125 -3.4559295e-09
0.017460126 0.125 0.0039743893
0.018492702 0.125 0.007828016
0.020178765 0.125 0.011443793
0.022467088 0.125 0.014711857
0.025288142 0.125 0.017532911
0.028556207 0.125 0.019821234
0.032171987 0.125 0.021507299
0.036025614 0.125 0.022539875
0.04 0.125 0.022887588
0.043974385 0.125 0.022539873
0.04782801 0.125 0.021507299
0.051443793 0.125 0.019821234
0.054711856 0.125 0.017532911
0.057532907 0.125 0.014711861
0.05982123 0.125 0.0114437975
0.061507292 0.125 0.007828021
0.062539876 0.125 0.0039743935
-0.10107716 0.2 0.0
-0.09893388 0.2 0.024497792
-0.092569165 0.2 0.048251227
-0.0821764 0.2 0.07053858
-0.06807138 0.2 0.090682656
-0.050682656 0.2 0.10807138
-0.030538574 0.2 0.12217641
-0.008251235 0.2 0.13256916
0.015502201 0.2 0.13893388
0.039999988 0.2 0.14107716
0.06449779 0.2 0.13893388
0.08825122 0.2 0.13256916
0.11053859 0.2 0.1221764
0.13068265 0.2 0.10807137
0.14807138 0.2 0.090682656
0.1621764 0.2 0.07053859
0.17256916 0.2 0.04825124
0.17893389 0.2 0.024497807
0.18107715 0.2 2.1302059e-08
0.17893389 0.2 -0.0244978
0.17256916 0.2 -0.048251234
0.1621764 0.2 -0.07053857
0.14807138 0.2 -0.09068265
0.13068265 0.2 -0.108071394
0.110538565 0.2 -0.12217641
0.08825122 0.2 -0.13256918
0.064497784 0.2 -0.13893388
0.04 0.2 -0.14107716
0.015502209 0.2 -0.13893388
-0.00825122 0.2 -0.13256918
-0.030538566 0.2 -0.12217641
-0.05068264 0.2 -0.108071394
-0.068071365 0.2 -0.09068267
-0.082176395 0.2 -0.0705386
-0.092569165 0.2 -0.04825126
-0.09893388 0.2 -0.024497828
0.010301538 0.275 0.0
0.0107527245 0.275 0.0051570837
0.012092574 0.275 0.0101574715
0.014280377 0.275 0.014849231
0.017249657 0.275 0.019089803
0.020910196 0.275 0.022750342
0.025150768 0.275 0.025719624
0.029842526 0.275 0.027907426
0.034842916 0.275 0.029247275
0.039999995 0.275 0.029698461
0.045157082 0.275 0.029247275
0.05015747 0.275 0.027907426
0.05484923 0.275 0.025719622
0.059089802 0.275 0.02275034
0.06275034 0.275 0.019089803
0.06571962 0.275 0.0148492325
0.06790742 0.275 0.010157474
0.069247276 0.275 0.005157087
0.06969846 0.275 4.484343e-09
0.069247276 0.275 -0.0051570856
0.06790742 0.275 -0.010157472
0.06571962 0.275 -0.01484923
0.06275034 0.275 -0.019089801
0.0590898 0.275 -0.022750344
0.054849226 0.275 -0.025719624
0.05015747 0.275 -0.027907427
0.045157082 0.275 -0.029247276
0.04 0.275 -0.029698461
0.034842916 0.275 -0.029247275
0.02984253 0.275 -0.027907427
0.025150772 0.275 -0.025719624
0.0209102 0.275 -0.022750344
0.01724966 0.275 -0.019089807
0.014280379 0.275 -0.014849236
0.012092575 0.275 -0.010157478
0.0107527245 0.275 -0.005157091
0.06751226 0.35 0.0
0.06709428 0.35 -0.004777454
0.06585307 0.35 -0.009409746
0.063826315 0.35 -0.01375613
0.061075613 0.35 -0.01768454
0.05768454 0.35 -0.021075616
0.05375613 0.35 -0.023826318
0.049409747 0.35 -0.025853068
0.044777453 0.35 -0.027094286
0.040000003 0.35 -0.02751226
0.035222545 0.35 -0.027094286
0.030590255 0.35 -0.025853068
0.026243867 0.35 -0.023826316
0.02231546 0.35 -0.021075614
0.018924385 0.35 -0.01768454
0.016173683 0.35 -0.013756132
0.0141469315 0.35 -0.009409749
0.012905713 0.35 -0.0047774566
0.012487739 0.35 -4.1542356e-09
0.012905713 0.35 0.0047774552
0.0141469315 0.35 0.009409747
0.016173681 0.35 0.013756129
0.018924383 0.35 0.017684538
0.022315461 0.35 0.021075618
0.026243873 0.35 0.023826318
0.030590255 0.35 0.02585307
0.035222545 0.35 0.027094288
0.04 0.35 0.02751226
0.044777453 0.35 0.027094286
0.049409743 0.35 0.02585307
0.053756125 0.35 0.023826318
0.057684537 0.35 0.021075618
0.061075613 0.35 0.017684544
0.063826315 0.35 0.013756135
0.06585307 0.35 0.009409753
0.06709428 0.35 0.004777461
0.08021687 0.425 0.0
0.079605885 0.425 -0.006983586
0.0777915 0.425 -0.013754979
0.07482883 0.425 -0.020108435
0.07080791 0.425 -0.025850907
0.065850906 0.425 -0.030807912
0.06010843 0.425 -0.034828834
0.053754978 0.425 -0.037791498
0.04698359 0.425 -0.039605886
0.040000003 0.425 -0.04021687
0.033016413 0.425 -0.039605886
0.02624502 0.425 -0.037791498
0.019891562 0.425 -0.03482883
0.014149092 0.425 -0.03080791
0.009192089 0.425 -0.025850907
0.0051711686 0.425 -0.020108437
0.002208501 0.425 -0.0137549825
0.00039411336 0.425 -0.0069835903
-0.0002168715 0.425 -6.0725784e-09
0.00039411336 0.425 0.006983589
0.002208501 0.425 0.013754981
0.005171165 0.425 0.020108433
0.009192087 0.425 0.025850905
0.014149096 0.425 0.030807914
0.019891568 0.425 0.034828834
0.026245022 0.425 0.037791498
0.033016413 0.425 0.039605886
0.04 0.425 0.04021687
0.046983585 0.425 0.039605886
0.053754978 0.425 0.037791498
0.06010843 0.425 0.034828834
0.0658509 0.425 0.030807914
0.070807904 0.425 0.025850913
0.074828826 0.425 0.020108443
0.0777915 0.425 0.013754989
0.079605885 0.425 0.0069835964
0.001454629 0.5 0.0
0.0020402223 0.5 0.0066933334
0.003779199 0.5 0.013183292
0.0066187307 0.5 0.019272685
0.0104725305 0.5 0.024776487
0.015223512 0.5 0.029527469
0.020727316 0.5 0.033381272
0.026816705 0.5 0.0362208
0.033306666 0.5 0.037959777
0.039999995 0.5 0.03854537
0.046693332 0.5 0.037959777
0.05318329 0.5 0.0362208
0.059272684 0.5 0.03338127
0.06477649 0.5 0.029527467
0.06952746 0.5 0.024776487
0.07338127 0.5 0.019272687
0.076220796 0.5 0.013183296
0.077959776 0.5 0.006693337
0.07854537 0.5 5.820189e-09
0.077959776 0.5 -0.0066933357
0.076220796 0.5 -0.013183294
0.073381275 0.5 -0.019272683
0.06952747 0.5 -0.024776485
0.06477648 0.5 -0.02952747
0.05927268 0.5 -0.033381272
0.053183287 0.5 -0.0362208
0.046693332 0.5 -0.03795978
0.04 0.5 -0.03854537
0.033306666 0.5 -0.037959777
0.026816709 0.5 -0.0362208
0.020727318 0.5 -0.033381272
0.015223516 0.5 -0.02952747
0.010472534 0.5 -0.024776492
0.0066187307 0.5 -0.019272693
0.0037792027 0.5 -0.013183301
0.0020402223 0.5 -0.006693343
-0.10760296 0.575 0.0
-0.10536053 0.575 0.025630984
-0.09870141 0.575 0.050483182
-0.08782791 0.575 0.07380148
-0.07307044 0.575 0.094877355
-0.054877356 0.575 0.113070436
-0.033801474 0.575 0.12782791
-0.010483187 0.575 0.13870141
0.014369007 0.575 0.14536053
0.039999988 0.575 0.14760296
0.06563099 0.575 0.14536053
0.090483174 0.575 0.13870141
0.11380149 0.575 0.12782791
0.13487735 0.575 0.11307043
0.15307042 0.575 0.094877355
0.1678279 0.575 0.07380149
0.1787014 0.575 0.050483197
0.18536052 0.575 0.025631001
0.18760297 0.575 2.2287427e-08
0.18536052 0.575 -0.025630994
0.1787014 0.575 -0.050483186
0.1678279 0.575 -0.07380147
0.15307043 0.575 -0.09487735
0.13487734 0.575 -0.11307044
0.113801464 0.575 -0.12782791
0.090483174 0.575 -0.13870142
0.06563098 0.575 -0.14536054
0.04 0.575 -0.14760296
0.0143690165 0.575 -0.14536053
-0.0104831755 0.575 -0.13870142
-0.033801466 0.575 -0.12782791
-0.05487734 0.575 -0.11307044
-0.07307042 0.575 -0.09487738
-0.0878279 0.575 -0.07380151
-0.09870141 0.575 -0.05048322
-0.10536053 0.575 -0.025631022
0.28819063 0.65 0.0
0.28442007 0.65 -0.043097854
0.27322292 0.65 -0.08488619
0.2549394 0.65 -0.12409532
0.23012507 0.65 -0.15953387
0.19953388 0.65 -0.19012508
0.16409531 0.65 -0.21493942
0.1248862 0.65 -0.23322292
0.08309786 0.65 -0.24442007
0.040000018 0.65 -0.24819064
-0.0030978583 0.65 -0.24442007
-0.044886187 0.65 -0.23322292
-0.08409534 0.65 -0.2149394
-0.119533874 0.65 -0.19012506
-0.15012506 0.65 -0.15953387
-0.1749394 0.65 -0.124095336
-0.19322291 0.65 -0.084886216
-0.20442006 0.65 -0.04309788
-0.20819065 0.65 -3.7475743e-08
-0.20442006 0.65 0.04309787
-0.19322291 0.65 0.0848862
-0.17493942 0.65 0.12409531
-0.15012509 0.65 0.15953386
-0.119533844 0.65 0.1901251
-0.0840953 0.65 0.21493942
-0.04488618 0.65 0.23322293
-0.0030978434 0.65 0.24442008
0.040000003 0.65 0.24819064
0.083097845 0.65 0.24442007
0.12488618 0.65 0.23322293
0.1640953 0.65 0.21493942
0.19953385 0.65 0.1901251
0.23012504 0.65 0.1595339
0.25493938 0.65 0.124095365
0.2732229 0.65 0.08488625
0.28442007 0.65 0.043097917
0.14181423 0.725 0.0
0.14026743 0.725 -0.017679855
0.13567409 0.725 -0.034822516
0.12817371 0.725 -0.050907116
0.117994234 0.725 -0.06544493
0.10544493 0.725 -0.077994235
0.09090711 0.725 -0.08817372
0.074822515 0.725 -0.09567408
0.05767986 0.725 -0.10026744
0.040000007 0.725 -0.10181423
0.022320142 0.725 -0.10026744
0.0051774867 0.725 -0.09567408
-0.010907125 0.725 -0.08817371
-0.025444932 0.725 -0.07799423
-0.03799423 0.725 -0.06544493
-0.04817371 0.725 -0.050907124
-0.055674084 0.725 -0.034822527
-0.06026744 0.725 -0.017679866
-0.061814234 0.725 -1.5373521e-08
-0.06026744 0.725 0.017679863
-0.055674084 0.725 0.03482252
-0.04817372 0.725 0.050907113
-0.037994236 0.725 0.065444924
-0.025444917 0.725 0.07799424
-0.01090711 0.725 0.08817372
0.0051774904 0.725 0.09567409
0.022320148 0.725 0.10026745
0.04 0.725 0.10181423
0.057679854 0.725 0.10026744
0.07482251 0.725 0.09567409
0.09090711 0.725 0.08817372
0.105444916 0.725 0.07799424
0.11799422 0.725 0.06544494
0.12817371 0.725 0.050907135
0.13567407 0.725 0.034822542
0.14026743 0.725 0.017679881

