-0.062684 -0.474036 -0.010077 0.006070 0.930645 0.129382
0.039319 0.285306 -0.004574 0.033325 -0.949481 0.075758
0.140232 -0.461260 -0.019700 -0.023247 0.967002 0.061311
0.131504 -0.169149 -0.000463 -0.013378 0.973966 0.001594
0.083110 0.054689 -0.018513 0.162604 -0.931773 -0.022588
0.046692 0.311312 -0.009310 0.051742 -0.968597 0.056355
-0.036614 -0.057363 0.020748 0.015907 0.962172 0.030157
0.135724 -0.296892 -0.009047 -0.009482 0.989080 0.008517
-0.064971 -0.511850 -0.017340 0.006368 0.969000 0.114370
0.142662 -0.551189 -0.029258 -0.019010 1.034800 0.011790
-0.062353 -0.576321 -0.027871 0.001814 0.965145 0.117141
0.137811 -0.571469 -0.032676 -0.014605 1.013998 -0.006400
0.133032 -0.392597 -0.015239 -0.023629 0.982243 0.032553
0.039531 0.337635 -0.007051 0.038662 -0.999123 0.071971
-0.055998 -0.228190 0.011797 -0.006579 0.966020 0.062592
0.137333 -0.559522 -0.032799 -0.018073 1.032617 -0.014645
0.028167 0.366232 -0.015891 0.032203 -1.004267 0.037095
0.591536 0.080749 0.032089 0.543829 -0.648985 0.338109
-0.497031 0.121565 0.033955 -0.475676 -0.535446 0.573099
0.004288 -0.000988 0.006244 -0.075927 -0.720886 0.100740
0.056439 0.125796 0.001168 0.071937 -0.889322 0.067597
0.056276 0.321245 -0.011630 0.040765 -0.971388 0.052522
0.174548 0.476503 -0.057353 0.694534 -0.511295 -0.094885
0.122196 -0.133660 0.001703 -0.026009 0.970608 -0.007855
-0.055481 -0.281028 0.009058 -0.001940 0.968210 0.073304
-0.061932 -0.550425 -0.021078 0.007711 0.969187 0.098585
-0.047686 -0.737552 -0.054017 -0.051448 0.885063 0.243939
0.142500 -0.520787 -0.026348 -0.018914 1.012025 0.024314
0.035610 0.557304 -0.033577 0.696635 -0.262532 -0.124475
0.041579 -0.795986 -0.039127 -0.102053 0.751920 0.453705
0.037987 0.346660 -0.010858 0.035980 -0.998928 0.054569
-0.341261 0.253989 -0.028798 -0.715487 -0.603149 0.143533
-0.129358 0.465113 -0.023108 -0.700710 -0.542287 0.024559
0.037186 0.268204 -0.003340 0.022606 -0.933509 0.068442
-0.064159 -0.432663 -0.002340 0.017144 0.934566 0.110493
0.030645 0.289433 -0.005239 0.022439 -0.955975 0.058692
-0.215669 0.402283 -0.030775 -0.753995 -0.582506 0.008417
0.004428 0.450710 -0.022350 0.117853 -0.930241 0.020280
0.038522 -0.764953 -0.020288 -0.087538 0.798057 0.373361
0.047875 -0.736171 -0.029164 -0.067403 0.867360 0.284986
-0.061018 0.636505 -0.016456 -0.305124 -0.783031 0.103177
0.043004 0.261437 -0.003696 0.038882 -0.966455 0.068547
0.131709 -0.329186 -0.009255 -0.016261 0.996871 0.018881
0.040819 0.314698 -0.005997 0.040082 -0.976752 0.072134
0.132421 -0.595522 -0.033230 -0.018530 1.010310 -0.000012
0.415376 0.269634 -0.084037 0.688572 -0.557425 0.268783
0.003224 0.399365 -0.019366 0.079914 -0.971818 0.010781
-0.063956 -0.408636 0.001797 0.027833 0.948021 0.097631
0.069301 0.441416 -0.027683 0.019756 -0.968278 0.046874
0.141280 -0.545975 -0.029275 -0.018688 1.030970 0.010570
0.042770 0.270422 -0.004650 0.039839 -0.949974 0.063343
0.019053 -0.777794 0.067027 -0.120581 0.709307 0.469054
-0.000293 0.081418 -0.006455 -0.070992 -0.870496 0.051164
0.023378 -0.788187 0.007128 -0.106737 0.747127 0.446168
-0.058421 -0.345292 0.013082 0.009839 0.974641 0.093313
0.277473 0.413304 -0.080385 0.691103 -0.659163 -0.105755
0.142431 -0.596434 -0.033908 -0.015100 1.007155 -0.003433
0.081866 0.002495 -0.009180 0.130505 -0.829581 0.028209
-0.059138 -0.606825 -0.028854 -0.001004 0.972249 0.116001
-0.063670 -0.482227 -0.012551 0.004861 0.955594 0.120639
-0.046105 -0.701696 -0.049819 -0.035136 0.899994 0.196131
-0.025404 0.059421 0.022215 0.029675 0.963776 0.003171
0.039425 0.280957 -0.005776 0.033287 -0.950195 0.066751
0.038790 0.307608 -0.008955 0.037769 -0.975047 0.056640
0.142603 -0.491442 -0.022474 -0.022999 1.005496 0.044459
0.132443 -0.391636 -0.019372 -0.023328 1.011042 -0.006099
0.134003 -0.346070 -0.012156 -0.015217 0.999303 0.012659
0.143193 -0.557536 -0.031053 -0.017767 1.032360 -0.001756
0.141212 -0.470070 -0.019048 -0.018974 0.969369 0.056358
0.038124 0.255314 -0.003938 0.031351 -0.936614 0.077962
0.040818 0.245858 -0.003825 0.037294 -0.977182 0.071254
0.139998 -0.535857 -0.029969 -0.015065 1.028463 -0.006807
0.131880 -0.246657 -0.007040 -0.015573 1.011147 -0.004961
0.039323 0.321239 -0.008238 0.034716 -0.979361 0.064218
0.044891 0.266410 -0.005740 0.044921 -0.974749 0.066486
0.037712 0.270906 -0.003653 0.032352 -0.952418 0.069705
0.134721 -0.419947 -0.015565 -0.020790 0.962749 0.043418
0.107678 0.478759 -0.037795 0.674382 -0.420341 -0.083508
0.043405 0.278293 -0.005406 0.045162 -0.959763 0.061866
0.030748 0.174091 0.002416 0.015751 -0.885713 0.067168
0.142774 -0.561991 -0.031336 -0.012102 1.029967 0.000897
0.037726 0.309545 -0.006196 0.033596 -0.966693 0.068777
0.129836 -0.414062 -0.018204 -0.027511 0.979896 0.020383
-0.044608 -0.118501 0.022419 -0.007146 1.004927 0.044096
0.042008 0.405985 -0.017324 0.057281 -1.022147 0.041321
0.022766 0.405815 -0.016386 0.057073 -1.030736 0.030697
0.118110 -0.761541 -0.033233 -0.081395 0.869580 0.323128
0.041532 0.295145 -0.005502 0.038541 -0.975697 0.070692
-0.057864 -0.317680 0.014043 0.000401 0.976430 0.090730
0.047561 0.272695 -0.005495 0.048565 -0.954524 0.063027
0.039475 0.247761 -0.004211 0.030261 -0.930836 0.061156
0.125691 -0.702692 -0.031183 -0.042941 1.020157 0.104321
0.059627 0.381423 -0.018339 0.042430 -0.983659 0.048112
0.042994 0.265862 -0.005680 0.040778 -0.930146 0.065587
0.097282 0.066181 0.015385 -0.044238 1.016411 -0.034021
0.040318 0.267218 -0.005282 0.033312 -0.947048 0.064115
-0.048072 -0.773912 -0.067261 -0.068512 0.880960 0.304396
0.022206 0.332765 -0.010282 0.014088 -1.006161 0.047382
-0.062879 -0.375541 0.006530 0.024372 0.975762 0.090188
0.046685 0.181423 0.002078 0.045164 -0.917987 0.060128
