0.346510 0.394950 -0.080430 0.631554 -0.757931 -0.235483
-0.109536 -0.844414 0.077678 -0.040879 0.964104 0.242699
-0.565392 0.049535 0.052184 -0.435584 -0.522159 0.595729
0.177339 -0.237405 0.077748 0.032136 -1.013909 -0.008227
-0.028143 0.843772 -0.026097 0.110863 -1.363293 0.106770
-0.111053 0.238913 0.039530 0.050778 -0.990931 0.005293
0.633188 0.023000 0.058562 0.564610 -0.644922 0.495612
-0.112701 -0.458155 -0.065658 0.073688 1.178650 0.120571
0.198848 -0.636864 -0.026393 0.513385 -0.825977 -0.172357
0.100287 0.025882 -0.154713 -0.044366 -1.025546 -0.058437
-0.130479 -0.082697 0.070651 -0.069306 -0.996323 -0.066997
0.041953 0.490991 -0.126656 0.861139 -0.528474 -0.185675
-0.384103 0.290542 -0.050090 -0.806039 -0.634167 0.037741
0.130690 0.124504 0.098436 0.123851 -1.000710 -0.041926
-0.181061 0.500985 0.038569 -0.992581 -0.360206 0.032110
0.107206 -0.861564 -0.114768 -0.111852 0.768644 0.567345
0.135119 -0.866318 0.148742 -0.134389 0.743301 0.607727
0.522520 0.214984 -0.038457 0.593692 -0.682904 0.333217
0.079733 0.373089 0.100561 -0.052382 -1.009020 -0.160258
-0.031633 -0.220190 -0.089597 -0.290272 -0.975757 -0.127528
0.112910 -0.413044 -0.102253 0.657162 -0.799684 -0.071082
-0.071023 -0.678321 -0.110034 0.033837 1.085868 0.159966
0.104463 0.250576 -0.135851 0.013500 -1.038587 -0.118401
0.032002 0.658853 0.077038 -0.112017 1.408642 -0.156623
-0.041087 -0.340146 0.096400 0.018509 -1.046457 0.007569
-0.104274 0.035493 -0.093993 -0.230899 -1.014170 -0.190806
0.186061 0.524472 0.013344 1.009193 -0.284659 -0.241003
0.211207 -0.042150 -0.005453 0.027363 -0.992891 -0.103447
0.053186 -0.091910 0.095215 0.096297 -1.039226 0.024183
-0.115428 0.395196 -0.097785 -0.114144 -0.998225 -0.173165
-0.079726 -0.860243 -0.115996 -0.101120 0.925780 0.343948
-0.075857 -0.596183 0.051212 0.047611 1.110806 0.115751
0.182697 -0.473409 0.053117 0.056976 -1.012728 -0.110563
-0.055501 0.065149 0.113755 -0.070412 -0.994887 0.048425
0.061597 -0.780231 0.025109 0.036518 1.117543 0.101287
0.074603 0.732459 -0.092481 0.754857 -0.707719 -0.136808
0.180648 0.274488 0.020623 0.032785 -1.015019 -0.104977
-0.482691 0.157420 -0.034075 -0.540123 -0.572644 0.616505
-0.051637 0.219603 -0.112288 0.443818 -0.863452 -0.232630
0.143983 -0.150709 -0.102012 0.158793 -0.975133 -0.252363
0.044230 -0.533546 -0.030732 0.001365 1.097287 0.104277
-0.279553 0.404082 -0.030337 -0.851875 -0.496061 0.003512
-0.095555 0.553790 -0.077322 -1.039065 -0.428349 0.047763
-0.135640 -0.231934 0.042509 -0.257368 -0.982383 -0.093327
0.014483 0.239303 0.127568 0.017763 -1.007544 0.071029
-0.069855 0.380375 0.092757 -0.173794 -1.031787 -0.058181
0.187140 0.371003 -0.093851 0.665350 -0.789569 -0.172239
0.080764 0.793115 0.057615 -0.099322 1.331178 -0.116814
0.201389 -0.335538 -0.022099 0.209570 -1.002689 -0.185183
0.404197 0.226241 -0.109500 0.686102 -0.480486 0.573797
0.042126 -0.237027 0.024790 -0.039873 -1.011729 -0.088991
0.064968 -0.400930 0.025155 0.201394 -1.021658 -0.038680
0.190428 0.138786 -0.022376 -0.025228 -1.015050 -0.191472
0.008330 0.349883 -0.127158 0.206065 -0.950630 -0.247264
0.229232 0.513093 -0.111498 0.723207 -0.735141 -0.186345
0.073968 -0.660397 -0.061492 -0.011805 1.202621 0.037268
0.180332 -0.762408 -0.043393 -0.031629 1.230552 0.004305
-0.005061 -0.098244 -0.096293 -0.078873 -0.989151 -0.082987
-0.099200 -0.475544 0.073511 0.033303 1.185086 0.075014
0.075639 0.492416 0.068230 -0.079241 -0.975616 -0.075696
0.006747 0.634781 -0.058793 0.826213 -0.643517 -0.182277
-0.059768 -0.178259 0.121252 -0.100167 -1.001073 0.035761
0.070667 -0.284776 -0.083059 0.140575 -0.993067 -0.194508
-0.126920 -0.087628 -0.049565 -0.336186 -1.031411 0.017863
-0.121698 -0.766237 -0.047387 0.054250 1.140770 0.112488
0.128615 -0.556636 -0.107355 0.289452 -0.960980 -0.192024
-0.113737 0.141001 -0.047397 -0.043287 -0.994450 -0.055853
-0.113838 -0.572422 -0.083056 0.079537 1.169777 0.129852
-0.271588 0.272033 -0.042205 -0.702580 -0.620846 -0.024070
0.011012 0.125725 -0.125791 0.121013 -0.960255 -0.185226
0.169663 -0.848718 0.029021 -0.109914 0.791978 0.504055
-0.072462 0.532226 0.042321 -0.860981 -0.050772 0.127362
0.129432 0.587148 -0.061741 1.204884 -0.117271 -0.198094
-0.002465 -0.778390 -0.113921 -0.010172 1.111744 0.083839
-0.191970 0.480807 -0.071518 -0.796517 -0.591303 -0.072720
-0.005073 -0.372770 -0.056495 -0.182653 -1.008898 -0.068813
-0.036508 0.733564 -0.033976 -1.054158 -0.124766 0.350850
0.587857 0.123381 0.056836 0.494650 -0.733750 0.409165
-0.125581 -0.318700 -0.024361 -0.162080 -1.029848 -0.195069
-0.130216 0.061642 0.033247 -0.103233 -0.990051 -0.093904
0.152425 -0.362833 0.076076 -0.030955 -1.021575 0.033553
0.121241 0.019500 0.121160 0.035399 -1.046304 0.000673
0.204004 -0.130749 0.050710 -0.020215 -1.030531 0.000181
0.194472 0.394294 0.007836 0.085875 -1.003107 -0.139051
0.111916 0.266839 0.102655 -0.044210 -0.971772 -0.042060
-0.038708 -0.057243 0.129694 -0.081319 -1.004460 -0.028505
0.194539 -0.458241 -0.057514 0.537337 -0.861890 -0.054506
-0.119813 0.312754 -0.031483 0.045498 -0.995208 -0.079245
0.121765 0.118777 -0.117059 0.045335 -0.984183 -0.182007
-0.019071 -0.834076 -0.006383 -0.069433 0.919655 0.338232
0.379186 0.295452 -0.040307 0.699769 -0.578305 0.320331
0.005314 -0.691627 0.002428 0.045608 1.125168 0.108476
0.139631 -0.593188 0.039220 0.240876 -0.947392 -0.255225
-0.065452 0.161187 0.097176 -0.001767 -0.989779 -0.006250
0.089200 0.688605 0.003715 1.114013 -0.168603 -0.146566
0.103073 -0.070910 -0.135730 0.119554 -0.993897 -0.119282
0.192641 0.070872 0.049911 -0.010556 -1.011604 0.046282
-0.515116 0.123292 0.083722 -0.517711 -0.512923 0.612333
0.207066 -0.205817 -0.005486 0.285984 -0.927228 -0.035186
0.019147 0.554485 0.028471 1.117582 -0.198974 -0.153233
-0.361085 0.205887 -0.022175 -0.774451 -0.584237 0.103698
-0.216711 0.415805 0.034834 -0.796610 -0.590472 0.067903
0.174651 -0.054203 0.089752 -0.004222 -1.018430 -0.023687
0.117265 0.398226 -0.144269 0.487995 -0.856635 -0.263975
0.577123 0.072000 -0.016509 0.551372 -0.651347 0.482847
-0.050974 0.493180 -0.126885 0.484037 -0.784004 -0.244654
0.177505 -0.051870 -0.089192 0.282898 -0.952906 -0.164778
0.074113 -0.794254 -0.062445 -0.020667 1.201979 0.028825
0.301224 0.320416 -0.099513 0.526576 -0.814687 -0.223767
0.134477 -0.680648 0.028618 -0.016468 1.191720 0.035183
-0.122506 -0.173862 -0.037499 -0.229979 -1.007098 -0.144466
0.167000 0.046620 -0.100175 0.051581 -1.016563 -0.154081
-0.122707 -0.643899 -0.003352 0.059480 1.129058 0.121726
-0.138804 -0.017810 -0.000593 -0.255613 -1.005489 -0.061364
0.011612 0.441889 0.095585 0.035371 -0.991047 0.049690
0.202233 -0.533110 -0.005008 0.564456 -0.810370 -0.253010
0.302970 0.467608 -0.069241 0.493666 -0.898262 -0.253461
-0.121734 -0.342906 0.068761 0.052062 1.210297 0.086647
0.004293 -0.457220 -0.054436 -0.150839 -1.012664 -0.149467
-0.041335 -0.030408 -0.132299 -0.189963 -1.028967 -0.051780
0.022671 -0.146295 -0.032847 -0.114624 -1.016949 -0.097533
0.097309 0.816862 -0.020934 0.120485 -1.347149 0.107170
-0.236955 0.377311 -0.097219 -0.797051 -0.634976 -0.083040
0.075061 0.181304 0.123712 0.130023 -1.023720 0.014110
-0.439803 0.219833 0.001444 -0.626245 -0.629725 0.280756
-0.194825 0.347694 -0.031607 -0.584714 -0.714679 -0.069072
0.028205 -0.318156 0.019935 -0.138255 -0.995073 -0.192035
-0.031241 0.305182 0.109492 0.317851 -0.938279 -0.058031
0.157448 -0.684582 -0.078833 -0.028827 1.225246 0.013672
-0.046991 -0.833862 0.129193 -0.087030 0.899086 0.385586
0.295698 0.412419 -0.141884 0.572960 -0.809646 -0.196322
-0.128085 0.389240 -0.004644 -0.239149 -0.976864 -0.124173
0.028007 0.793740 -0.119002 0.126870 -1.377592 0.105766
-0.303559 0.330932 -0.091394 -0.687976 -0.657850 0.075276
-0.048196 -0.763340 0.021302 -0.025512 1.061585 0.168079
0.017817 0.568449 -0.103935 1.137900 -0.148813 -0.155842
-0.108524 0.221750 -0.047097 -0.070069 -0.990808 -0.127284
-0.026777 -0.440385 0.072822 -0.071795 -1.040415 0.028320
0.091252 -0.859928 0.042955 -0.117705 0.741615 0.563114
0.442770 0.209084 -0.030881 0.680727 -0.620389 0.316279
0.016392 0.039257 0.138223 -0.163989 -1.008010 -0.025650
0.058382 -0.178066 0.074531 -0.048069 -1.008228 -0.080605
0.066152 0.098722 0.130778 -0.050115 -1.019799 0.062723
0.103320 -0.867370 -0.038531 -0.139694 0.688250 0.655447
-0.120571 -0.544536 0.016772 0.102290 1.136222 0.146086
-0.038526 0.587387 -0.019676 -0.792997 -0.534792 0.005746
0.202103 0.558668 -0.057044 0.715677 -0.611239 -0.261387
0.243330 0.451850 -0.000582 0.392782 -0.908147 -0.237756
-0.013286 0.673884 0.018072 -1.101343 -0.093083 0.218197
-0.125043 -0.169282 0.084098 -0.266027 -0.998726 -0.101627
0.028656 -0.005804 -0.146423 -0.147709 -0.992892 -0.064847
0.009151 0.261183 -0.128240 0.114238 -0.987420 -0.153868
0.200132 -0.411034 0.014851 0.568368 -0.830258 -0.267796
-0.001219 -0.529272 0.028609 0.043098 1.121547 0.107003
-0.136925 -0.419414 -0.006856 0.058676 1.139431 0.117173
-0.085391 0.327511 -0.104640 0.016401 -0.964014 -0.091194
-0.085044 -0.352110 -0.076392 -0.329121 -0.976159 -0.101324
0.065174 -0.359889 -0.072137 0.122708 -1.021965 -0.171581
0.138838 0.409774 0.078169 -0.117031 -1.000919 -0.055465
0.021784 -0.744558 -0.051600 0.002453 1.116143 0.065281
0.044530 0.189078 -0.113794 0.025318 -0.976250 -0.159687
0.018569 0.761411 0.077193 -0.067910 1.376152 -0.098265
-0.007029 0.132919 0.128706 -0.016688 -1.043805 0.093650
-0.076823 -0.861443 -0.039546 -0.058176 0.855959 0.443687
0.153895 0.249069 -0.084074 0.061731 -1.005679 -0.086570
0.393078 0.293995 -0.128683 0.652974 -0.675960 0.222462
0.125159 -0.514695 0.048521 -0.040940 -1.024255 -0.023265
0.053253 -0.218024 -0.066677 -0.024296 -1.002654 -0.187496
-0.089401 0.312059 0.069922 -0.208387 -1.017954 -0.047506
0.009835 -0.304332 -0.047044 0.185227 -0.959328 -0.201691
-0.091620 -0.759955 -0.110938 0.004069 1.133893 0.062033
-0.277353 0.345596 0.008911 -0.810411 -0.609969 -0.114999
0.242958 0.375901 -0.051150 0.402593 -0.898844 -0.209794
-0.096074 -0.407459 0.090764 0.066739 1.192723 0.108352
0.132208 -0.795903 -0.116553 -0.048518 1.263063 -0.017919
0.027621 -0.626924 -0.021385 0.016096 1.110296 0.084493
0.165026 0.497141 -0.133522 0.911997 -0.501148 -0.161625
-0.142814 0.429290 0.050460 -0.729888 -0.683508 -0.007813
0.110914 0.551535 -0.118557 1.187657 0.022721 -0.275162
0.126781 -0.789965 0.047083 0.001992 1.041328 0.118346
-0.070572 0.125973 -0.099705 -0.123331 -0.976707 -0.108749
0.012368 -0.228436 0.086707 -0.073283 -1.038002 0.031204
-0.028518 -0.626515 -0.092678 0.009723 1.103023 0.077379
0.538321 0.129973 0.009362 0.555323 -0.623638 0.556518
0.017273 -0.458575 0.023195 -0.013299 -1.033200 -0.046052
0.029004 0.867082 0.004076 0.118570 -1.425854 0.113205
0.077275 0.725480 0.068140 -0.072568 1.247986 -0.059966
-0.053233 0.395268 -0.126442 -0.110126 -1.001984 -0.059297
-0.516892 0.108515 0.016900 -0.510536 -0.591437 0.655715
-0.056446 -0.672157 0.024114 0.011404 1.127104 0.076112
0.187917 -0.274650 -0.049820 -0.035603 -1.000785 -0.116970
0.160622 -0.844451 -0.075919 -0.043446 0.962190 0.285933
0.076162 -0.144992 -0.105456 -0.067143 -1.035936 -0.136455
0.183395 0.201623 0.003036 0.023849 -1.018878 -0.119595
-0.107810 -0.248213 0.102329 -0.191423 -1.018115 0.043961
0.034332 0.423621 -0.128629 0.124828 -0.953384 -0.173403
0.071772 -0.298142 0.067780 -0.037954 -0.999053 0.039501
0.158316 -0.370593 -0.076328 0.659575 -0.778975 -0.134386
0.168168 -0.166990 0.094031 -0.037942 -0.999276 -0.036377
-0.031812 0.793051 0.016567 -0.948997 -0.149441 0.338905
0.104890 0.471649 -0.145134 0.393085 -0.510483 -0.056340
0.154341 0.313540 -0.099246 0.134900 -1.009350 -0.099937
0.337843 0.361478 -0.136908 0.617287 -0.775056 -0.233571
-0.238011 0.454612 -0.021114 -0.790043 -0.583356 0.047210
-0.004856 -0.535520 -0.074785 -0.021341 1.132088 0.088305
-0.006869 -0.696632 -0.086203 0.021258 1.075842 0.098985
-0.039891 0.034179 -0.142614 -0.024936 -1.006824 -0.094097
-0.087532 -0.251831 -0.077470 -0.228220 -1.043796 -0.068419
0.156314 -0.831252 0.097896 -0.098857 0.871299 0.427434
0.173069 0.432550 -0.135453 0.451650 -0.882927 -0.229587
0.203310 -0.096280 -0.040536 0.023471 -0.986630 -0.141300
0.075374 -0.655588 0.018592 0.025075 1.103231 0.093831
0.079698 -0.466189 -0.085292 0.196880 -0.982254 -0.255822
0.026717 0.859559 -0.060307 0.161267 -1.128652 0.051672
0.297347 0.423424 -0.021154 0.564973 -0.828334 -0.091461
-0.027321 0.770006 -0.086093 -0.912253 -0.132317 0.280446
-0.052525 -0.864288 0.055920 -0.150949 0.731301 0.632979
-0.127473 0.081223 -0.027507 -0.248385 -0.998417 -0.100885
0.169852 0.106126 -0.073247 0.186970 -0.989908 -0.099367
-0.567894 0.038771 -0.010564 -0.434287 -0.468888 0.729987
-0.066440 -0.113552 -0.103350 -0.138871 -1.019250 -0.093093
0.155413 0.483576 0.051011 -0.166151 -0.061589 0.029748
-0.071443 0.231708 0.088478 -0.074285 -1.007716 -0.032484
0.183179 -0.596793 -0.072895 0.348999 -0.951838 -0.275221
0.083497 0.627644 -0.012279 1.213887 -0.121377 -0.165901
0.450942 0.268232 -0.102668 0.672985 -0.586616 0.425304
-0.090763 0.265432 -0.093986 -0.151661 -1.002782 -0.096287
-0.422690 0.172072 -0.046019 -0.564140 -0.546698 0.377407
-0.044771 -0.454442 -0.092754 0.034104 1.107993 0.101921
-0.425458 0.163950 0.024953 -0.669991 -0.561305 0.395208
-0.136441 0.484481 -0.099512 -0.832670 -0.548037 0.052357
0.117173 -0.227905 0.090765 0.289885 -0.982171 -0.154353
0.169167 0.192387 -0.056771 0.074993 -1.027791 -0.136215
0.083712 -0.857953 0.114901 -0.177671 0.727582 0.595562
-0.068045 -0.534963 -0.101785 0.043091 1.098914 0.110499
0.079500 0.814228 -0.091774 0.148763 -1.321238 0.103418
0.249282 0.452229 -0.133631 0.395341 -0.863119 -0.266865
-0.340050 0.328019 -0.028622 -0.738135 -0.671799 0.053368
0.060721 0.072938 -0.151087 0.054159 -0.973830 -0.133767
0.062887 0.300638 0.117507 -0.099271 -1.026147 0.042713
-0.103203 -0.804702 -0.003451 -0.007184 1.106269 0.066198
-0.134835 0.000639 0.057566 -0.071532 -1.007366 0.015045
0.025467 -0.020526 0.132002 -0.033705 -1.048940 0.032805
-0.395548 0.222869 -0.069188 -0.769148 -0.590014 0.182852
0.125168 -0.261633 -0.096193 0.004415 -1.032182 -0.137819
0.147389 -0.289858 0.081465 0.355106 -0.900339 -0.162949
-0.127761 0.547946 0.023594 -1.059751 -0.117652 0.082126
0.076495 -0.600844 -0.071120 -0.029109 1.187000 0.025215
0.525413 0.187143 0.023299 0.623361 -0.603128 0.438571
0.198374 0.079214 -0.026392 0.183506 -1.005701 -0.026108
0.201471 -0.276468 0.039017 0.176503 -1.030517 -0.048967
0.624563 0.055690 0.108053 0.542414 -0.749474 0.213107
-0.110938 0.108929 0.063320 -0.024309 -1.018673 0.019680
-0.127860 0.187136 -0.003071 -0.089054 -1.021490 -0.010222
0.169422 0.360111 0.049177 0.039405 -0.998798 -0.060808
-0.203904 0.504206 -0.018562 -0.861928 -0.544890 0.036140
-0.041321 -0.498859 0.059347 0.079993 1.114640 0.148971
0.239826 0.519328 -0.009713 0.731223 -0.629868 -0.201166
0.059371 -0.706732 -0.028360 0.000948 1.144221 0.062404
-0.068885 -0.808408 -0.139290 -0.019661 1.059239 0.164285
0.082731 -0.529355 -0.086899 0.124332 -0.987374 -0.198884
0.063853 0.356064 -0.139063 -0.049870 -1.029087 -0.068472
-0.315306 0.240024 -0.060148 -0.761209 -0.663412 -0.043365
-0.045164 0.554078 -0.103898 0.084125 -0.977956 -0.120880
0.204784 -0.017691 0.045463 -0.077023 -1.053444 -0.095904
0.253670 0.376972 -0.127566 0.573378 -0.860798 -0.179711
-0.080696 0.014429 0.117234 0.023768 -0.995180 0.022399
0.468688 0.261713 -0.049181 0.610889 -0.537673 0.524638
0.190483 0.338310 0.000263 0.087963 -1.012405 -0.123126
-0.144093 -0.073752 0.005786 -0.242605 -0.985960 -0.080896
-0.086396 -0.543025 0.066950 0.015858 1.115154 0.116511
-0.129933 -0.266309 -0.004166 -0.344304 -0.935159 -0.093766
-0.147066 0.534934 -0.064758 -0.978283 -0.401477 0.113518
0.064854 -0.498037 0.007644 0.005927 -1.028268 -0.086596
0.106475 -0.704125 -0.092093 -0.012233 1.190466 0.036770
0.094386 -0.719297 0.035544 -0.020685 1.208692 0.023376
-0.371134 0.277411 0.002874 -0.819173 -0.639315 -0.005905
0.149947 -0.100700 0.108844 -0.061143 -1.025099 -0.015916
-0.109241 -0.037988 0.096262 -0.077248 -1.031582 0.033377
-0.125132 -0.373087 -0.035256 0.029049 1.095483 0.101055
0.021535 -0.275884 0.059509 0.207837 -0.974072 -0.099962
0.079789 -0.358367 0.057437 -0.024814 -1.021568 -0.051900
0.177408 -0.410612 0.066625 0.043817 -1.033504 -0.015160
0.138799 0.168376 -0.095132 0.178736 -0.983303 -0.086208
-0.195304 0.431007 -0.092580 -0.735699 -0.649662 -0.038595
-0.082458 0.431372 0.080216 -0.760632 -0.606457 0.052863
0.132420 0.527420 0.029710 0.926925 -0.519917 -0.152576
0.115696 0.341688 -0.138315 0.048992 -0.999539 -0.214965
-0.467172 0.134532 0.041834 -0.522352 -0.545512 0.563894
0.335448 0.326666 -0.041279 0.610077 -0.805516 -0.175570
-0.001806 0.350024 0.112491 -0.036822 -0.983410 0.074420
0.142274 0.227107 0.083313 0.004387 -1.042592 0.030747
-0.094538 0.570204 -0.011989 -1.054502 -0.137468 0.059060
-0.008012 -0.582294 0.025917 0.058131 1.114528 0.125524
0.174460 -0.792307 0.000409 -0.018534 1.197492 0.029327
0.193183 -0.327790 0.050315 -0.074312 -1.019499 -0.007401
0.082521 0.298713 -0.141377 0.093798 -0.958533 -0.208034
-0.123757 -0.488376 0.028110 0.108557 1.162564 0.128467
-0.024902 -0.847335 -0.057444 -0.092024 0.840034 0.466852
-0.029298 0.727788 0.017952 -0.167634 1.092116 -0.013983
0.142861 -0.456452 -0.101676 0.397840 -0.923871 -0.243569
0.177710 -0.178467 -0.072485 0.018112 -0.978092 -0.237671
0.039553 -0.053779 -0.127546 -0.120297 -0.997143 -0.155823
-0.023635 -0.006757 0.144726 -0.034844 -0.997166 0.037884
-0.093157 0.488041 0.061785 -0.725020 -0.574391 0.137137
0.124683 0.316573 0.091723 -0.069363 -0.971989 0.055326
-0.028196 -0.854880 -0.122862 -0.033124 0.925651 0.272190
0.003422 0.183995 0.129585 -0.104928 -1.048166 0.108974
0.023834 -0.140591 0.085094 -0.050607 -1.006219 0.071338
-0.071425 -0.284911 0.108053 0.018483 -1.039297 0.063995
-0.012576 0.687704 -0.038967 -0.889433 -0.388842 0.167122
0.199251 -0.590938 -0.002490 0.374558 -0.907005 -0.265508
0.003941 -0.781679 -0.020247 -0.010943 1.076620 0.110000
-0.100035 -0.641919 0.043084 0.025244 1.106516 0.092903
0.198020 -0.479944 0.004185 0.594233 -0.843695 -0.155871
-0.063726 0.078798 -0.119663 0.061491 -1.005858 -0.053129
0.196531 -0.387132 -0.045984 0.558638 -0.878988 -0.196905
0.176807 0.250404 -0.037954 -0.098577 -1.018517 -0.190086
-0.114751 -0.229642 -0.040469 -0.181035 -1.044074 -0.080194
-0.284252 0.381480 -0.075820 -0.728325 -0.639239 0.060997
0.019313 -0.363204 0.041505 -0.036447 -0.989373 -0.045156
-0.118676 -0.694428 -0.004879 0.034124 1.103192 0.103565
-0.063203 -0.799862 0.053120 -0.004911 0.989510 0.220897
-0.099894 -0.070959 -0.088948 -0.184386 -0.994776 0.007002
0.054177 0.651504 -0.062794 1.195846 -0.140197 -0.226646
-0.012858 0.187788 -0.116769 -0.105878 -0.958252 -0.109668
-0.019075 -0.638627 0.023007 0.057489 1.128196 0.120216
0.145616 -0.747177 0.028766 -0.026507 1.209541 0.019695
-0.046508 -0.172643 -0.095496 -0.167419 -1.032250 -0.116839
0.009020 -0.099085 0.117767 -0.012061 -1.024792 0.064889
0.098433 0.766183 0.019240 -0.044504 1.018595 0.016428
0.093675 0.718505 -0.048424 1.125269 -0.132865 -0.195687
-0.169578 0.537820 -0.005227 -0.864950 -0.527896 0.037328
-0.287503 0.297021 0.004120 -0.795473 -0.597503 -0.005663
0.052477 0.590894 0.021821 1.266433 -0.003051 -0.283701
-0.111921 0.307006 0.017294 -0.124010 -0.994404 -0.068260
0.081327 -0.132563 0.091022 -0.042421 -1.018062 -0.051660
0.206894 0.007023 -0.004235 0.063196 -1.002270 -0.110643
0.003560 -0.821783 -0.091452 -0.049870 0.918553 0.269239
0.481250 0.201416 -0.061582 0.435874 -0.740517 0.190498
-0.112220 -0.844829 0.028655 -0.043376 0.861178 0.465365
-0.003932 0.083521 0.132085 -0.011289 -1.015952 0.053635
-0.091628 -0.612784 -0.099847 0.014028 1.134762 0.071311
-0.049491 -0.739062 -0.124156 -0.001346 1.137658 0.053818
-0.004963 0.689671 0.063474 -0.047847 1.275834 -0.042820
0.201214 -0.187759 0.039381 0.089458 -0.994114 -0.060361
0.178283 0.039953 0.084682 -0.068232 -1.028038 0.025328
-0.140094 -0.135697 -0.012975 -0.394032 -0.987960 -0.014080
0.140910 0.569206 -0.018024 1.275471 -0.053540 -0.209875
0.077090 0.051354 0.129904 -0.100410 -1.026724 -0.016892
-0.004228 0.609351 0.006858 0.006554 -0.977966 -0.125477
0.181211 0.443528 0.042562 0.124789 -1.004541 -0.128507
0.159042 0.088390 0.083292 -0.014163 -1.042004 -0.070501
0.066311 0.853385 0.031568 0.129268 -1.229333 0.081878
-0.096475 -0.841440 0.124029 -0.107632 0.787775 0.518556
-0.105607 -0.410870 -0.058029 0.085470 1.133531 0.148471
0.139115 -0.509714 -0.106519 0.552067 -0.835105 -0.276911
0.077689 0.237589 0.119345 0.011804 -1.029710 0.057484
-0.479237 0.173661 0.016911 -0.365523 -0.447613 0.672083
0.632328 0.038784 0.013421 0.598924 -0.691134 0.367032
-0.091802 0.511734 -0.110293 -0.896552 -0.409302 -0.039998
0.447327 0.211963 -0.093569 0.672068 -0.465738 0.555816
0.163524 0.303411 0.054551 0.048339 -0.997577 -0.143485
-0.005581 0.396261 -0.129158 -0.008590 -0.970052 -0.129581
-0.126337 -0.720625 -0.060626 0.014620 1.084350 0.103239
0.176631 0.230618 0.040204 0.068313 -1.021708 -0.141180
-0.118802 0.040350 0.078342 -0.043081 -1.002823 -0.020695
-0.154786 0.394979 -0.071125 -0.757766 -0.628069 -0.122680
0.120868 0.460794 0.074137 0.010402 -0.996269 -0.008588
0.136135 -0.042010 0.113848 0.033839 -1.003699 0.046181
0.172931 -0.326673 -0.058483 0.278508 -0.960203 -0.180104
-0.124629 0.367966 -0.046409 -0.701901 -0.648125 -0.141535
-0.040276 -0.392999 -0.080019 -0.267955 -1.006757 -0.155949
0.194998 -0.553287 -0.060041 0.469739 -0.875960 -0.248722
-0.020552 -0.323021 -0.077447 -0.160314 -1.029895 -0.064055
0.044271 -0.438535 -0.038775 0.062554 -1.034766 -0.203482
0.032970 0.723196 0.100036 -0.164311 1.500469 -0.243823
-0.138545 -0.172777 0.039647 -0.135360 -1.018707 -0.010277
0.409337 0.222693 -0.060323 0.555721 -0.669940 0.312943
-0.134790 0.015640 -0.032742 -0.193860 -0.994555 -0.069044
-0.354288 0.294415 -0.085551 -0.700181 -0.661073 0.028109
0.067536 0.547743 0.029264 1.221668 -0.017017 -0.202770
-0.244125 0.305965 -0.027017 -0.694525 -0.650772 0.109883
0.241136 0.406475 -0.016557 0.755583 -0.666560 -0.182079
0.205365 -0.272046 -0.007234 0.315623 -0.951873 -0.192817
0.153075 -0.034351 -0.124126 0.094462 -1.024357 -0.097097
-0.091739 -0.145859 -0.082548 -0.214001 -0.987961 -0.173213
0.572210 0.080801 0.049238 0.556785 -0.659070 0.403433
0.057818 -0.228584 0.067186 -0.099352 -0.994365 0.065481
-0.052626 0.175666 -0.097265 -0.112322 -0.980476 -0.115521
0.104038 -0.832618 0.147978 -0.146692 0.767650 0.503026
-0.098624 0.361419 0.062696 -0.203375 -0.993602 -0.086965
0.020787 -0.392271 -0.024381 -0.094625 -0.994806 -0.160304
0.415935 0.314555 -0.095124 0.673611 -0.674622 0.207914
0.055766 -0.594483 -0.006396 0.014936 1.081732 0.092575
-0.128382 0.440219 -0.106211 -0.733459 -0.618533 -0.061172
0.141201 -0.107443 -0.115537 0.024960 -0.984945 -0.251173
0.175816 -0.664048 0.019947 -0.012600 1.197187 0.040851
0.013708 0.750853 -0.115702 0.701538 -0.646587 -0.144352
0.005127 0.394141 0.104844 -0.032682 -1.008552 0.019892
0.133735 -0.869794 0.055196 -0.149507 0.699242 0.763503
0.184428 0.170685 0.036092 0.039823 -1.011214 0.020024
0.010028 -0.659876 -0.065909 -0.080367 1.193973 -0.002102
0.067574 -0.405035 -0.071746 0.029549 -1.021747 -0.060086
0.477893 0.210524 -0.002453 0.616706 -0.645557 0.377880
0.031562 0.038652 -0.155154 -0.023941 -1.040135 -0.079568
-0.043073 -0.263741 -0.093179 0.151558 -0.985464 -0.194289
-0.120022 -0.588914 0.008460 0.047559 1.116517 0.113495
0.162697 0.565745 -0.083255 1.163958 -0.121872 -0.148241
0.286465 0.337172 -0.060426 0.548210 -0.833103 -0.220263
-0.002772 0.486274 -0.126743 0.292190 -0.908899 -0.274743
0.095139 -0.429640 0.041739 0.043022 -0.990803 -0.070488
0.133547 -0.403043 0.070328 0.023415 -0.992640 -0.034203
-0.255489 0.414471 0.005812 -0.838399 -0.594265 -0.146090
0.187562 0.339892 -0.062085 0.359293 -0.967688 -0.154546
0.126728 0.221099 -0.111153 0.222999 -0.951861 -0.175152
-0.092234 -0.758370 0.018449 0.038655 1.132249 0.098614
-0.123166 -0.446902 0.049556 0.071195 1.103821 0.183793
0.196584 -0.724580 -0.026868 -0.038951 1.201813 0.029672
0.215102 0.405243 -0.090222 0.945060 -0.368428 -0.172480
0.037485 -0.244783 -0.035059 0.077405 -0.999497 -0.137537
-0.049218 -0.220928 0.115925 -0.094825 -1.020949 -0.094716
0.202504 -0.232388 0.035226 0.225420 -0.952659 -0.082713
0.197751 -0.367178 0.030670 0.057717 -1.014961 -0.148118
0.074501 -0.454575 0.011778 0.178135 -0.964649 -0.168768
0.008889 0.833561 -0.091082 0.109678 -1.342776 0.103022
0.529715 0.171576 -0.038686 0.605151 -0.509566 0.616338
-0.082624 -0.352982 0.102866 -0.243431 -1.019663 0.028499
0.086269 -0.827947 -0.029545 -0.104626 0.892157 0.369817
-0.036149 0.798129 -0.053586 -0.838118 -0.480837 0.161117
0.326725 0.381096 -0.043807 0.519366 -0.836556 -0.200832
0.140226 -0.637223 0.030553 -0.059562 1.202222 -0.003056
-0.548325 0.086569 0.068217 -0.552043 -0.592811 0.419087
0.177238 -0.488933 -0.083533 0.432010 -0.904136 -0.270189
0.185216 -0.514789 0.039032 0.201792 -0.976684 -0.122033
0.123054 -0.471185 0.052891 -0.015764 -0.986222 0.006312
0.071082 0.677889 0.072829 -0.050852 1.301012 -0.054554
0.049764 0.594334 -0.089469 1.101065 -0.222320 -0.175879
-0.033837 -0.381933 0.087612 -0.128125 -1.022260 -0.026362
0.164037 0.536263 -0.115144 0.926960 -0.445395 -0.184259
0.052976 0.119703 -0.133902 -0.017728 -0.986822 -0.071654
0.133262 0.167461 0.095801 0.063676 -1.020770 -0.091951
0.363995 0.265117 -0.066827 0.765039 -0.637961 -0.009753
-0.497645 0.095001 0.056408 -0.505555 -0.551018 0.573928
-0.135200 0.495962 0.058120 -0.789081 -0.618586 -0.038701
0.003164 -0.417371 0.052669 0.042747 -1.039568 -0.079112
-0.045300 0.563884 0.015328 -0.957734 -0.370733 0.150643
0.155376 -0.711028 0.007616 -0.013725 1.196171 0.041201
0.200120 -0.438656 -0.020322 0.561831 -0.877412 -0.192584
-0.079329 -0.310278 -0.080012 0.043889 -1.019243 -0.009395
0.005597 -0.264213 -0.059698 -0.108828 -1.021331 -0.017955
-0.121675 0.391336 0.037026 -0.327354 -0.925302 -0.110204
-0.008281 -0.738024 -0.103115 0.006353 1.084830 0.079936
-0.059187 -0.862780 -0.077786 -0.140655 0.866720 0.421967
0.109248 -0.816479 0.074672 -0.049427 0.924016 0.382096
-0.297708 0.252438 -0.015671 -0.651499 -0.707399 -0.079807
-0.109862 0.200909 0.057482 -0.010920 -1.023448 -0.038308
-0.104401 -0.708145 -0.094208 0.017132 1.083357 0.097483
0.021897 0.646448 0.038198 -0.022185 -0.699703 -0.047075
0.025900 0.279447 0.124969 0.057006 -1.059826 0.077213
0.163027 -0.735348 -0.070055 -0.020275 1.192873 0.028242
0.095362 -0.374123 -0.097164 0.357735 -0.955145 -0.188317
-0.112367 0.276159 -0.012896 -0.166038 -0.990556 -0.022786
0.080346 0.417607 -0.143355 0.355141 -0.929998 -0.141924
-0.135670 -0.472659 -0.034090 0.064311 1.112894 0.135758
0.025622 -0.469551 -0.016064 -0.015359 -1.003167 -0.184537
-0.116622 0.338582 -0.074727 -0.190827 -0.966492 -0.143998
0.109992 -0.014350 -0.151016 -0.047064 -0.992348 -0.195436
0.243328 0.533792 -0.048471 0.460856 -0.867505 -0.248639
-0.120749 -0.533795 -0.069553 0.068303 1.137476 0.128697
-0.051933 -0.821721 0.089827 -0.008666 1.019366 0.128256
0.079406 -0.753781 -0.055688 -0.027052 1.154800 0.063482
-0.125890 -0.268962 0.071497 -0.155176 -1.027004 0.037545
0.083837 -0.615194 0.018865 -0.019516 1.156055 0.036252
0.040715 0.468444 0.083441 0.021688 -1.029522 -0.070257
-0.014192 -0.309697 0.089700 -0.098832 -0.995339 0.053153
0.094555 0.807146 0.019617 0.103567 -1.280366 0.100264
-0.057823 -0.093212 0.123919 -0.104899 -1.021125 0.090543
-0.078067 0.028335 -0.124815 -0.313044 -1.000356 0.010658
0.047133 -0.321071 -0.051131 -0.049400 -1.009557 -0.110738
0.025573 -0.698130 -0.049958 -0.001051 1.111241 0.101724
0.221220 0.481363 0.017381 0.777092 -0.652242 -0.225274
-0.038207 0.591487 -0.060476 -0.918444 -0.356885 0.167386
0.086585 0.142055 0.120873 -0.074939 -1.010387 0.056992
0.188912 -0.016432 -0.072200 -0.039578 -1.001278 -0.087564
-0.115243 -0.208261 0.097560 -0.081805 -1.037398 0.087757
-0.047152 0.268274 0.102006 0.045668 -1.005094 -0.025040
0.070115 -0.538408 0.010993 -0.101685 -1.020467 0.020857
0.569242 0.150021 0.032109 0.511900 -0.662786 0.435609
0.177819 -0.414674 -0.069616 0.502075 -0.855402 -0.285881
0.001671 -0.151342 -0.067467 -0.260598 -1.028398 -0.014156
0.018750 -0.059282 0.121382 -0.083302 -1.004536 0.079803
-0.035704 -0.785466 -0.144988 0.028968 1.111855 0.095099
-0.054625 0.336636 0.098417 0.049279 -1.001566 0.052203
0.138040 -0.651870 -0.093034 -0.045742 1.215028 0.028258
-0.104596 -0.660472 -0.095871 0.062076 1.163800 0.073146
0.277606 0.499221 -0.068702 0.445657 -0.869075 -0.263244
0.203555 -0.057661 0.051793 0.153140 -0.995523 -0.070024
-0.288931 0.269509 -0.078692 -0.852505 -0.592409 -0.024803
-0.026435 0.110822 -0.125403 -0.127152 -0.975714 -0.120997
0.018002 0.216998 -0.125625 0.258964 -0.968010 -0.108880
-0.104514 -0.832185 -0.039155 -0.090369 0.885535 0.375566
-0.022231 -0.732664 0.018717 0.050465 1.109649 0.118937
0.052647 0.761127 -0.115476 0.093815 -1.259878 0.093472
-0.245852 0.437402 -0.056642 -0.800023 -0.551427 0.038109
-0.313814 0.353606 -0.045234 -0.748130 -0.519592 0.143932
0.026342 -0.508790 -0.004585 -0.049284 1.125549 0.043462
-0.124657 -0.048942 -0.060243 -0.059333 -0.978042 -0.037658
0.181891 -0.656375 -0.064055 -0.051052 1.193258 0.016839
-0.128197 -0.643927 -0.043077 0.029741 1.087962 0.104002
-0.127095 -0.330183 0.031238 -0.051479 -1.007050 -0.158852
-0.423989 0.240655 -0.047478 -0.668392 -0.628816 0.234605
