-0.305119 0.017189 0.006330
0.033133 0.039634 -0.005911
0.035426 0.040836 -0.006294
0.040140 0.238354 -0.006177
0.032487 0.040410 -0.006330
0.037330 0.041770 -0.006115
-0.052333 -0.138665 0.013251
-0.057147 -0.626526 -0.034524
0.035746 0.041281 -0.006135
0.034879 0.041296 -0.006359
0.132217 -0.473654 -0.022526
0.034641 0.039461 -0.005983
0.057593 -0.013434 -0.000463
0.034714 0.041291 -0.006279
-0.277837 0.340489 -0.026756
0.118811 -0.118920 -0.003213
0.043566 0.294978 -0.009599
-0.003122 0.346550 -0.016060
0.039319 0.235029 -0.006109
0.114368 0.427658 -0.043093
0.028219 0.774094 -0.034977
0.033094 0.040368 -0.006187
0.035977 0.041286 -0.006086
0.036729 0.237975 -0.006206
0.037653 0.042449 -0.006188
0.016500 -0.054563 0.001330
0.064376 -0.062441 0.000586
-0.036304 0.211485 -0.008181
-0.022440 0.412895 -0.020088
0.124964 -0.507653 -0.027334
0.036726 0.041314 -0.006050
-0.053859 -0.832254 0.062703
0.013215 0.281755 -0.008673
0.034476 0.040471 -0.006192
0.034550 0.042305 -0.007287
0.307829 0.384975 -0.088607
0.022744 0.606604 -0.026746
0.039812 0.039003 -0.005866
0.039142 0.235652 -0.005733
0.038716 0.236686 -0.006017
0.035127 0.041245 -0.006383
0.034622 0.040216 -0.006228
0.038563 0.239130 -0.006192
0.058443 0.352821 -0.026361
0.039423 0.238499 -0.006221
0.035493 0.041386 -0.006226
0.036767 0.040279 -0.006406
0.037454 0.041621 -0.006413
0.033827 0.039517 -0.006178
0.120123 -0.297497 0.001170
0.040843 0.237417 -0.006136
0.035875 0.041088 -0.006368
0.035863 0.040986 -0.006295
-0.046977 -0.051040 0.006647
0.038859 0.235496 -0.005905
0.036490 0.041699 -0.006101
0.085221 -0.007291 -0.000243
0.061083 0.014428 -0.002257
0.111349 -0.351574 -0.001539
-0.053525 -0.785889 -0.064074
-0.057632 -0.558853 -0.027299
0.040352 0.237233 -0.005969
0.129111 -0.838699 0.088648
0.032778 0.040433 -0.006365
0.038891 0.236524 -0.006067
0.038953 0.237976 -0.006276
0.065107 0.220892 -0.004047
0.039477 0.237430 -0.006042
0.051901 0.272625 -0.009065
0.015206 0.015340 -0.002726
0.028119 0.710456 0.010772
0.032276 0.006098 -0.000620
0.026198 0.237614 -0.007250
-0.077693 0.451800 -0.017007
0.102729 0.464436 -0.045027
-0.058390 -0.488275 -0.015360
0.119748 -0.807539 -0.034960
0.120584 -0.665626 -0.024555
0.031900 0.310849 -0.013113
-0.011777 -0.015331 0.002667
-0.049927 -0.333239 0.012659
0.035698 0.041647 -0.006242
0.105670 -0.074104 -0.000300
0.033455 0.040430 -0.006284
0.035934 0.041110 -0.006278
0.122351 -0.205552 0.005087
0.037177 0.042741 -0.006453
0.038624 0.238703 -0.006229
0.040181 0.238206 -0.006211
0.285562 0.198634 -0.041743
0.034749 0.040556 -0.004728
0.035886 0.040659 -0.006111
0.050751 0.238479 -0.006584
0.036628 0.040200 -0.006438
0.037884 0.238257 -0.006172
-0.049423 -0.278803 0.015358
0.348263 0.092720 0.003935
0.009994 0.052622 -0.003516
0.024244 0.767168 0.005480
0.034806 0.051733 -0.006426
