-0.062409 -0.476427 -0.002641 0.024236 0.922648 0.137044
0.037971 0.256152 -0.004141 0.040657 -0.949365 0.061102
0.134362 -0.485444 -0.021985 -0.014581 0.880904 0.113250
0.125739 -0.206373 -0.003653 0.007011 0.868927 0.041798
0.083739 0.009347 -0.021162 0.155161 -0.933113 -0.039064
0.045512 0.277923 -0.007853 0.060638 -0.959173 0.045623
-0.041903 -0.091188 0.020264 0.055863 0.911897 0.049879
0.131033 -0.325617 -0.012568 0.010616 0.892040 0.049116
-0.065492 -0.516768 -0.011212 0.021682 0.961162 0.121562
0.135987 -0.562658 -0.034085 -0.007404 0.962598 0.052017
-0.063313 -0.575795 -0.020798 0.012816 0.958494 0.120291
0.131804 -0.575597 -0.039098 -0.001576 0.949824 0.025617
0.126460 -0.419389 -0.018131 -0.011079 0.891034 0.078136
0.037878 0.304559 -0.005272 0.045537 -0.991911 0.059426
-0.063155 -0.269494 0.014553 0.014647 0.940899 0.083560
0.131325 -0.565583 -0.039025 -0.003975 0.971635 0.017205
0.023074 0.334105 -0.014969 0.045588 -0.987034 0.025815
0.584617 0.088849 0.027611 0.556072 -0.643310 0.355575
-0.509361 0.104117 0.032102 -0.456454 -0.527785 0.608972
0.004215 -0.001664 -0.003708 -0.065799 -0.775885 0.057693
0.060362 0.084543 -0.000884 0.079043 -0.914232 0.035856
0.053622 0.291503 -0.009982 0.045581 -0.961528 0.046246
0.167673 0.479365 -0.054648 0.730631 -0.419469 -0.102345
0.114240 -0.169285 -0.001649 -0.007182 0.854273 0.029233
-0.061691 -0.319110 0.013729 0.019143 0.948469 0.093029
-0.064281 -0.557519 -0.018697 0.018412 0.964765 0.104338
-0.043188 -0.726843 -0.042573 -0.041787 0.881632 0.225749
0.135939 -0.533708 -0.030435 -0.007515 0.934991 0.067073
0.048915 0.557053 -0.033717 0.744163 -0.163822 -0.109959
0.039253 -0.787860 -0.022355 -0.104166 0.735130 0.449370
0.035329 0.314437 -0.009195 0.043383 -0.989016 0.044358
-0.350414 0.257221 -0.042737 -0.722076 -0.590765 0.169254
-0.140088 0.463789 -0.018693 -0.723278 -0.556100 0.016939
0.035637 0.237107 -0.003146 0.029416 -0.929233 0.057566
-0.064302 -0.441572 0.005075 0.037855 0.929350 0.122286
0.027423 0.258661 -0.005252 0.028533 -0.950718 0.047826
-0.221974 0.393608 -0.036141 -0.761459 -0.596617 0.007311
-0.008607 0.420411 -0.020310 0.150485 -0.845017 0.023909
0.041424 -0.760119 -0.013225 -0.084063 0.780997 0.373738
0.047464 -0.733763 -0.023652 -0.066986 0.837117 0.302385
-0.083478 0.609890 -0.010285 -0.344899 -0.746866 0.108378
0.043831 0.222843 -0.003097 0.044741 -0.959423 0.053240
0.126330 -0.358356 -0.012388 0.001214 0.903820 0.060817
0.039985 0.284004 -0.004489 0.047214 -0.972222 0.059183
0.126722 -0.596951 -0.039295 -0.008274 0.943839 0.030007
0.404074 0.264017 -0.073216 0.673138 -0.579315 0.240387
-0.008009 0.364188 -0.019115 0.104976 -0.904711 0.009200
-0.064214 -0.420682 0.009621 0.050373 0.941600 0.111991
0.062163 0.418624 -0.023289 0.008637 -0.949968 0.040722
0.134602 -0.556886 -0.034016 -0.006395 0.960749 0.050195
0.042316 0.237326 -0.003957 0.047039 -0.945398 0.050051
0.036386 -0.760225 0.055462 -0.098470 0.721807 0.431038
-0.003163 0.055778 -0.015426 -0.064796 -0.892215 0.015773
0.030420 -0.781903 0.009449 -0.097872 0.750793 0.429435
-0.062502 -0.371753 0.018572 0.032347 0.967742 0.109868
0.270807 0.408363 -0.083446 0.689334 -0.622770 -0.126855
0.136422 -0.597760 -0.040435 -0.003897 0.942970 0.029309
0.085631 -0.032294 -0.012917 0.124903 -0.847687 0.006718
-0.061371 -0.605618 -0.024687 0.008200 0.969699 0.115660
-0.064002 -0.487253 -0.005394 0.021724 0.946290 0.129305
-0.046420 -0.688823 -0.042107 -0.026006 0.897858 0.178318
-0.031377 0.022458 0.019371 0.088778 0.904801 0.022167
0.037500 0.252353 -0.005830 0.040161 -0.951276 0.053930
0.036282 0.276345 -0.007996 0.046227 -0.968024 0.044161
0.136393 -0.509823 -0.025091 -0.012525 0.919912 0.093958
0.125267 -0.416948 -0.024304 -0.008453 0.930895 0.029521
0.128836 -0.377665 -0.015817 0.001587 0.909182 0.053888
0.136593 -0.564303 -0.037090 -0.004955 0.965847 0.033719
0.135738 -0.490838 -0.021447 -0.008970 0.881847 0.107653
0.037071 0.225946 -0.004380 0.037909 -0.942700 0.057732
0.041512 0.204306 -0.003829 0.040740 -0.980595 0.048670
0.133476 -0.543384 -0.035208 -0.000477 0.957319 0.027503
0.125934 -0.283700 -0.011760 0.004556 0.916444 0.033478
0.037102 0.290213 -0.006778 0.042003 -0.972875 0.052867
0.044879 0.226257 -0.005271 0.050930 -0.970906 0.049739
0.036732 0.241680 -0.003938 0.039362 -0.956657 0.054365
0.128748 -0.443721 -0.017871 -0.009081 0.874504 0.090126
0.106933 0.492766 -0.037189 0.735953 -0.312929 -0.086027
0.042731 0.244156 -0.004832 0.051715 -0.954368 0.049165
0.029789 0.145004 -0.000145 0.021994 -0.894453 0.048162
0.136463 -0.568337 -0.037175 0.001926 0.960113 0.037018
0.035898 0.278375 -0.005208 0.040499 -0.960669 0.056819
0.122349 -0.435525 -0.021412 -0.016200 0.896118 0.061705
-0.053799 -0.168465 0.022762 0.020612 0.973599 0.066840
0.039388 0.377496 -0.014781 0.071020 -1.006872 0.031844
0.015961 0.370287 -0.015068 0.075901 -0.991360 0.022284
0.113375 -0.770192 -0.020759 -0.093352 0.817492 0.371812
0.039791 0.258437 -0.004342 0.045086 -0.966884 0.057001
-0.062789 -0.349036 0.019238 0.022551 0.966539 0.107135
0.047768 0.235350 -0.004305 0.054932 -0.944765 0.050936
0.038542 0.214902 -0.003831 0.036705 -0.926467 0.047901
0.119569 -0.712572 -0.030859 -0.044241 0.953872 0.158438
0.057110 0.355513 -0.015539 0.050682 -0.978687 0.041014
0.041856 0.238523 -0.005479 0.049107 -0.930610 0.052014
0.084739 0.029669 0.012335 -0.022097 0.896098 -0.006450
0.038860 0.235192 -0.004972 0.039875 -0.944107 0.050373
-0.040093 -0.762540 -0.052687 -0.059508 0.875514 0.281725
0.015149 0.296304 -0.009948 0.019485 -0.990592 0.039774
-0.064776 -0.395736 0.013776 0.047248 0.968744 0.107135
0.048943 0.149605 0.000069 0.051847 -0.931974 0.039614
