0.075471714 0.19793755 0.058646947
0.07356764 0.19912636 0.05701938
0.07137193 0.20027457 0.05577508
0.068951316 0.20134728 0.054951858
0.06637932 0.2023119 0.05457472
0.06373414 0.20313911 0.054655116
0.061096095 0.2038038 0.055190634
0.05854538 0.20428573 0.056164987
0.056159474 0.2045703 0.057548568
0.054010883 0.20464882 0.05929933
0.05216489 0.20451896 0.061364096
0.05067757 0.20418464 0.063680105
0.049594134 0.20365599 0.06617701
0.048947502 0.20294912 0.06877894
0.048757292 0.20208547 0.07140681
0.04902934 0.20109129 0.0739808
0.04975532 0.1999968 0.0764227
0.050913185 0.19883527 0.0786583
0.052467786 0.19764197 0.08061968
0.054371875 0.19645312 0.08224725
0.056567587 0.19530492 0.08349155
0.058988206 0.19423223 0.08431478
0.061560176 0.1932676 0.08469191
0.064205386 0.19244039 0.08461149
0.06684341 0.19177571 0.08407598
0.06939414 0.19129378 0.08310163
0.07178004 0.19100922 0.08171805
0.073928624 0.19093066 0.0799673
0.075774625 0.19106054 0.077902526
0.07726195 0.19139488 0.07558652
0.07834537 0.19192351 0.07308963
0.07899201 0.19263038 0.0704877
0.07918221 0.19349404 0.06785983
0.07891019 0.1944882 0.06528583
0.07818419 0.19558269 0.06284394
0.077026315 0.19674423 0.060608335
0.11794776 0.016858783 -0.0322465
0.121431865 0.007720029 -0.02074679
0.1229782 -0.0029407777 -0.010170622
0.12253976 -0.014799711 -0.0008393433
0.12012986 -0.02749645 0.0069635147
0.11582173 -0.0406452 0.013000866
0.10974627 -0.053846452 0.017089268
0.10208809 -0.06669909 0.019104496
0.093079865 -0.07881259 0.01898532
0.08299531 -0.089818895 0.016735367
0.072140835 -0.09938359 0.012422985
0.06084627 -0.10721603 0.006179235
0.04945476 -0.11307827 -0.0018062033
0.038312454 -0.11679216 -0.011290692
0.027757898 -0.11824484 -0.021986024
0.018111791 -0.11739221 -0.033567254
0.009667222 -0.11426016 -0.04568248
0.0026807794 -0.108943865 -0.05796359
-0.002635274 -0.101604834 -0.07003743
-0.00611939 -0.09246607 -0.08153716
-0.0076657236 -0.08180527 -0.092113316
-0.0072272783 -0.069946334 -0.101444595
-0.0048173815 -0.0572496 -0.10924745
-0.0005092472 -0.04410083 -0.11528481
0.0055662114 -0.03089959 -0.119373195
0.013224395 -0.018046947 -0.12138844
0.022232616 -0.0059334496 -0.121269256
0.03231717 0.005072853 -0.11901931
0.043171644 0.014637539 -0.11470693
0.054466203 0.022469983 -0.108463176
0.065857716 0.028332207 -0.10047773
0.077000014 0.0320461 -0.09099326
0.08755457 0.0334988 -0.080297925
0.09720068 0.032646164 -0.0687167
0.10564525 0.02951412 -0.056601465
0.1126317 0.02419782 -0.04432036
-0.10729468 -0.074878275 0.00649688
-0.11140323 -0.0641301 0.025253989
-0.111839876 -0.05229318 0.04379931
-0.10859133 -0.039727174 0.06156937
-0.101756334 -0.02681389 0.07802424
-0.09154251 -0.013945706 0.092663914
-0.07826024 -0.0015135966 0.1050436
-0.062313106 0.010104675 0.11478715
-0.044185624 0.020556107 0.12159848
-0.024428606 0.029523145 0.12527068
-0.003642343 0.036733314 0.12569213
0.017541554 0.041967552 0.122850046
0.038479462 0.045066796 0.11683077
0.058535166 0.0459369 0.10781722
0.07709928 0.044551417 0.09608324
0.09360776 0.040952444 0.08198537
0.107559 0.03524933 0.065951966
0.11852909 0.027615376 0.0484702
0.12618473 0.018282525 0.030071251
0.13029328 0.0075343307 0.011314124
0.13072993 -0.00430258 -0.0072311983
0.12748139 -0.016868582 -0.025001246
0.12064637 -0.02978186 -0.041456115
0.11043255 -0.042650066 -0.056095812
0.09715028 -0.055082165 -0.068475485
0.08120314 -0.06670044 -0.07821904
0.06307566 -0.07715188 -0.08503037
0.043318644 -0.08611891 -0.08870257
0.022532392 -0.09332907 -0.08912401
0.0013484955 -0.09856331 -0.08628194
-0.019589402 -0.101662554 -0.08026267
-0.039645102 -0.102532655 -0.07124912
-0.058209218 -0.10114718 -0.059515134
-0.0747177 -0.09754821 -0.045417268
-0.088668935 -0.091845095 -0.029383866
-0.09963903 -0.08421114 -0.011902105
-0.1760963 -0.06487699 0.09050344
-0.17578688 -0.056171145 0.09671391
-0.17597055 -0.04654515 0.10137909
-0.17664175 -0.036291488 0.10435723
-0.17778003 -0.025721714 0.10555785
-0.17935087 -0.015156981 0.10494445
-0.18130651 -0.004918292 0.10253569
-0.18358752 0.004683247 0.09840475
-0.18612462 0.013355913 0.09267715
-0.18884069 0.02083618 0.08552692
-0.19165324 0.026896767 0.0771713
-0.19447678 0.03135352 0.067864195
-0.19722553 0.034071043 0.05788837
-0.19981597 0.034966744 0.047546975
-0.20216939 0.034013424 0.037154198
-0.20421429 0.031240024 0.027025826
-0.20588852 0.026730835 0.017469587
-0.20714125 0.020622864 0.008775865
-0.20793436 0.013101693 0.0012088199
-0.20824379 0.004395839 -0.0050016595
-0.2080601 -0.005230151 -0.009666834
-0.20738894 -0.015483808 -0.012644978
-0.20625064 -0.026053585 -0.013845593
-0.20467979 -0.03661833 -0.013232198
-0.20272416 -0.046857018 -0.0108234435
-0.20044315 -0.056458563 -0.0066925064
-0.19790605 -0.06513123 -0.0009648949
-0.19518995 -0.07261149 0.006185338
-0.19237742 -0.078672074 0.014540952
-0.18955389 -0.08312884 0.023848053
-0.18680513 -0.08584634 0.033823866
-0.1842147 -0.08674204 0.044165272
-0.18186127 -0.08578873 0.054558046
-0.17981638 -0.08301533 0.064686425
-0.17814215 -0.07850614 0.07424265
-0.17688942 -0.07239818 0.08293638
-0.111555204 0.14507955 0.18831915
-0.07926066 0.1352895 0.2106448
-0.043614496 0.12499152 0.22678544
-0.005699797 0.114498466 0.23625061
0.03333141 0.1041292 0.23875275
0.072293185 0.09419875 0.23421578
0.11000172 0.08500889 0.2227776
0.1453112 0.07683883 0.20478573
0.1771488 0.0699368 0.18078685
0.20454717 0.06451252 0.15151016
0.22667381 0.06073083 0.1178452
0.24285638 0.058706604 0.08081489
0.25260326 0.058501348 0.04154435
0.25561818 0.060121328 0.0012268424
0.25180966 0.063517295 -0.038912676
0.24129333 0.06858608 -0.077654526
0.22438875 0.07517365 -0.1138216
0.20160955 0.08307986 -0.14631493
0.17364791 0.092064485 -0.1741473
0.14135331 0.10185454 -0.19647299
0.10570715 0.11215253 -0.2126136
0.067792475 0.12264558 -0.22207877
0.028761275 0.13301483 -0.22458091
-0.010200568 0.14294529 -0.22004394
-0.047909062 0.15213516 -0.20860575
-0.083218545 0.16030522 -0.19061388
-0.11505614 0.16720726 -0.16661501
-0.1424545 0.17263152 -0.13733831
-0.16458112 0.17641321 -0.10367337
-0.18076372 0.17843744 -0.06664308
-0.19051057 0.17864269 -0.027372554
-0.19352552 0.17702271 0.012944972
-0.189717 0.17362675 0.053084485
-0.17920068 0.16855797 0.091826335
-0.1622961 0.1619704 0.12799339
-0.13951692 0.1540642 0.16048676
0.1268897 -0.06251289 0.059230752
0.12948473 -0.07310496 0.037503444
0.129764 -0.08045511 0.014332356
0.12771906 -0.084340006 -0.009578487
0.12341199 -0.084641606 -0.033502534
0.116973706 -0.08135074 -0.056712892
0.10859981 -0.07456739 -0.078504324
0.09854475 -0.06449769 -0.098214686
0.087114014 -0.05144759 -0.11524512
0.07465495 -0.035813615 -0.12907813
0.061546095 -0.018070776 -0.13929346
0.048185803 0.0012417793 -0.14558065
0.034979973 0.0215373 -0.14774874
0.02232986 0.042199075 -0.1457318
0.01061986 0.062599316 -0.13959114
0.00020575151 0.0821182 -0.12951334
-0.008596029 0.10016261 -0.11580459
-0.015518043 0.1161843 -0.098881446
-0.020349968 0.12969647 -0.0792581
-0.022945007 0.14028856 -0.05753077
-0.023224287 0.14763871 -0.034359686
-0.021179328 0.15152359 -0.010448858
-0.016872276 0.15182519 0.013475198
-0.010433968 0.14853431 0.03668558
-0.0020600706 0.14175098 0.058477
0.007995002 0.1316813 0.07818737
0.019425724 0.11863118 0.095217794
0.031884786 0.1029972 0.10905082
0.044993628 0.08525438 0.11926612
0.058353923 0.065941826 0.12555332
0.07155976 0.045646317 0.12772141
0.08420985 0.024984535 0.12570447
0.09591987 0.0045842864 0.11956383
0.10633397 -0.014934581 0.10948601
0.11513575 -0.032978997 0.09577727
0.122057766 -0.049000703 0.07885413
0.05654789 -0.014476333 -0.13210075
0.05809182 -0.0049347235 -0.13213183
0.057955783 0.0047298474 -0.13219906
0.056143902 0.01422373 -0.13230036
0.05271124 0.023258459 -0.13243265
0.04776209 0.031559516 -0.13259193
0.041446824 0.03887468 -0.13277334
0.033957347 0.04498167 -0.13297138
0.025521208 0.049694948 -0.13318002
0.016394738 0.05287129 -0.13339296
0.006855235 0.054414194 -0.13360369
-0.0028074319 0.054276776 -0.1338058
-0.012299689 0.052463204 -0.13399318
-0.021333102 0.049028594 -0.13416012
-0.029633194 0.0440773 -0.13430156
-0.03694779 0.037759766 -0.1344132
-0.04305462 0.030267943 -0.13449162
-0.04776814 0.021829467 -0.13453448
-0.05094513 0.012700742 -0.13454044
-0.052489065 0.0031591207 -0.13450935
-0.052353024 -0.0065054474 -0.13444212
-0.050541148 -0.015999326 -0.13434084
-0.04710848 -0.025034051 -0.13420855
-0.042159326 -0.03333512 -0.13404925
-0.035844065 -0.040650275 -0.13386786
-0.028354585 -0.046757273 -0.13366981
-0.019918447 -0.051470548 -0.13346116
-0.010791978 -0.054646887 -0.13324822
-0.0012524817 -0.05618979 -0.13303751
0.008410186 -0.056052376 -0.13283537
0.017902436 -0.054238804 -0.132648
0.026935851 -0.050804198 -0.13248105
0.03523595 -0.045852903 -0.13233963
0.042550538 -0.03953537 -0.132228
0.048657376 -0.032043546 -0.13214958
0.053370893 -0.023605075 -0.1321067
0.08840734 -0.054247905 -0.09515617
0.10259425 -0.050714955 -0.08195
0.11498074 -0.044350147 -0.068013825
0.12519048 -0.03534686 -0.053771105
0.13291323 -0.023978667 -0.039654583
0.13791436 -0.010590967 -0.026093196
0.14004187 0.0044094585 -0.013498969
0.13923116 0.020566799 -0.0022546165
0.13550684 0.037390143 0.0072982386
0.12898208 0.05436834 0.014869336
0.11985512 0.07098551 0.020228624
0.10840331 0.08673672 0.023213256
0.09497457 0.101143405 0.023732573
0.07997696 0.11376781 0.021770764
0.06386614 0.12422634 0.01738746
0.04713165 0.13220125 0.0107158385
0.030281946 0.13745022 0.001958605
0.013829019 0.13981372 -0.008618154
-0.0017272383 0.13922 -0.020693056
-0.015914164 0.13568704 -0.033899248
-0.028300662 0.12932223 -0.047835402
-0.038510386 0.12031895 -0.06207811
-0.04623314 0.10895076 -0.076194644
-0.051234264 0.09556304 -0.08975604
-0.053361777 0.08056263 -0.10235026
-0.052551065 0.064405285 -0.11359463
-0.048826743 0.047581933 -0.12314748
-0.04230199 0.030603739 -0.13071857
-0.033175036 0.0139865875 -0.13607785
-0.021723226 -0.0017646253 -0.1390625
-0.008294499 -0.016171303 -0.1395818
0.0067031197 -0.028795712 -0.13762
0.022813944 -0.039254256 -0.1332367
0.039548427 -0.047229156 -0.12656507
0.056398124 -0.05247812 -0.11780784
0.072851054 -0.05484164 -0.107231095
0.06404583 -0.018555302 0.011733003
0.06671801 -0.010018311 0.0056719817
0.06767352 -0.0016830191 -0.0011373268
0.06688332 0.006197309 -0.008488028
0.06437142 0.013383234 -0.016156772
0.06021414 0.019656409 -0.02391055
0.054537807 0.02482623 -0.031513773
0.047514882 0.028735615 -0.0387354
0.039358765 0.031265788 -0.04535603
0.030317267 0.03233986 -0.051174484
0.020665105 0.031925194 -0.056013986
0.010695573 0.030034397 -0.059727468
0.00071156584 0.026724922 -0.06220212
-0.008983534 0.022097318 -0.06336274
-0.018095154 0.016292194 -0.063174054
-0.026346453 0.0094859395 -0.061641812
-0.033486705 0.0018853587 -0.058812566
-0.039298967 -0.006278614 -0.054772273
-0.043606628 -0.014757913 -0.049643703
-0.046278812 -0.023294915 -0.043582678
-0.04723432 -0.031630207 -0.03677337
-0.046444118 -0.039510526 -0.02942267
-0.043932214 -0.04669645 -0.021753924
-0.039774936 -0.052969635 -0.014000136
-0.0340986 -0.05813946 -0.0063969214
-0.027075678 -0.06204884 0.0008247122
-0.01891956 -0.06457901 0.007445339
-0.009878062 -0.06565308 0.013263794
-0.00022590533 -0.065238416 0.018103287
0.0097436225 -0.06334762 0.021816779
0.019727625 -0.06003815 0.024291422
0.029422725 -0.055410545 0.02545204
0.038534347 -0.04960542 0.02526336
0.046785645 -0.042799167 0.02373112
0.053925898 -0.035198588 0.02090187
0.059738163 -0.027034618 0.016861582
-0.062104017 0.048404552 0.10634425
-0.050056156 0.047208272 0.11302552
-0.037107266 0.047296986 0.11787729
-0.023650773 0.048667993 0.12075213
-0.0100955665 0.051279634 0.1215627
0.0031464975 0.055052556 0.12028434
0.015673071 0.059872136 0.116955936
0.027103519 0.06559192 0.11167861
0.03709055 0.0720381 0.10461268
0.04533071 0.07901484 0.09597288
0.051573627 0.08631015 0.0860217
0.055629607 0.09370233 0.07506151
0.05737542 0.10096683 0.06342532
0.05675801 0.107882895 0.051466722
0.053796146 0.114240356 0.03954903
0.04857982 0.1198461 0.028034389
0.04126753 0.12452976 0.01727264
0.032081448 0.12814902 0.007590793
0.0213007 0.13059394 -0.0007169731
0.009252827 0.13179022 -0.0073982626
-0.0036960682 0.13170151 -0.012250021
-0.017152552 0.1303305 -0.015124865
-0.030707765 0.12771887 -0.015935425
-0.04394983 0.12394593 -0.01465708
-0.0564764 0.119126365 -0.011328679
-0.06790686 0.113406576 -0.0060513318
-0.07789388 0.1069604 0.0010145828
-0.08613404 0.09998366 0.009654392
-0.09237695 0.09268836 0.01960557
-0.09643294 0.08529616 0.030565754
-0.09817875 0.078031674 0.042201936
-0.09756134 0.07111562 0.05416054
-0.094599485 0.06475814 0.06607823
-0.08938315 0.059152402 0.077592865
-0.08207087 0.054468744 0.08835461
-0.07288479 0.050849475 0.09803646

