-0.055151 -0.490888 -0.009847 0.010947 0.932041 0.146353
0.035316 0.235935 -0.006306 0.065422 -0.890973 0.054819
0.131433 -0.446805 -0.013962 -0.027105 0.948448 0.078686
0.118602 -0.122811 0.007739 -0.020656 0.967163 0.012612
0.076833 0.066703 -0.016856 0.155154 -0.898178 -0.022429
0.043023 0.265503 -0.009499 0.083354 -0.904759 0.039581
-0.028173 -0.010758 0.019442 0.026949 0.984228 0.028567
0.125761 -0.272680 -0.001927 -0.013527 0.973181 0.024249
-0.057716 -0.541523 -0.018538 0.009748 0.969200 0.134729
0.136069 -0.552369 -0.024233 -0.019428 1.001106 0.037012
-0.057616 -0.612051 -0.028558 0.001890 0.968676 0.142528
0.131395 -0.575507 -0.027637 -0.014259 0.969448 0.019731
0.123769 -0.376589 -0.009040 -0.027063 0.962149 0.051154
0.035393 0.283868 -0.007189 0.072524 -0.931701 0.052087
-0.045393 -0.186783 0.011913 -0.000690 0.984403 0.065172
0.130085 -0.560864 -0.026081 -0.016873 0.986587 0.010246
0.021609 0.321330 -0.018812 0.069442 -0.943846 0.014010
0.583997 0.094297 0.031079 0.537334 -0.640074 0.357806
-0.511572 0.101686 0.041593 -0.426353 -0.492150 0.674417
-0.007295 -0.053963 -0.010309 -0.083980 -0.762495 0.043473
0.053436 0.088752 0.001898 0.088815 -0.852508 0.048897
0.053780 0.279692 -0.011690 0.070133 -0.908615 0.037177
0.188042 0.458045 -0.060237 0.702400 -0.481888 -0.104366
0.110184 -0.095632 0.009214 -0.030242 0.960386 0.002898
-0.046121 -0.255068 0.009337 0.005665 0.984776 0.078476
-0.057360 -0.590794 -0.025869 0.008287 0.974254 0.122898
-0.048733 -0.759707 -0.043099 -0.057459 0.877782 0.288722
0.134768 -0.517934 -0.020624 -0.020854 0.981311 0.049153
0.040392 0.533546 -0.039901 0.770507 -0.146348 -0.131585
0.043475 -0.801979 -0.022798 -0.108658 0.750845 0.456379
0.033276 0.298220 -0.011468 0.069988 -0.932176 0.036085
-0.342930 0.279252 -0.054228 -0.743356 -0.619299 0.107734
-0.129493 0.475394 -0.017790 -0.694490 -0.501757 0.037520
0.033416 0.218249 -0.004642 0.051615 -0.878003 0.050231
-0.056490 -0.446122 -0.003473 0.025578 0.940311 0.125659
0.025495 0.235343 -0.007069 0.051108 -0.896960 0.039242
-0.219895 0.398199 -0.034635 -0.743928 -0.596724 0.005665
-0.007038 0.402834 -0.023902 0.142953 -0.851619 0.012116
0.036526 -0.779531 -0.010574 -0.090384 0.789917 0.393638
0.041103 -0.756493 -0.023552 -0.074345 0.845060 0.325394
-0.082021 0.612664 -0.011783 -0.316700 -0.591855 0.090877
0.039507 0.208167 -0.004984 0.064429 -0.911946 0.046340
0.122285 -0.307438 -0.002882 -0.019816 0.981932 0.035358
0.037386 0.266154 -0.006610 0.074219 -0.913745 0.052681
0.126867 -0.602352 -0.029298 -0.018966 0.964521 0.026635
0.413874 0.250507 -0.060348 0.673728 -0.574100 0.245708
-0.007324 0.336093 -0.022492 0.098611 -0.904101 -0.004479
-0.055862 -0.415532 0.000813 0.039146 0.956948 0.110578
0.065277 0.417601 -0.025761 0.043267 -0.899857 0.029745
0.133936 -0.546403 -0.023759 -0.019321 0.995790 0.036395
0.039470 0.222826 -0.005664 0.068429 -0.894300 0.044141
0.022248 -0.782496 0.055994 -0.107887 0.712981 0.473836
-0.014020 0.003990 -0.022256 -0.085781 -0.880451 -0.003973
0.024128 -0.798231 0.011179 -0.105007 0.751623 0.456411
-0.050779 -0.325433 0.011923 0.021521 0.996238 0.097931
0.270414 0.419902 -0.079533 0.655547 -0.687267 -0.125367
0.136288 -0.599994 -0.029416 -0.015019 0.961315 0.022704
0.078195 0.009916 -0.007842 0.127216 -0.787404 0.032555
-0.057204 -0.643247 -0.031727 -0.002070 0.980112 0.143116
-0.055901 -0.501601 -0.012658 0.009476 0.955056 0.138928
-0.048798 -0.723858 -0.044846 -0.039395 0.905224 0.229148
-0.015696 0.113310 0.021815 0.038572 0.993171 0.001456
0.035245 0.235499 -0.008115 0.066146 -0.893243 0.046657
0.034275 0.259511 -0.010134 0.068565 -0.915118 0.036787
0.134146 -0.481805 -0.016578 -0.025523 0.981157 0.065505
0.122168 -0.369166 -0.011361 -0.026112 0.980060 0.014586
0.124647 -0.326177 -0.005302 -0.018568 0.981694 0.029911
0.135683 -0.555602 -0.025180 -0.017881 0.992402 0.024022
0.133040 -0.463490 -0.013752 -0.022392 0.950014 0.076607
0.033084 0.201736 -0.006458 0.056983 -0.885362 0.053313
0.035876 0.185734 -0.004908 0.055675 -0.927682 0.046278
0.133210 -0.535294 -0.023659 -0.014880 0.988686 0.018008
0.121250 -0.215297 0.000516 -0.019989 0.996105 0.009372
0.034900 0.271990 -0.008901 0.067534 -0.914670 0.045391
0.041314 0.219890 -0.006217 0.073429 -0.919863 0.046439
0.033604 0.226452 -0.006226 0.064432 -0.901411 0.048544
0.125407 -0.405066 -0.009267 -0.024850 0.944132 0.063065
0.120224 0.448002 -0.043641 0.708828 -0.334265 -0.087696
0.039524 0.226161 -0.006326 0.072973 -0.897954 0.043827
0.026189 0.122161 -0.001866 0.035369 -0.846260 0.044563
0.136911 -0.566940 -0.026257 -0.012159 0.993402 0.027545
0.033380 0.257861 -0.007204 0.065422 -0.904415 0.049103
0.120032 -0.394290 -0.011731 -0.031271 0.952877 0.041740
-0.035162 -0.059183 0.021385 -0.000288 1.030799 0.041054
0.037568 0.370045 -0.018578 0.100879 -0.955931 0.020455
0.015432 0.350944 -0.018419 0.091878 -0.961515 0.008720
0.113027 -0.782616 -0.032129 -0.091020 0.845068 0.359644
0.037888 0.242391 -0.006310 0.070555 -0.910952 0.050214
-0.049675 -0.290771 0.013378 0.011430 0.996178 0.093322
0.044832 0.221507 -0.005703 0.076159 -0.893591 0.045309
0.035717 0.198131 -0.005520 0.055208 -0.878830 0.041981
0.117488 -0.726470 -0.032770 -0.051082 0.963219 0.172154
0.056710 0.353817 -0.018194 0.080521 -0.919365 0.031822
0.039560 0.224663 -0.007414 0.072132 -0.875116 0.047324
0.086017 0.107584 0.022109 -0.045934 1.007996 -0.026646
0.036198 0.214054 -0.006407 0.059386 -0.888560 0.045137
-0.044554 -0.780916 -0.050526 -0.071811 0.858952 0.334291
0.015035 0.278397 -0.012726 0.044239 -0.945102 0.027424
-0.054907 -0.371705 0.005227 0.037047 0.989741 0.100140
0.044523 0.139719 0.000205 0.066606 -0.879237 0.040939
