0.072514944 -0.7 0.0
0.07202096 -0.7 -0.005646161
0.070554055 -0.7 -0.0111207655
0.06815877 -0.7 -0.016257472
0.06490789 -0.7 -0.020900205
0.060900204 -0.7 -0.024907894
0.05625747 -0.7 -0.028158769
0.051120766 -0.7 -0.030554054
0.04564616 -0.7 -0.032020967
0.040000003 -0.7 -0.032514945
0.034353837 -0.7 -0.032020967
0.028879235 -0.7 -0.030554054
0.023742525 -0.7 -0.028158767
0.019099794 -0.7 -0.024907893
0.015092107 -0.7 -0.020900205
0.011841232 -0.7 -0.016257474
0.009445945 -0.7 -0.011120768
0.007979032 -0.7 -0.0056461645
0.0074850544 -0.7 -4.9096203e-09
0.007979032 -0.7 0.0056461627
0.009445945 -0.7 0.011120766
0.01184123 -0.7 0.01625747
0.015092105 -0.7 0.020900203
0.019099798 -0.7 0.024907896
0.02374253 -0.7 0.028158769
0.028879236 -0.7 0.030554056
0.03435384 -0.7 0.03202097
0.04 -0.7 0.032514945
0.04564616 -0.7 0.032020967
0.05112076 -0.7 0.030554056
0.056257468 -0.7 0.028158769
0.0609002 -0.7 0.024907896
0.06490789 -0.7 0.020900209
0.06815876 -0.7 0.016257478
0.07055405 -0.7 0.011120773
0.07202096 -0.7 0.005646169
-0.08045208 -0.625 0.0
-0.07862214 -0.625 0.020916283
-0.073187925 -0.625 0.041197035
-0.06431456 -0.625 0.060226038
-0.05227165 -0.625 0.07742511
-0.03742511 -0.625 0.09227165
-0.020226035 -0.625 0.104314566
-0.0011970401 -0.625 0.113187924
0.01908371 -0.625 0.11862214
0.03999999 -0.625 0.120452076
0.060916282 -0.625 0.11862214
0.08119703 -0.625 0.113187924
0.100226045 -0.625 0.10431456
0.11742511 -0.625 0.09227164
0.13227165 -0.625 0.07742511
0.14431456 -0.625 0.060226046
0.15318793 -0.625 0.041197047
0.15862215 -0.625 0.020916296
0.16045207 -0.625 1.8187757e-08
0.15862215 -0.625 -0.02091629
0.15318793 -0.625 -0.04119704
0.14431456 -0.625 -0.060226034
0.13227165 -0.625 -0.0774251
0.11742509 -0.625 -0.092271656
0.10022603 -0.625 -0.104314566
0.08119702 -0.625 -0.11318793
0.060916275 -0.625 -0.11862215
0.04 -0.625 -0.120452076
0.019083718 -0.625 -0.11862214
-0.0011970289 -0.625 -0.11318793
-0.020226028 -0.625 -0.104314566
-0.037425093 -0.625 -0.092271656
-0.052271634 -0.625 -0.07742512
-0.06431455 -0.625 -0.06022606
-0.07318792 -0.625 -0.04119706
-0.07862214 -0.625 -0.020916315
-0.034408353 -0.55 0.0
-0.03327792 -0.55 0.012920875
-0.02992098 -0.55 0.025449153
-0.024439521 -0.55 0.037204176
-0.017000109 -0.55 0.047828767
-0.007828768 -0.55 0.057000108
0.0027958266 -0.55 0.06443953
0.014550842 -0.55 0.06992098
0.02707912 -0.55 0.07327792
0.03999999 -0.55 0.07440835
0.052920874 -0.55 0.07327792
0.06544915 -0.55 0.06992098
0.07720418 -0.55 0.06443952
0.08782877 -0.55 0.057000104
0.09700011 -0.55 0.047828767
0.10443952 -0.55 0.03720418
0.10992098 -0.55 0.02544916
0.11327792 -0.55 0.012920883
0.11440835 -0.55 1.1235349e-08
0.11327792 -0.55 -0.01292088
0.10992098 -0.55 -0.025449157
0.10443953 -0.55 -0.037204172
0.09700011 -0.55 -0.047828764
0.087828755 -0.55 -0.05700011
0.07720417 -0.55 -0.06443953
0.06544915 -0.55 -0.06992099
0.05292087 -0.55 -0.07327793
0.04 -0.55 -0.07440835
0.027079124 -0.55 -0.07327792
0.01455085 -0.55 -0.06992099
0.0027958304 -0.55 -0.06443953
-0.007828761 -0.55 -0.05700011
-0.017000102 -0.55 -0.04782878
-0.024439521 -0.55 -0.03720419
-0.029920973 -0.55 -0.025449172
-0.03327792 -0.55 -0.012920894
-0.13058075 -0.475 0.0
-0.12798923 -0.475 0.029621035
-0.12029346 -0.475 0.058342047
-0.10772725 -0.475 0.08529037
-0.09067244 -0.475 0.10964719
-0.06964719 -0.475 0.13067244
-0.045290366 -0.475 0.14772727
-0.018342052 -0.475 0.16029346
0.010378955 -0.475 0.16798924
0.039999988 -0.475 0.17058074
0.06962104 -0.475 0.16798924
0.098342046 -0.475 0.16029346
0.12529038 -0.475 0.14772725
0.14964719 -0.475 0.13067243
0.17067242 -0.475 0.10964719
0.18772724 -0.475 0.08529038
0.20029345 -0.475 0.058342062
0.20798925 -0.475 0.029621053
0.21058074 -0.475 2.5756977e-08
0.20798925 -0.475 -0.029621046
0.20029345 -0.475 -0.05834205
0.18772727 -0.475 -0.085290365
0.17067245 -0.475 -0.109647185
0.14964718 -0.475 -0.13067245
0.12529036 -0.475 -0.14772727
0.09834203 -0.475 -0.16029347
0.06962103 -0.475 -0.16798924
0.039999995 -0.475 -0.17058074
0.010378966 -0.475 -0.16798924
-0.018342037 -0.475 -0.16029347
-0.04529036 -0.475 -0.14772727
-0.06964717 -0.475 -0.13067245
-0.090672426 -0.475 -0.109647214
-0.10772725 -0.475 -0.0852904
-0.12029346 -0.475 -0.058342088
-0.12798923 -0.475 -0.02962108
-0.12658691 -0.4 0.0
-0.12405608 -0.4 0.028927512
-0.116540484 -0.4 0.056976072
-0.104268484 -0.4 0.08329345
-0.08761298 -0.4 0.107080005
-0.067080006 -0.4 0.12761298
-0.043293446 -0.4 0.1442685
-0.01697608 -0.4 0.15654048
0.011072479 -0.4 0.16405608
0.039999988 -0.4 0.1665869
0.06892751 -0.4 0.16405608
0.09697607 -0.4 0.15654048
0.12329346 -0.4 0.14426848
0.14708 -0.4 0.12761298
0.16761297 -0.4 0.107080005
0.18426847 -0.4 0.08329346
0.19654047 -0.4 0.056976087
0.20405608 -0.4 0.02892753
0.2065869 -0.4 2.5153923e-08
0.20405608 -0.4 -0.028927522
0.19654047 -0.4 -0.05697608
0.1842685 -0.4 -0.083293445
0.16761297 -0.4 -0.10707999
0.14707997 -0.4 -0.127613
0.12329344 -0.4 -0.1442685
0.096976064 -0.4 -0.1565405
0.068927504 -0.4 -0.16405608
0.039999995 -0.4 -0.1665869
0.0110724885 -0.4 -0.16405608
-0.016976066 -0.4 -0.1565405
-0.04329344 -0.4 -0.1442685
-0.06707998 -0.4 -0.127613
-0.087612964 -0.4 -0.10708002
-0.104268484 -0.4 -0.08329348
-0.11654047 -0.4 -0.056976113
-0.12405608 -0.4 -0.028927555
0.045407835 -0.325 0.0
0.045325678 -0.325 -0.00093906093
0.045081705 -0.325 -0.0018495888
0.044683322 -0.325 -0.0027039181
0.04414264 -0.325 -0.0034760903
0.04347609 -0.325 -0.0041426434
0.042703915 -0.325 -0.0046833237
0.041849587 -0.325 -0.005081704
0.04093906 -0.325 -0.005325679
0.04 -0.325 -0.0054078363
0.03906094 -0.325 -0.005325679
0.03815041 -0.325 -0.005081704
0.03729608 -0.325 -0.0046833237
0.03652391 -0.325 -0.004142643
0.035857357 -0.325 -0.0034760903
0.035316676 -0.325 -0.0027039184
0.034918293 -0.325 -0.0018495893
0.03467432 -0.325 -0.00093906146
0.034592163 -0.325 -8.165606e-10
0.03467432 -0.325 0.0009390612
0.034918293 -0.325 0.001849589
0.035316676 -0.325 0.002703918
0.035857357 -0.325 0.00347609
0.03652391 -0.325 0.0041426434
0.037296083 -0.325 0.0046833237
0.03815041 -0.325 0.0050817044
0.03906094 -0.325 0.005325679
0.04 -0.325 0.0054078363
0.04093906 -0.325 0.005325679
0.041849587 -0.325 0.0050817044
0.042703915 -0.325 0.0046833237
0.04347609 -0.325 0.0041426434
0.04414264 -0.325 0.003476091
0.044683322 -0.325 0.002703919
0.0450817 -0.325 0.0018495901
0.045325678 -0.325 0.0009390623
0.052631848 -0.25 0.0
0.052439943 -0.25 -0.0021934975
0.051870055 -0.25 -0.0043203463
0.0509395 -0.25 -0.006315924
0.049676556 -0.25 -0.008119596
0.048119597 -0.25 -0.009676558
0.046315923 -0.25 -0.010939502
0.044320345 -0.25 -0.0118700545
0.0421935 -0.25 -0.012439942
0.04 -0.25 -0.012631848
0.0378065 -0.25 -0.012439942
0.035679653 -0.25 -0.0118700545
0.033684075 -0.25 -0.010939501
0.0318804 -0.25 -0.009676557
0.030323442 -0.25 -0.008119596
0.029060498 -0.25 -0.006315925
0.028129945 -0.25 -0.0043203477
0.027560057 -0.25 -0.002193499
0.02736815 -0.25 -1.907356e-09
0.027560057 -0.25 0.0021934982
0.028129945 -0.25 0.0043203468
0.029060498 -0.25 0.0063159238
0.030323442 -0.25 0.008119595
0.031880405 -0.25 0.009676559
0.033684075 -0.25 0.010939502
0.035679653 -0.25 0.011870055
0.037806503 -0.25 0.012439943
0.04 -0.25 0.012631848
0.042193495 -0.25 0.012439942
0.044320345 -0.25 0.011870055
0.046315923 -0.25 0.010939502
0.048119593 -0.25 0.009676559
0.049676556 -0.25 0.008119597
0.0509395 -0.25 0.0063159266
0.05187005 -0.25 0.0043203495
0.052439943 -0.25 0.0021935008
0.0066087693 -0.175 0.0
0.007116057 -0.175 0.0057983263
0.0086225085 -0.175 0.0114204725
0.011082346 -0.175 0.016695615
0.014420832 -0.175 0.02146347
0.018536529 -0.175 0.025579168
0.023304386 -0.175 0.028917655
0.028579526 -0.175 0.03137749
0.03420167 -0.175 0.032883942
0.039999995 -0.175 0.03339123
0.045798324 -0.175 0.032883942
0.051420473 -0.175 0.03137749
0.056695618 -0.175 0.028917653
0.061463468 -0.175 0.025579166
0.06557916 -0.175 0.02146347
0.068917654 -0.175 0.016695617
0.071377486 -0.175 0.011420475
0.07288394 -0.175 0.0057983296
0.07339123 -0.175 5.0419358e-09
0.07288394 -0.175 -0.005798328
0.071377486 -0.175 -0.011420473
0.068917654 -0.175 -0.016695613
0.06557917 -0.175 -0.021463467
0.061463464 -0.175 -0.02557917
0.05669561 -0.175 -0.028917655
0.05142047 -0.175 -0.031377494
0.045798324 -0.175 -0.032883942
0.04 -0.175 -0.03339123
0.034201674 -0.175 -0.032883942
0.02857953 -0.175 -0.031377494
0.023304388 -0.175 -0.028917655
0.018536534 -0.175 -0.02557917
0.014420835 -0.175 -0.021463474
0.0110823475 -0.175 -0.01669562
0.0086225085 -0.175 -0.011420481
0.007116057 -0.175 -0.0057983347
-0.10635429 -0.1 0.0
-0.10413084 -0.1 0.025414156
-0.09752805 -0.1 0.05005611
-0.086746536 -0.1 0.073177144
-0.0721139 -0.1 0.094074726
-0.054074727 -0.1 0.1121139
-0.033177137 -0.1 0.12674654
-0.010056116 -0.1 0.13752805
0.014585838 -0.1 0.14413084
0.039999988 -0.1 0.14635429
0.06541416 -0.1 0.14413084
0.09005611 -0.1 0.13752805
0.11317715 -0.1 0.12674654
0.13407472 -0.1 0.112113886
0.15211388 -0.1 0.094074726
0.16674653 -0.1 0.07317715
0.17752805 -0.1 0.050056126
0.18413085 -0.1 0.02541417
0.18635428 -0.1 2.2098883e-08
0.18413085 -0.1 -0.025414165
0.17752805 -0.1 -0.050056115
0.16674653 -0.1 -0.07317714
0.1521139 -0.1 -0.09407472
0.13407472 -0.1 -0.11211391
0.11317713 -0.1 -0.12674654
0.09005611 -0.1 -0.13752805
0.065414146 -0.1 -0.14413084
0.04 -0.1 -0.14635429
0.014585845 -0.1 -0.14413084
-0.0100561045 -0.1 -0.13752805
-0.03317713 -0.1 -0.12674654
-0.054074712 -0.1 -0.11211391
-0.07211388 -0.1 -0.09407474
-0.08674652 -0.1 -0.073177174
-0.09752803 -0.1 -0.05005615
-0.10413084 -0.1 -0.025414193
0.2507204 -0.025 0.0
0.2475191 -0.025 -0.036591217
0.23801243 -0.025 -0.07207062
0.22248924 -0.025 -0.10536021
0.20142123 -0.025 -0.13544849
0.17544848 -0.025 -0.16142122
0.1453602 -0.025 -0.18248925
0.11207063 -0.025 -0.19801243
0.07659122 -0.025 -0.2075191
0.040000014 -0.025 -0.21072042
0.0034087785 -0.025 -0.2075191
-0.03207062 -0.025 -0.19801243
-0.065360226 -0.025 -0.18248923
-0.09544849 -0.025 -0.16142121
-0.12142121 -0.025 -0.13544849
-0.14248922 -0.025 -0.105360225
-0.15801242 -0.025 -0.07207064
-0.1675191 -0.025 -0.03659124
-0.17072043 -0.025 -3.1817898e-08
-0.1675191 -0.025 0.036591228
-0.15801242 -0.025 0.07207063
-0.14248925 -0.025 0.1053602
-0.121421225 -0.025 0.13544847
-0.09544846 -0.025 0.16142122
-0.06536019 -0.025 0.18248925
-0.032070614 -0.025 0.19801244
0.0034087896 -0.025 0.20751911
0.040000003 -0.025 0.21072042
0.07659121 -0.025 0.2075191
0.11207061 -0.025 0.19801244
0.14536019 -0.025 0.18248925
0.17544845 -0.025 0.16142122
0.2014212 -0.025 0.1354485
0.22248921 -0.025 0.10536025
0.2380124 -0.025 0.07207067
0.2475191 -0.025 0.03659127
0.15258211 0.05 0.0
0.15087172 0.05 -0.019549679
0.14579257 0.05 -0.038505346
0.13749897 0.05 -0.056291055
0.1262429 0.05 -0.07236639
0.112366386 0.05 -0.08624291
0.09629105 0.05 -0.097498976
0.07850535 0.05 -0.105792575
0.05954968 0.05 -0.11087173
0.040000007 0.05 -0.11258211
0.020450318 0.05 -0.11087173
0.0014946535 0.05 -0.105792575
-0.016291063 0.05 -0.09749897
-0.032366388 0.05 -0.0862429
-0.0462429 0.05 -0.07236639
-0.05749897 0.05 -0.056291062
-0.065792575 0.05 -0.038505357
-0.07087173 0.05 -0.01954969
-0.07258211 0.05 -1.6999426e-08
-0.07087173 0.05 0.019549685
-0.065792575 0.05 0.03850535
-0.057498977 0.05 0.05629105
-0.046242908 0.05 0.07236638
-0.032366373 0.05 0.086242914
-0.016291045 0.05 0.097498976
0.0014946572 0.05 0.10579258
0.020450326 0.05 0.11087174
0.04 0.05 0.11258211
0.059549674 0.05 0.11087173
0.07850534 0.05 0.10579258
0.09629104 0.05 0.097498976
0.11236637 0.05 0.086242914
0.12624289 0.05 0.0723664
0.13749896 0.05 0.056291074
0.14579257 0.05 0.038505375
0.15087172 0.05 0.019549707
-0.015039429 0.125 0.0
-0.014203254 0.125 0.009557497
-0.011720147 0.125 0.018824592
-0.0076655447 0.125 0.027519714
-0.0021626502 0.125 0.035378665
0.0046213344 0.125 0.04216265
0.012480287 0.125 0.047665544
0.021175405 0.125 0.051720146
0.0304425 0.125 0.054203253
0.039999995 0.125 0.05503943
0.049557496 0.125 0.054203253
0.05882459 0.125 0.051720146
0.06751972 0.125 0.047665544
0.075378664 0.125 0.04216265
0.08216265 0.125 0.035378665
0.08766554 0.125 0.027519718
0.09172015 0.125 0.018824598
0.09420325 0.125 0.009557502
0.09503943 0.125 8.310723e-09
0.09420325 0.125 -0.0095575
0.09172015 0.125 -0.018824594
0.08766554 0.125 -0.027519712
0.08216265 0.125 -0.03537866
0.07537866 0.125 -0.042162653
0.06751971 0.125 -0.047665544
0.058824588 0.125 -0.051720146
0.049557492 0.125 -0.054203257
0.04 0.125 -0.05503943
0.030442502 0.125 -0.054203253
0.02117541 0.125 -0.051720146
0.012480291 0.125 -0.047665544
0.004621342 0.125 -0.042162653
-0.0021626465 0.125 -0.035378672
-0.007665541 0.125 -0.027519723
-0.011720143 0.125 -0.018824605
-0.014203254 0.125 -0.009557511
-0.07272442 0.2 0.0
-0.07101188 0.2 0.019574389
-0.065926306 0.2 0.03855402
-0.05762221 0.2 0.056362208
-0.046351917 0.2 0.07245786
-0.03245786 0.2 0.086351916
-0.016362205 0.2 0.097622216
0.0014459752 0.2 0.105926305
0.020425605 0.2 0.11101188
0.03999999 0.2 0.112724416
0.059574388 0.2 0.11101188
0.07855402 0.2 0.105926305
0.09636222 0.2 0.09762221
0.11245786 0.2 0.08635191
0.12635191 0.2 0.07245786
0.1376222 0.2 0.056362215
0.1459263 0.2 0.038554028
0.15101188 0.2 0.019574402
0.15272442 0.2 1.7020914e-08
0.15101188 0.2 -0.019574396
0.1459263 0.2 -0.038554024
0.1376222 0.2 -0.056362204
0.12635192 0.2 -0.07245786
0.11245785 0.2 -0.08635192
0.096362196 0.2 -0.097622216
0.07855401 0.2 -0.105926305
0.059574384 0.2 -0.111011885
0.04 0.2 -0.112724416
0.020425612 0.2 -0.11101188
0.0014459863 0.2 -0.105926305
-0.016362198 0.2 -0.097622216
-0.03245785 0.2 -0.08635192
-0.04635191 0.2 -0.07245787
-0.0576222 0.2 -0.056362227
-0.0659263 0.2 -0.038554046
-0.07101188 0.2 -0.019574419
0.17292094 0.275 0.0
0.17090157 0.275 -0.023081481
0.16490483 0.275 -0.04546164
0.15511292 0.275 -0.066460475
0.14182335 0.275 -0.08543994
0.12543994 0.275 -0.10182336
0.10646047 0.275 -0.11511292
0.08546165 0.275 -0.124904834
0.06308149 0.275 -0.13090158
0.04000001 0.275 -0.13292095
0.016918516 0.275 -0.13090158
-0.005461637 0.275 -0.124904834
-0.026460484 0.275 -0.115112916
-0.045439944 0.275 -0.10182335
-0.061823353 0.275 -0.08543994
-0.07511292 0.275 -0.06646048
-0.084904835 0.275 -0.04546165
-0.090901576 0.275 -0.023081494
-0.09292095 0.275 -2.0070505e-08
-0.090901576 0.275 0.023081489
-0.084904835 0.275 0.045461643
-0.075112924 0.275 0.06646047
-0.06182336 0.275 0.085439935
-0.04543993 0.275 0.10182337
-0.026460461 0.275 0.11511292
-0.005461633 0.275 0.12490484
0.016918523 0.275 0.13090159
0.04 0.275 0.13292095
0.06308148 0.275 0.13090158
0.08546163 0.275 0.12490484
0.10646046 0.275 0.11511292
0.12543993 0.275 0.10182337
0.14182335 0.275 0.08543996
0.1551129 0.275 0.0664605
0.16490483 0.275 0.045461673
0.17090157 0.275 0.023081515
0.24458453 0.35 0.0
0.24147645 0.35 -0.03552573
0.23224658 0.35 -0.06997203
0.2171754 0.35 -0.10229227
0.19672087 0.35 -0.13150442
0.17150441 0.35 -0.15672086
0.14229226 0.35 -0.17717542
0.10997204 0.35 -0.19224659
0.075525746 0.35 -0.20147644
0.040000014 0.35 -0.20458454
0.0044742636 0.35 -0.20147644
-0.029972024 0.35 -0.19224659
-0.062292285 0.35 -0.1771754
-0.09150442 0.35 -0.15672085
-0.11672085 0.35 -0.13150442
-0.13717541 0.35 -0.102292284
-0.1522466 0.35 -0.069972046
-0.16147643 0.35 -0.035525754
-0.16458455 0.35 -3.0891407e-08
-0.16147643 0.35 0.035525743
-0.1522466 0.35 0.06997204
-0.13717541 0.35 0.10229226
-0.11672086 0.35 0.1315044
-0.09150439 0.35 0.15672088
-0.062292255 0.35 0.17717542
-0.029972017 0.35 0.19224659
0.004474275 0.35 0.20147645
0.040000003 0.35 0.20458454
0.07552573 0.35 0.20147644
0.109972015 0.35 0.19224659
0.14229226 0.35 0.17717542
0.17150438 0.35 0.15672088
0.19672084 0.35 0.13150443
0.2171754 0.35 0.10229231
0.23224658 0.35 0.069972076
0.24147645 0.35 0.035525784
0.08850427 0.425 0.0
0.08776738 0.425 -0.008422678
0.085579105 0.425 -0.016589437
0.08200593 0.425 -0.024252135
0.077156425 0.425 -0.031177945
0.071177945 0.425 -0.03715643
0.06425213 0.425 -0.042005934
0.05658944 0.425 -0.045579106
0.04842268 0.425 -0.047767382
0.040000003 0.425 -0.04850427
0.03157732 0.425 -0.047767382
0.023410564 0.425 -0.045579106
0.01574786 0.425 -0.04200593
0.008822054 0.425 -0.037156425
0.0028435737 0.425 -0.031177945
-0.002005931 0.425 -0.024252139
-0.0055791065 0.425 -0.01658944
-0.007767383 0.425 -0.008422683
-0.0085042715 0.425 -7.3239415e-09
-0.007767383 0.425 0.008422681
-0.0055791065 0.425 0.016589439
-0.0020059347 0.425 0.024252133
0.00284357 0.425 0.031177942
0.008822059 0.425 0.037156433
0.015747868 0.425 0.042005934
0.023410566 0.425 0.04557911
0.031577323 0.425 0.047767382
0.04 0.425 0.04850427
0.048422676 0.425 0.047767382
0.056589432 0.425 0.04557911
0.06425213 0.425 0.042005934
0.07117794 0.425 0.037156433
0.077156425 0.425 0.031177951
0.082005925 0.425 0.024252145
0.0855791 0.425 0.016589448
0.08776738 0.425 0.00842269
0.15962517 0.5 0.0
0.1578078 0.5 -0.020772694
0.1524109 0.5 -0.040914215
0.14359844 0.5 -0.059812587
0.1316382 0.5 -0.07689358
0.11689358 0.5 -0.09163821
0.09981258 0.5 -0.103598446
0.080914214 0.5 -0.112410896
0.0607727 0.5 -0.1178078
0.040000007 0.5 -0.11962517
0.019227304 0.5 -0.1178078
-0.0009142123 0.5 -0.112410896
-0.019812595 0.5 -0.10359844
-0.036893584 0.5 -0.0916382
-0.0516382 0.5 -0.07689358
-0.06359844 0.5 -0.059812594
-0.0724109 0.5 -0.040914226
-0.0778078 0.5 -0.020772707
-0.079625174 0.5 -1.8062899e-08
-0.0778078 0.5 0.020772701
-0.0724109 0.5 0.04091422
-0.06359845 0.5 0.059812583
-0.05163821 0.5 0.076893575
-0.03689357 0.5 0.091638215
-0.019812576 0.5 0.103598446
-0.0009142123 0.5 0.1124109
0.019227311 0.5 0.117807806
0.04 0.5 0.11962517
0.06077269 0.5 0.1178078
0.080914214 0.5 0.1124109
0.099812575 0.5 0.103598446
0.11689357 0.5 0.091638215
0.1316382 0.5 0.0768936
0.14359844 0.5 0.05981261
0.1524109 0.5 0.040914245
0.1578078 0.5 0.020772723
-0.0870912 0.575 0.0
-0.0851604 0.575 0.022069156
-0.07942666 0.575 0.04346775
-0.07006421 0.575 0.0635456
-0.057357512 0.575 0.08169265
-0.04169265 0.575 0.09735751
-0.023545593 0.575 0.110064216
-0.0034677535 0.575 0.11942666
0.017930837 0.575 0.1251604
0.039999988 0.575 0.1270912
0.062069155 0.575 0.1251604
0.083467744 0.575 0.11942666
0.103545606 0.575 0.11006421
0.12169265 0.575 0.097357504
0.1373575 0.575 0.08169265
0.1500642 0.575 0.06354561
0.15942666 0.575 0.04346776
0.16516039 0.575 0.02206917
0.16709119 0.575 1.9190237e-08
0.16516039 0.575 -0.022069164
0.15942666 0.575 -0.043467753
0.15006422 0.575 -0.06354559
0.1373575 0.575 -0.08169264
0.121692635 0.575 -0.09735752
0.103545584 0.575 -0.110064216
0.08346774 0.575 -0.11942667
0.062069148 0.575 -0.1251604
0.04 0.575 -0.1270912
0.017930847 0.575 -0.1251604
-0.0034677424 0.575 -0.11942667
-0.023545586 0.575 -0.110064216
-0.041692637 0.575 -0.09735752
-0.057357498 0.575 -0.081692666
-0.0700642 0.575 -0.06354562
-0.07942665 0.575 -0.04346778
-0.0851604 0.575 -0.022069188
0.27220872 0.65 0.0
0.26868096 0.65 -0.040322624
0.25820482 0.65 -0.07942006
0.24109864 0.65 -0.116104364
0.21788222 0.65 -0.1492609
0.1892609 0.65 -0.17788222
0.15610436 0.65 -0.20109867
0.11942007 0.65 -0.21820483
0.08032263 0.65 -0.22868095
0.040000018 0.65 -0.23220873
-0.00032262877 0.65 -0.22868095
-0.039420053 0.65 -0.21820483
-0.07610438 0.65 -0.20109865
-0.109260894 0.65 -0.17788221
-0.1378822 0.65 -0.1492609
-0.16109866 0.65 -0.11610438
-0.17820483 0.65 -0.07942008
-0.18868095 0.65 -0.040322646
-0.19220874 0.65 -3.5062545e-08
-0.18868095 0.65 0.040322635
-0.17820483 0.65 0.07942007
-0.16109866 0.65 0.11610436
-0.13788223 0.65 0.14926088
-0.10926088 0.65 0.17788224
-0.07610434 0.65 0.20109867
-0.039420046 0.65 0.21820484
-0.00032261387 0.65 0.22868097
0.040000003 0.65 0.23220873
0.08032262 0.65 0.22868095
0.119420044 0.65 0.21820484
0.15610434 0.65 0.20109867
0.18926087 0.65 0.17788224
0.21788219 0.65 0.14926092
0.24109864 0.65 0.11610441
0.25820482 0.65 0.07942011
0.26868096 0.65 0.04032268
0.08933213 0.725 0.0
0.088582665 0.725 -0.008566435
0.08635704 0.725 -0.016872583
0.08272288 0.725 -0.024666067
0.07779061 0.725 -0.031710085
0.07171008 0.725 -0.03779061
0.06466606 0.725 -0.042722885
0.056872584 0.725 -0.046357043
0.04856644 0.725 -0.048582666
0.040000003 0.725 -0.049332134
0.031433564 0.725 -0.048582666
0.023127418 0.725 -0.046357043
0.015333928 0.725 -0.04272288
0.008289915 0.725 -0.037790608
0.0022093914 0.725 -0.031710085
-0.0027228817 0.725 -0.024666071
-0.006357044 0.725 -0.016872587
-0.0085826665 0.725 -0.00856644
-0.009332135 0.725 -7.448945e-09
-0.0085826665 0.725 0.008566438
-0.006357044 0.725 0.016872585
-0.0027228855 0.725 0.024666065
0.0022093877 0.725 0.031710085
0.008289918 0.725 0.03779061
0.015333936 0.725 0.042722885
0.02312742 0.725 0.046357047
0.031433567 0.725 0.04858267
0.04 0.725 0.049332134
0.048566435 0.725 0.048582666
0.056872576 0.725 0.046357047
0.06466606 0.725 0.042722885
0.07171008 0.725 0.03779061
0.0777906 0.725 0.031710092
0.08272287 0.725 0.024666077
0.08635704 0.725 0.016872594
0.088582665 0.725 0.0085664475

