-0.058786 -0.464151 -0.011892 0.009443 0.941257 0.177130
0.033749 0.216782 -0.006927 0.013982 -0.980974 0.051134
0.123459 -0.445815 -0.023247 0.000341 0.964151 0.011005
0.118149 -0.202711 -0.001775 -0.003529 0.945727 0.052060
0.075838 -0.085502 0.004178 0.032837 -0.878332 -0.016897
0.042400 0.193670 -0.005205 0.003218 -0.959022 0.048181
-0.036791 0.023702 0.020395 0.014637 0.981157 0.033400
0.124130 -0.542578 -0.028597 0.032729 0.895015 -0.010324
-0.057169 -0.425185 -0.006370 0.027467 0.938987 0.167343
0.111474 -0.278078 -0.009235 -0.035099 0.926004 0.062479
-0.064106 -0.560903 -0.022522 -0.002230 0.956130 0.099748
0.125981 -0.464848 -0.024836 0.003779 0.960632 0.014793
0.109164 -0.049940 0.005215 -0.006186 0.971514 0.015282
0.031881 0.277350 -0.015060 0.030081 -0.965568 0.048768
-0.048493 -0.188980 0.018171 -0.027614 0.962612 0.094533
0.128156 -0.468790 -0.024767 -0.006154 0.962787 0.043624
0.008371 0.280908 -0.014790 0.012619 -0.966250 0.040150
0.575828 0.100947 0.010920 0.545534 -0.661347 0.376929
-0.502113 0.112062 0.042735 -0.481415 -0.623472 0.516547
0.025584 -0.137842 0.014992 -0.101508 -0.869980 -0.005742
0.072849 0.030568 -0.006775 0.114245 -0.915639 -0.026060
0.060238 0.291148 -0.020408 -0.036305 -0.929555 0.041343
0.187402 0.457432 -0.053115 0.741856 -0.403795 -0.032266
0.113855 -0.110993 0.003761 0.002279 0.952839 0.034571
-0.049457 -0.235400 0.016335 -0.014693 0.975874 0.102454
-0.062526 -0.529071 -0.019809 -0.000609 0.951708 0.138253
-0.057224 -0.782212 -0.046025 -0.074195 0.854574 0.273324
0.107427 -0.223137 -0.006263 -0.035053 0.942211 0.034941
0.040952 0.634408 -0.025852 -0.008626 -0.841630 -0.157459
0.057840 -0.771031 -0.017468 -0.081432 0.833673 0.443421
0.038171 0.270286 -0.013595 0.026100 -0.962141 0.051510
-0.344161 0.271380 -0.045201 -0.696391 -0.642326 0.115407
-0.104378 0.472191 -0.015395 -0.712697 -0.392048 0.138617
0.040746 0.336269 -0.024531 0.045268 -0.957841 0.025626
-0.057572 -0.397029 -0.002035 0.038575 0.953636 0.143438
0.040445 0.205383 -0.006722 0.011121 -0.963492 0.048527
-0.208376 0.404902 -0.035485 -0.620187 -0.673841 -0.035941
-0.039625 0.429215 -0.025744 0.135866 -0.776598 0.065208
0.027718 -0.758647 -0.020649 -0.034679 0.876204 0.307012
0.124658 -0.489847 -0.027550 -0.001870 0.964792 0.000062
-0.082073 0.656723 -0.024239 0.043730 -0.647408 0.117572
0.050942 0.041102 0.002906 -0.014223 -0.911752 0.019287
0.112684 -0.221349 -0.005145 -0.025080 0.948527 0.047205
0.043545 0.146025 -0.001741 -0.003897 -0.954706 0.039677
0.124552 -0.395491 -0.018269 -0.017435 0.927045 0.077555
0.435204 0.240400 -0.070174 0.621700 -0.554523 0.423300
-0.014861 0.388149 -0.026083 0.117618 -0.908457 0.018582
-0.049575 -0.162852 0.018809 -0.026843 0.963665 0.086397
0.089204 0.402854 -0.040034 -0.167192 -0.846876 0.038755
0.113306 -0.160740 0.002307 -0.003197 0.955340 0.049995
0.031109 0.168871 -0.002607 -0.003630 -0.949041 0.050544
0.011969 -0.772290 0.026650 -0.078468 0.830348 0.416835
0.008594 -0.070367 0.011302 -0.122944 -0.869537 0.020395
0.023081 -0.800593 -0.027429 -0.072587 0.805403 0.448332
-0.057100 -0.360269 0.001509 0.032430 0.970754 0.117546
0.292524 0.391379 -0.087794 0.669465 -0.645997 -0.148976
0.128534 -0.530405 -0.029481 0.014835 0.952878 -0.009726
0.075825 -0.035653 -0.002057 0.075679 -0.891281 -0.025038
-0.066458 -0.602980 -0.024965 -0.011975 0.959562 0.099161
-0.061298 -0.494821 -0.015550 -0.000232 0.953903 0.167021
-0.058193 -0.723491 -0.043986 -0.050983 0.895820 0.221982
-0.021287 0.272423 0.026897 0.017576 0.992753 -0.023034
0.027212 0.266434 -0.011837 0.021210 -0.982037 0.054333
0.040438 0.212021 -0.006708 0.011541 -0.970019 0.050387
0.106104 -0.182178 -0.002212 -0.028978 0.940943 0.033313
0.109227 -0.168592 0.001197 -0.011605 0.950295 0.048815
0.114943 -0.239723 -0.002743 -0.008844 0.949791 0.070735
0.125225 -0.425184 -0.021522 -0.013846 0.947188 0.055957
0.124844 -0.437696 -0.023145 0.001534 0.942844 0.029001
0.022238 0.235630 -0.009039 0.006298 -0.973245 0.055830
0.049782 0.005886 0.004545 -0.028291 -0.898530 0.012441
0.115179 -0.151508 0.001470 -0.000880 0.948425 0.044081
0.117533 -0.181422 0.000022 -0.003017 0.948606 0.054518
0.041063 0.175519 -0.004078 0.007496 -0.956236 0.045103
0.049158 0.079749 0.000836 -0.002693 -0.932707 0.027512
0.040589 0.238653 -0.009261 0.022676 -0.981712 0.049815
0.129718 -0.494961 -0.026827 0.014217 0.939091 0.026199
0.124551 0.453319 -0.040193 0.747583 -0.362716 -0.021828
0.039972 0.229844 -0.008007 0.019259 -0.981041 0.051380
0.005071 -0.004691 0.004771 -0.157979 -0.885361 0.024597
0.124475 -0.501978 -0.025454 0.016129 0.966349 -0.013474
0.040149 0.244237 -0.009566 0.023578 -0.990237 0.049628
0.095897 0.075530 0.008555 -0.040291 0.976205 -0.018584
-0.046314 -0.076562 0.016345 0.008203 0.985337 0.048658
0.042494 0.251859 -0.010903 0.015438 -0.971762 0.049073
0.038826 0.392356 -0.032344 0.041917 -0.929961 0.012060
0.119027 -0.731345 -0.018933 0.005513 0.893401 0.044408
0.022792 0.330122 -0.020883 0.034031 -0.984334 0.035831
-0.051249 -0.274856 0.012378 -0.000759 0.980267 0.104013
0.038717 0.223304 -0.007225 0.016956 -0.977789 0.050177
0.043486 0.169257 -0.003645 0.000278 -0.961458 0.043676
0.120794 -0.691461 -0.017618 0.009779 0.935603 -0.008963
0.079488 0.356162 -0.033702 -0.152117 -0.883860 0.036737
0.039973 0.237326 -0.008592 0.019922 -0.987645 0.048600
0.089970 0.156577 0.014358 -0.062067 0.968060 -0.029821
0.036821 0.254854 -0.010952 0.025208 -0.978036 0.052425
-0.059324 -0.754787 -0.047935 -0.063834 0.901514 0.235951
-0.005249 0.336048 -0.021678 0.070115 -0.951098 0.011265
-0.053366 -0.312254 0.006708 0.016047 0.980499 0.100668
0.045403 0.111942 0.000380 -0.002120 -0.945481 0.036569
