-0.114303 0.089482 0.065060 0.211767 -0.961338 -0.187916
0.147208 -0.866409 -0.034902 -0.077741 0.953016 0.615355
0.022814 0.867064 -0.015822 0.238811 -1.309331 0.081479
0.642495 0.033127 0.065218 0.472619 -0.735548 0.338731
0.285769 0.380066 -0.142248 0.692734 -0.670967 -0.200862
0.201316 -0.353761 0.023314 -0.088558 -1.006605 0.044804
-0.567894 0.038771 -0.010564 -0.421576 -0.558488 0.667921
-0.203904 0.504206 -0.018562 -0.852707 -0.436184 0.169847
-0.134751 -0.550076 -0.024717 0.042534 1.181129 0.062401
0.170222 -0.016024 -0.104447 -0.781646 -0.650943 0.030164
-0.121224 -0.233771 0.087777 0.330449 -0.962673 -0.074672
0.089199 0.429125 0.088862 -0.722367 -0.690580 0.031702
-0.397295 0.275663 -0.025979 -0.703684 -0.660053 0.247653
-0.091841 -0.862054 0.124725 -0.065972 1.118407 0.410334
-0.026847 0.313902 -0.130000 -0.744347 -0.661105 0.049548
0.459360 0.212855 -0.011573 0.643138 -0.588652 0.415364
0.153362 -0.615264 -0.092205 0.007048 1.226181 0.005949
0.131884 0.152933 0.097042 -0.250174 -0.942958 0.014018
-0.074906 -0.789932 -0.135318 -0.023123 1.069588 -0.014818
0.041972 0.619473 -0.072764 -0.225588 -0.902064 -0.412441
0.131530 -0.143023 0.109471 -0.071523 -1.024416 0.064274
-0.081685 -0.073915 -0.103675 -0.180690 -0.841103 -0.564049
-0.065392 -0.346528 -0.085703 0.198329 -1.020040 -0.077998
0.152292 -0.851207 0.174462 -0.177073 -1.068081 0.030542
-0.092964 0.317363 0.061463 -0.261358 -0.967917 -0.011769
0.126322 -0.219997 -0.099838 0.143554 -1.030684 -0.029874
0.097437 0.164056 -0.115261 -0.736322 -0.659730 0.017703
0.231927 0.518240 -0.000631 1.064946 -0.085349 -0.040146
-0.031534 -0.704441 0.023630 -0.048282 1.013419 -0.034142
-0.013309 -0.440399 0.064255 0.051339 -1.018208 0.042549
0.087281 0.450873 -0.144603 -0.787567 -0.638930 0.013085
-0.237797 0.330404 -0.078641 -0.661785 -0.678942 -0.180937
0.101234 -0.448785 -0.100344 0.809121 -0.480718 -0.331038
0.183726 0.293495 0.007579 -0.807674 -0.621102 0.038838
-0.061992 -0.074321 0.123920 0.192075 -1.004592 -0.059164
0.004693 0.695535 0.077035 -0.071487 1.276754 -0.166582
0.116212 -0.536198 0.041797 0.667240 -0.585606 -0.447164
-0.084658 0.503221 -0.116184 -0.911459 -0.330853 0.244563
0.028913 -0.290486 0.021148 -0.134749 -1.025741 0.039026
0.204776 0.002624 0.043088 -0.586063 -0.814973 -0.024622
0.406445 0.290697 -0.126274 0.670087 -0.576797 0.389146
-0.051643 0.473187 0.078470 -0.858050 -0.480325 0.106331
-0.471826 0.145477 -0.031520 -0.483841 -0.596669 0.561559
-0.052626 0.175666 -0.097265 -0.254954 -0.961082 -0.235997
0.122800 -0.677661 0.030521 -0.011046 1.120258 -0.012864
0.024097 -0.155410 -0.028521 0.114647 -1.011842 -0.022011
-0.025491 0.753692 -0.082494 0.659599 -0.792226 -0.063291
0.025900 0.279447 0.124969 0.076189 -1.019345 -0.026228
-0.044008 -0.624450 -0.100822 -0.049573 0.995765 -0.029761
-0.026356 -0.853379 0.003931 -0.065029 0.951305 0.524697
0.025369 0.026990 0.140218 0.161893 -1.014499 -0.034909
0.125115 0.294499 -0.128390 -0.766660 -0.625674 0.026266
0.032898 0.052659 -0.151677 -0.121380 -0.844232 -0.549105
0.553951 0.141780 0.044096 0.503083 -0.682816 0.365739
0.206369 -0.120167 -0.037181 -0.281799 -0.999354 0.052907
-0.135500 -0.399402 0.008969 0.105279 1.136876 0.082029
0.087519 -0.758797 -0.071434 -0.037027 1.051302 -0.030137
0.105153 0.769574 -0.029237 0.796986 -0.646628 -0.071384
0.001831 -0.195469 0.102776 0.057850 -0.990592 0.007193
0.271321 0.398243 -0.016027 0.687121 -0.703210 -0.169683
-0.143636 -0.123111 0.029742 0.240336 -0.959489 -0.070450
0.110745 0.541249 0.027051 -0.285237 -0.978536 -0.098658
0.068611 -0.083112 -0.125324 -0.109493 -0.987166 -0.111524
-0.021867 0.145894 0.121992 0.043690 -0.990995 -0.005484
-0.207153 0.391191 0.026989 -0.743188 -0.655788 -0.141200
-0.028641 -0.504082 -0.092855 -0.046901 1.052910 -0.046322
0.142540 -0.260061 0.083680 -0.129521 -0.995456 -0.175271
-0.124783 0.370043 -0.058149 -0.615824 -0.817200 -0.061170
-0.124080 0.205420 -0.005172 -0.102646 -0.994281 -0.122893
-0.126666 -0.703331 -0.063496 -0.049817 0.998891 -0.031283
0.164037 0.536263 -0.115144 1.110506 -0.121878 0.003606
-0.123910 0.060521 -0.049247 -0.102102 -0.899437 -0.480454
0.023859 -0.593012 -0.003718 -0.090396 1.067584 -0.069241
0.181750 0.148857 -0.036665 -0.809321 -0.580886 0.056453
-0.508838 0.087927 0.075472 -0.463373 -0.495629 0.600949
-0.021708 0.563907 0.017742 -0.909527 -0.315685 0.214602
-0.089120 -0.236305 -0.076778 0.069567 -0.943369 -0.408135
0.204829 -0.236934 -0.024586 -0.170447 -0.976605 0.028429
0.067296 -0.316070 -0.078533 -0.022103 -0.997194 0.034379
0.191479 -0.753194 -0.008611 0.009112 1.249287 -0.003277
-0.081403 -0.611928 0.050573 0.096945 1.159152 0.142320
0.096693 -0.868006 0.083472 -0.291794 -1.058696 0.037174
-0.089488 -0.334060 0.104527 0.271489 -0.974456 -0.057085
0.328677 0.304515 -0.059532 0.657606 -0.715826 -0.189005
0.181953 -0.516878 -0.078653 0.785984 -0.510318 -0.355501
-0.205953 0.426193 -0.091447 -0.825207 -0.520830 0.126364
0.180191 0.389284 0.041413 -0.460826 -0.934253 0.067594
0.075784 -0.399309 0.038067 -0.009051 -0.988006 0.033506
-0.308936 0.312930 0.004815 -0.722892 -0.642071 -0.122148
-0.020206 0.796996 0.040270 0.567250 0.758425 -0.051085
-0.080972 -0.512492 0.072703 0.082328 1.157655 0.128686
0.111311 0.321687 0.097877 -0.774696 -0.648169 -0.039783
0.187065 -0.448173 0.048947 0.754215 -0.459152 -0.489411
0.296813 0.478635 -0.067497 0.608598 -0.745802 -0.102006
0.026896 -0.494669 -0.010448 -0.099444 -0.990735 0.023093
0.061221 0.800717 -0.110878 0.206285 -1.258849 0.084900
0.082635 -0.548157 -0.084620 0.035935 -1.018651 -0.066971
-0.095635 -0.857688 -0.064879 -0.067340 0.980784 0.492817
0.072170 -0.796836 0.017273 -0.044158 1.014812 0.075911
0.154989 -0.358174 -0.076249 0.799387 -0.546187 -0.307349
0.043907 -0.107745 0.087699 0.095698 -1.011163 0.044333
0.089078 0.697018 0.031991 0.437367 0.872808 -0.067607
0.577123 0.072000 -0.016509 0.553076 -0.704465 0.340704
-0.137937 -0.004019 0.018531 0.243383 -0.963145 -0.204582
-0.002696 -0.419521 -0.059696 -0.062907 -1.003129 -0.010151
0.009474 0.502566 -0.123223 -0.852365 -0.459531 0.205850
-0.127176 -0.309934 -0.016930 0.128927 -1.002659 -0.089605
-0.103063 -0.761458 0.005795 -0.051972 1.026525 -0.044739
-0.007361 0.363752 0.109440 -0.421007 -0.933594 0.072256
-0.067264 0.066059 -0.121457 -0.178971 -0.857490 -0.521387
0.001036 -0.830090 -0.080233 -0.051664 0.975993 0.377538
0.215102 0.405243 -0.090222 0.731422 -0.680885 -0.135182
0.187273 -0.589646 0.021691 0.840138 -0.448526 -0.343608
-0.140500 0.531186 0.038044 -0.885527 -0.404406 0.199848
0.199594 -0.112056 0.061415 -0.215824 -0.979021 0.015194
-0.422561 0.200095 0.018150 -0.670987 -0.608846 0.315879
0.093331 -0.848555 -0.102840 -0.067511 0.949810 0.565193
-0.113800 -0.142273 -0.058536 0.034477 -0.956584 -0.262090
0.008438 -0.235446 -0.060549 -0.044561 -0.996835 0.023832
-0.272098 0.411389 -0.028040 -0.786552 -0.630502 -0.143312
-0.310006 0.239182 -0.042079 -0.756614 -0.625237 -0.105379
-0.093330 0.195916 0.076013 0.044789 -1.013328 0.026415
-0.028692 -0.014084 -0.137039 -0.148251 -0.873869 -0.535010
0.345603 0.407528 -0.070562 0.596771 -0.746178 -0.206368
0.052518 -0.671211 -0.024676 -0.029493 1.056804 -0.020233
-0.102013 0.014334 0.104456 0.146487 -0.946224 -0.211724
0.149919 -0.137734 -0.101805 -0.380059 -0.924086 0.003846
0.018309 0.132957 -0.122909 -0.190867 -0.917598 -0.363705
0.083646 0.804206 0.045699 -0.042908 1.317482 -0.136237
0.192991 -0.436746 -0.054995 0.933357 -0.346329 -0.301157
-0.026414 -0.725786 -0.110179 -0.054016 1.052737 -0.057502
0.387157 0.239448 -0.062962 0.705878 -0.582628 0.375414
-0.049043 0.589577 -0.055948 -0.885018 -0.430668 0.184726
-0.107013 -0.429063 -0.062393 0.000936 1.174593 0.008561
0.160912 0.234883 0.060623 -0.714330 -0.721453 0.038234
-0.139160 0.552828 -0.041231 -1.019108 -0.189645 0.342343
-0.319367 0.326852 -0.086292 -0.789931 -0.590760 -0.006418
-0.057619 -0.806416 0.062772 0.016776 1.111958 0.032815
0.174306 -0.852005 0.066722 -0.319910 -1.035075 0.019312
-0.014192 -0.309697 0.089700 0.068941 -0.972502 0.015482
0.043325 0.715180 -0.097130 1.078782 -0.208238 -0.051226
-0.011759 0.649873 -0.018807 -0.224836 -0.963162 -0.297460
-0.116892 0.393260 0.054140 -0.273932 -0.971162 -0.056283
0.064734 -0.234070 0.072988 -0.010491 -1.029856 0.026910
0.155362 0.062055 -0.107164 -0.778768 -0.647959 0.083770
0.016558 -0.760277 -0.035692 -0.035582 1.061557 -0.030207
-0.107553 0.294855 -0.076696 -0.326594 -0.926128 -0.110052
0.047837 0.493825 0.070578 -0.757465 -0.662913 0.016893
0.201028 -0.515419 -0.001203 0.853919 -0.436998 -0.326947
0.063623 0.131657 0.129071 -0.013614 -1.001091 0.046254
-0.570230 0.032539 0.067467 -0.463016 -0.537447 0.635107
0.062870 0.247454 -0.133096 -0.731508 -0.656081 0.031818
0.203503 -0.019750 -0.034455 -0.751075 -0.661994 0.017452
-0.128382 0.440219 -0.106211 -0.873631 -0.508825 0.121574
0.197564 0.073538 -0.034445 -0.683585 -0.719467 0.069626
0.165682 0.043368 0.095375 -0.154674 -0.984226 0.020654
0.163943 0.451862 -0.140012 0.864250 -0.621635 -0.098055
-0.111448 -0.436889 0.071117 0.039854 1.200437 0.056995
0.093811 0.362089 -0.145369 -0.856383 -0.489594 0.163907
0.170403 0.492514 0.036252 -0.627334 -0.786779 -0.068257
0.192655 0.117355 0.031719 -0.783653 -0.631927 0.057546
-0.127941 -0.613609 -0.065991 0.114119 1.174754 0.163781
0.205111 -0.181878 0.027755 -0.004773 -1.008000 0.046640
0.355721 0.355471 -0.131219 0.701861 -0.690931 -0.138236
0.037994 0.761074 0.091093 -0.076252 1.337850 -0.196331
-0.052052 -0.861110 -0.125271 -0.080949 0.947137 0.584016
0.511478 0.217694 -0.064646 0.557318 -0.545775 0.557919
-0.051620 0.384035 -0.125967 -0.728044 -0.675546 -0.062274
0.065627 -0.014035 -0.153583 -0.189404 -0.846509 -0.545579
0.198130 -0.648837 -0.044613 0.007436 1.258547 -0.004522
0.015085 0.432239 0.096688 -0.616531 -0.773531 0.045560
-0.102984 0.131679 -0.069142 -0.092185 -0.884295 -0.474419
0.249282 0.452229 -0.133631 1.040143 -0.245479 -0.059419
0.094369 -0.611353 0.027804 -0.050203 1.037395 -0.045897
0.102507 0.596909 -0.040806 0.951073 -0.448191 -0.114536
0.543766 0.162907 -0.023960 0.663284 -0.577826 0.437516
-0.048276 -0.250037 0.110789 0.003585 -0.941798 -0.243473
-0.042268 0.235863 0.106872 0.064591 -0.997901 -0.107430
-0.084331 -0.178318 0.114569 0.186520 -1.001784 -0.111647
0.150498 -0.805835 -0.110570 -0.013497 1.188358 0.100682
-0.038844 0.832600 -0.026994 0.189772 -1.252893 0.081714
0.175245 0.219374 -0.043346 -0.776294 -0.628834 0.037803
-0.000367 -0.319432 -0.057500 0.132496 -0.997511 -0.023097
0.122047 -0.701939 -0.095283 -0.002585 1.205959 -0.002819
-0.134325 -0.488143 0.008476 0.052203 1.183594 0.074982
-0.112555 -0.849428 0.054479 -0.081723 1.056193 0.459773
-0.123021 -0.007523 -0.066577 -0.057752 -0.913820 -0.452768
-0.127490 -0.240025 -0.015737 0.159305 -0.960608 -0.163016
-0.012458 -0.081784 -0.108855 -0.165313 -0.852679 -0.552158
0.591971 0.089005 0.069280 0.594068 -0.703568 0.339079
0.074149 -0.729635 0.034562 -0.043161 1.039558 -0.035556
0.039260 -0.179114 0.034385 0.149672 -1.038489 0.013024
0.411906 0.308885 -0.060213 0.607821 -0.547823 0.493608
-0.125875 -0.308228 0.051491 0.210442 -1.007005 -0.045477
-0.028852 -0.014499 0.135367 0.277461 -0.969805 -0.031190
0.166863 -0.063543 0.096866 0.145093 -0.992639 -0.087117
-0.193131 0.455272 0.043416 -0.711862 -0.640828 -0.025470
0.180795 0.558697 -0.017787 1.106516 -0.088640 -0.034755
0.250045 0.526814 -0.065828 1.113840 -0.139890 -0.005745
0.001495 -0.375028 0.067840 0.224585 -0.952759 -0.039723
-0.070946 0.247228 -0.106576 -0.680169 -0.732599 -0.085949
0.167848 0.319284 -0.083062 -0.637806 -0.802217 -0.046678
-0.129504 0.469839 0.061902 -0.778732 -0.463878 0.192182
0.013477 0.371576 -0.127723 -0.785555 -0.605803 0.028222
0.070029 0.850404 -0.059065 0.211875 -1.251009 0.085073
-0.039324 -0.195968 -0.093060 -0.121352 -0.901805 -0.449533
0.055707 -0.192400 -0.076897 -0.040153 -1.000416 0.026443
0.113539 -0.319153 0.079878 0.352187 -0.915426 -0.083972
-0.133180 -0.050309 0.065025 0.120243 -0.996758 -0.115476
-0.003158 0.812144 -0.104171 0.107566 -1.192109 0.164271
0.033039 0.647607 0.042299 -0.317971 -0.969625 -0.211784
0.095362 -0.374123 -0.097164 0.776674 -0.603734 -0.254958
0.453273 0.228974 -0.091337 0.671567 -0.500827 0.398929
0.135849 -0.802418 0.049854 -0.007245 1.167995 -0.007237
0.048672 -0.381251 -0.049413 -0.248250 -0.960219 -0.008556
-0.040284 0.746630 -0.020028 0.284969 -0.888339 -0.154394
0.093308 -0.855562 0.146383 -0.316057 -1.042346 0.021312
0.179229 -0.303621 -0.052598 -0.103379 -0.982467 0.009539
0.073849 0.573858 -0.104691 -0.175597 -0.981827 -0.239680
0.088679 -0.835874 -0.040335 -0.047479 1.061781 -0.049178
0.212163 0.447217 0.019951 -0.371937 -0.902976 -0.150897
-0.204407 0.344083 -0.014722 -0.230736 -0.936593 -0.270844
-0.363836 0.210274 -0.056993 -0.725302 -0.653038 0.222511
0.096599 0.202171 0.113722 -0.529321 -0.842394 0.001092
0.184091 -0.661649 0.015009 0.020324 1.270447 0.010239
-0.009807 -0.141833 -0.082415 0.306259 -0.987482 -0.091856
-0.261101 0.395142 -0.087438 -0.771867 -0.624544 -0.131871
0.069905 0.595605 0.012389 -0.200964 -0.970071 -0.312156
0.148986 0.249062 -0.093060 -0.709220 -0.737662 0.043732
-0.043018 -0.554486 0.046735 0.051036 1.154710 0.078785
0.061996 -0.059179 0.121856 -0.133156 -0.991972 0.031997
-0.342791 0.254728 0.007890 -0.769822 -0.631513 0.187701
-0.112901 0.296058 0.007062 -0.054783 -1.058179 0.038938
0.031244 0.825690 0.068947 -0.013458 1.301786 -0.061820
0.461498 0.265816 -0.042178 0.693942 -0.559775 0.394106
-0.112379 -0.701236 0.001850 -0.021013 1.031395 0.002408
-0.117461 -0.762632 -0.074211 -0.032004 1.082570 -0.033571
0.164054 0.372024 -0.113325 -0.737643 -0.642245 0.019441
0.057308 -0.605983 -0.052356 -0.007505 1.099688 -0.001088
0.000464 -0.682483 -0.077858 -0.049820 1.053642 -0.051201
-0.106860 -0.561582 -0.087992 0.108477 1.172013 0.155864
-0.270171 0.368225 0.013942 -0.678898 -0.694716 -0.206546
-0.129128 0.100190 0.007689 0.036490 -0.945781 -0.207727
-0.031409 0.459346 -0.131481 -0.815583 -0.564176 0.091080
-0.004333 -0.089640 0.124962 -0.083526 -0.997449 0.042323
-0.124760 -0.140589 0.083540 -0.035176 -0.992327 0.009931
-0.011135 -0.795760 0.003453 -0.054071 1.053437 -0.057843
0.145616 -0.747177 0.028766 0.017333 1.271597 0.009561
0.213316 -0.068016 -0.001158 -0.121802 -1.025947 0.050556
0.201534 0.402473 -0.032430 -0.303958 -0.961282 -0.098795
-0.000076 -0.641327 0.021179 -0.054943 1.064621 -0.063289
-0.026120 -0.851170 0.083951 -0.079392 1.052688 0.445496
0.044530 0.189078 -0.113794 -0.689752 -0.726393 0.028332
0.261024 0.354544 -0.096019 0.704495 -0.696805 -0.151682
0.315732 0.442179 -0.108751 0.673648 -0.669519 -0.202749
-0.004346 -0.507721 0.036691 -0.052310 1.030861 -0.046850
-0.126875 -0.610168 -0.008290 0.118955 1.176263 0.170874
0.083438 -0.453531 0.020005 -0.060550 -1.016291 0.035688
0.021997 -0.411240 -0.008065 0.105901 -1.020386 -0.017431
0.134189 -0.276395 -0.091156 0.421864 -0.909340 -0.038401
-0.051050 0.097282 0.112098 0.267054 -0.993128 -0.045060
0.313857 0.364004 -0.034028 0.740587 -0.649600 -0.210514
0.622336 0.074889 0.018689 0.510575 -0.670882 0.387161
0.177710 -0.178467 -0.072485 -0.190144 -0.963985 0.020860
-0.347123 0.276762 -0.089390 -0.765745 -0.628889 0.146754
0.103721 0.483363 0.068063 -0.693706 -0.701385 0.034347
0.088000 -0.185917 0.092059 -0.109408 -0.980165 0.034575
0.064235 -0.345166 0.049997 -0.178240 -0.998328 -0.078085
-0.095555 0.553790 -0.077322 -0.849330 -0.541253 0.077738
0.138616 0.115931 -0.106564 -0.743585 -0.700545 -0.001804
0.047290 -0.547858 -0.040889 -0.053581 1.047156 -0.054784
-0.087302 0.546521 0.028320 -0.906640 -0.302813 0.278265
-0.039866 -0.568633 -0.098739 -0.050303 1.005119 -0.034316
-0.139601 0.493776 -0.095805 -0.979682 -0.236362 0.337347
0.182723 0.194301 0.029426 -0.779237 -0.650894 0.044980
0.045906 0.184314 0.129243 0.054643 -1.033738 -0.095681
-0.077552 0.008544 -0.123847 -0.121306 -0.919409 -0.363696
0.171370 -0.772004 -0.072292 0.016581 1.264824 0.010083
0.075548 0.087325 -0.146840 -0.524534 -0.809494 -0.085823
0.095932 0.715612 -0.035571 1.096675 -0.153314 0.002475
0.150324 0.189672 -0.082481 -0.734540 -0.685192 0.115843
-0.066409 0.354197 0.092551 -0.437450 -0.899261 -0.013025
-0.061263 -0.440269 -0.090411 -0.019192 1.074476 -0.010384
-0.122946 -0.380001 0.058501 0.082955 1.168195 0.116927
-0.109097 -0.654386 0.030527 0.109311 1.161932 0.160848
0.120315 -0.480048 0.049991 0.282512 -0.887602 -0.102070
0.150573 -0.427727 -0.092233 0.835253 -0.477251 -0.198857
0.200786 -0.428834 -0.001988 0.687419 -0.602630 -0.393871
0.175939 -0.360112 0.070673 -0.064417 -0.992959 -0.071623
0.119733 -0.391438 0.068494 0.078579 -1.018804 0.024369
0.079931 0.648295 0.006658 0.297658 -0.915547 -0.078559
-0.020525 0.694790 0.029440 -0.158869 -1.030653 -0.111659
-0.465156 0.172538 0.034879 -0.452898 -0.540463 0.623709
-0.017208 0.206277 -0.122837 -0.373875 -0.896511 -0.175876
0.177228 -0.162003 0.089562 0.043305 -1.011618 0.045260
0.192487 -0.595121 -0.062325 0.727603 -0.532997 -0.474814
0.169586 -0.818510 -0.030035 0.017112 1.271168 0.007944
0.165903 -0.681660 -0.071062 0.015277 1.259028 0.006582
-0.088934 0.435675 0.074492 -0.437448 -0.861209 0.095604
-0.127224 -0.058927 -0.054585 -0.091388 -0.903773 -0.469179
0.592919 0.117390 0.007383 0.528304 -0.791087 0.233319
-0.518393 0.096780 0.024239 -0.412722 -0.517034 0.695106
0.098223 0.747749 0.020448 -0.022176 1.177913 -0.075079
0.038208 -0.338239 0.000841 -0.009388 -1.011383 0.042874
0.113225 0.532674 -0.128005 1.100222 -0.092992 -0.005331
0.075754 -0.514493 0.016565 0.117334 -1.011517 -0.024103
0.129674 0.029770 -0.139399 -0.757033 -0.643556 0.028906
-0.025008 0.515142 0.063126 -0.827314 -0.566893 0.058003
-0.288931 0.269509 -0.078692 -0.810100 -0.604692 -0.026953
-0.048237 0.286912 0.099234 -0.198899 -0.982637 0.004221
0.008883 -0.705882 -0.008497 -0.038345 1.050556 -0.031947
-0.105612 0.147903 0.061488 -0.121101 -1.000207 0.030292
0.534841 0.187313 0.020597 0.569088 -0.776339 0.158013
-0.135796 0.047216 0.023090 0.261728 -0.978705 -0.027762
0.095378 -0.611981 -0.086361 -0.049150 1.038908 -0.044783
0.404197 0.226241 -0.109500 0.606862 -0.565802 0.509516
0.006875 -0.604297 -0.060356 -0.051943 1.026146 -0.044554
0.087911 -0.497563 -0.093169 0.671476 -0.704369 -0.232614
0.094823 -0.094326 0.104698 0.087889 -1.027958 -0.007268
0.150766 -0.625312 0.028272 0.012482 1.262884 0.007755
0.301224 0.320416 -0.099513 0.619072 -0.717599 -0.258154
0.038315 -0.269058 -0.036564 -0.060422 -0.997331 0.030519
-0.074070 -0.740494 -0.123175 -0.056962 1.024527 -0.019945
0.183798 0.032104 -0.077417 -0.777364 -0.620678 0.090498
0.205420 -0.270083 0.014008 -0.054725 -0.985728 0.027524
0.063849 0.239824 0.123097 -0.240080 -0.925701 -0.045671
0.044296 0.863111 0.029944 0.231020 -1.208347 0.115071
-0.118070 -0.795977 -0.036118 -0.032159 1.037311 -0.017356
0.016672 0.596376 0.022568 -0.309392 -0.943204 -0.262640
0.618750 0.061926 0.102400 0.542180 -0.618100 0.476184
0.057069 -0.429917 -0.059454 0.084331 -1.026163 0.054224
0.252516 0.495789 -0.108781 1.015757 -0.258777 -0.046252
0.206191 0.043324 0.013780 -0.582507 -0.797154 -0.018646
-0.081638 -0.519154 -0.096903 0.085584 1.151876 0.127016
0.110712 -0.034788 -0.146490 -0.250867 -0.907783 -0.350924
0.195592 -0.223038 0.054630 0.075469 -1.007716 -0.008989
-0.009440 0.547742 -0.113181 -0.789045 -0.565987 0.173158
-0.357128 0.315222 -0.055675 -0.771922 -0.614863 0.202676
-0.080118 -0.299095 -0.080140 0.087499 -0.985048 -0.172411
0.063858 0.324825 0.113234 -0.490433 -0.865515 -0.010398
-0.080258 -0.167859 -0.087689 -0.004421 -0.921984 -0.403133
0.027765 0.676546 -0.069981 -0.044239 -0.979903 -0.282701
0.112282 -0.169473 -0.108572 -0.034442 -1.008561 -0.051621
0.377705 0.343566 -0.069895 0.684540 -0.715564 -0.184005
-0.161785 0.418558 0.032013 -0.743784 -0.644100 -0.188141
-0.504807 0.137338 0.074217 -0.452921 -0.518175 0.604699
-0.285959 0.271073 -0.013040 -0.757456 -0.623398 -0.096205
0.158906 0.116982 0.076660 -0.523390 -0.883274 -0.008206
-0.051851 -0.142172 0.122945 0.311159 -0.975039 -0.075451
0.036935 0.289098 -0.128135 -0.757105 -0.636809 0.008276
0.080827 -0.280558 0.076168 -0.088392 -0.987008 0.031860
-0.009818 0.844553 0.032856 0.607013 -0.823598 0.167004
-0.096305 -0.285492 0.106765 0.323664 -0.949152 -0.048788
0.163937 -0.545104 0.048971 0.722103 -0.611081 -0.364915
0.164567 0.434058 0.053838 -0.745896 -0.664558 0.069017
-0.423989 0.240655 -0.047478 -0.716802 -0.668725 0.279866
-0.027080 -0.375350 -0.075789 0.085963 -1.034068 -0.023464
-0.005048 0.101229 0.132762 0.125401 -1.025044 -0.153937
-0.395313 0.183997 -0.030356 -0.520509 -0.630815 0.508681
-0.132533 0.005317 0.066170 0.083597 -0.971660 -0.231175
0.174573 0.095222 -0.071595 -0.665955 -0.758031 0.035809
0.101424 0.218100 -0.128035 -0.789247 -0.614571 0.029752
-0.109303 -0.380705 -0.057126 -0.234737 -0.961015 -0.115500
0.090676 0.092172 0.120703 -0.248970 -0.971260 -0.006474
-0.242579 0.446877 -0.013206 -0.769602 -0.623591 -0.151252
-0.070613 -0.122252 -0.100792 -0.018556 -0.837486 -0.542857
0.160622 -0.844451 -0.075919 -0.024304 1.189324 0.186453
0.025467 -0.020526 0.132002 0.155084 -1.001496 0.029969
-0.116636 0.356252 0.023283 -0.237999 -0.966025 -0.172665
-0.137333 -0.171822 0.049248 0.137790 -0.966853 -0.151599
0.002177 0.853716 -0.057102 0.194179 -1.256842 0.080547
0.049021 0.476009 -0.129355 -0.786121 -0.650220 0.004104
0.190017 0.329149 -0.041687 -0.713614 -0.679074 -0.013644
0.302736 0.432150 -0.027738 0.644495 -0.684013 -0.283429
0.098515 0.367475 0.097353 -0.713491 -0.719552 0.002740
-0.307699 0.357800 -0.052177 -0.748038 -0.661490 0.129535
0.016409 -0.330280 0.059817 -0.026665 -1.010389 0.021109
0.049015 -0.145859 -0.083387 -0.159873 -0.962672 -0.014241
-0.098556 -0.814889 -0.102662 -0.038007 1.037941 -0.026825
0.192641 0.070872 0.049911 -0.783569 -0.610214 0.032104
0.019011 -0.449470 0.019700 0.000828 -1.033092 0.039010
-0.020731 0.750836 0.050592 0.486307 0.943459 -0.063209
0.088884 0.768673 -0.089806 1.115077 -0.085224 -0.010090
0.060989 -0.789528 -0.027975 -0.052647 1.035175 -0.048951
0.022697 -0.378380 0.025721 -0.054318 -1.004097 0.029536
0.022838 -0.718142 -0.055552 -0.038165 1.025610 -0.017725
0.148409 0.569935 -0.086321 1.094254 -0.125171 -0.015518
-0.098913 -0.688813 -0.098517 -0.015846 1.065469 -0.001821
-0.083579 0.204933 -0.077539 -0.196196 -0.876354 -0.476607
0.171406 -0.791056 0.010529 0.016692 1.277878 0.007274
0.068242 0.534577 0.045791 -0.769033 -0.615680 0.012746
-0.027039 0.121583 -0.120840 -0.208842 -0.894983 -0.422345
-0.035136 -0.861192 -0.081800 -0.105413 0.942738 0.524413
0.111137 -0.864835 -0.005563 -0.073751 0.910674 0.572413
-0.144128 -0.085301 0.002801 0.142256 -0.885869 -0.384342
0.014594 -0.456959 -0.038674 0.126643 -1.039154 -0.021352
0.042494 0.335652 -0.129289 -0.769597 -0.619319 0.126736
-0.086081 -0.643045 -0.105181 -0.022103 1.068915 0.070782
-0.116872 -0.085286 0.090343 0.347787 -0.955827 -0.097211
-0.240240 0.309025 -0.038029 -0.763336 -0.645334 -0.147091
0.185188 -0.493880 0.044538 0.930891 -0.403998 -0.246748
-0.136068 -0.230406 0.028298 0.146800 -1.017746 -0.103047
-0.028287 -0.240262 -0.088879 0.002056 -0.995762 0.033014
-0.545085 0.062401 0.038336 -0.464544 -0.565347 0.596796
0.146166 -0.054144 -0.125124 -0.622648 -0.821584 -0.004269
0.055194 0.419611 -0.135608 -0.794163 -0.576524 0.111194
0.184072 -0.025023 0.079460 -0.183557 -0.995464 0.056508
-0.114991 -0.523218 0.030053 0.097984 1.161927 0.134215
0.011112 -0.035807 -0.133593 -0.158604 -0.764004 -0.594606
-0.127646 -0.348265 0.026338 0.273384 -0.910319 -0.301959
-0.072820 -0.825921 0.104906 -0.066919 1.141902 0.351044
0.202356 -0.560024 -0.009184 0.860184 -0.502234 -0.202163
0.183053 -0.403939 0.061532 0.720133 -0.567838 -0.304956
-0.135670 -0.472659 -0.034090 0.052837 1.178993 0.071708
0.187797 -0.721214 -0.040496 0.023481 1.284574 0.013377
-0.199541 0.381461 -0.094476 -0.744249 -0.663279 -0.239798
0.067846 -0.663553 0.017168 -0.052500 1.033289 -0.048032
0.243290 0.384535 -0.124552 0.671893 -0.683723 -0.199723
-0.104681 0.352124 -0.094134 -0.442358 -0.883189 -0.198280
-0.094364 0.272848 0.066958 -0.078159 -1.001391 0.010957
-0.130511 -0.274841 0.012338 0.234780 -0.995906 -0.095038
-0.008028 -0.153680 0.115058 0.127855 -1.007563 -0.098949
0.253631 0.438249 -0.007162 0.683870 -0.703925 -0.208097
-0.054378 -0.435933 0.080919 0.087423 1.156346 0.147729
0.041418 -0.323397 -0.040985 -0.040806 -0.987020 0.007996
0.071921 0.693581 0.072903 -0.037276 1.276604 -0.106914
0.001125 0.602774 -0.078379 -0.159976 -0.971286 -0.265587
-0.087268 -0.378004 0.098020 0.332519 -1.003225 0.021434
0.108269 -0.232465 0.089793 -0.050432 -0.988585 0.034143
0.086930 -0.122197 -0.114848 -0.178922 -0.991694 -0.210354
0.366953 0.292866 -0.040249 0.626533 -0.753621 -0.109037
-0.379273 0.205745 0.010498 -0.606097 -0.623460 0.368962
-0.280772 0.355724 -0.092062 -0.744605 -0.586975 -0.092192
0.395272 0.330377 -0.110100 0.636681 -0.581003 0.429232
0.083052 -0.801213 -0.083103 -0.039426 1.044178 -0.031335
0.156165 -0.571434 -0.097230 0.778187 -0.462954 -0.446170
-0.554873 0.071356 0.081939 -0.610372 -0.680305 0.353799
0.054514 -0.624760 -0.005476 -0.036950 1.052865 -0.030583
-0.050864 0.022573 0.126026 0.217234 -0.965207 -0.119905
-0.030071 -0.303956 -0.086210 -0.053428 -0.990919 -0.117817
-0.114504 0.232086 0.028600 -0.182709 -0.967326 0.029183
0.055679 -0.727535 -0.005373 -0.042204 1.050313 -0.037956
0.035016 -0.143664 0.060096 0.078064 -0.994132 -0.201089
-0.176824 0.526445 -0.045009 -0.872880 -0.348986 0.272989
-0.093249 -0.046822 0.110019 0.324079 -0.929008 -0.112076
0.498000 0.229602 -0.023745 0.599668 -0.693809 0.344754
-0.109077 -0.583055 0.032691 0.131243 1.199828 0.181719
0.119122 0.570549 -0.010165 0.870427 -0.569170 -0.136309
0.156604 -0.863355 0.028418 -0.087423 1.032972 0.496430
0.066271 -0.272402 -0.077542 -0.064147 -0.979556 0.020731
-0.167753 0.376434 -0.062577 -0.809317 -0.586512 0.060965
0.108440 0.278488 0.103522 -0.653792 -0.765030 -0.012444
-0.182703 0.519934 0.016159 -0.753244 -0.582932 0.128038
0.144464 0.335382 0.073065 -0.669960 -0.802867 0.002671
0.552548 0.103400 0.024015 0.576626 -0.684543 0.345823
0.208129 -0.060035 0.041048 -0.213004 -0.968548 0.022611
-0.066335 0.325245 -0.117086 -0.500109 -0.792939 -0.255262
0.192475 -0.050235 -0.062788 -0.627906 -0.767722 0.010864
0.086241 -0.845931 0.048113 -0.080845 0.955687 0.392112
-0.107811 -0.321800 -0.053385 0.380481 -0.827481 -0.308038
0.484604 0.186123 -0.053572 0.555129 -0.580135 0.504882
0.041209 0.660454 0.082420 -0.059199 1.281690 -0.148961
-0.055060 -0.694305 -0.114148 -0.052052 1.027548 -0.045237
0.287485 0.422575 -0.139474 0.626106 -0.740155 -0.202514
0.207641 -0.177547 -0.014582 -0.108699 -1.003607 0.035456
-0.119813 0.312754 -0.031483 -0.320042 -0.952068 -0.121534
0.005568 0.744238 -0.109958 1.028636 -0.225764 -0.051254
0.089392 0.828186 0.011092 0.162235 -1.211947 0.157929
-0.127272 -0.737146 -0.037888 -0.016863 1.086737 -0.011164
0.024273 -0.121494 -0.053986 0.374981 -0.942078 -0.087166
0.019147 0.554485 0.028471 -0.454848 -0.923521 -0.133677
0.194305 0.371018 -0.005015 -0.639277 -0.778665 -0.073427
0.099497 0.799866 -0.058165 0.204307 -1.230132 0.083417
-0.007371 0.053271 0.135461 0.274984 -0.962199 -0.059232
-0.035139 0.327979 0.103248 -0.575365 -0.829662 -0.007049
0.091072 0.492369 -0.138051 -0.583433 -0.825171 -0.098083
0.009219 0.325570 0.115764 -0.235165 -0.954998 0.028192
0.187435 -0.257567 -0.056813 -0.077550 -1.032550 0.036924
0.264887 0.506283 -0.032288 1.064623 -0.151520 -0.033624
-0.038172 -0.744283 0.012012 -0.055788 1.075459 -0.068566
-0.035803 0.796187 -0.006416 0.601067 -0.965680 0.101405
0.135020 -0.472665 -0.105777 0.931963 -0.296447 -0.397935
-0.011715 -0.601574 0.024452 -0.013775 1.111659 0.067657
0.156314 -0.831252 0.097896 -0.139113 -1.108859 0.052658
0.096612 -0.832979 0.111802 -0.300771 -1.027013 0.028140
-0.282587 0.310591 -0.096226 -0.746289 -0.669872 -0.122503
0.179918 -0.274782 0.073738 0.039496 -1.007448 0.023201
-0.200873 0.463823 -0.075115 -0.692405 -0.662355 -0.193280
-0.104340 -0.040935 -0.093464 -0.086146 -0.822966 -0.571953
0.177881 -0.117180 -0.079583 -0.326185 -0.948230 -0.054273
0.132984 0.199666 0.094802 -0.324713 -0.940674 0.015262
-0.033837 -0.381933 0.087612 0.223233 -0.978234 -0.061175
0.068429 -0.585953 0.008640 -0.049725 0.997713 -0.030710
0.152369 -0.220624 0.089344 -0.106714 -1.004619 0.037553
-0.094192 -0.856816 -0.023883 -0.084712 0.914676 0.615195
-0.022316 0.025444 -0.145995 -0.157827 -0.921146 -0.437596
0.033432 0.361847 0.111156 -0.595123 -0.769057 -0.011014
0.176438 -0.219262 -0.071176 -0.190916 -0.959314 -0.115399
0.639031 0.023566 0.025692 0.538252 -0.638290 0.403913
0.109124 -0.870421 -0.072220 -0.086695 0.961616 0.492184
-0.013223 0.271860 0.116270 -0.109581 -1.000401 0.012118
-0.052525 -0.864288 0.055920 -0.060864 0.969759 0.453308
0.029269 -0.218456 0.037081 -0.018307 -1.009988 0.024354
0.087701 -0.230437 -0.092515 -0.069089 -1.011487 0.002617
0.173341 0.311610 0.042472 -0.797340 -0.615758 0.048268
-0.054980 0.160357 0.103358 0.389962 -0.936948 -0.034653
0.366219 0.284874 -0.125365 0.648879 -0.736709 -0.123742
-0.082620 0.493635 0.061911 -0.839996 -0.491551 0.196642
0.248968 0.481396 -0.000943 0.836801 -0.603726 -0.070872
0.210257 0.490129 0.019031 0.377119 -0.820321 -0.115119
-0.464611 0.185316 -0.029323 -0.466542 -0.531788 0.598060
-0.143532 0.529193 -0.073820 -1.017576 -0.163794 0.374889
