0.1025648 -0.02687562 0.4041795
0.052952092 0.025349032 0.41371053
0.002362705 0.07741441 0.41061458
-0.047666233 0.12773855 0.3949857
-0.09561464 0.17479236 0.36729878
-0.14002557 0.21714619 0.32839507
-0.17954968 0.253513 0.2794566
-0.21298599 0.28278798 0.22197038
-0.23931858 0.3040815 0.1576831
-0.2577474 0.3167466 0.08854812
-0.26771244 0.32039848 0.016665965
-0.26891094 0.31492618 -0.0557791
-0.2613065 0.30049595 -0.12658603
-0.24513014 0.27754623 -0.1936033
-0.22087336 0.24677438 -0.25479457
-0.18927322 0.20911537 -0.3083007
-0.15128988 0.16571346 -0.35249588
-0.10807745 0.117887355 -0.38603726
-0.0609489 0.067090265 -0.4079057
-0.011336129 0.014865556 -0.41743672
0.03925325 -0.037199814 -0.41434076
0.08928218 -0.08752394 -0.39871192
0.13723055 -0.13457777 -0.37102497
0.18164155 -0.17693157 -0.33212122
0.22116561 -0.21329843 -0.2831827
0.254602 -0.24257337 -0.22569653
0.28093457 -0.2638669 -0.16140926
0.29936337 -0.27653202 -0.092274256
0.3093284 -0.28018385 -0.02039216
0.31052694 -0.27471158 0.052052904
0.30292243 -0.26028132 0.1228598
0.28674608 -0.23733166 0.18987706
0.26248932 -0.20655982 0.25106835
0.23088919 -0.16890082 0.3045745
0.19290587 -0.12549888 0.34876963
0.14969343 -0.077672794 0.38231105
-0.08635376 -0.0315628 0.2771624
-0.07808941 -0.029894581 0.27978662
-0.06955663 -0.029698316 0.28204975
-0.061014667 -0.030979961 0.28388312
-0.052723102 -0.03370058 0.28523102
-0.04493383 -0.037777513 0.28605244
-0.037883542 -0.04308689 0.28632244
-0.031786464 -0.04946737 0.28603283
-0.026827833 -0.056725096 0.28519243
-0.02315833 -0.064639516 0.2838267
-0.020889454 -0.072970234 0.2819772
-0.020090124 -0.081464015 0.27970016
-0.020784648 -0.08986288 0.27706465
-0.022951912 -0.097911604 0.27415088
-0.026526064 -0.10536557 0.27104732
-0.031398524 -0.11199836 0.26784822
-0.037421208 -0.11760844 0.26465088
-0.044411153 -0.1220253 0.26155236
-0.052155968 -0.12511481 0.2586469
-0.06042032 -0.12678301 0.2560227
-0.06895309 -0.1269793 0.25375953
-0.07749505 -0.12569764 0.25192615
-0.08578663 -0.12297702 0.25057828
-0.09357591 -0.11890009 0.24975686
-0.10062619 -0.11359071 0.24948685
-0.10672326 -0.10721023 0.24977647
-0.1116819 -0.09995252 0.2506169
-0.11535141 -0.092038065 0.2519826
-0.117620274 -0.083707385 0.25383207
-0.1184196 -0.075213574 0.25610915
-0.117725074 -0.06681473 0.25874463
-0.11555781 -0.058766026 0.26165843
-0.111983664 -0.051312037 0.26476198
-0.10711121 -0.04467924 0.26796106
-0.10108852 -0.039069176 0.27115843
-0.094098575 -0.034652293 0.2742569
0.20168309 -0.13326621 0.074190386
0.18908986 -0.15630111 0.061279275
0.17585121 -0.1761958 0.04440228
0.16236937 -0.19234574 0.0240722
0.14905399 -0.20426027 0.000906758
0.13630964 -0.21157736 -0.024390176
0.12452355 -0.21407464 -0.051049985
0.11405388 -0.21167628 -0.078262605
0.10521868 -0.20445517 -0.10520118
0.09828644 -0.19263066 -0.13104722
0.0934678 -0.17656207 -0.15501542
0.090909146 -0.15673766 -0.17637749
0.090688206 -0.1337597 -0.19448435
0.09281175 -0.108326435 -0.20878588
0.09721522 -0.081210636 -0.21884747
0.103764825 -0.053236187 -0.22436345
0.112261534 -0.025253087 -0.2251662
0.12244722 0.0018884167 -0.22123131
0.13401237 0.02736365 -0.21267839
0.14660561 0.050398573 -0.19976725
0.15984426 0.07029325 -0.18289027
0.17332609 0.086443186 -0.1625602
0.18664148 0.098357715 -0.13939476
0.19938582 0.1056748 -0.114097774
0.21117193 0.10817209 -0.08743798
0.2216416 0.10577375 -0.06022536
0.2304768 0.09855262 -0.033286795
0.23740903 0.08672811 -0.007440746
0.24222767 0.070659526 0.016527414
0.24478634 0.05083511 0.037889495
0.24500725 0.027857162 0.055996362
0.24288371 0.0024239197 0.07029788
0.23848027 -0.024691887 0.080359474
0.23193067 -0.052666336 0.08587545
0.22343394 -0.08064944 0.08667819
0.21324827 -0.10779094 0.08274333
0.31053472 -0.007253098 0.22397536
0.3243956 -0.005472011 0.2034378
0.33682406 -0.007686432 0.18204348
0.34744257 -0.0138291055 0.16044247
0.35592842 -0.023713354 0.13929115
0.36202377 -0.03703888 0.11923209
0.36554343 -0.053400792 0.10087486
0.36638045 -0.07230194 0.08477721
0.36450943 -0.09316797 0.07142828
0.35998717 -0.11536497 0.06123363
0.3529511 -0.13821843 0.05450304
0.34361503 -0.16103396 0.05144099
0.33226258 -0.18311837 0.052140556
0.31923872 -0.20380059 0.0565805
0.30493918 -0.22245221 0.06462584
0.2897985 -0.23850653 0.07603219
0.27427658 -0.25147572 0.09045294
0.25884515 -0.26096576 0.107449934
0.24397305 -0.26668823 0.12650673
0.23011214 -0.26846933 0.1470443
0.21768366 -0.2662549 0.16843861
0.20706517 -0.26011223 0.1900396
0.19857931 -0.250228 0.21119097
0.19248395 -0.23690242 0.23124999
0.18896428 -0.22054054 0.2496072
0.18812728 -0.2016394 0.2657049
0.18999831 -0.18077336 0.2790538
0.19452056 -0.15857637 0.2892485
0.20155664 -0.13572292 0.29597908
0.21089272 -0.11290739 0.29904112
0.22224513 -0.09082299 0.29834154
0.235269 -0.07014077 0.29390162
0.2495685 -0.05148914 0.28585628
0.26470926 -0.035434827 0.27444994
0.28023115 -0.022465624 0.26002917
0.29566258 -0.012975597 0.2430322
-0.14441432 0.011526289 0.118339695
-0.15710261 0.024021003 0.098663054
-0.16564721 0.038323484 0.07800612
-0.16978846 0.053999156 0.056996502
-0.16940062 0.070571736 0.036272608
-0.16449538 0.08753765 0.016464101
-0.15522183 0.10438143 -0.0018271431
-0.14186174 0.12059125 -0.018045334
-0.12482105 0.13567458 -0.031697728
-0.10461753 0.14917317 -0.042369474
-0.081865035 0.16067685 -0.04973633
-0.05725491 0.16983606 -0.053574447
-0.031534906 0.17637254 -0.053767227
-0.005486535 0.18008766 -0.050308786
0.02009873 0.1808685 -0.04330423
0.044443533 0.17869142 -0.032966375
0.06680816 0.17362253 -0.01960933
0.086513035 0.16581582 -0.0036389614
0.102959484 0.15550853 0.014459505
0.11564778 0.1430138 0.03413616
0.12419237 0.12871133 0.05479312
0.12833366 0.11303566 0.07580271
0.1279458 0.09646309 0.09652661
0.12304054 0.079497136 0.11633513
0.113767 0.06265338 0.13462637
0.100406915 0.04644356 0.15084456
0.08336622 0.0313602 0.16449697
0.0631627 0.017861621 0.1751687
0.040410213 0.0063579595 0.18253554
0.015800102 -0.0028012441 0.18637368
-0.009919882 -0.009337725 0.18656646
-0.035968248 -0.013052835 0.18310802
-0.061553534 -0.013833716 0.17610346
-0.08589833 -0.011656631 0.1657656
-0.108262956 -0.006587726 0.15240857
-0.12796785 0.0012189746 0.13643818
-0.17415974 0.38560897 0.061035775
-0.17971413 0.38628012 0.035238534
-0.18071608 0.3873165 0.008880969
-0.1771352 0.38868663 -0.017236061
-0.16908024 0.39034885 -0.042319
-0.15679595 0.39225268 -0.065605715
-0.1406556 0.39434028 -0.08638867
-0.121149614 0.39654818 -0.104036346
-0.098870665 0.39880934 -0.11801255
-0.07449568 0.401055 -0.12789263
-0.04876527 0.40321702 -0.13337639
-0.022461267 0.4052296 -0.13429718
0.0036171302 0.40703163 -0.13062705
0.028677493 0.40856838 -0.12247749
0.051958416 0.40979314 -0.11009616
0.072752506 0.4106687 -0.0938592
0.09042794 0.41116846 -0.07426001
0.10444766 0.41127723 -0.05189409
0.11438571 0.41099167 -0.027441021
0.119940095 0.41032052 -0.001643749
0.12094207 0.40928414 0.024713809
0.117361166 0.407914 0.05083082
0.109306216 0.4062518 0.075913765
0.09702192 0.40434796 0.09920051
0.080881596 0.40226036 0.11998345
0.061375592 0.40005246 0.13763112
0.039096642 0.39779133 0.15160733
0.014721658 0.39554563 0.16148742
-0.011008736 0.39338365 0.16697116
-0.037312735 0.39137104 0.16789195
-0.06339112 0.389569 0.16422182
-0.08845149 0.38803226 0.15607229
-0.11173242 0.3868075 0.14369094
-0.1325265 0.38593194 0.127454
-0.15020193 0.38543218 0.107854806
-0.1642217 0.38532344 0.08548889
-0.09582448 0.074644014 0.41359538
-0.14928979 0.07592033 0.39719498
-0.20035923 0.06951673 0.37528494
-0.24748105 0.055627797 0.34853107
-0.2892235 0.034675542 0.3177461
-0.32431823 0.0072965585 0.2838655
-0.35169894 -0.025677245 0.24791884
-0.37053365 -0.063243955 0.21099815
-0.3802501 -0.10426213 0.17422536
-0.38055304 -0.1474855 0.13871776
-0.3714333 -0.19160071 0.10555417
-0.35316795 -0.23526728 0.07574237
-0.32631195 -0.27715856 0.050188057
-0.2916814 -0.31600156 0.029667787
-0.25032845 -0.3506162 0.014804997
-0.20350957 -0.3799506 0.006051302
-0.15264736 -0.40311348 0.0036726817
-0.099287294 -0.4194011 0.007741399
-0.04505063 -0.42831856 0.018133834
0.008414745 -0.4295949 0.034534246
0.059484165 -0.4231913 0.056444265
0.10660597 -0.4093024 0.083198175
0.14834842 -0.38835013 0.11398311
0.18344322 -0.36097106 0.14786369
0.21082386 -0.3279973 0.18381043
0.2296586 -0.2904306 0.22073108
0.23937505 -0.2494124 0.25750387
0.239678 -0.20618907 0.29301152
0.23055823 -0.16207391 0.32617506
0.21229291 -0.11840731 0.35598683
0.18543693 -0.07651606 0.38154113
0.15080637 -0.037673026 0.40206143
0.1094534 -0.003058426 0.41692424
0.06263456 0.026275985 0.42567793
0.011772364 0.04943891 0.42805657
-0.04158772 0.06572655 0.42398784
-0.17102326 0.28377378 -1.1715323
-0.0222653 0.16800496 -1.2056297
0.13559751 0.05953653 -1.2084422
0.2977687 -0.03833568 -1.1798849
0.45932072 -0.12263793 -1.1208252
0.6153449 -0.19080874 -1.0330572
0.7611005 -0.24077676 -0.919248
0.8921587 -0.27102363 -0.78285587
1.0045375 -0.28063053 -0.6280248
1.0948224 -0.2693054 -0.4594592
1.1602701 -0.23739235 -0.2822808
1.198892 -0.18586117 -0.10187332
1.2095144 -0.11627744 0.07628195
1.1918148 -0.030755542 0.2467715
1.1463307 0.06810593 0.4044154
1.0744445 0.17730331 0.5444235
0.97834015 0.29351854 0.6625419
0.86093783 0.41322052 0.7551815
0.72580475 0.5327722 0.8195276
0.57704663 0.6485413 0.8536251
0.4191838 0.75700957 0.8564378
0.2570127 0.85488176 0.8278804
0.09546073 0.93918407 0.76882046
-0.060563654 1.0073549 0.6810525
-0.20631918 1.0573227 0.5672435
-0.33737737 1.0875697 0.43085128
-0.44975626 1.0971766 0.27602017
-0.5400411 1.0858514 0.10745457
-0.6054887 1.0539385 -0.06972372
-0.64411056 1.0024073 -0.2501312
-0.654733 0.9328236 -0.4282863
-0.63703334 0.8473017 -0.598776
-0.59154946 0.7484402 -0.75641984
-0.51966316 0.6392429 -0.89642805
-0.42355892 0.52302766 -1.0145464
-0.30615658 0.40332565 -1.1071861
0.31871796 -0.76200765 0.2619716
0.25610518 -0.7602985 0.3274481
0.19940966 -0.7443408 0.39630607
0.1503541 -0.7146194 0.46645337
0.11042893 -0.6720373 0.5357585
0.08084741 -0.61788845 0.6021158
0.062508345 -0.55381805 0.663509
0.05596879 -0.48177296 0.7180726
0.061427593 -0.40394217 0.7641487
0.07871884 -0.32269043 0.80033755
0.10731721 -0.24048664 0.82553923
0.14635362 -0.15982853 0.8389883
0.19464211 -0.08316676 0.8402759
0.25071546 -0.012830824 0.82936305
0.31286967 0.049042284 0.80658126
0.37921655 0.100572586 0.7726227
0.44774002 0.14019427 0.7285193
0.5163579 0.16670358 0.675611
0.5829855 0.17929491 0.6155056
0.6455984 0.17758578 0.55002904
0.7022939 0.16162804 0.481171
0.75134945 0.13190666 0.41102374
0.79127455 0.089324564 0.34171858
0.8208561 0.03517571 0.2753612
0.83919525 -0.028894678 0.21396811
0.8457348 -0.10093982 0.1594045
0.840276 -0.17877065 0.11332834
0.8229847 -0.26002234 0.077139586
0.7943863 -0.3422261 0.05193785
0.75534993 -0.42288417 0.038488835
0.7070614 -0.49954593 0.037201196
0.6509882 -0.56988186 0.04811406
0.58883387 -0.63175505 0.07089582
0.52248704 -0.6832853 0.10485436
0.4539637 -0.72290695 0.14895774
0.3853457 -0.7494163 0.201866
-0.26107073 0.20407566 -0.6685056
-0.14816895 0.19354504 -0.70518845
-0.030406041 0.18608488 -0.72190887
0.08863993 0.18192191 -0.7181587
0.20535176 0.18118258 -0.694052
0.3161833 0.18388936 -0.650321
0.41776687 0.18996003 -0.5882946
0.50701594 0.19921014 -0.5098576
0.58121866 0.21135858 -0.41739306
0.63812053 0.22603625 -0.31371048
0.6759927 0.24279723 -0.20196019
0.6936842 0.26113215 -0.085537836
0.69065773 0.280484 0.032019366
0.667005 0.30026472 0.14713934
0.62344486 0.3198733 0.2563243
0.5613008 0.33871397 0.3562567
0.4824611 0.35621428 0.4439001
0.38932118 0.37184238 0.51659155
0.2847111 0.38512355 0.5721224
0.17180921 0.3956542 0.6088053
0.054046296 0.40311438 0.6255257
-0.06499963 0.40727732 0.6217755
-0.18171145 0.40801665 0.59766877
-0.2925431 0.40530986 0.5539378
-0.39412656 0.39923918 0.4919114
-0.4833757 0.38998908 0.41347435
-0.55757844 0.37784064 0.32100978
-0.6144804 0.36316296 0.21732722
-0.6523524 0.34640202 0.10557701
-0.670044 0.3280671 -0.010845347
-0.6670174 0.30871525 -0.12840249
-0.6433647 0.28893453 -0.24352242
-0.5998046 0.26932594 -0.35270745
-0.53766066 0.25048527 -0.45263976
-0.4588209 0.23298499 -0.54028314
-0.36568102 0.21735686 -0.6129747

