0.166247 -0.256205 0.080345 0.007816 -0.997117 0.034162
0.022814 0.867064 -0.015822 0.199317 -1.317720 0.091841
-0.567894 0.038771 -0.010564 -0.488182 -0.519993 0.657597
-0.052052 -0.861110 -0.125271 -0.079732 0.865970 0.410266
0.423531 0.307090 -0.098093 0.525291 -0.686831 0.413038
-0.081513 0.270991 0.078218 -0.044145 -1.012301 -0.080871
0.640311 0.023019 0.076990 0.435895 -0.578739 0.406039
-0.131448 -0.481807 0.016903 0.065238 1.172165 0.110365
0.083765 0.028673 -0.159729 0.001162 -1.017822 -0.134407
0.114279 0.497823 -0.139188 0.702671 -0.636788 -0.259700
0.135684 -0.842239 0.180538 -0.123001 0.823015 0.523829
-0.135281 -0.107972 0.062921 -0.174968 -1.042284 0.006792
0.200051 -0.564546 -0.045506 0.452880 -0.860780 -0.231014
-0.347123 0.276762 -0.089390 -0.780516 -0.628964 -0.043329
0.093361 0.054919 0.121669 0.059150 -1.019794 -0.064693
-0.182703 0.519934 0.016159 -1.036102 -0.202969 0.161480
0.173341 0.311610 0.042472 0.038427 -1.031541 -0.133103
-0.091841 -0.862054 0.124725 -0.171031 0.753589 0.592955
-0.063090 -0.268651 -0.091039 -0.255800 -1.026666 -0.102157
0.040498 0.641244 0.039423 0.291570 -0.386865 -0.038889
-0.108588 0.096617 -0.067323 -0.115724 -1.002297 -0.089794
0.183311 -0.784281 -0.038997 -0.020361 1.197035 0.027937
-0.073628 0.371983 -0.117157 -0.347082 -0.888288 -0.180277
-0.062817 -0.639574 -0.106450 0.015978 1.108512 0.082275
0.093342 0.253472 -0.137673 0.055966 -1.021799 -0.007114
0.112282 -0.169473 -0.108572 0.182111 -0.987563 -0.168746
0.534841 0.187313 0.020597 0.572764 -0.614844 0.403683
0.104690 -0.375518 -0.100843 0.603787 -0.821657 -0.249699
-0.011270 0.456969 0.090878 0.036988 -1.015627 0.025458
0.296813 0.478635 -0.067497 0.524311 -0.818899 -0.310412
0.213332 -0.068848 0.025612 0.403001 -0.917426 -0.174901
-0.014192 -0.309697 0.089700 -0.082428 -0.991659 0.017657
-0.431750 0.164316 0.034350 -0.497244 -0.585499 0.511195
0.203897 0.140669 0.002281 0.093538 -1.012278 -0.079781
-0.081685 -0.073915 -0.103675 -0.154468 -1.003630 -0.101951
-0.204407 0.344083 -0.014722 -0.657429 -0.704222 0.049451
0.053229 -0.684633 0.006997 0.030155 1.111717 0.118361
-0.033674 0.578135 -0.090367 0.981625 -0.338175 -0.165656
0.042206 -0.096467 0.099661 -0.056314 -1.038236 0.098606
0.022497 -0.495593 -0.026085 0.071854 -1.024482 -0.176734
-0.112314 0.046900 0.088889 -0.005092 -1.007478 0.069016
0.055237 0.745107 -0.110622 0.551999 -0.831361 -0.044863
-0.103063 -0.761458 0.005795 0.034839 1.107766 0.102787
0.178174 0.489199 0.031408 0.361703 -0.912347 -0.147133
0.063849 0.239824 0.123097 -0.030950 -0.969633 0.034917
0.192773 -0.401962 0.041308 0.126873 -1.005206 -0.051675
-0.081403 -0.611928 0.050573 0.080127 1.115205 0.123165
-0.051637 0.219603 -0.112288 -0.066811 -1.000807 -0.086935
0.164054 0.372024 -0.113325 0.209139 -0.949049 -0.213318
0.087936 -0.856777 0.053996 -0.132082 0.760976 0.576316
-0.131818 -0.267913 0.041877 -0.205445 -1.012945 0.009669
0.303110 0.337195 -0.126969 0.504944 -0.890768 -0.197594
-0.028674 0.747087 0.028645 -0.096980 1.184655 -0.064794
0.205202 -0.213178 -0.037025 0.189306 -1.027954 -0.014433
0.187717 0.006682 -0.070075 0.015769 -0.992538 -0.163633
-0.184608 0.437946 -0.091917 -0.843527 -0.654670 -0.151244
0.577123 0.072000 -0.016509 0.615984 -0.627091 0.340394
0.108423 -0.571664 0.035765 -0.018442 -1.002983 -0.120950
-0.116892 0.393260 0.054140 -0.598373 -0.756511 0.034376
0.115381 -0.870374 -0.091646 -0.102075 0.891093 0.392551
0.095408 0.603509 -0.062356 1.265054 -0.086440 -0.189126
-0.126722 -0.365470 -0.028719 -0.328278 -1.001319 -0.062360
0.024097 -0.155410 -0.028521 -0.069898 -1.017288 -0.108973
0.043679 0.384649 -0.132231 0.570989 -0.857401 -0.173003
-0.115492 -0.172943 -0.048529 -0.328433 -0.977418 -0.109002
0.075784 -0.399309 0.038067 0.011931 -1.020338 -0.162489
0.001007 -0.805240 -0.025015 0.000714 1.082510 0.170974
0.189260 -0.667150 0.008878 -0.050982 1.253034 -0.005939
0.090422 0.138792 -0.123138 0.180568 -0.950302 -0.163103
0.035477 -0.278308 -0.031757 0.115778 -1.045723 -0.017309
0.097795 0.737694 0.016617 -0.100097 1.350112 -0.124044
-0.124080 0.205420 -0.005172 0.042068 -1.005019 -0.147206
-0.030706 0.176133 0.117055 -0.111345 -1.012005 0.017132
-0.539604 0.088334 0.088307 -0.510920 -0.568957 0.542786
0.124603 -0.633043 -0.096845 -0.044527 1.205608 0.097965
-0.058457 -0.528764 -0.101673 0.063094 1.159716 0.115587
0.068242 0.534577 0.045791 1.023657 -0.376817 -0.203861
-0.054378 -0.435933 0.080919 0.060034 1.112956 0.136518
0.257329 0.374286 -0.035858 0.644898 -0.786007 -0.189362
-0.046878 -0.210500 0.118265 -0.119233 -1.000944 0.036400
0.033432 0.361847 0.111156 0.045205 -1.004080 -0.038083
-0.022316 0.025444 -0.145995 -0.145714 -0.962906 -0.226982
-0.387833 0.259483 0.005711 -0.789994 -0.641056 0.121248
0.064734 -0.234070 0.072988 -0.025020 -1.035835 -0.017990
-0.074070 -0.740494 -0.123175 -0.039286 1.179027 0.012130
0.098788 -0.731575 -0.088611 -0.021520 1.169060 0.063347
0.424800 0.208960 -0.075333 0.627531 -0.703491 0.327448
-0.298803 0.316067 0.006377 -0.790547 -0.580399 0.191922
-0.094192 -0.856816 -0.023883 -0.086211 0.847631 0.452262
0.108568 -0.475489 -0.104284 0.340100 -0.960547 -0.228856
0.163636 0.269901 -0.068676 0.207811 -0.990375 -0.146306
-0.087302 0.546521 0.028320 -1.022953 -0.388404 0.037818
-0.027039 0.121583 -0.120840 -0.129837 -0.987848 -0.201074
-0.143532 0.529193 -0.073820 -0.961231 -0.296607 -0.049781
0.068611 -0.083112 -0.125324 -0.038174 -0.994758 -0.215389
0.138513 -0.108682 0.111767 0.032791 -1.077054 0.091622
-0.268897 0.415002 -0.048027 -0.818683 -0.559066 -0.058084
-0.130015 -0.577775 -0.058066 0.025038 1.164678 0.073031
0.179229 -0.303621 -0.052598 0.183397 -0.993946 -0.104974
-0.028191 -0.041250 0.132710 -0.005995 -1.055272 0.014389
0.031244 0.825690 0.068947 -0.170806 1.541384 -0.264623
0.008323 -0.583301 -0.057522 0.025510 1.118446 0.122576
0.181656 -0.429586 -0.068262 0.514306 -0.871063 -0.193447
0.206191 0.043324 0.013780 0.132139 -0.998680 -0.106488
0.342878 0.333704 -0.042617 0.664010 -0.781032 -0.043070
0.120315 -0.480048 0.049991 0.205258 -1.012074 -0.122791
-0.047871 -0.807730 0.061759 -0.015262 0.946478 0.254480
-0.040013 0.495408 -0.127160 0.410929 -0.925732 -0.246880
-0.036117 0.816050 -0.062052 -0.181819 -1.049683 0.070523
-0.137937 -0.004019 0.018531 -0.134791 -0.982942 -0.054986
0.158988 0.406530 0.062912 -0.033201 -1.035746 -0.069111
-0.105612 0.147903 0.061488 0.207953 -1.029691 -0.171155
0.103707 -0.257381 -0.098686 0.048954 -1.024356 -0.079520
0.177881 -0.117180 -0.079583 -0.071115 -1.034374 -0.114145
-0.031534 -0.704441 0.023630 0.023685 1.120162 0.122576
-0.122946 -0.380001 0.058501 0.080959 1.097899 0.170902
0.099497 0.799866 -0.058165 0.124188 -1.303134 0.072852
-0.120284 0.324483 -0.030312 -0.097662 -1.000555 -0.082852
0.511478 0.217694 -0.064646 0.633351 -0.540524 0.492818
0.287485 0.422575 -0.139474 0.586524 -0.793757 -0.268984
0.174306 -0.852005 0.066722 -0.184246 0.736801 0.575558
-0.440704 0.186406 -0.049528 -0.662136 -0.574841 0.287705
0.165215 0.122142 -0.073506 0.057650 -0.982070 -0.147009
0.164524 0.190775 0.061479 0.045762 -1.039544 -0.121851
-0.002696 -0.419521 -0.059696 -0.026768 -1.040411 -0.051873
-0.123021 -0.007523 -0.066577 -0.090226 -0.984137 -0.214459
-0.035597 0.091023 0.120783 0.128933 -1.069538 -0.004824
-0.034328 -0.126000 0.125234 -0.138471 -1.027629 0.027375
0.082951 -0.763415 0.011294 -0.010845 1.126135 0.055713
-0.015448 0.583329 0.004221 -0.894292 -0.353136 0.145599
0.111311 0.321687 0.097877 -0.008843 -1.021450 -0.019304
-0.028666 0.731211 -0.053554 -0.678678 0.485110 0.051191
0.146166 -0.054144 -0.125124 0.044001 -0.979370 -0.121193
0.591971 0.089005 0.069280 0.519624 -0.701845 0.467176
0.167793 0.567033 -0.074899 1.227848 -0.156279 -0.225223
0.029558 0.749189 0.097217 -0.105139 1.271549 -0.102916
-0.080972 -0.512492 0.072703 0.055830 1.215269 0.089015
0.141633 -0.796667 -0.113281 -0.043574 1.237777 -0.011089
-0.021454 -0.127023 -0.095770 -0.268069 -0.989567 -0.061864
0.082635 -0.548157 -0.084620 0.131426 -1.009218 -0.183602
0.345603 0.407528 -0.070562 0.637470 -0.768272 0.075362
-0.138088 0.400214 -0.035184 -0.748095 -0.645820 -0.121677
0.165682 0.043368 0.095375 0.053879 -0.991808 -0.075711
0.089199 0.429125 0.088862 0.250287 -1.014037 -0.108391
-0.504889 0.144793 0.017362 -0.506907 -0.503882 0.673276
0.152217 -0.332295 0.077894 0.009910 -0.991704 0.049021
0.106571 0.130526 0.112835 -0.045939 -0.989485 0.077575
-0.025830 0.289861 -0.131182 0.015472 -0.986885 -0.145125
0.234343 0.476940 -0.128698 0.512185 -0.849757 -0.187025
0.020239 -0.670602 -0.060451 0.016319 1.117319 0.087896
0.242601 0.508527 -0.004683 0.545330 -0.827019 -0.238195
-0.272432 0.290127 -0.081576 -0.771720 -0.622295 -0.074427
-0.236197 0.425963 0.019484 -0.825417 -0.610686 -0.086970
0.025369 0.026990 0.140218 -0.031560 -1.039907 0.074267
-0.117810 -0.198056 0.095052 -0.085377 -1.045478 -0.025551
-0.159168 0.460058 0.055112 -0.811272 -0.432966 0.135227
-0.011715 -0.601574 0.024452 -0.174461 1.027585 0.140615
0.173755 -0.532439 0.047818 0.407458 -0.948482 -0.175809
-0.066409 0.354197 0.092551 -0.013672 -1.023881 -0.105721
-0.112555 -0.849428 0.054479 -0.102004 0.922308 0.329460
0.017146 -0.165257 0.087702 0.070516 -1.031180 -0.080211
0.161831 -0.850957 -0.015838 -0.096366 0.818713 0.461095
0.032873 0.143825 0.132076 -0.119865 -1.010233 -0.006796
0.184072 -0.025023 0.079460 -0.052061 -1.006707 -0.059954
0.021284 0.539397 -0.116793 1.304376 -0.022138 -0.272428
-0.106155 -0.024305 0.098330 0.024852 -1.034891 -0.004996
-0.120445 -0.700152 -0.027146 0.015426 1.106809 0.082257
0.183069 0.255368 -0.001587 -0.016436 -1.019900 -0.076358
-0.131602 0.066360 0.008760 0.024360 -1.035288 -0.021296
-0.336825 0.222320 -0.027086 -0.754362 -0.643718 0.101543
0.199984 -0.129569 0.059600 -0.047684 -1.005260 0.060283
-0.011759 0.649873 -0.018807 -0.529617 -0.786245 0.031656
0.243543 0.532761 -0.070559 0.527736 -0.720988 -0.243244
0.049021 0.476009 -0.129355 0.523577 -0.863330 -0.150597
0.108493 -0.652486 0.034097 0.004559 1.139683 0.065091
0.018634 0.683407 -0.071469 0.927543 -0.356292 -0.104295
-0.098556 -0.814889 -0.102662 -0.023875 1.041059 0.164482
-0.307699 0.357800 -0.052177 -0.763733 -0.639642 -0.058079
-0.007964 -0.319934 -0.065711 -0.214394 -0.983439 -0.115762
-0.199503 0.496461 -0.050342 -0.902181 -0.308220 0.100663
0.165903 -0.681660 -0.071062 -0.035240 1.200747 0.041753
0.044530 0.189078 -0.113794 0.207311 -0.966813 -0.110947
-0.087365 0.306570 -0.101234 0.093692 -0.988382 -0.103480
0.055707 -0.192400 -0.076897 -0.117845 -1.014040 -0.078494
-0.001219 -0.529272 0.028609 0.041940 1.182781 0.085070
0.135812 0.305419 -0.119958 0.248038 -0.967087 -0.120033
0.156165 -0.571434 -0.097230 0.456542 -0.914467 -0.331184
-0.050864 0.022573 0.126026 0.056239 -1.089938 0.025987
0.191826 0.347222 -0.056361 0.309363 -0.932770 -0.174266
-0.038045 -0.205951 -0.091710 -0.224106 -0.960574 -0.136048
0.205794 -0.355094 -0.005415 0.236998 -0.938996 -0.196806
-0.114415 -0.239812 -0.040540 -0.136712 -1.019807 -0.028611
0.081519 -0.812649 -0.084086 -0.013251 1.142747 0.046502
0.366219 0.284874 -0.125365 0.647592 -0.571086 0.439760
0.039906 -0.367067 -0.008571 0.026149 -1.037754 -0.158831
-0.570230 0.032539 0.067467 -0.556261 -0.559692 0.285158
0.204091 -0.501744 -0.023103 0.466734 -0.925685 -0.147182
0.207514 -0.156752 -0.000944 0.200073 -0.962137 -0.197993
0.009979 -0.405416 0.047009 -0.058090 -1.055362 -0.047344
0.173612 0.451073 -0.137763 0.748407 -0.706496 -0.203462
0.009221 -0.053074 -0.122708 -0.163805 -1.003383 -0.093368
0.225291 0.445315 0.014853 0.713922 -0.635821 -0.190454
-0.097140 -0.412323 -0.065384 0.052220 1.168428 0.100963
0.521705 0.150024 -0.032409 0.589601 -0.630174 0.439013
-0.085347 0.157078 -0.080135 -0.085017 -1.000159 -0.086891
0.150175 0.015042 -0.123723 0.078177 -1.014705 -0.108432
0.135087 -0.723231 0.014886 -0.026341 1.208966 0.015736
-0.025008 0.515142 0.063126 -0.461815 -0.831850 -0.010867
-0.114364 -0.509780 -0.072473 0.058062 1.154128 0.112070
0.075754 -0.514493 0.016565 -0.146560 -1.013721 -0.070370
-0.120904 -0.108059 -0.055120 -0.177223 -1.033046 0.017262
0.185856 -0.189884 0.080527 0.020251 -1.007444 -0.112537
-0.067264 0.066059 -0.121457 -0.243693 -0.995478 -0.069562
-0.121729 -0.649486 -0.080288 0.041219 1.092173 0.125788
0.215102 0.405243 -0.090222 0.578602 -0.809873 -0.204513
-0.144128 -0.085301 0.002801 -0.029760 -1.026524 -0.062021
-0.537754 0.089011 0.020989 -0.554387 -0.667448 0.507899
-0.093144 0.433511 -0.120155 -0.715945 -0.657974 -0.137558
0.197918 -0.630558 -0.049286 0.438520 -0.939437 -0.165283
0.178387 0.121067 0.057297 0.031666 -1.017608 -0.081772
-0.119492 0.565332 -0.027184 -0.953856 -0.313621 0.200912
0.043525 0.807227 -0.114053 0.278793 -1.188395 0.025491
0.628242 0.063507 0.019601 0.598901 -0.637432 0.421413
0.036935 0.289098 -0.128135 0.087459 -1.001639 -0.229987
0.435508 0.243427 -0.024236 0.606171 -0.605670 0.445539
-0.117461 -0.762632 -0.074211 0.002378 1.132482 0.053445
0.087697 -0.843858 -0.006697 -0.045770 0.854299 0.420745
0.082769 0.663998 0.000173 0.981681 -0.285893 -0.093866
0.382248 0.286059 -0.038541 0.661584 -0.680682 0.110062
0.302736 0.432150 -0.027738 0.634236 -0.805373 -0.097943
0.161112 -0.250660 -0.077486 0.243213 -0.964837 -0.157856
0.083646 0.804206 0.045699 -0.153658 1.395243 -0.196827
0.054514 -0.624760 -0.005476 0.021114 1.153421 0.072619
-0.034257 0.295307 0.108083 -0.040873 -1.012628 0.073382
0.191011 0.381828 0.017313 0.137321 -0.977772 -0.169200
-0.353466 0.312734 -0.020215 -0.730930 -0.684813 0.034715
0.069905 0.595605 0.012389 1.088837 -0.108265 -0.144550
0.001036 -0.830090 -0.080233 -0.037587 0.890717 0.371564
-0.133451 -0.453718 -0.036370 0.023769 1.093902 0.095580
0.027102 0.102384 -0.138153 -0.162346 -1.025506 -0.119942
-0.042268 0.235863 0.106872 -0.033410 -1.026545 0.007529
0.103721 0.483363 0.068063 0.028697 -1.014276 -0.025610
-0.126875 -0.610168 -0.008290 0.089918 1.175428 0.139094
0.039260 -0.179114 0.034385 0.055391 -1.005598 -0.148206
0.019640 -0.338027 0.050080 -0.003358 -1.053562 -0.109344
0.139804 -0.330607 -0.086746 0.604813 -0.867533 -0.190868
0.171926 -0.784504 0.018503 -0.004509 1.188975 0.053394
0.012122 -0.472222 0.028714 -0.004541 -1.008448 -0.068547
-0.077552 0.008544 -0.123847 -0.280519 -0.999688 -0.086131
0.070972 -0.441215 -0.075526 0.224262 -1.017957 -0.096864
-0.033837 -0.381933 0.087612 -0.083442 -1.037096 0.049143
0.046909 0.855016 -0.067184 0.230771 -1.190058 0.011326
-0.111448 -0.436889 0.071117 0.074864 1.172279 0.123987
-0.036520 -0.855242 -0.026867 -0.102386 0.830793 0.471781
-0.128371 -0.322526 0.009870 -0.240231 -0.977250 -0.038258
0.192475 -0.050235 -0.062788 0.044590 -1.005103 -0.142434
0.197564 0.073538 -0.034445 0.004900 -0.985439 -0.123341
-0.078598 -0.132532 -0.094951 -0.166017 -1.018943 -0.122291
-0.504807 0.137338 0.074217 -0.499720 -0.503471 0.637728
-0.426282 0.240459 -0.037550 -0.822408 -0.615650 0.059098
0.015220 0.272625 0.125065 0.069818 -1.032430 -0.053316
0.064302 -0.346782 -0.072695 0.197261 -0.995955 -0.193252
0.552548 0.103400 0.024015 0.550733 -0.667927 0.438732
0.081362 0.714190 -0.070717 1.193150 -0.080440 -0.206878
0.088000 -0.185917 0.092059 -0.047217 -1.061687 0.098463
0.041972 0.619473 -0.072764 1.148335 -0.157835 -0.121799
0.000106 0.447705 -0.128353 0.058796 -0.982116 -0.142197
0.093811 0.362089 -0.145369 0.224698 -0.964449 -0.152895
0.122292 -0.868467 0.132346 -0.151179 0.723529 0.629592
-0.137333 -0.171822 0.049248 -0.088058 -1.047503 -0.059246
-0.014802 0.699553 0.055224 -0.132212 1.188770 -0.030646
0.202325 -0.265712 0.038669 0.078326 -1.025664 0.028710
0.175245 0.219374 -0.043346 -0.001597 -1.018887 -0.098557
0.116783 -0.281298 0.083079 0.066225 -1.044260 -0.052339
-0.022670 -0.679889 -0.094292 0.003640 1.082573 0.077784
-0.240240 0.309025 -0.038029 -0.756531 -0.598598 -0.106504
-0.025145 0.395446 -0.129595 0.068013 -1.008556 -0.165480
0.261024 0.354544 -0.096019 0.597046 -0.814923 -0.197682
-0.002117 -0.263674 -0.069058 -0.080770 -1.031139 -0.067027
0.065675 0.711830 0.079473 -0.126031 1.408881 -0.171758
0.168916 0.246434 0.050628 0.271016 -0.970479 -0.146986
0.028913 -0.290486 0.021148 -0.115282 -0.961096 -0.049951
0.150949 -0.509884 -0.102652 0.577660 -0.823733 -0.257171
0.187797 -0.721214 -0.040496 -0.013666 1.213454 0.036329
-0.109097 -0.654386 0.030527 0.074634 1.168141 0.125138
-0.471826 0.145477 -0.031520 -0.462399 -0.460373 0.656715
-0.009283 -0.524827 -0.079265 0.016970 1.095022 0.087897
-0.012406 0.848785 0.021007 0.135933 -1.353441 0.100330
0.099878 -0.345105 0.072689 0.089085 -1.040626 0.013594
0.071288 -0.756219 -0.040836 -0.007993 1.140839 0.051079
0.145458 0.092894 0.089778 -0.024071 -1.004152 -0.096362
-0.112022 0.252306 0.018212 0.041925 -0.993390 0.029453
0.483978 0.179624 0.005501 0.502061 -0.658500 0.469666
0.051831 0.093740 0.132190 -0.039323 -0.989198 0.065411
0.358464 0.337014 -0.134087 0.688542 -0.704716 0.076354
-0.026120 -0.851170 0.083951 -0.111469 0.773107 0.590567
-0.087268 -0.378004 0.098020 -0.090113 -1.063345 0.028011
-0.081969 -0.103904 0.116284 -0.026299 -1.037905 0.071676
0.190130 0.326770 -0.007357 0.291580 -0.957927 -0.211814
0.183251 0.202630 0.013472 -0.012676 -0.994864 -0.114821
-0.039827 0.773813 -0.024329 -1.008208 -0.232668 0.265569
0.146416 0.087416 -0.108492 0.082396 -1.003218 -0.145759
-0.113251 -0.317299 -0.045335 -0.170976 -0.981643 -0.116088
-0.025184 0.703951 -0.008951 -1.078918 0.097592 0.209719
0.198717 -0.604794 -0.003714 0.334653 -0.949373 -0.183470
0.141201 -0.107443 -0.115537 -0.006018 -1.008953 -0.123762
-0.302141 0.254303 -0.004621 -0.709746 -0.641499 0.057342
-0.003732 -0.471318 -0.066030 -0.216961 -0.980436 -0.159256
-0.076215 -0.253136 0.111584 -0.061280 -1.021797 0.084900
0.137764 0.249513 -0.109075 0.113391 -1.001616 -0.112167
0.083644 0.538082 -0.126846 1.079026 -0.202621 -0.114677
-0.043018 -0.554486 0.046735 0.132755 1.227903 0.167381
-0.241329 0.374255 0.019774 -0.714677 -0.628681 0.008858
-0.020206 0.796996 0.040270 -0.089334 1.197512 -0.047108
0.032898 0.052659 -0.151677 0.092785 -0.990838 -0.190983
0.064904 -0.141395 0.079024 -0.059098 -1.002972 0.067238
-0.093330 0.195916 0.076013 -0.016531 -1.034238 -0.011001
0.209805 -0.007661 0.020912 0.039187 -0.988245 -0.176525
0.200786 -0.428834 -0.001988 0.495263 -0.878806 -0.311341
0.008883 -0.705882 -0.008497 0.014705 1.110737 0.082389
0.314339 0.307735 -0.076782 0.635185 -0.806884 -0.138339
0.075548 0.087325 -0.146840 0.108679 -0.983075 -0.159224
-0.119575 0.356518 0.009965 -0.185354 -0.977800 -0.059829
-0.135500 -0.399402 0.008969 0.041041 1.122747 0.157158
-0.394703 0.184223 0.004926 -0.583865 -0.523894 0.282091
-0.014857 -0.621990 -0.081843 0.015922 1.082456 0.096292
-0.057089 -0.769795 0.028574 0.051591 1.161163 0.102742
-0.112901 0.242352 -0.038815 -0.043577 -0.996430 -0.056173
0.206369 -0.120167 -0.037181 0.086523 -1.032498 -0.171381
-0.061567 0.580135 -0.017687 -0.833444 -0.391129 -0.002247
0.019147 0.554485 0.028471 0.866869 -0.554470 -0.205957
0.109992 -0.014350 -0.151016 0.305459 -0.938995 -0.196680
0.164037 0.536263 -0.115144 1.284677 -0.084942 -0.223422
0.096599 0.202171 0.113722 0.035186 -1.010991 0.061264
0.044296 0.863111 0.029944 0.160004 -1.241169 0.054140
-0.118070 -0.795977 -0.036118 0.030577 1.093032 0.103188
0.150766 -0.625312 0.028272 -0.049950 1.184281 0.038710
0.057308 -0.605983 -0.052356 0.007922 1.107919 0.074605
0.618750 0.061926 0.102400 0.318715 -0.203693 0.339561
-0.053801 0.430268 0.091059 -0.287354 -0.979262 -0.091471
-0.120893 -0.247521 0.087224 -0.037191 -0.992869 -0.034525
0.387157 0.239448 -0.062962 0.693443 -0.740743 -0.005191
0.150330 -0.389502 -0.085994 0.672960 -0.702867 0.137486
0.005568 0.744238 -0.109958 -0.823273 -0.440209 0.242181
-0.102579 0.101444 0.078693 -0.114995 -1.024178 -0.064615
0.111910 0.370984 0.092677 -0.092759 -1.009540 -0.051896
-0.176141 0.389285 -0.089085 -0.788119 -0.613818 -0.155755
0.055263 -0.011024 -0.152265 -0.137740 -1.007128 -0.173377
-0.024936 0.604267 -0.040380 -0.822336 -0.577963 0.086950
0.118974 -0.780561 0.040229 -0.016867 1.185921 0.033049
-0.098913 -0.688813 -0.098517 0.025758 1.101365 0.095195
-0.140500 0.531186 0.038044 -1.068332 -0.220868 0.239378
-0.132533 0.005317 0.066170 -0.142589 -0.997254 -0.011418
0.016558 -0.760277 -0.035692 0.007213 1.128013 0.066271
-0.026414 -0.725786 -0.110179 0.021697 1.089658 0.095787
-0.177394 0.378248 0.007048 -0.660184 -0.794674 -0.099830
0.143771 0.577094 -0.034038 1.074276 -0.208912 -0.140891
0.046440 -0.395459 -0.047090 -0.068515 -0.987925 -0.072740
0.141916 0.159384 -0.093545 0.025805 -1.020825 -0.137733
0.087281 0.450873 -0.144603 0.575978 -0.776872 -0.245484
0.039486 -0.244707 0.010229 -0.082761 -1.034419 0.023186
-0.114959 0.150638 -0.042613 -0.146030 -0.970955 -0.128398
0.025467 -0.020526 0.132002 -0.096721 -1.041678 0.037087
-0.037647 0.341876 -0.128049 0.034810 -1.018467 -0.173672
0.111921 0.209810 -0.117746 -0.006987 -0.968039 -0.053856
-0.003158 0.812144 -0.104171 0.125732 -1.266073 0.079432
0.063858 0.324825 0.113234 -0.000217 -1.064180 -0.000649
0.158040 -0.762183 -0.084270 -0.021656 1.195947 0.025990
-0.083579 0.204933 -0.077539 -0.034160 -0.976018 -0.117412
0.146230 -0.379811 0.075888 0.180896 -0.983685 -0.050070
0.022364 -0.543471 -0.025040 -0.036623 1.070100 0.162968
0.165555 -0.486490 0.063826 0.224155 -0.962796 -0.238142
-0.238472 0.451730 -0.046329 -0.923357 -0.411666 -0.023312
-0.047483 0.448019 -0.131502 0.261295 -0.941238 -0.250314
0.061996 -0.059179 0.121856 0.004786 -1.037967 -0.064687
0.021997 -0.411240 -0.008065 -0.077632 -0.983156 -0.134080
-0.052607 -0.315052 -0.089983 -0.350635 -0.984698 -0.081129
-0.161785 0.418558 0.032013 -0.745419 -0.468013 0.088585
-0.319367 0.326852 -0.086292 -0.838246 -0.533633 0.109577
0.049015 -0.145859 -0.083387 -0.036718 -1.037176 -0.157615
-0.074906 -0.789932 -0.135318 0.002686 1.120765 0.069854
0.192641 0.070872 0.049911 0.222665 -0.976385 -0.103503
-0.122699 -0.149145 0.088215 -0.053638 -1.071145 0.011747
0.012158 -0.068174 0.122618 -0.030516 -1.013135 0.027965
0.041209 0.660454 0.082420 -0.122955 1.360115 -0.151977
0.110745 0.541249 0.027051 1.244560 -0.080291 -0.172446
0.042494 0.335652 -0.129289 0.060844 -0.978807 -0.229748
0.081195 -0.693620 -0.067933 -0.021259 1.192917 0.033059
-0.035136 -0.861192 -0.081800 -0.076059 0.871854 0.382482
-0.084658 0.503221 -0.116184 -0.750960 -0.624533 -0.139910
-0.113647 0.467524 0.061877 -0.730930 -0.749489 -0.107292
0.142309 -0.815215 0.060646 -0.072536 0.907306 0.329885
-0.352078 0.228676 -0.070549 -0.835430 -0.591700 -0.053545
-0.114991 -0.523218 0.030053 0.072722 1.162564 0.124968
0.187769 -0.358617 0.057211 -0.042558 -1.013831 -0.016687
0.217526 0.404326 -0.043858 0.501520 -0.872063 -0.275647
0.089769 0.834432 -0.028788 0.121923 -1.370563 0.108220
0.187065 -0.448173 0.048947 0.171700 -0.995657 -0.011787
0.017536 0.319208 0.119477 -0.068027 -1.010357 0.041534
0.315732 0.442179 -0.108751 0.553247 -0.840723 -0.215177
0.176550 0.048747 -0.085157 0.117476 -0.986582 -0.096867
-0.237797 0.330404 -0.078641 -0.564688 -0.819625 -0.092004
0.130511 -0.228800 0.089367 -0.069034 -0.989209 0.015351
0.002177 0.853716 -0.057102 0.101285 -1.435725 0.113155
0.592919 0.117390 0.007383 0.540875 -0.641103 0.468484
0.140759 0.419192 -0.140101 0.807297 -0.566195 -0.143657
0.133735 -0.869794 0.055196 -0.029584 0.882212 0.356860
0.582293 0.129720 0.050868 0.531623 -0.646392 0.519190
-0.388261 0.280162 -0.069907 -0.794496 -0.602458 0.067016
0.166863 -0.063543 0.096866 -0.023529 -1.013156 0.042560
-0.082949 -0.825312 0.085001 -0.122762 0.872393 0.450036
-0.135365 -0.138591 -0.024509 -0.124504 -1.018389 -0.118195
0.181750 0.148857 -0.036665 -0.035073 -1.022244 -0.153349
-0.016250 -0.783130 0.010842 0.087909 1.131009 0.093188
-0.099141 0.351555 0.058081 0.004134 -0.991994 -0.157554
0.167848 0.319284 -0.083062 0.219085 -0.978839 -0.139911
0.054787 0.192297 0.128527 0.019644 -1.022520 0.043414
-0.113174 0.051783 -0.072710 -0.234408 -0.997612 -0.151539
0.377705 0.343566 -0.069895 0.706527 -0.709208 0.018251
-0.125530 -0.280919 -0.021281 -0.087010 -1.007868 -0.063397
0.010206 -0.005998 -0.143732 -0.105787 -1.035639 -0.043350
0.197645 -0.534265 0.007674 0.311055 -0.994904 -0.223818
-0.003942 -0.203285 0.106040 0.001441 -1.021393 0.066544
-0.112901 0.296058 0.007062 0.003857 -1.017871 0.030380
0.243290 0.384535 -0.124552 0.643539 -0.751556 -0.213203
-0.133927 -0.243586 0.004065 -0.164003 -1.036771 -0.138729
-0.261101 0.395142 -0.087438 -0.772075 -0.614558 -0.109135
0.097300 -0.210367 -0.098318 0.333835 -0.937086 -0.225007
0.055679 -0.727535 -0.005373 -0.014893 1.159686 0.044991
-0.038756 0.816598 -0.011558 -0.960405 -0.335508 0.215006
-0.135406 0.412217 -0.078033 -0.505444 -0.795237 -0.167196
-0.013309 -0.440399 0.064255 0.010818 -0.991504 0.021053
-0.044595 -0.477146 0.067210 -0.010088 1.128825 0.050643
0.186476 0.433489 0.040616 0.019119 -0.997782 -0.140931
-0.287192 0.256806 -0.056093 -0.724304 -0.605790 -0.003983
0.086930 -0.122197 -0.114848 0.023727 -1.035717 -0.089757
0.114399 -0.589912 -0.099615 -0.026649 1.169006 0.074087
0.001125 0.602774 -0.078379 0.993880 -0.362193 -0.139163
-0.144349 -0.126949 0.017596 -0.351870 -0.970529 -0.080015
-0.039866 -0.568633 -0.098739 0.045138 1.113524 0.111906
-0.043274 0.177408 -0.102645 -0.064449 -0.987397 -0.113901
0.027839 -0.322548 -0.009074 -0.156879 -0.965024 -0.042175
0.201556 -0.276556 -0.026131 0.113535 -1.029942 -0.109176
-0.089120 -0.236305 -0.076778 -0.298097 -1.017685 0.011934
0.153804 -0.849327 -0.094378 -0.101505 0.838744 0.462222
-0.109077 -0.583055 0.032691 0.087034 1.212912 0.102851
0.105421 -0.439170 0.045620 -0.021224 -0.987951 -0.132817
0.108440 0.278488 0.103522 -0.030841 -1.039759 0.005652
0.112428 -0.825947 0.132184 -0.138465 0.701865 0.665260
0.144464 0.335382 0.073065 0.007390 -1.059950 -0.003023
0.058560 -0.287608 -0.067571 -0.062656 -1.019367 -0.151971
-0.134751 -0.550076 -0.024717 0.102938 1.209910 0.141431
0.068429 -0.585953 0.008640 0.024774 1.075402 0.138045
0.029366 0.471039 0.084051 -0.129314 -0.999756 -0.077007
0.096831 -0.116502 0.102079 -0.087544 -1.026053 -0.112729
-0.084331 -0.178318 0.114569 0.052921 -1.035579 0.016307
0.404197 0.226241 -0.109500 0.754600 -0.645574 0.102607
-0.104681 0.352124 -0.094134 -0.550631 -0.812938 -0.088888
0.100761 -0.869771 0.093268 -0.049915 0.841863 0.415235
0.024068 -0.236598 -0.030064 -0.083973 -0.988687 -0.146717
0.258455 0.466003 -0.003589 0.533096 -0.850222 -0.191226
0.195592 -0.223038 0.054630 0.253575 -0.956368 -0.072416
0.478243 0.242795 -0.018466 0.583681 -0.685569 0.365066
0.203503 -0.019750 -0.034455 -0.058419 -1.013644 -0.135842
0.123682 -0.866498 -0.000030 -0.073717 0.885431 0.397229
0.484604 0.186123 -0.053572 0.620926 -0.485154 0.610424
0.083577 0.687247 0.049254 -0.059691 1.264591 -0.051744
0.313857 0.364004 -0.034028 0.561491 -0.839966 -0.241470
0.184253 -0.471782 -0.074739 0.555355 -0.859184 -0.144597
-0.136420 -0.213619 0.040595 -0.349090 -0.988371 -0.027768
0.044248 -0.459188 -0.021596 -0.093647 -1.010920 -0.052714
0.285769 0.380066 -0.142248 0.520462 -0.828906 -0.236483
-0.511990 0.081883 0.056478 -0.429930 -0.492136 0.633693
-0.124027 -0.298885 0.070090 -0.078771 -1.041946 -0.028871
-0.122114 -0.060618 0.082839 -0.071174 -1.010154 0.017129
0.170607 -0.209210 -0.076212 0.285338 -0.984777 -0.175342
-0.342791 0.254728 0.007890 -0.709264 -0.674688 -0.029422
0.024273 -0.121494 -0.053986 -0.064420 -1.051301 -0.026063
-0.284853 0.393938 -0.014970 -0.828285 -0.563308 -0.016783
0.105153 0.769574 -0.029237 0.177140 -1.226824 0.039338
0.033560 0.514888 0.059719 0.180903 -0.951171 -0.124337
0.160516 -0.154213 -0.089566 0.114234 -1.022105 -0.146042
0.074149 -0.729635 0.034562 0.002987 1.124112 0.053977
-0.354739 0.314352 -0.067555 -0.796956 -0.576988 0.097467
-0.139601 0.493776 -0.095805 -0.763479 -0.542307 0.209895
0.639031 0.023566 0.025692 0.517413 -0.802478 0.272262
0.012295 -0.124961 0.105663 -0.026119 -1.023353 0.057222
0.170222 -0.016024 -0.104447 0.170947 -0.966658 -0.235109
-0.169892 0.370735 -0.052413 -0.692830 -0.671728 -0.099629
-0.122738 0.090782 0.041199 -0.107767 -1.005470 -0.005427
-0.000076 -0.641327 0.021179 0.047564 1.139851 0.105616
0.156314 -0.831252 0.097896 -0.084765 0.852574 0.481228
0.264826 0.408613 -0.013791 0.663937 -0.735127 -0.218908
0.062222 -0.796757 -0.002091 -0.005724 1.085443 0.135239
0.196036 0.521497 0.012503 1.005295 -0.270193 -0.177595
-0.048803 -0.826154 0.108485 -0.089739 0.860158 0.410185
-0.065125 -0.863319 0.004807 -0.094367 0.827982 0.461250
0.183847 -0.292259 0.070806 0.005460 -0.984272 -0.005019
-0.024292 -0.834288 0.040916 -0.084512 0.833241 0.487207
0.074765 0.780755 -0.104105 0.069902 -1.267157 0.101810
-0.106860 -0.561582 -0.087992 0.042033 1.113168 0.155172
0.014530 -0.575763 0.006105 0.045590 1.127671 0.107611
0.132984 0.199666 0.094802 0.067547 -1.038220 -0.138984
-0.095635 -0.857688 -0.064879 -0.033421 1.007250 0.292159
-0.090349 0.419904 0.075725 -0.070848 -1.024552 -0.095597
0.197431 0.083218 0.010991 0.159651 -0.995857 -0.195406
-0.075315 -0.732277 0.013159 0.023358 1.107168 0.097622
-0.007361 0.363752 0.109440 -0.047844 -1.000188 -0.095384
-0.128095 -0.208258 -0.018472 -0.246713 -1.002108 -0.082007
-0.107066 -0.702004 0.011351 0.000772 1.121798 0.069551
0.199429 -0.175201 -0.050669 0.422791 -0.944423 -0.083628
-0.070526 0.571637 -0.074364 -0.999271 -0.362671 -0.039855
