-0.061336 -0.545014 -0.022642 -0.000111 0.906555 0.151356
0.034659 0.206652 -0.006263 0.045157 -0.874455 0.060004
0.119012 -0.306247 -0.003271 -0.031140 0.944122 0.040333
0.126158 -0.298317 -0.001588 -0.019115 0.937988 0.041785
0.085910 -0.067879 -0.014336 0.133224 -0.815074 -0.012378
0.040129 0.286011 -0.013612 0.058705 -0.909858 0.054745
-0.027332 0.034842 0.027762 0.010425 0.962068 0.021200
0.129005 -0.242952 0.001083 -0.010830 0.938046 0.033086
-0.059984 -0.563043 -0.030258 0.010526 0.941946 0.132337
0.132567 -0.487786 -0.017837 -0.011882 0.986759 0.031787
-0.063690 -0.591934 -0.033892 0.000824 0.936162 0.152117
0.140864 -0.587555 -0.024695 -0.014976 1.019283 0.028822
0.134034 -0.429122 -0.011141 -0.011098 0.933961 0.056294
0.031598 0.218199 -0.006512 0.038151 -0.870432 0.060626
-0.060367 -0.519025 -0.021396 0.003675 0.926944 0.138749
0.135391 -0.611545 -0.026122 -0.022281 1.005684 0.030121
0.031600 0.249173 -0.009177 0.042036 -0.896686 0.058325
0.573982 0.098462 0.025562 0.546086 -0.658566 0.444023
-0.509020 0.110689 0.041329 -0.477596 -0.525830 0.581478
-0.013485 -0.055778 0.007310 -0.055657 -0.718903 0.084688
0.050044 0.048786 -0.001414 0.068976 -0.850977 0.041278
0.054498 0.242972 -0.013023 0.059045 -0.870451 0.047029
0.175469 0.463993 -0.053931 0.714846 -0.489368 -0.112874
0.100621 -0.027022 0.013428 -0.042094 0.934670 0.003199
-0.047138 -0.110872 0.019642 -0.000302 0.918194 0.051189
-0.053909 -0.720480 -0.053598 -0.020109 0.916934 0.205901
-0.054834 -0.775660 -0.049023 -0.042571 0.889791 0.258890
0.120684 -0.268401 -0.000813 -0.030188 0.943481 0.038177
0.046709 0.555542 -0.046387 0.847922 -0.251160 -0.151841
0.038192 -0.785139 -0.028336 -0.065408 0.793168 0.355101
0.033482 0.250323 -0.010912 0.039077 -0.871205 0.054836
-0.344195 0.260948 -0.041215 -0.715559 -0.608861 0.111497
-0.109168 0.470935 -0.024228 -0.694798 -0.433036 0.045815
0.038913 0.266448 -0.009777 0.043385 -0.891041 0.062533
-0.059555 -0.418587 -0.000002 0.029101 0.919141 0.104451
0.022910 0.267431 -0.010106 0.027239 -0.908472 0.053071
-0.200782 0.402044 -0.030700 -0.696570 -0.552907 0.018701
-0.021050 0.421168 -0.027246 0.082624 -0.774837 0.029044
0.039635 -0.741729 -0.036001 -0.045599 0.873273 0.259137
0.025864 -0.759467 -0.023848 -0.053942 0.847596 0.300300
-0.080456 0.612011 -0.024848 -0.442932 -0.602563 0.111726
0.030236 0.199782 -0.005595 0.038374 -0.892374 0.060874
0.125021 -0.207702 0.002995 -0.012353 0.943268 0.026634
0.022844 0.239726 -0.011205 0.029468 -0.876091 0.057180
0.138506 -0.465629 -0.014246 -0.011205 0.946280 0.050142
0.421821 0.249078 -0.076210 0.631639 -0.603574 0.335429
-0.014530 0.346314 -0.021569 0.079055 -0.838216 0.020698
-0.059569 -0.361200 0.009838 0.011921 0.932427 0.105115
0.051518 0.391561 -0.030125 -0.004226 -0.845001 0.036374
0.138432 -0.542885 -0.022061 -0.015375 0.997609 0.028460
0.037110 0.254621 -0.012259 0.055582 -0.889971 0.056413
0.001541 -0.773975 0.047565 -0.078538 0.769473 0.383063
-0.012733 -0.020103 0.002780 -0.049546 -0.766870 0.071149
0.019111 -0.789246 0.000463 -0.070451 0.807427 0.365215
-0.054153 -0.278350 0.016460 0.009124 0.969380 0.084732
0.273410 0.409414 -0.080122 0.601937 -0.726619 -0.152326
0.133383 -0.557999 -0.023873 -0.011966 0.976282 0.024615
0.081893 0.001484 -0.024266 0.160854 -0.876927 -0.041537
-0.061634 -0.622811 -0.039613 0.004427 0.951289 0.148990
-0.055408 -0.454904 -0.010380 0.014030 0.880373 0.122994
-0.054631 -0.755390 -0.059230 -0.032084 0.918304 0.228500
-0.019592 0.100770 0.028588 0.028734 0.965900 0.006736
0.018852 0.221348 -0.008770 0.022969 -0.884377 0.051635
0.036528 0.216665 -0.009387 0.041802 -0.865189 0.054808
0.130506 -0.330577 -0.004135 -0.013206 0.913833 0.051938
0.134652 -0.520649 -0.019296 -0.016513 1.016423 0.031149
0.129634 -0.272257 -0.002702 -0.013814 0.961416 0.021572
0.137481 -0.575930 -0.023941 -0.017662 1.017505 0.029142
0.128940 -0.277438 -0.000587 -0.011299 0.936924 0.040812
0.031716 0.203620 -0.005781 0.045394 -0.910336 0.055532
0.020610 0.110794 0.000162 0.021338 -0.869877 0.060575
0.130346 -0.445705 -0.013852 -0.023267 0.963711 0.043968
0.131469 -0.389648 -0.007300 -0.012093 0.921665 0.064003
0.040927 0.265969 -0.013567 0.063893 -0.882108 0.055916
0.034445 0.165355 -0.004813 0.045680 -0.883085 0.052204
0.027738 0.192797 -0.006370 0.036179 -0.869053 0.060737
0.122391 -0.288146 -0.002305 -0.019756 0.956245 0.025852
0.104055 0.490194 -0.048563 0.824162 -0.316339 -0.133093
0.041895 0.204091 -0.007273 0.053070 -0.879759 0.052906
0.026742 0.248519 -0.009293 0.039587 -0.915682 0.063749
0.138297 -0.507938 -0.018328 -0.011352 0.968291 0.047633
0.028827 0.263592 -0.009351 0.038409 -0.881846 0.063554
0.139924 -0.561447 -0.024384 -0.007927 1.000567 0.025508
-0.032635 -0.007293 0.029795 -0.030710 0.974948 0.040002
0.025278 0.327312 -0.017070 0.062893 -0.879064 0.032600
0.003405 0.317378 -0.018146 0.041194 -0.881069 0.026306
0.119862 -0.773479 -0.019033 -0.063673 0.834105 0.330707
0.041943 0.168094 -0.004231 0.051167 -0.877836 0.051540
-0.049016 -0.204270 0.021063 -0.004963 0.961759 0.076241
0.026355 0.250840 -0.011054 0.036939 -0.896727 0.054559
0.023193 0.262782 -0.009977 0.029581 -0.884073 0.055545
0.123154 -0.720712 -0.024717 -0.040759 0.944571 0.169305
0.031530 0.296290 -0.017318 0.039461 -0.856263 0.034130
0.033629 0.300868 -0.013671 0.052642 -0.910111 0.059892
0.091579 0.041576 0.017670 -0.049287 0.936610 0.001061
0.032422 0.261508 -0.009071 0.045324 -0.899561 0.061706
-0.050813 -0.777268 -0.067068 -0.038133 0.921201 0.243333
0.029317 0.203322 -0.006871 0.036637 -0.847698 0.059596
-0.061589 -0.388081 0.003659 0.025402 0.937855 0.098535
0.042154 0.146312 -0.002206 0.054386 -0.884497 0.048742
