0.04067406 -0.0106416335 0.16092534
0.023030838 0.010139873 0.16441214
0.0036546302 0.02961447 0.1636283
-0.016865838 0.04719044 0.15859759
-0.037907053 0.062333744 0.14947292
-0.058829695 0.07458426 0.1365315
-0.07899804 0.08356974 0.12016655
-0.09779925 0.0890172 0.10087535
-0.1146621 0.0907611 0.07924401
-0.12907423 0.088748455 0.05592981
-0.14059772 0.08304043 0.031641115
-0.14888239 0.07381045 0.0071159704
-0.1536766 0.061338965 -0.016900498
-0.15483461 0.04600491 -0.039678503
-0.15232126 0.02827422 -0.060525976
-0.14621292 0.008685611 -0.078809485
-0.13669518 -0.01216571 -0.09397349
-0.12405723 -0.03364619 -0.10555722
-0.108683094 -0.05510316 -0.113208726
-0.091039844 -0.0758847 -0.11669554
-0.07166364 -0.095359296 -0.11591169
-0.051143184 -0.11293525 -0.11088099
-0.030101974 -0.12807857 -0.10175631
-0.009179304 -0.14032908 -0.08881487
0.0109890215 -0.14931457 -0.072449945
0.029790262 -0.15476201 -0.05315873
0.046653114 -0.15650591 -0.031527396
0.061065223 -0.15449329 -0.008213194
0.0725887 -0.14878525 0.016075479
0.08087339 -0.1395553 0.04060063
0.085667565 -0.12708378 0.064617075
0.0868256 -0.11174975 0.08739509
0.084312245 -0.09401905 0.10824257
0.07820391 -0.07443045 0.12652609
0.06868617 -0.053579126 0.14169008
0.056048233 -0.032098643 0.15327382
-0.034204155 -0.012524387 0.110164925
-0.03090775 -0.012009481 0.11119164
-0.027529579 -0.012078601 0.1120684
-0.024172282 -0.012729639 0.11276858
-0.020937877 -0.013942823 0.11327091
-0.017924633 -0.015681285 0.11356012
-0.015224106 -0.017892208 0.113627434
-0.012918352 -0.020508412 0.11347078
-0.011077438 -0.023450397 0.11309495
-0.009757283 -0.026628781 0.11251133
-0.008998014 -0.029946992 0.11173769
-0.008822683 -0.033304203 0.11079751
-0.009236642 -0.036598407 0.10971937
-0.010227295 -0.03972952 0.10853602
-0.011764544 -0.042602386 0.10728341
-0.01380169 -0.04512973 0.105999626
-0.016276821 -0.04723476 0.104723655
-0.019114742 -0.048853505 0.10349426
-0.022229223 -0.04993679 0.10234881
-0.025525633 -0.050451696 0.1013221
-0.028903801 -0.050382577 0.100445345
-0.032261096 -0.049731534 0.09974516
-0.035495505 -0.04851835 0.09924282
-0.038508747 -0.046779886 0.09895361
-0.041209273 -0.044568963 0.09888631
-0.04351502 -0.041952763 0.09904296
-0.04535594 -0.03901077 0.0994188
-0.0466761 -0.035832386 0.10000239
-0.047435366 -0.032514177 0.10077605
-0.047610693 -0.02915697 0.10171622
-0.04719674 -0.025862766 0.10279437
-0.046206087 -0.02273166 0.10397772
-0.04466883 -0.01985879 0.10523032
-0.042631693 -0.017331447 0.10651411
-0.040156562 -0.01522642 0.10779009
-0.03731864 -0.0136076715 0.10901948
0.08024215 -0.052771367 0.029569235
0.075244546 -0.061946154 0.024472281
0.06998765 -0.06987846 0.0177958
0.06463118 -0.076327264 0.009742644
0.05933792 -0.08109662 0.00055752695
0.05426868 -0.084041595 -0.009480495
0.0495775 -0.08507273 -0.0200664
0.045406915 -0.0841587 -0.030878551
0.041883644 -0.08132727 -0.041588414
0.039114736 -0.076664455 -0.051870596
0.037184328 -0.07031194 -0.061412666
0.036151078 -0.062462766 -0.06992469
0.03604637 -0.053355392 -0.07714804
0.0368734 -0.043266572 -0.08286324
0.038607016 -0.032502826 -0.08689663
0.041194573 -0.021391228 -0.08912566
0.044557422 -0.01026937 -0.089482605
0.048593406 0.0005247928 -0.087956615
0.053179882 0.010663301 -0.084594056
0.058177497 0.019838102 -0.0794971
0.06343439 0.027770404 -0.07282062
0.06879085 0.034219198 -0.06476747
0.07408412 0.038988553 -0.055582345
0.07915336 0.041933544 -0.045544323
0.08384453 0.042964675 -0.03495842
0.088015124 0.04205064 -0.024146263
0.0915384 0.039219204 -0.013436392
0.094307296 0.034556393 -0.0031542145
0.096237704 0.028203886 0.006387841
0.097270966 0.020354707 0.0148998685
0.09737567 0.011247348 0.022123218
0.09654865 0.0011585243 0.027838418
0.094815016 -0.009605221 0.03187181
0.09222747 -0.020716826 0.034100838
0.08886461 -0.03183868 0.034457784
0.08482863 -0.042632844 0.032931797
0.123324744 -0.0028695099 0.08916532
0.12884252 -0.0021339168 0.08101071
0.13379413 -0.0029866006 0.07251133
0.13802911 -0.0054016532 0.063925475
0.14141883 -0.0093057 0.055513993
0.14386024 -0.014580119 0.047532465
0.14527917 -0.021064645 0.040223412
0.14563255 -0.028562244 0.033808928
0.1449096 -0.03684512 0.028483883
0.14313227 -0.045661584 0.0244101
0.14035463 -0.054743774 0.021711353
0.13666102 -0.063815705 0.020469628
0.1321637 -0.07260177 0.020722676
0.12699929 -0.08083498 0.022462806
0.121324725 -0.08826515 0.02563713
0.11531243 -0.09466657 0.030149203
0.10914506 -0.09984471 0.03586194
0.10301005 -0.103642225 0.042601746
0.097093776 -0.105943754 0.05016384
0.091575995 -0.10667934 0.05831847
0.086624384 -0.10582666 0.06681783
0.082389385 -0.10341161 0.0754037
0.0789997 -0.09950756 0.08381517
0.07655827 -0.09423313 0.0917967
0.07513933 -0.08774861 0.09910575
0.07478596 -0.080251016 0.10552024
0.07550891 -0.07196813 0.11084529
0.07728622 -0.063151665 0.114919074
0.08006388 -0.054069486 0.117617816
0.08375749 -0.04499755 0.118859544
0.08825481 -0.036211498 0.11860649
0.09341922 -0.027978301 0.116866365
0.09909378 -0.020548116 0.11369204
0.10510607 -0.0141467 0.10917997
0.11127343 -0.00896856 0.10346724
0.11740846 -0.005171039 0.09672743
-0.057488795 0.004566922 0.04687138
-0.06251215 0.0095467 0.03903633
-0.06588535 0.015242539 0.030814452
-0.06750588 0.021481374 0.022455556
-0.067324504 0.028073639 0.01421363
-0.06534673 0.03481904 0.006339087
-0.061632663 0.041512612 -0.0009287965
-0.056295153 0.047950972 -0.0073691886
-0.049496364 0.053938504 -0.012786405
-0.04144289 0.059293274 -0.017015852
-0.032379415 0.06385259 -0.019929014
-0.02258134 0.0674779 -0.021437375
-0.012346367 0.07005906 -0.021495111
-0.0019854894 0.071517654 -0.020100458
0.008186482 0.07180934 -0.017295796
0.017860485 0.07092528 -0.013166351
0.026742581 0.06889232 -0.007837581
0.034562882 0.065772235 -0.0014714082
0.041083783 0.06165983 0.0057387385
0.046107154 0.056680046 0.013573794
0.04948034 0.05098421 0.021795675
0.05110087 0.044745374 0.030154563
0.05091949 0.03815311 0.038396496
0.048941724 0.0314077 0.04627104
0.045227654 0.024714135 0.053538915
0.03989014 0.018275768 0.059979312
0.033091355 0.012288233 0.06539653
0.025037874 0.006933468 0.06962597
0.015974406 0.0023741596 0.072539136
0.0061763367 -0.0012511471 0.074047506
-0.0040586316 -0.0038323135 0.07410523
-0.014419503 -0.0052909036 0.07271058
-0.024591478 -0.005582598 0.06990592
-0.034265485 -0.0046985336 0.065776475
-0.043147575 -0.002665576 0.06044771
-0.050967883 0.00045450823 0.05408154
-0.06924107 0.15354933 0.024177786
-0.071924716 0.1536842 0.01281765
-0.07259616 0.15389843 0.0011653511
-0.07123502 0.15418553 -0.010425065
-0.06788265 0.15453675 -0.021601424
-0.0626409 0.15494147 -0.03202414
-0.055669017 0.15538736 -0.041376527
-0.047178883 0.15586086 -0.049374413
-0.037428446 0.1563476 -0.055774786
-0.026713965 0.1568328 -0.060383182
-0.015360987 0.15730168 -0.06305957
-0.0037144893 0.15774003 -0.06372262
0.007871678 0.15813452 -0.06235221
0.019045457 0.15847316 -0.058989957
0.029467352 0.15874568 -0.053738043
0.03882069 0.15894376 -0.046756014
0.046821274 0.1590614 -0.03825604
0.053226016 0.15909505 -0.028496386
0.057840314 0.15904365 -0.017773591
0.060523964 0.1589088 -0.00641344
0.061195426 0.15869457 0.0052388553
0.059834287 0.15840746 0.016829265
0.056481894 0.15805623 0.02800563
0.051240135 0.1576515 0.038428355
0.044268277 0.15720564 0.047780734
0.035778135 0.15673213 0.055778623
0.026027698 0.15624538 0.062178995
0.0153132165 0.1557602 0.066787384
0.0039602485 0.1552913 0.069463775
-0.0076862494 0.15485296 0.07012683
-0.01927241 0.15445846 0.06875641
-0.030446192 0.15411982 0.06539416
-0.040868092 0.1538473 0.060142253
-0.050221432 0.15364924 0.05316023
-0.058222026 0.15353158 0.044660255
-0.06462677 0.15349795 0.034900602
-0.037973594 0.029579325 0.16465904
-0.059250202 0.030103827 0.15815404
-0.079577506 0.02757354 0.1494545
-0.09833789 0.022065345 0.13882475
-0.11496132 0.0137466155 0.12658775
-0.12894271 0.0028700903 0.11311532
-0.13985722 -0.010233743 0.09881679
-0.14737323 -0.025166715 0.08412669
-0.15126237 -0.04147511 0.0694913
-0.15140648 -0.058663413 0.055355337
-0.14780118 -0.07620937 0.0421483
-0.14055598 -0.09357981 0.03027149
-0.12989107 -0.110247 0.020085767
-0.116130486 -0.12570448 0.011900637
-0.09969232 -0.13948259 0.0059648026
-0.08107604 -0.1511627 0.0024585947
-0.06084731 -0.1603899 0.0014885627
-0.03962075 -0.16688383 0.0030841827
-0.018041339 -0.17044719 0.0071969703
0.0032352973 -0.17097168 0.013701968
0.023562599 -0.1684414 0.022401506
0.04232298 -0.1629332 0.03303127
0.0589464 -0.15461448 0.045268275
0.072927795 -0.14373796 0.058740713
0.0838423 -0.13063411 0.07303921
0.09135832 -0.11570114 0.087729335
0.09524746 -0.09939276 0.10236473
0.09539156 -0.08220444 0.11650068
0.09178625 -0.06465851 0.12970772
0.08454108 -0.047288053 0.14158453
0.073876165 -0.030620877 0.15177022
0.060115583 -0.015163399 0.15995535
0.043677416 -0.001385279 0.16589123
0.025061151 0.010294823 0.16939741
0.004832412 0.019522026 0.17036746
-0.01639414 0.026015967 0.16877183
-0.06782733 0.112905495 -0.4672572
-0.0084652435 0.06674368 -0.48078176
0.05451202 0.023494832 -0.48182356
0.119190924 -0.01552698 -0.47035086
0.1836062 -0.049136087 -0.44671234
0.24580072 -0.0763113 -0.4116262
0.30388466 -0.096226856 -0.36615846
0.3560931 -0.1082777 -0.31169075
0.40083987 -0.11209764 -0.24987799
0.43676528 -0.10757064 -0.18259832
0.46277776 -0.09483421 -0.11189597
0.47808692 -0.07427538 -0.03991927
0.48222765 -0.046518773 0.031144902
0.47507405 -0.012407802 0.099137165
0.45684358 0.027021095 0.16199166
0.4280901 0.0705699 0.21779865
0.38968724 0.11691541 0.26486248
0.34280193 0.16464944 0.30175298
0.28885874 0.2123216 0.32734942
0.2294966 0.2584835 0.34087402
0.16651934 0.3017323 0.3419158
0.10184048 0.3407541 0.3304431
0.037425168 0.3743632 0.3068046
-0.024769403 0.40153843 0.2717184
-0.082853295 0.42145395 0.22625071
-0.1350618 0.43350485 0.17178299
-0.17980856 0.43732476 0.10997023
-0.21573395 0.43279773 0.042690556
-0.2417464 0.42006135 -0.028011747
-0.25705558 0.39950252 -0.099988446
-0.2611963 0.37174594 -0.17105255
-0.2540427 0.33763495 -0.23904486
-0.23581225 0.29820603 -0.3018994
-0.20705876 0.25465727 -0.3577064
-0.16865593 0.20831177 -0.40477017
-0.12177064 0.16057773 -0.44166073
0.1266811 -0.30387205 0.10423126
0.09998897 -0.3051611 0.12700152
0.07531534 -0.30097815 0.15162528
0.053409845 -0.29145032 0.17735437
0.03493812 -0.27686712 0.203407
0.02046141 -0.2576716 0.22899163
0.010419562 -0.23444702 0.25333083
0.0051177293 -0.2078991 0.2756851
0.0047169775 -0.17883441 0.29537517
0.009229451 -0.14813611 0.3118028
0.01851815 -0.11673694 0.32446885
0.032300718 -0.085590966 0.33298847
0.05015844 -0.0556445 0.3371028
0.07154875 -0.027807511 0.33668685
0.09582162 -0.0029257834 0.33175313
0.12223961 0.018244699 0.32245168
0.14999999 0.035060614 0.3090651
0.17825931 0.047011063 0.29200011
0.20615885 0.05373296 0.27177525
0.23285103 0.055022 0.24900495
0.25752464 0.05083908 0.22438121
0.27943012 0.041311257 0.19865212
0.29790184 0.026728041 0.17259946
0.3123786 0.007532485 0.14701481
0.32242042 -0.015692066 0.12267564
0.32772228 -0.042240016 0.10032138
0.32812303 -0.07130468 0.08063129
0.3236105 -0.102002986 0.06420366
0.31432185 -0.13340214 0.05153761
0.30053928 -0.1645481 0.04301799
0.28268152 -0.19449456 0.03890367
0.26129127 -0.22233154 0.039319664
0.23701839 -0.2472133 0.044253334
0.2106004 -0.26838377 0.05355476
0.18284 -0.28519967 0.066941366
0.15458071 -0.29715016 0.08400634
-0.10367357 0.08124443 -0.26652408
-0.058663197 0.07704643 -0.2810808
-0.011726454 0.074071996 -0.28767997
0.035710536 0.0724115 -0.2861211
0.08220642 0.07211539 -0.27645153
0.12634844 0.07319268 -0.258965
0.16679531 0.07561061 -0.2341929
0.20231815 0.07929575 -0.20288791
0.23183759 0.08413608 -0.16600122
0.2544567 0.089984566 -0.12465359
0.2694882 0.09666351 -0.08010134
0.27647537 0.10396995 -0.03369824
0.2752059 0.11168189 0.01314589
0.2657184 0.11956502 0.059007607
0.2483011 0.12737979 0.10249347
0.2234832 0.13488878 0.14228219
0.19201885 0.14186382 0.17716484
0.15486401 0.14809299 0.20608144
0.11314767 0.15338698 0.22815345
0.06813724 0.15758498 0.24271019
0.0212005 0.16055942 0.24930939
-0.026236456 0.16221991 0.24775046
-0.07273232 0.16251601 0.23808087
-0.116874404 0.16143873 0.22059433
-0.15732126 0.15902081 0.19582227
-0.19284412 0.15533566 0.16451727
-0.22236355 0.15049532 0.12763058
-0.24498263 0.14464682 0.08628295
-0.26001415 0.1379679 0.041730728
-0.26700133 0.13066147 -0.0046723764
-0.26573187 0.122949526 -0.051516473
-0.25624433 0.115066394 -0.09737819
-0.23882705 0.10725163 -0.14086407
-0.21400918 0.099742636 -0.18065278
-0.18254481 0.092767596 -0.21553543
-0.14538999 0.08653844 -0.24445204

