0.019419 0.093780 -0.138840 0.120527 -0.981441 -0.205539
0.157253 -0.858329 0.168881 -0.111559 0.821949 0.492943
0.030678 0.865344 0.014655 0.061915 -1.321487 0.095126
0.641193 0.033147 0.078140 0.509069 -0.697308 0.327442
-0.570329 0.027679 0.045047 -0.503597 -0.565964 0.657980
-0.118654 -0.388107 0.077997 0.063752 1.147383 0.120461
0.287135 0.482788 -0.085308 0.592404 -0.770811 -0.171282
-0.223497 0.476273 -0.027036 -0.968981 -0.475369 0.074747
-0.091253 -0.776849 -0.114362 0.017101 1.102994 0.087714
0.198654 -0.166559 0.053486 0.091562 -1.022561 -0.032307
0.204668 -0.539404 -0.012577 0.580909 -0.808557 -0.281809
0.049723 0.292000 0.121313 -0.053211 -0.979575 0.032184
-0.097641 -0.057425 0.107127 -0.054223 -1.048429 -0.033957
0.433127 0.212409 -0.109438 0.643371 -0.675721 0.140938
-0.380476 0.235811 -0.077109 -0.802355 -0.638697 0.060217
0.021039 0.576617 -0.099499 1.057680 -0.105393 -0.206286
0.174571 -0.791707 -0.080528 -0.023894 1.215888 0.017370
-0.091841 -0.862054 0.124725 -0.077780 0.848549 0.374272
-0.010224 -0.216925 -0.078912 -0.088019 -0.994820 -0.113880
0.132903 0.056115 0.110579 0.001562 -1.034010 0.048808
-0.063424 -0.543386 -0.102396 0.025039 1.108999 0.095141
-0.080284 0.309172 -0.107209 -0.216809 -0.960067 -0.139070
0.147114 0.313058 -0.108229 0.280620 -0.959178 -0.189422
0.030140 0.663198 0.090484 -0.109478 1.289594 -0.113674
-0.120147 0.134127 0.038762 0.217337 -0.960615 -0.124318
0.076365 -0.342160 0.061586 -0.066158 -0.996633 0.077596
0.146166 -0.054144 -0.125124 0.076277 -0.989481 -0.194787
0.155413 0.483576 0.051011 0.352117 -0.973357 -0.143017
-0.069542 0.471722 0.075323 -0.260375 -0.986702 -0.081799
-0.084484 -0.672532 0.033075 0.054258 1.135092 0.114415
0.105302 -0.419795 -0.100575 0.498048 -0.856462 -0.312090
-0.125800 -0.034029 -0.060683 -0.198537 -1.000024 0.014357
0.113139 -0.679929 0.032256 -0.016486 1.174306 0.042103
-0.135239 -0.220512 0.054072 -0.168645 -0.999624 -0.062286
0.189392 0.107562 -0.039016 0.002893 -0.997646 -0.149905
-0.003388 0.762915 -0.111053 -0.786626 0.053400 0.190978
0.525413 0.187143 0.023299 0.608220 -0.585663 0.507604
0.137042 0.469394 -0.144319 0.691289 -0.728425 -0.187212
-0.078555 -0.361347 -0.079929 -0.318362 -0.978345 -0.081154
-0.102043 0.308032 0.046473 0.038716 -0.993367 -0.075561
-0.245280 0.303553 -0.048345 -0.792435 -0.569891 0.006240
0.297112 0.324293 -0.076328 0.559436 -0.840599 -0.063736
-0.456328 0.138723 0.014681 -0.534973 -0.573297 0.639824
-0.040431 -0.515364 0.054862 0.058161 1.129849 0.153977
0.187917 -0.274650 -0.049820 0.303832 -0.999048 -0.099455
0.066820 -0.077908 0.110179 -0.106037 -1.022666 0.102597
0.086664 -0.843815 0.026485 -0.125531 0.753352 0.608186
0.164449 0.212844 0.058262 0.160599 -1.008395 -0.076056
0.098104 -0.601861 -0.089473 -0.022165 1.211107 0.022758
0.022978 -0.204384 0.061769 0.009032 -1.024266 -0.028566
0.101203 0.726982 -0.023730 1.005757 -0.315274 -0.130056
-0.011242 0.122005 0.127171 -0.040499 -0.989850 -0.064288
-0.080145 0.481898 -0.124051 -0.140796 -0.920186 -0.189475
0.006215 -0.082825 -0.096215 -0.075802 -1.010177 -0.145042
0.210760 -0.022783 -0.007130 0.050525 -1.018779 -0.094247
0.156991 0.345194 0.061124 -0.038631 -1.013763 -0.127640
0.022838 -0.718142 -0.055552 -0.014114 1.142262 0.098350
0.196289 -0.386376 0.032068 -0.036235 -0.989608 -0.020877
0.031467 0.243830 -0.125534 0.080704 -1.029763 -0.119162
-0.128330 0.560553 -0.013451 -1.062101 -0.252612 0.215904
-0.074258 -0.863119 -0.000792 -0.100405 0.827329 0.455976
0.189948 0.560586 -0.069465 0.928845 -0.378258 -0.149896
-0.080865 0.145092 -0.086952 -0.069942 -0.992910 -0.154146
0.049894 0.433883 0.091636 0.057089 -1.024600 -0.014150
0.006430 0.566384 0.023429 0.216236 -0.991511 -0.038434
-0.025184 0.703951 -0.008951 -1.106985 -0.231765 0.209865
0.020759 -0.606788 0.001274 0.018452 1.111086 0.133617
0.585952 0.048656 -0.025665 0.591614 -0.577943 0.488696
-0.104596 -0.660472 -0.095871 0.054547 1.133076 0.115407
-0.122164 -0.150957 -0.044048 -0.138473 -0.902167 -0.093706
0.153241 -0.171053 -0.093471 0.178149 -0.979021 -0.208270
0.097907 -0.524266 0.032432 -0.108937 -1.001264 -0.067519
0.001847 -0.438475 -0.055397 -0.133101 -0.988281 -0.139438
-0.145699 0.393302 -0.015370 -0.338460 -0.958345 -0.119506
-0.005581 0.396261 -0.129158 0.394375 -0.906427 -0.202881
0.166125 0.213488 -0.062164 0.255933 -0.978767 -0.176138
-0.132495 -0.528182 -0.004240 0.108367 1.195227 0.147147
0.193307 -0.277024 0.058457 -0.016919 -1.022931 -0.117821
0.061495 0.785628 0.079582 -0.160702 1.500503 -0.239958
0.087667 -0.852673 -0.081469 -0.099834 0.808829 0.504214
0.056476 -0.333705 -0.063716 -0.081947 -0.984724 -0.178767
0.219842 0.394718 -0.088719 0.346534 -0.944496 -0.182397
-0.119810 0.223560 -0.013886 -0.166817 -0.984089 -0.139733
-0.243865 0.397190 -0.092799 -0.754449 -0.601426 0.197036
-0.047035 0.214919 0.105009 -0.039728 -0.976507 0.062936
-0.078067 0.028335 -0.124815 -0.247034 -0.983810 -0.117160
-0.031001 0.376564 0.106095 0.069863 -0.981976 -0.075902
0.092547 0.820523 -0.056499 0.154349 -1.429024 0.111990
0.314934 0.395247 -0.143504 0.645900 -0.791302 -0.252001
0.102507 0.596909 -0.040806 1.375220 -0.040580 -0.259949
-0.335184 0.330356 -0.018621 -0.820181 -0.536240 0.064391
0.378023 0.290353 -0.129658 0.667010 -0.556066 0.356276
-0.136448 0.038540 0.028985 -0.045610 -1.013470 0.045379
0.194859 -0.638036 0.000866 0.363959 -0.922631 -0.221574
0.114975 -0.173334 0.101454 0.082399 -0.980629 -0.028170
-0.016464 -0.423379 0.070963 -0.097216 -0.992274 0.037552
-0.128371 -0.322526 0.009870 -0.246688 -0.991287 -0.078506
0.150220 -0.680964 -0.084938 -0.028960 1.234559 0.016818
-0.080599 -0.274047 0.109655 -0.161120 -0.997152 0.005295
0.008447 -0.802893 -0.094905 -0.025404 0.972245 0.279156
-0.034395 -0.791714 0.046603 0.042276 1.098758 0.113820
0.328243 0.407420 -0.044954 0.553133 -0.822909 -0.233218
-0.160983 0.480838 0.055034 -0.916028 -0.509348 0.017116
0.184253 -0.471782 -0.074739 0.239096 -1.004770 -0.132581
-0.094433 -0.457064 -0.081680 0.063813 1.185688 0.107585
0.170715 -0.088131 0.095742 -0.011294 -1.023140 0.044812
-0.087367 -0.168613 0.114584 -0.083030 -1.010022 0.075904
0.431003 0.271328 -0.037544 0.673496 -0.491680 0.530410
0.117577 0.147599 0.105024 0.111297 -1.016857 -0.063516
0.067714 -0.439345 0.009127 0.014942 -0.982302 -0.080623
0.246607 0.428149 -0.007247 0.639724 -0.794335 -0.171047
-0.515116 0.123292 0.083722 -0.459887 -0.513009 0.716320
-0.142820 -0.080815 0.032260 -0.300132 -1.022631 -0.006466
0.110914 0.551535 -0.118557 0.980028 -0.261117 -0.123225
-0.258255 0.403422 0.011245 -0.812105 -0.617293 0.008688
0.083224 -0.505416 -0.088924 0.156627 -0.979795 -0.218851
-0.023243 0.834799 -0.062667 0.096555 -1.353145 0.112458
-0.367397 0.248458 0.009789 -0.790824 -0.620220 0.003419
0.199296 0.041932 0.052323 0.136473 -1.010829 -0.204195
0.239826 0.519328 -0.009713 0.715285 -0.684024 -0.202494
0.034745 0.048389 0.135610 -0.126340 -0.997158 0.023484
-0.040763 0.001167 0.136126 0.004269 -1.045800 0.019151
0.133791 -0.763487 0.024594 -0.028634 1.206549 0.016671
0.074546 -0.134430 -0.107327 -0.030738 -1.023658 -0.010698
0.097558 0.127473 -0.125884 -0.019292 -0.987618 -0.142744
0.068305 0.517429 0.056591 0.232158 -0.972091 -0.172190
0.184770 0.019799 -0.076067 0.204988 -0.987738 -0.119520
-0.093719 -0.228891 -0.072241 -0.251810 -0.949593 -0.139273
0.503122 0.194458 -0.057605 0.557378 -0.482393 0.652120
0.601834 0.105646 0.062455 0.477861 -0.687980 0.412851
0.213605 0.502680 -0.125399 0.463651 -0.869728 -0.275131
0.102203 -0.750654 -0.090005 -0.013539 1.191220 0.031950
0.086115 -0.857901 0.124902 -0.124925 0.844183 0.343015
0.080883 -0.261016 0.080001 0.009932 -1.033688 -0.019097
0.072427 -0.217429 -0.085642 0.027984 -1.000213 -0.141963
-0.123805 0.074712 -0.043935 -0.111344 -1.034769 -0.034119
0.170983 -0.354074 -0.062294 0.687490 -0.702108 0.035593
0.193864 -0.108336 -0.059346 0.063614 -1.027506 -0.154171
0.032927 0.468093 -0.126942 0.616483 -0.783088 -0.111568
-0.038717 0.591410 -0.039584 -0.934338 -0.364144 0.090030
-0.132334 -0.398145 -0.017643 0.077251 1.173728 0.126062
-0.042346 0.295302 0.102477 -0.117752 -1.005166 0.004452
-0.399563 0.180414 -0.022259 -0.684646 -0.694741 0.106024
0.183141 0.265544 -0.004509 0.061787 -0.992484 -0.100489
-0.042006 -0.845302 -0.138519 -0.102507 0.838489 0.446646
-0.000653 -0.632924 -0.069901 0.040953 1.156848 0.092773
0.028707 -0.308457 0.008930 0.002486 -1.026015 -0.082610
0.048991 0.025172 -0.159510 -0.121199 -1.014432 -0.104145
0.158975 -0.860353 0.005160 -0.094122 0.937042 0.326579
-0.125709 -0.618683 -0.003406 0.102782 1.179258 0.151619
0.020041 -0.504933 0.009213 -0.092624 -0.990604 -0.027582
0.054177 0.651504 -0.062794 1.121352 -0.148458 -0.175000
-0.034429 -0.093674 0.128021 0.020433 -1.050794 0.095267
0.154106 -0.485241 0.064961 0.108223 -1.015339 -0.131330
-0.067552 -0.095681 -0.106267 -0.243506 -0.989674 -0.035539
-0.091781 -0.743910 0.010075 0.037783 1.139562 0.095207
0.126503 -0.593665 0.035976 0.060947 -0.999526 -0.135363
-0.079832 -0.579242 0.057532 0.033347 1.086837 0.109115
0.120451 -0.402363 0.066815 0.099187 -0.984254 -0.056655
-0.065622 0.547422 0.029691 -0.934799 -0.345360 0.251651
0.137649 0.395096 -0.136584 0.182684 -0.971698 -0.146462
0.205664 -0.203612 -0.035328 0.236582 -0.948207 -0.228249
0.387123 0.336719 -0.071889 0.495868 -0.879314 -0.094952
0.059590 -0.759479 -0.005656 -0.007117 1.151901 0.052547
0.082521 0.298713 -0.141377 0.693790 -0.703095 -0.097635
-0.058205 -0.351093 0.099085 0.000339 -1.063928 0.074962
0.055116 0.177452 0.128744 -0.022471 -1.037642 0.029978
0.575696 0.135319 0.001012 0.660138 -0.547417 0.371792
0.013079 -0.555178 -0.049726 0.047243 1.120713 0.097103
0.123351 0.231533 -0.118450 0.062582 -1.028809 -0.127507
0.176457 0.109645 0.063034 0.092941 -0.992736 -0.061527
0.006124 -0.269711 0.087449 -0.101344 -1.025106 0.047485
-0.012091 -0.025916 -0.136605 -0.170912 -1.003670 -0.111862
-0.086403 0.556067 -0.080464 -0.916075 -0.431400 0.135184
0.164742 -0.574703 -0.091643 0.486896 -0.911868 -0.141754
0.163379 -0.007414 0.097425 -0.052632 -0.984679 -0.035224
-0.025202 0.754249 0.042100 -0.148257 1.016294 0.021238
-0.297178 0.269707 -0.083957 -0.819173 -0.612277 0.020652
-0.125675 -0.693793 -0.036850 0.037222 1.094033 0.109987
0.187797 -0.721214 -0.040496 -0.022653 1.249793 0.009894
0.063616 0.359337 0.106544 -0.077576 -0.991467 0.029179
-0.031174 -0.282920 -0.089237 -0.203583 -0.985418 -0.135001
0.025467 -0.020526 0.132002 0.033375 -1.057806 0.063391
0.128163 -0.819450 0.085782 -0.006564 1.071056 0.166987
-0.030881 -0.836419 0.099010 -0.161237 0.748340 0.586039
0.214192 -0.086640 0.018122 0.014588 -1.042576 0.000576
-0.128712 -0.467885 0.028539 0.008907 1.161665 0.056721
-0.029961 -0.747751 -0.122657 -0.002801 1.153430 0.053849
0.099944 -0.295053 -0.098967 0.313604 -0.940169 -0.209382
0.023834 -0.140591 0.085094 0.008747 -1.027962 0.041741
0.174441 0.550008 -0.004243 1.077913 -0.116875 -0.166809
0.049356 0.618037 0.025985 0.845389 0.250752 -0.116712
-0.302141 0.254303 -0.004621 -0.699971 -0.641531 -0.041469
-0.089595 -0.448230 0.082257 0.017763 1.126755 0.078028
-0.021488 -0.842526 -0.035094 -0.065466 0.874163 0.384772
0.004675 0.504388 0.068717 -0.780813 -0.466482 0.115747
0.134460 -0.237755 -0.095072 0.098258 -1.009994 -0.095267
0.068121 0.414030 -0.139823 0.042206 -0.993558 -0.205147
-0.123344 -0.116453 0.083886 -0.146017 -1.031755 0.025170
-0.021535 0.817115 0.023775 -0.582797 0.305289 0.215998
0.146416 0.087416 -0.108492 0.168664 -0.995552 -0.122557
0.122945 -0.813321 -0.119832 -0.020862 1.188018 0.037010
-0.118316 0.353102 -0.077414 -0.344456 -0.931621 -0.153280
0.437537 0.292454 -0.102974 0.680850 -0.437552 0.620435
-0.518393 0.096780 0.024239 -0.494104 -0.586421 0.647380
0.177046 0.405612 0.047217 0.004444 -0.993849 -0.187434
-0.027474 0.279697 -0.130511 -0.086122 -1.003267 -0.171930
0.182051 -0.784144 -0.013349 -0.039188 1.251431 -0.005771
-0.376671 0.297539 -0.055571 -0.849324 -0.597611 0.014491
-0.124027 -0.298885 0.070090 -0.177799 -1.059412 0.017715
0.109194 -0.026839 0.124873 -0.018670 -1.014708 0.083914
0.174487 -0.857577 0.106998 -0.087829 0.831414 0.428419
-0.103203 -0.804702 -0.003451 0.007261 1.122764 0.076605
-0.427711 0.236290 -0.005024 -0.585570 -0.555808 0.488766
0.012110 -0.132000 -0.057500 -0.283806 -1.006487 -0.103421
0.095144 0.780379 0.027117 -0.136306 1.063265 0.040742
0.046440 -0.395459 -0.047090 0.093537 -0.990165 -0.131088
0.193199 -0.457023 0.025344 0.234033 -0.967223 -0.212771
-0.091690 -0.290847 -0.070565 -0.182903 -0.992776 -0.186506
0.111206 -0.356003 -0.100864 0.420066 -0.942946 -0.187840
0.084038 0.660327 -0.009254 1.065133 -0.054103 -0.131090
0.009369 0.186692 -0.116971 -0.032209 -0.998131 -0.129730
0.085263 0.241870 0.114320 -0.065228 -1.016364 0.072500
0.095615 -0.014420 -0.153865 -0.037825 -0.988452 -0.168575
-0.125731 -0.231535 -0.019904 -0.040087 -1.011659 -0.074090
0.175462 -0.214651 0.083820 0.085098 -1.043414 -0.076086
-0.546921 0.071069 0.088936 -0.505957 -0.568617 0.617174
-0.247685 0.343135 0.012553 -0.824731 -0.564621 0.023515
-0.096994 -0.833249 -0.091322 -0.099686 0.814822 0.503251
-0.120027 -0.772712 -0.060656 0.017536 1.086031 0.091544
0.038315 -0.269058 -0.036564 0.009568 -1.004692 -0.218592
-0.097766 0.211204 0.071698 0.000774 -1.051003 -0.080925
-0.205864 0.419964 0.036648 -0.661851 -0.698858 -0.063083
0.325411 0.438176 -0.102214 0.603830 -0.803063 -0.194014
0.193281 -0.039652 -0.062470 0.199949 -1.003797 -0.170701
0.373300 0.261619 -0.052447 0.613840 -0.651498 0.237740
-0.083001 -0.820608 0.067298 -0.053917 0.952793 0.294269
-0.141909 -0.165705 0.030205 -0.507420 -0.875015 -0.084880
0.001366 -0.354234 -0.052362 -0.068585 -1.000868 -0.082808
-0.011477 0.643059 -0.027852 0.133292 -0.782625 -0.026364
-0.184148 0.497644 -0.066257 -0.782111 -0.598349 0.064338
0.064783 -0.449723 -0.068963 0.197519 -0.972428 -0.283963
-0.475959 0.149559 -0.040285 -0.537712 -0.533131 0.614086
-0.038798 0.094333 -0.127616 -0.030270 -1.013569 -0.058118
-0.187927 0.352990 -0.025702 -0.177835 -0.871649 -0.218051
0.083133 0.072630 -0.150890 -0.016928 -1.012034 -0.154439
0.628610 0.048276 0.015195 0.461801 -0.709406 0.478809
-0.079237 0.403476 0.085898 -0.025806 -0.996005 -0.106443
-0.186915 0.410496 -0.096345 -0.874558 -0.563697 -0.068911
-0.050447 0.355808 -0.124898 0.026554 -1.043645 -0.055088
0.045018 0.105492 0.134867 -0.059173 -1.054985 0.028094
-0.080909 -0.029012 -0.117445 -0.379483 -0.941654 -0.058856
0.030347 0.350901 -0.127622 0.199357 -1.017368 -0.079649
0.568056 0.080695 0.018987 0.423066 -0.925381 0.226604
-0.006283 -0.553017 0.028142 0.021408 1.134241 0.079414
-0.149316 0.532892 0.033826 -0.875009 -0.538792 0.166924
-0.022670 -0.679889 -0.094292 0.004704 1.093851 0.103962
0.216352 0.445915 -0.132765 0.519460 -0.857152 -0.281597
-0.118122 0.312208 -0.008292 -0.040139 -0.987372 -0.153274
0.212776 -0.137160 -0.008434 0.079112 -1.020278 -0.128302
0.001651 -0.657766 0.018178 0.017488 1.118739 0.080441
-0.118509 0.366640 0.026682 -0.066285 -0.993454 -0.092001
0.022440 -0.405874 0.004215 -0.024305 -1.033610 -0.001174
0.482521 0.246936 -0.058708 0.669612 -0.516542 0.505954
0.069211 0.730348 0.073720 -0.170780 1.541071 -0.264490
0.108326 -0.462426 0.041887 0.023657 -1.017173 0.023825
0.198119 0.361722 -0.048870 0.187463 -1.007107 -0.140754
0.078968 -0.082586 -0.128128 -0.158536 -1.013378 -0.162876
0.068015 -0.794063 -0.048904 0.001288 1.125644 0.071027
-0.085560 0.254557 -0.096037 -0.105624 -0.997229 -0.163226
0.007396 0.807814 0.070619 -0.111609 1.337885 -0.132278
0.259478 0.393832 -0.137316 0.538491 -0.827140 -0.299258
-0.060723 0.127572 0.102054 0.006355 -1.022454 -0.086081
0.160829 -0.318600 0.076318 -0.179154 -1.019521 -0.075350
0.204700 -0.235566 0.023160 0.221470 -0.959061 -0.195474
0.062073 0.817145 -0.102796 0.118277 -1.355481 0.103282
0.158718 -0.113723 -0.101911 0.015574 -0.992090 -0.176411
0.186397 -0.573963 0.026707 0.048151 -1.054360 -0.084799
-0.138867 -0.015117 0.015648 -0.267564 -0.995597 -0.112856
0.263773 0.357163 -0.046995 0.605020 -0.795656 -0.130425
0.005196 -0.323468 0.074957 -0.059492 -1.008719 0.085209
-0.102215 0.431791 -0.117331 -0.301865 -0.898452 -0.148749
0.086030 -0.653652 -0.075440 -0.021612 1.192254 0.028025
0.331693 0.352783 -0.041299 0.646660 -0.782444 -0.186012
-0.336811 0.223774 -0.046184 -0.850534 -0.598393 0.134863
0.133240 -0.869923 0.065144 -0.109391 0.819787 0.486641
-0.037889 -0.603844 -0.097515 0.010484 1.090224 0.082552
-0.065363 -0.187029 -0.092567 -0.251496 -0.988249 -0.042542
-0.128373 0.171263 -0.001979 0.025097 -0.978005 -0.145615
0.329324 0.313956 -0.125554 0.534949 -0.838376 -0.257937
0.477640 0.184168 -0.002076 0.552033 -0.673558 0.392577
0.110136 0.382506 0.092217 0.093606 -1.031583 -0.022998
0.081327 -0.132563 0.091022 -0.006897 -1.019680 0.086428
0.027193 -0.656801 -0.029220 -0.008913 1.142706 0.056007
0.073845 0.672841 0.060702 -0.060776 1.333533 -0.076202
-0.041900 -0.733944 0.027373 0.018515 1.133013 0.093571
0.099779 0.300883 0.104593 0.022588 -1.058970 0.052970
0.011562 -0.457066 0.031445 -0.027757 -1.008286 -0.011205
0.198726 0.147608 -0.005262 0.034078 -1.053792 -0.073052
0.102423 0.438170 0.084701 -0.009751 -0.982996 0.067482
0.009219 0.325570 0.115764 -0.049094 -0.976728 -0.042164
-0.174347 0.534718 -0.015808 -0.925047 -0.500451 0.050644
0.154028 0.516631 -0.128507 1.020729 -0.266380 -0.271131
0.081362 0.714190 -0.070717 1.271160 -0.097388 -0.231785
-0.087846 -0.505007 0.074959 0.057172 1.153947 0.111175
0.546604 0.194526 -0.028360 0.520792 -0.712077 0.442003
-0.017633 0.686698 0.039941 -0.119855 1.183948 -0.085272
0.154555 0.024046 -0.118597 0.017572 -1.003314 -0.178466
0.042751 -0.261558 0.027349 -0.048620 -1.011947 -0.039082
0.121090 -0.825784 0.146592 -0.107865 0.896299 0.373578
0.205399 -0.301157 -0.008406 0.062074 -0.986500 -0.133827
-0.035136 -0.861192 -0.081800 -0.077523 0.885639 0.369682
0.205541 -0.362583 -0.013292 0.158658 -1.012942 -0.144743
-0.040064 -0.189343 0.120925 -0.043693 -1.009037 0.041226
0.072132 -0.602053 0.007848 -0.038935 1.162084 0.035557
0.014003 -0.503542 -0.043785 0.119668 -0.982682 -0.193102
0.005975 0.726890 0.073103 -0.171983 1.555543 -0.270671
0.123327 -0.081087 0.115258 -0.170996 -1.016556 -0.037523
0.142861 -0.456452 -0.101676 0.459309 -0.896985 -0.154707
0.000515 0.417031 0.101460 -0.024598 -1.062783 0.026595
-0.258780 0.425732 -0.052668 -0.843161 -0.617197 -0.144892
0.150405 -0.638505 0.028203 -0.035435 1.215307 0.067887
-0.307699 0.357800 -0.052177 -0.785599 -0.661884 0.052052
-0.016625 -0.773338 0.002145 0.022596 1.108532 0.089377
0.129244 -0.869519 -0.056620 -0.119594 0.832545 0.456361
0.087771 -0.843941 -0.030974 -0.084893 0.800867 0.499283
-0.115213 0.034838 -0.074871 -0.199217 -1.014768 -0.101046
-0.107993 -0.539906 0.040799 0.054388 1.130442 0.116126
-0.021454 -0.127023 -0.095770 -0.308439 -0.984308 -0.107441
-0.492593 0.157104 0.045392 -0.450590 -0.458439 0.660614
-0.044771 -0.454442 -0.092754 0.034788 1.120033 0.098588
0.008883 -0.705882 -0.008497 0.008626 1.128012 0.067789
0.184566 0.313668 0.010451 0.043152 -0.966782 -0.194648
-0.152695 0.432436 0.044567 -0.885582 -0.481609 -0.036546
-0.129248 0.102499 -0.002635 -0.114947 -0.988208 -0.044405
-0.136591 0.029838 -0.020327 -0.176405 -0.975163 -0.124467
0.019676 -0.094715 0.111265 -0.011237 -0.983738 0.080312
-0.025146 0.558939 -0.106054 0.980586 -0.371912 -0.164337
0.294446 0.438398 -0.025350 0.674637 -0.783926 -0.166126
-0.043522 0.428536 -0.129928 0.107770 -0.987308 -0.202675
-0.017634 0.464267 0.087939 -0.348660 -0.953273 -0.034125
0.129017 -0.505003 -0.108151 0.315948 -0.948670 -0.266093
-0.119914 0.521524 -0.092590 -0.727557 -0.637197 0.015423
0.007601 -0.752408 -0.088014 -0.015924 1.177105 0.037656
0.158270 -0.694320 0.017688 -0.036524 1.177843 0.045824
0.026286 -0.221219 -0.032410 -0.081099 -0.998784 -0.126410
0.184428 0.170685 0.036092 0.119533 -1.003030 -0.154092
-0.131795 -0.502721 -0.046569 0.100003 1.214600 0.136692
-0.091869 -0.856921 -0.046506 -0.031051 1.010974 0.220969
-0.106860 -0.561582 -0.087992 0.048720 1.177264 0.094218
0.065047 -0.696747 -0.042027 -0.019290 1.171784 0.039648
0.261024 0.354544 -0.096019 0.607176 -0.840373 -0.259415
-0.040196 0.745850 -0.029750 -0.955221 -0.328016 0.034321
0.139238 0.531208 0.024099 1.165771 -0.149588 -0.205080
-0.457059 0.193972 -0.032167 -0.759598 -0.569404 0.189223
0.249176 0.513623 -0.093645 0.925709 -0.495436 -0.176781
0.198205 -0.006712 0.057048 -0.052574 -1.023775 0.054903
0.341382 0.281955 -0.090991 0.614761 -0.775904 -0.120760
-0.038639 -0.686188 0.019359 -0.004656 1.079376 0.126117
0.076359 0.006277 0.137849 -0.008176 -1.022884 0.059679
-0.288298 0.395011 -0.025696 -0.762892 -0.606923 0.132653
-0.167753 0.376434 -0.062577 -0.721319 -0.642851 -0.044424
-0.570829 0.028771 -0.003031 -0.460335 -0.578643 0.642699
0.196512 -0.564373 -0.057266 0.540328 -0.832442 -0.307993
0.057656 0.204173 -0.119970 0.095684 -0.977293 -0.159368
-0.114690 -0.705480 -0.083290 0.069510 1.109055 0.110775
-0.016951 -0.827407 0.020066 -0.062986 0.978160 0.251300
-0.123735 -0.345434 0.057238 0.064153 1.133052 0.132043
-0.056988 -0.703758 -0.117257 -0.018355 1.091161 0.098133
-0.050358 0.045127 0.120837 -0.022948 -1.043146 0.072421
0.135961 0.235612 0.088662 0.071001 -1.040626 0.025076
-0.106649 -0.400774 -0.057471 0.075448 1.158356 0.108206
-0.031347 0.791479 -0.079991 -0.893331 -0.327914 0.121671
0.384181 0.248330 -0.109104 0.744608 -0.536229 0.410939
-0.111922 0.245458 0.026988 -0.193192 -1.000269 -0.034346
-0.102730 0.102347 -0.075310 -0.164121 -0.983892 -0.057801
-0.047008 -0.843481 0.142288 -0.042002 0.899561 0.359727
0.146414 0.300970 0.071830 0.428783 -0.859668 -0.233135
0.015281 0.860007 -0.054789 0.161345 -1.430337 0.114387
0.192206 -0.394389 -0.052047 0.052981 -0.986346 -0.136513
-0.407387 0.265002 -0.042214 -0.805727 -0.590359 0.027735
0.014248 -0.754974 -0.027689 0.052551 1.124846 0.090988
0.159549 -0.835571 -0.085176 -0.068244 1.083919 0.193615
0.178272 0.170485 -0.040288 0.141605 -1.013368 -0.067835
-0.084214 -0.227724 0.111938 -0.064256 -1.034225 0.049608
-0.067302 0.189303 -0.091353 -0.098585 -0.996078 -0.164324
0.014147 0.262693 0.126230 -0.064882 -1.001447 -0.057091
-0.003718 0.722019 -0.089439 -0.821919 -0.561340 0.184193
0.200771 -0.485995 -0.009882 0.473713 -0.880310 -0.300584
0.124412 0.350872 -0.135561 0.046301 -0.987248 -0.069762
0.105162 0.790083 -0.024198 0.130049 -1.310581 0.054538
0.001831 -0.195469 0.102776 -0.032135 -1.018447 0.057359
0.178515 -0.436523 0.063772 0.207812 -1.010488 -0.112753
-0.076882 -0.142581 -0.094549 -0.330241 -1.001343 -0.080496
0.234655 0.542472 -0.048976 0.493035 -0.905668 -0.267548
0.148409 0.569935 -0.086321 1.098770 -0.110144 -0.197396
0.142661 0.131745 -0.097963 0.220273 -0.970180 -0.176756
0.368441 0.337174 -0.129673 0.701255 -0.675908 0.100495
0.037199 -0.158669 0.045402 -0.001816 -0.996971 -0.021895
0.053074 -0.714330 -0.000982 0.012786 1.106767 0.079435
0.064321 0.847143 0.039490 0.079611 -1.361420 0.105729
-0.062123 -0.131464 0.122472 -0.078387 -1.049109 0.094496
-0.102972 -0.079662 -0.082670 -0.163940 -1.020310 -0.118547
0.200352 -0.599676 -0.022907 0.493935 -0.875479 -0.206464
-0.033065 -0.361880 -0.081036 -0.199661 -0.990153 -0.158275
-0.110481 0.240381 -0.055052 -0.006844 -0.973406 -0.143465
0.082982 -0.216357 0.087341 -0.099021 -1.022049 0.055620
0.112768 0.497224 0.057552 1.176231 -0.066350 -0.219301
0.533556 0.136519 0.017373 0.509568 -0.783706 0.276846
0.427318 0.226277 -0.038263 0.653372 -0.500787 0.520228
-0.120893 -0.247521 0.087224 -0.230857 -0.957839 0.086772
-0.034541 -0.263381 0.105890 -0.077906 -1.019113 0.029872
0.045419 -0.580082 -0.030610 -0.013574 1.164576 0.044612
0.065002 0.570391 -0.106598 1.232952 0.012698 -0.215204
0.098069 -0.546926 -0.097516 0.616359 -0.768114 -0.216483
-0.131711 -0.423658 0.035506 0.064269 1.149760 0.120213
0.079379 -0.738479 -0.053467 -0.008681 1.171454 0.049051
0.196601 0.405521 0.006971 0.054407 -1.040615 0.009343
0.540023 0.150502 -0.026525 0.595658 -0.686900 0.341544
0.458883 0.192912 -0.041465 0.611279 -0.655577 0.359827
-0.079365 -0.863637 0.077979 -0.093225 0.855127 0.454922
-0.310764 0.302134 0.005442 -0.814602 -0.554860 0.147246
0.028007 0.793740 -0.119002 0.122056 -1.297714 0.095029
-0.064418 -0.403188 -0.081565 -0.269876 -1.016406 -0.117092
0.062104 0.501076 -0.129575 0.890505 -0.426987 -0.193054
0.029381 0.535270 0.046360 0.873719 -0.508230 -0.123269
-0.030706 0.176133 0.117055 0.034732 -0.986397 -0.022673
-0.016924 0.016897 -0.144210 -0.305866 -0.998479 -0.096984
-0.113170 0.099491 0.064418 -0.018222 -0.980623 0.025320
-0.290161 0.347453 0.003608 -0.789332 -0.571651 0.017936
0.124263 -0.647372 -0.095368 -0.070691 1.158773 0.086567
0.275013 0.501263 -0.047924 0.652657 -0.792377 -0.176809
-0.129377 -0.618519 -0.046427 0.032616 1.104210 0.101600
0.051962 -0.310481 0.045421 -0.106372 -1.019421 -0.107451
0.003472 0.622515 -0.062704 1.086820 -0.325348 -0.192591
0.189105 -0.514308 -0.069759 0.487385 -0.861159 -0.229966
-0.107066 -0.702004 0.011351 0.014783 1.136236 0.071624
-0.419403 0.226620 -0.057393 -0.669063 -0.582705 0.317164
-0.087874 -0.015895 0.112305 -0.214051 -1.003431 -0.038700
0.037395 0.394384 0.102987 -0.066518 -1.013623 0.031733
0.182572 -0.354178 0.066311 0.013203 -1.037086 0.070025
0.207303 0.012308 0.017124 0.078202 -1.029398 -0.077182
0.191997 -0.523142 0.024840 0.099059 -1.029378 -0.079671
-0.134449 -0.560913 -0.031560 0.060918 1.148566 0.117017
0.149809 -0.723625 -0.085160 -0.027824 1.210287 0.020593
0.093421 0.577591 -0.003956 1.196925 -0.254177 -0.173446
0.016315 -0.305459 -0.038586 -0.183740 -0.997227 -0.132014
-0.054053 -0.478083 0.070265 0.071113 1.255300 0.091907
-0.183701 0.388166 0.019337 -0.794214 -0.665373 -0.111536
0.082970 -0.709461 0.036600 -0.005290 1.103028 0.088688
-0.108350 0.543394 0.030847 -0.851593 -0.450363 0.204701
-0.344854 0.322657 -0.067749 -0.782480 -0.638551 -0.085194
0.003565 0.076998 0.135884 -0.034531 -1.070554 0.088147
0.207850 -0.126989 0.041740 0.092915 -1.004038 -0.052944
0.082112 -0.802881 0.035524 -0.008351 1.021838 0.159252
0.099129 0.451126 -0.146245 0.175889 -0.943939 -0.169232
0.498000 0.229602 -0.023745 0.547629 -0.699490 0.434208
-0.435628 0.158141 -0.028946 -0.583579 -0.605192 0.520127
0.167537 -0.615641 -0.083878 0.433691 -0.906727 -0.227942
0.152731 -0.249654 0.083527 0.018599 -1.012014 0.052334
-0.123215 -0.362795 -0.037767 0.055786 1.102244 0.142954
-0.129550 -0.282679 0.022000 -0.273529 -1.035056 -0.079726
-0.034218 -0.806023 -0.149384 -0.010722 1.120144 0.065731
-0.028277 0.238324 -0.127766 -0.012532 -1.005026 -0.165136
0.078523 0.082380 0.127105 -0.105637 -1.035013 0.040475
0.173612 0.451073 -0.137763 0.512626 -0.848000 -0.212427
0.360498 0.320603 -0.044583 0.684315 -0.800550 -0.117395
-0.271079 0.366295 -0.094709 -0.743522 -0.599041 0.014760
0.140762 0.194842 0.087868 0.085949 -0.985445 -0.071904
0.044054 0.869667 -0.023893 0.122900 -1.458332 0.115472
-0.209153 0.375379 -0.094447 -0.772538 -0.581030 -0.072160
0.174826 0.055275 0.082426 0.029852 -1.035514 0.082318
-0.051433 -0.648277 0.028351 0.053087 1.152383 0.107315
0.051726 -0.183863 -0.074528 -0.005939 -1.018458 -0.059426
0.021602 -0.558595 -0.005170 0.028539 1.117546 0.093906
0.350128 0.406666 -0.079510 0.577726 -0.836892 -0.193398
-0.030624 0.132336 -0.114963 -0.193669 -0.994828 -0.207721
0.187140 0.371003 -0.093851 0.327449 -0.943018 -0.211972
-0.081148 0.568367 -0.001386 -0.911217 -0.322944 0.162277
0.060176 -0.259966 -0.069461 0.157467 -0.956747 -0.195662
-0.123962 -0.306196 -0.026945 -0.322786 -0.973169 -0.159851
-0.120362 0.183453 0.035732 -0.047501 -1.024592 -0.031620
-0.040384 0.828729 -0.010020 -0.041254 -1.049671 0.049681
0.111137 -0.864835 -0.005563 -0.104516 0.798417 0.489273
-0.035347 -0.515002 -0.096589 0.141248 1.207986 0.113893
0.025461 -0.445099 -0.004615 0.092900 -1.057902 0.014535
0.208334 -0.040110 0.036903 0.046884 -0.980870 -0.174719
-0.230194 0.331837 -0.072726 -0.722271 -0.688361 -0.099730
-0.011715 -0.601574 0.024452 0.030468 1.123878 0.092648
0.193209 0.533006 -0.108614 0.859679 -0.539463 -0.203159
0.151580 -0.818514 0.053126 -0.057438 0.938026 0.274315
-0.080853 0.317994 0.079008 -0.128880 -1.000775 -0.141651
-0.002772 0.486274 -0.126743 0.413649 -0.907686 -0.242011
0.058709 0.483179 0.074989 1.044535 -0.091772 -0.129725
-0.070053 -0.615372 0.043384 0.034761 1.067365 0.116354
0.114800 -0.131340 0.112803 0.033138 -1.020941 0.044513
-0.035597 0.091023 0.120783 -0.088419 -0.992806 -0.046535
0.611077 0.093885 0.025558 0.496555 -0.687175 0.298831
-0.113605 0.314644 -0.068873 -0.047695 -1.032590 -0.059870
-0.046980 0.522333 0.054127 -0.715119 -0.666229 0.080462
-0.201096 0.506662 -0.007466 -0.811353 -0.595066 -0.039215
-0.068260 -0.779225 0.030367 0.028629 1.136363 0.086455
0.103473 0.516217 -0.134639 1.260970 0.016585 -0.233553
0.293391 0.447187 -0.123435 0.502792 -0.882135 -0.257171
0.182285 -0.160503 -0.069073 -0.095638 -1.002497 -0.116440
-0.368049 0.200968 -0.039478 -0.707688 -0.584229 0.150437
0.150548 -0.015214 -0.127480 0.145338 -0.999581 -0.177773
-0.451059 0.172750 0.033353 -0.593727 -0.569044 0.477140
-0.136351 -0.182096 -0.004900 -0.283718 -0.988832 -0.106440
-0.029178 -0.055041 0.130511 -0.055516 -1.023484 0.047840
-0.108922 -0.123072 -0.067880 -0.205419 -1.018027 -0.133177
0.140866 -0.558704 0.045416 -0.009998 -1.039180 -0.073629
