-0.289371 0.017247 0.006958
0.033005 0.039670 -0.005094
0.035031 0.040578 -0.005588
0.038129 0.249572 -0.005323
0.031579 0.040064 -0.005679
0.036004 0.041515 -0.005403
-0.050262 -0.120215 0.012796
-0.058459 -0.609083 -0.035115
0.034765 0.041099 -0.005369
0.034450 0.041394 -0.005667
0.133935 -0.484552 -0.023986
0.034125 0.039032 -0.005212
0.054091 -0.013506 -0.000391
0.034032 0.040921 -0.005670
-0.264346 0.341043 -0.043676
0.115415 -0.119232 -0.002898
0.042379 0.310190 -0.009635
0.000016 0.361390 -0.016057
0.037224 0.246019 -0.005299
0.113692 0.442788 -0.040939
0.035826 0.771320 -0.041546
0.032744 0.039966 -0.005483
0.035524 0.041028 -0.005457
0.034959 0.249033 -0.005275
0.036097 0.042415 -0.005435
0.016637 -0.054723 0.000981
0.062710 -0.066154 0.000096
-0.037703 0.221237 -0.006384
-0.015902 0.428137 -0.019909
0.127669 -0.515566 -0.027781
0.035645 0.041160 -0.005419
-0.058601 -0.834663 0.063400
0.013903 0.294674 -0.008224
0.034822 0.040161 -0.005452
0.032980 0.042295 -0.006476
0.293697 0.383609 -0.089370
0.025703 0.610700 -0.029948
0.038504 0.038776 -0.005202
0.036895 0.247200 -0.004920
0.036794 0.248144 -0.005226
0.033888 0.041146 -0.005674
0.033752 0.040214 -0.005589
0.035862 0.250752 -0.005283
0.061176 0.367106 -0.026431
0.037108 0.249795 -0.005335
0.033976 0.041002 -0.005551
0.036083 0.040188 -0.005680
0.035644 0.041200 -0.005714
0.033118 0.038971 -0.005410
0.121604 -0.298117 -0.002869
0.038712 0.248993 -0.005214
0.034737 0.040840 -0.005729
0.034883 0.040889 -0.005637
-0.042406 -0.039196 0.007608
0.037231 0.247394 -0.005229
0.035704 0.041417 -0.005460
0.080923 -0.006538 0.000405
0.057974 0.015087 -0.001629
0.112813 -0.350212 -0.005644
-0.053831 -0.773541 -0.067197
-0.058965 -0.535311 -0.027462
0.038115 0.248395 -0.005116
0.118058 -0.824638 0.078880
0.032387 0.040224 -0.005664
0.036851 0.248389 -0.005334
0.036349 0.249166 -0.005222
0.059460 0.230108 -0.001885
0.037423 0.249050 -0.005226
0.049740 0.284899 -0.008343
0.015489 0.015708 -0.002110
0.032816 0.719267 0.008128
0.032140 0.005712 -0.000311
0.025428 0.249042 -0.006186
-0.075066 0.458959 -0.015868
0.102838 0.478697 -0.043627
-0.060536 -0.457300 -0.015849
0.126720 -0.805626 -0.043451
0.125206 -0.663333 -0.027452
0.033825 0.327622 -0.013987
-0.008860 -0.010032 0.003689
-0.052035 -0.302765 0.011038
0.035152 0.041507 -0.005513
0.099935 -0.071783 0.000146
0.032954 0.040031 -0.005618
0.035319 0.040806 -0.005617
0.120928 -0.203333 0.002495
0.036470 0.042611 -0.005677
0.036621 0.250185 -0.005374
0.038128 0.249165 -0.005203
0.275000 0.200909 -0.040871
0.034309 0.040525 -0.004162
0.034106 0.040470 -0.005442
0.048019 0.249367 -0.005657
0.036724 0.040413 -0.005656
0.035417 0.250016 -0.005415
-0.050176 -0.252601 0.013700
0.327991 0.094330 0.004660
0.011778 0.055852 -0.002093
0.032798 0.770614 0.003476
0.034080 0.052902 -0.005384
