-0.302141 0.254303 -0.004621 -0.797251 -0.615419 0.036883
0.155787 -0.863387 -0.055650 -0.227875 0.647804 0.763325
0.639031 0.023566 0.025692 0.594433 -0.682276 0.263623
0.044296 0.863111 0.029944 0.071535 -1.541616 0.092396
0.079213 -0.238079 -0.087788 -0.004328 -1.046240 -0.106613
0.243290 0.384535 -0.124552 0.663543 -0.782432 -0.155043
0.063623 0.131657 0.129071 -0.014987 -1.017409 -0.009204
-0.109077 -0.583055 0.032691 0.189293 1.244018 0.156284
-0.095555 0.553790 -0.077322 -0.937297 -0.515059 -0.000238
-0.570230 0.032539 0.067467 -0.498642 -0.585783 0.537584
0.205990 -0.541979 -0.023757 0.513482 -0.919205 -0.217986
-0.123021 -0.007523 -0.066577 -0.411239 -0.969177 -0.136266
-0.091841 -0.862054 0.124725 -0.125219 0.882764 0.415443
-0.025830 0.289861 -0.131182 -0.187413 -0.962302 -0.164810
-0.106300 -0.320500 0.099500 0.038667 -1.069833 0.054466
0.076311 0.434483 0.088979 0.234782 -0.994293 -0.090556
0.187717 0.006682 -0.070075 0.079644 -1.018462 -0.169158
0.464899 0.251175 -0.089597 0.696480 -0.543808 0.350173
-0.050385 -0.791534 -0.146830 -0.044397 1.072672 0.116592
-0.004333 -0.089640 0.124962 0.040017 -1.070364 0.044186
0.121115 -0.860374 0.178851 -0.138313 0.826141 0.498671
0.148409 0.569935 -0.086321 1.057547 -0.044124 -0.167675
0.182572 -0.354178 0.066311 -0.042141 -1.001299 -0.099515
-0.081513 0.270991 0.078218 -0.102091 -1.022504 0.008410
-0.002696 -0.419521 -0.059696 -0.172936 -1.001020 -0.157793
-0.004761 0.671849 0.056570 0.188518 -0.087677 -0.136509
0.175245 0.219374 -0.043346 -0.013899 -0.996995 -0.068895
0.027102 0.102384 -0.138153 -0.163594 -1.028165 -0.099632
0.177228 -0.162003 0.089562 -0.050342 -1.037193 -0.000467
0.053229 -0.684633 0.006997 -0.005754 1.089215 0.074334
-0.242579 0.446877 -0.013206 -0.815108 -0.617391 -0.091152
-0.471826 0.145477 -0.031520 -0.498028 -0.597606 0.499465
0.053795 0.771104 -0.116049 0.074773 -1.498390 0.088216
-0.089120 -0.236305 -0.076778 -0.233557 -1.002297 -0.211622
-0.112314 0.046900 0.088889 0.036983 -1.021263 -0.131190
0.032914 0.444015 -0.127874 -0.112371 -1.000683 -0.085508
-0.088934 0.435675 0.074492 -0.211509 -1.010965 -0.100249
0.554571 0.164345 0.039422 0.603144 -0.606772 0.316271
-0.114959 0.150638 -0.042613 -0.123821 -1.009288 -0.079226
0.021840 -0.235980 0.061401 0.009088 -1.006866 -0.019963
0.248968 0.481396 -0.000943 0.818284 -0.487620 -0.200826
-0.103063 -0.761458 0.005795 -0.034603 1.088222 0.051908
0.108440 0.278488 0.103522 0.023747 -1.046086 0.025667
0.006215 -0.082825 -0.096215 -0.116574 -1.018034 -0.121610
-0.143636 -0.123111 0.029742 -0.108338 -1.041166 -0.051499
-0.039866 -0.568633 -0.098739 0.051938 1.149032 0.108881
0.140430 -0.406358 -0.094815 0.391361 -0.941953 -0.194647
-0.135765 -0.439444 0.018166 0.014927 1.078198 0.228910
0.187797 -0.721214 -0.040496 -0.038307 1.313252 -0.050289
0.061436 -0.538524 0.004008 0.125422 -0.974398 -0.114127
0.169870 -0.018000 0.092848 0.038105 -1.036713 0.020219
0.115630 0.315221 -0.135743 -0.094820 -0.981109 -0.161303
0.199429 -0.175201 -0.050669 0.016186 -1.005420 -0.094918
-0.135077 0.422985 -0.093244 -0.666795 -0.651379 -0.172576
0.066158 0.559675 0.020217 1.109017 -0.048026 -0.184065
0.328677 0.304515 -0.059532 0.642443 -0.804480 -0.062532
0.087908 -0.805666 0.043819 -0.101006 0.836587 0.475241
0.102843 0.746245 0.001974 0.102005 -1.240238 0.035613
0.172136 0.138861 0.059807 -0.071258 -1.042193 -0.136437
0.114399 -0.589912 -0.099615 -0.004503 1.144960 0.035303
-0.280772 0.355724 -0.092062 -0.718910 -0.708663 -0.072445
-0.013309 -0.440399 0.064255 0.083900 -1.032176 -0.119009
-0.126123 -0.654282 -0.073011 0.012902 1.115175 0.065945
-0.119813 0.312754 -0.031483 -0.286408 -0.978302 -0.156758
-0.026356 -0.853379 0.003931 -0.111875 0.744145 0.649891
0.086030 -0.017109 -0.154456 -0.082183 -1.012022 -0.125361
0.179229 -0.303621 -0.052598 0.019454 -1.044471 -0.053784
-0.072147 -0.193896 0.116374 -0.063074 -1.077801 -0.024751
0.191011 0.381828 0.017313 0.103004 -1.007559 -0.104460
-0.140500 0.531186 0.038044 -0.844585 -0.615104 -0.025779
0.041972 0.619473 -0.072764 1.223125 0.084126 -0.246230
-0.040284 0.746630 -0.020028 -1.021072 -0.227047 0.360330
-0.401153 0.271705 -0.055489 -0.795446 -0.612143 0.190037
0.025369 0.026990 0.140218 -0.012643 -1.019887 -0.096654
-0.007361 0.363752 0.109440 0.040931 -1.056833 -0.000819
0.165555 -0.486490 0.063826 0.204224 -0.989735 -0.139636
0.337850 0.414298 -0.063093 0.648779 -0.705365 -0.177879
0.003415 -0.310264 -0.054119 0.077094 -0.999802 -0.163693
0.252516 0.495789 -0.108781 0.776779 -0.574041 -0.206881
0.031725 0.772611 0.088637 -0.082483 1.377000 -0.134409
-0.136068 -0.230406 0.028298 -0.182682 -1.025038 -0.103034
-0.515116 0.123292 0.083722 -0.418424 -0.513331 0.709938
0.140759 0.419192 -0.140101 0.065383 -1.011575 -0.129657
-0.027587 0.525879 0.056143 -0.338203 -0.960619 -0.106155
-0.030706 0.176133 0.117055 0.000605 -1.006182 -0.081380
-0.234860 0.346446 0.010076 -0.845298 -0.615149 -0.111401
-0.067264 0.066059 -0.121457 -0.184859 -1.006105 -0.083425
0.165215 0.122142 -0.073506 0.018341 -1.036594 -0.088182
0.098788 -0.731575 -0.088611 -0.036994 1.277598 -0.039652
0.024097 -0.155410 -0.028521 -0.167454 -0.978656 -0.132687
0.174306 -0.852005 0.066722 -0.116005 0.858365 0.543805
-0.011715 -0.601574 0.024452 0.020671 1.166823 0.087829
-0.114364 -0.509780 -0.072473 0.108452 1.210789 0.148943
0.482410 0.178363 -0.027079 0.532229 -0.644416 0.386100
-0.105612 0.147903 0.061488 -0.085578 -1.013081 -0.145628
-0.043274 0.177408 -0.102645 -0.195472 -1.007307 -0.121558
0.056614 -0.324692 0.047760 0.027775 -1.075493 -0.014824
0.152964 -0.664065 0.028144 -0.007195 1.184065 0.019219
0.021284 0.539397 -0.116793 1.089276 -0.053980 -0.144649
0.206191 0.043324 0.013780 -0.043050 -0.994641 -0.095285
0.203944 -0.078624 -0.036462 -0.047956 -1.007679 -0.112985
-0.379273 0.205745 0.010498 -0.495697 -0.473526 0.495660
0.393078 0.293995 -0.128683 0.723323 -0.532440 0.233102
-0.127176 -0.309934 -0.016930 -0.187005 -1.011727 -0.187357
0.086930 -0.122197 -0.114848 0.124583 -1.023108 -0.125278
0.197918 -0.630558 -0.049286 0.466251 -0.874370 -0.238941
-0.055060 -0.694305 -0.114148 0.009713 1.154149 0.049308
0.108269 -0.232465 0.089793 0.037712 -1.026601 0.026175
0.035016 -0.143664 0.060096 -0.024080 -1.046583 0.005854
0.097437 0.164056 -0.115261 -0.054980 -1.033317 -0.140100
0.591971 0.089005 0.069280 0.534452 -0.682956 0.342114
0.083438 -0.453531 0.020005 0.146513 -1.050962 -0.032354
0.183726 0.293495 0.007579 0.020525 -1.002780 -0.157834
-0.120904 -0.108059 -0.055120 -0.110114 -1.024435 -0.144053
0.577123 0.072000 -0.016509 0.493079 -0.621835 0.491001
-0.031534 -0.704441 0.023630 -0.029198 1.112583 0.049914
0.005758 0.858459 -0.049242 0.084173 -1.462217 0.083855
0.025250 0.261966 0.127086 -0.134373 -1.013742 -0.090506
-0.038526 0.587387 -0.019676 0.038775 -1.013109 -0.055384
0.170403 0.492514 0.036252 0.969711 -0.336467 -0.058343
-0.028692 -0.014084 -0.137039 -0.168216 -1.036641 -0.135870
0.197228 -0.237811 0.052369 -0.042726 -1.029681 0.006141
0.094632 -0.505840 -0.097446 0.356866 -0.967630 -0.201950
-0.035597 0.091023 0.120783 0.016140 -1.094484 0.063155
-0.127430 -0.052425 0.074679 -0.038078 -1.022120 -0.118392
0.205840 -0.382968 -0.010230 0.294314 -0.996134 -0.130529
-0.131602 0.066360 0.008760 -0.057424 -1.018572 -0.135358
0.082769 0.663998 0.000173 1.043469 0.030155 -0.215861
-0.069078 0.489590 -0.125404 -0.302908 -0.924471 -0.210428
0.110983 0.061909 -0.142562 -0.009755 -1.003502 -0.078615
0.145616 -0.747177 0.028766 -0.006914 1.184204 0.019508
0.081519 -0.812649 -0.084086 -0.042476 1.014774 0.229407
0.387157 0.239448 -0.062962 0.639826 -0.635195 0.294536
0.009892 -0.793930 -0.039461 0.003064 1.100752 0.078253
-0.107013 -0.429063 -0.062393 0.080923 1.220977 0.117198
-0.087706 0.359198 -0.106952 -0.516201 -0.796290 -0.198065
0.132984 0.199666 0.094802 0.000255 -1.037023 -0.065475
0.024068 -0.236598 -0.030064 -0.075494 -1.056259 -0.032353
0.089769 0.834432 -0.028788 0.097316 -1.516306 0.090377
-0.026120 -0.851170 0.083951 -0.119185 0.865847 0.454065
0.118740 0.081698 0.105277 0.036503 -1.047801 -0.055316
-0.032888 -0.861356 -0.116957 -0.115635 0.804454 0.550218
-0.211768 0.390150 -0.096378 -0.778815 -0.639627 0.046399
0.022838 -0.718142 -0.055552 0.001899 1.146635 0.042421
-0.143101 -0.045203 -0.002605 -0.047461 -0.992412 -0.017660
0.180795 0.558697 -0.017787 1.008346 -0.168376 -0.119828
0.018002 0.216998 -0.125625 -0.042871 -0.998414 -0.163233
0.091072 0.492369 -0.138051 0.769214 -0.545146 -0.205735
0.073281 -0.089123 0.097178 -0.103015 -1.041382 -0.015700
-0.071037 -0.003565 0.128360 -0.020206 -1.067141 0.052020
0.042494 0.335652 -0.129289 -0.005032 -1.010273 -0.055685
0.170443 -0.507960 -0.090171 0.503577 -0.880221 -0.209539
-0.087817 -0.818887 0.053415 -0.020442 1.020928 0.331996
-0.026027 -0.280648 0.099486 -0.024906 -1.031168 -0.060434
-0.025145 0.395446 -0.129595 -0.168144 -0.958153 -0.084934
0.634004 0.030531 0.100894 0.533686 -0.644496 0.409098
-0.016988 0.449413 0.093187 0.100713 -0.946615 -0.224983
0.264826 0.408613 -0.013791 0.514163 -0.849748 -0.286122
-0.199503 0.496461 -0.050342 -0.814513 -0.625870 0.001400
-0.537754 0.089011 0.020989 -0.432807 -0.512267 0.547064
0.174499 0.512733 -0.126999 0.838044 -0.495912 -0.091102
0.314934 0.395247 -0.143504 0.656496 -0.731516 -0.229761
-0.079329 -0.310278 -0.080012 -0.077729 -1.045645 -0.120468
0.096693 -0.868006 0.083472 -0.136100 0.740366 0.575209
-0.151811 0.421512 0.037929 0.020555 -1.034348 -0.116198
-0.088686 -0.522703 0.070532 0.088801 1.210914 0.123936
0.100750 -0.382513 0.061127 0.184180 -1.001867 -0.092302
0.210681 -0.051632 0.031698 0.087974 -1.074434 -0.025120
0.064302 -0.346782 -0.072695 -0.044799 -0.993478 -0.117134
-0.122946 -0.380001 0.058501 0.077509 1.164153 0.139448
0.111910 0.370984 0.092677 0.029014 -1.030458 -0.021795
0.083646 0.804206 0.045699 0.078865 -1.401674 0.080519
0.411906 0.308885 -0.060213 0.723463 -0.530910 0.280988
0.025357 -0.374965 -0.011460 0.012181 -1.047319 -0.147486
-0.109097 -0.654386 0.030527 0.027802 1.116554 0.103690
-0.003158 0.812144 -0.104171 0.154956 -1.495351 0.078764
-0.114504 0.232086 0.028600 -0.162528 -0.998694 -0.109200
-0.081685 -0.073915 -0.103675 -0.308610 -0.962977 -0.184469
-0.098298 0.274845 -0.087177 -0.241724 -0.979740 -0.196755
-0.570829 0.028771 -0.003031 -0.414494 -0.504276 0.758096
-0.293986 0.370880 -0.024631 -0.827682 -0.620852 -0.051559
0.123552 -0.307036 -0.095310 0.467338 -0.901090 -0.228504
0.065675 0.711830 0.079473 -0.080461 1.315077 -0.111622
0.141584 -0.676169 -0.089928 -0.013086 1.256239 -0.006017
-0.116636 0.356252 0.023283 0.573866 -0.783612 -0.165916
-0.080258 -0.167859 -0.087689 -0.119656 -1.048558 -0.135646
0.138513 -0.108682 0.111767 0.001307 -1.017037 -0.045022
-0.098556 -0.814889 -0.102662 -0.033012 1.135046 0.023848
-0.363836 0.210274 -0.056993 -0.683393 -0.678661 0.259770
0.204133 -0.302672 0.025794 0.014476 -1.030126 0.019735
0.187273 -0.589646 0.021691 0.418293 -0.943958 -0.185667
-0.011759 0.649873 -0.018807 -1.030831 -0.239683 0.179358
-0.033674 0.578135 -0.090367 0.950102 -0.288493 -0.169497
0.136515 -0.293224 0.082250 0.026391 -1.085580 0.038615
0.204829 -0.236934 -0.024586 0.093667 -1.017383 -0.139590
0.001495 -0.375028 0.067840 0.032828 -1.031006 -0.049921
0.111137 -0.864835 -0.005563 -0.195022 0.616526 0.694280
-0.272432 0.290127 -0.081576 -0.826713 -0.577527 -0.101772
0.207850 -0.126989 0.041740 0.073798 -0.979181 -0.097546
0.088963 0.710727 -0.052350 1.154390 -0.030464 -0.191992
0.149919 -0.137734 -0.101805 -0.121168 -0.986499 -0.134858
-0.125282 -0.712187 -0.032343 -0.012389 1.106889 0.058833
0.063774 -0.601667 -0.059145 0.018244 1.132253 0.077051
0.108423 -0.571664 0.035765 0.338396 -0.923745 -0.239771
0.093342 0.253472 -0.137673 0.037715 -1.019486 -0.088534
-0.455960 0.204423 -0.007487 -0.444537 -0.497213 0.666734
0.165122 -0.812324 -0.095729 -0.009974 1.215761 0.020842
-0.030391 -0.541850 0.044021 0.016438 1.143813 0.060762
0.010109 0.036521 -0.151614 -0.374427 -0.919371 -0.193252
0.022497 -0.495593 -0.026085 -0.031331 -1.044562 -0.072082
-0.081465 0.555744 0.017686 -0.861114 -0.465647 0.153757
0.063858 0.324825 0.113234 -0.043961 -1.049777 -0.058942
-0.008028 -0.153680 0.115058 -0.017441 -1.025813 0.013648
-0.085743 -0.257057 0.110726 -0.023178 -1.056680 0.044186
-0.025491 0.753692 -0.082494 -0.933182 -0.310141 0.183457
-0.095088 0.214985 -0.063825 -0.148169 -0.975829 -0.159718
0.254434 0.362021 -0.056902 0.609358 -0.630780 -0.170354
0.182723 0.194301 0.029426 0.054858 -1.055037 -0.086410
0.073849 0.573858 -0.104691 1.103595 -0.076584 -0.094787
-0.347123 0.276762 -0.089390 -0.855373 -0.593626 0.045756
0.143846 0.235328 -0.096668 -0.072682 -1.031332 -0.182448
-0.169892 0.370735 -0.052413 -0.603218 -0.777712 -0.106762
-0.128600 -0.371219 -0.004530 0.054197 1.203440 0.086377
-0.318240 0.320155 0.002173 -0.758642 -0.592342 -0.016745
0.143405 -0.005498 -0.133191 0.020143 -1.074354 -0.072303
-0.066409 0.354197 0.092551 0.074364 -1.058703 0.025118
-0.028287 -0.240262 -0.088879 -0.222485 -0.989393 -0.179843
-0.078600 -0.861797 -0.028556 -0.134810 0.763327 0.583203
0.435508 0.243427 -0.024236 0.630687 -0.490900 0.413703
-0.204781 0.465489 0.032376 -0.720849 -0.650598 -0.033051
0.119122 0.570549 -0.010165 1.154558 0.185524 -0.186963
0.195404 0.447222 -0.133962 0.817420 -0.462772 -0.126038
-0.135981 -0.540436 -0.023482 0.044948 1.135104 0.127475
0.511478 0.217694 -0.064646 0.586305 -0.578974 0.458303
0.236440 0.536152 -0.030893 1.032466 -0.198250 -0.129042
0.164567 0.434058 0.053838 0.306031 -0.879180 -0.156761
0.295543 0.459976 -0.034557 0.628509 -0.787617 -0.232752
-0.014857 -0.621990 -0.081843 0.018693 1.161413 0.057675
0.190017 0.329149 -0.041687 0.470293 -0.872837 -0.252526
0.543390 0.176319 -0.026706 0.615671 -0.535064 0.451577
-0.014806 0.747069 0.058871 -0.111657 1.212328 -0.091282
0.057069 -0.429917 -0.059454 0.050398 -1.024761 -0.117714
-0.215625 0.399706 0.031175 -0.834917 -0.615633 -0.102465
-0.113174 0.051783 -0.072710 -0.145195 -0.960218 -0.240968
0.071288 -0.756219 -0.040836 -0.001038 1.133319 0.043282
-0.008281 -0.738024 -0.103115 0.006996 1.112956 0.059601
0.095228 -0.180716 -0.103984 0.235882 -1.016620 -0.203869
0.043325 0.715180 -0.097130 1.016738 -0.038525 -0.092556
0.103721 0.483363 0.068063 0.904865 -0.368697 -0.113718
-0.082620 0.493635 0.061911 -0.750876 -0.623765 -0.077693
0.146332 0.311263 0.071235 0.023759 -1.025447 -0.023770
-0.221607 0.444537 -0.074840 -0.783987 -0.648290 0.039441
0.054514 -0.624760 -0.005476 -0.058205 1.072571 0.115609
0.164054 0.372024 -0.113325 0.137634 -1.037374 -0.134637
-0.120826 -0.497777 0.028160 0.103582 1.167549 0.179112
-0.121627 -0.236033 -0.028017 -0.065122 -1.040479 -0.087508
-0.111448 -0.436889 0.071117 0.084867 1.171119 0.127583
0.188916 0.042491 0.069412 0.223658 -1.000129 -0.053755
-0.362419 0.309724 -0.035286 -0.861757 -0.607532 0.015614
0.315732 0.442179 -0.108751 0.676222 -0.498539 -0.172266
-0.016250 -0.783130 0.010842 -0.064626 1.102782 0.049526
0.103073 -0.070910 -0.135730 0.073976 -1.006554 -0.114826
0.195525 -0.495788 0.015546 0.413043 -0.909707 -0.243589
0.131648 -0.462283 -0.105270 0.456965 -0.870207 -0.283440
-0.009818 0.844553 0.032856 0.125968 -1.483954 0.080031
0.163937 -0.545104 0.048971 0.464069 -0.899981 -0.285526
0.080827 -0.280558 0.076168 0.307021 -0.954455 -0.124813
0.150545 0.248909 0.072096 -0.066044 -0.992687 -0.033023
-0.009283 -0.524827 -0.079265 0.041598 1.141623 0.116644
0.552548 0.103400 0.024015 0.595392 -0.621867 0.285748
0.074149 -0.729635 0.034562 0.005104 1.134416 0.050278
0.205111 -0.181878 0.027755 -0.006398 -1.032161 -0.062824
0.198615 -0.430690 -0.039579 0.628462 -0.767779 -0.160725
-0.118070 -0.795977 -0.036118 -0.006541 1.112649 0.066695
-0.038844 0.832600 -0.026994 0.104953 -1.192346 0.030593
-0.020312 -0.835608 -0.061702 -0.111476 0.818890 0.533972
0.029245 -0.301729 -0.005129 -0.037271 -1.027151 -0.073467
0.134460 -0.237755 -0.095072 0.109713 -1.005913 -0.225348
0.031244 0.825690 0.068947 0.108860 -1.373388 0.074396
-0.125064 -0.127950 0.081882 -0.012633 -1.023580 -0.107535
0.045906 0.184314 0.129243 -0.114558 -1.042297 -0.057047
-0.159743 0.535155 -0.053039 -0.742476 -0.638260 0.053823
0.358464 0.337014 -0.134087 0.799337 -0.457477 0.176004
-0.077552 0.008544 -0.123847 -0.186079 -1.015023 -0.168081
0.006074 -0.024461 0.133300 0.038773 -1.006069 -0.017123
0.052332 -0.534822 -0.050598 -0.051399 1.118909 0.050476
-0.041837 0.246223 0.106929 -0.037836 -1.009185 -0.027956
0.193000 -0.084702 0.073212 -0.019196 -1.076835 -0.077607
-0.029987 0.784869 0.022363 -1.063202 0.030122 0.356569
0.044483 -0.045945 -0.133702 -0.175792 -0.998993 -0.111718
0.181688 -0.373024 -0.058245 0.239306 -0.954548 -0.227834
0.049015 -0.145859 -0.083387 -0.030884 -1.047793 -0.007120
-0.387833 0.259483 0.005711 -0.829012 -0.549637 0.015420
-0.418938 0.166194 0.003819 -0.491564 -0.525543 0.599208
-0.014395 0.132036 -0.119335 -0.021935 -1.010900 -0.075376
-0.017243 -0.206934 0.112507 -0.026408 -1.067583 0.010199
0.171406 -0.791056 0.010529 -0.016097 1.265367 -0.013886
-0.168459 0.472923 -0.087453 -0.771694 -0.618852 -0.075909
0.043429 0.608082 0.025772 1.068853 -0.097429 -0.121597
-0.037647 0.341876 -0.128049 -0.273454 -0.975483 -0.167562
0.062222 -0.796757 -0.002091 -0.029591 1.119235 0.013715
-0.087268 -0.378004 0.098020 0.019517 1.145396 0.073153
-0.138263 -0.157447 -0.010582 -0.148602 -0.997366 -0.077218
0.154341 0.313540 -0.099246 -0.040938 -0.983869 -0.083894
-0.001385 0.559186 0.024146 1.115019 -0.077006 -0.146309
-0.027080 -0.375350 -0.075789 -0.008630 -1.052385 -0.138631
0.020754 0.407670 0.100450 -0.022711 -1.009923 -0.097621
0.146416 0.087416 -0.108492 -0.080624 -0.978357 -0.162430
-0.136925 0.557877 -0.007265 -0.872070 -0.618716 -0.054536
0.039315 -0.203617 0.023654 -0.016868 -1.049799 -0.108354
0.093811 0.362089 -0.145369 -0.088954 -0.992220 -0.064537
-0.129504 0.469839 0.061902 -0.750102 -0.627618 -0.032815
0.107077 0.595711 -0.066716 1.050147 -0.214003 -0.082627
-0.469578 0.126464 0.017240 -0.507384 -0.579228 0.550296
0.100132 -0.644314 -0.087442 -0.022658 1.198047 -0.003901
-0.126875 -0.610168 -0.008290 0.048775 1.147753 0.106499
-0.003732 -0.471318 -0.066030 -0.068639 -1.037788 -0.088645
-0.021454 -0.127023 -0.095770 -0.194021 -0.986740 -0.151167
-0.093232 -0.551375 -0.095425 0.073456 1.157569 0.124530
0.029366 0.471039 0.084051 0.369381 -0.903922 -0.206824
0.158526 -0.842467 0.147852 -0.172682 0.638122 0.769489
-0.126765 0.175664 0.023280 -0.156655 -0.971635 -0.134675
0.012323 -0.311546 0.070999 -0.012078 -1.042090 -0.011973
0.331693 0.352783 -0.041299 0.464475 -0.839618 -0.152685
-0.237797 0.330404 -0.078641 -0.820498 -0.566578 0.067037
-0.093330 0.195916 0.076013 -0.048452 -1.036437 -0.071067
0.064256 0.403784 -0.138865 -0.015338 -1.020944 -0.042536
0.026306 -0.568706 -0.022114 -0.160377 1.106092 0.069551
0.404197 0.226241 -0.109500 0.609602 -0.657194 0.313822
0.096987 0.757060 -0.072798 0.123236 -1.498005 0.082023
-0.039585 0.040455 0.127583 -0.056792 -1.018994 -0.011119
0.189753 -0.563291 -0.067232 0.552565 -0.897915 -0.142479
0.301224 0.320416 -0.099513 0.601731 -0.790372 -0.181793
0.075529 0.833037 -0.077747 0.099778 -1.435751 0.084489
-0.093144 0.433511 -0.120155 -0.468143 -0.882775 -0.052788
-0.138545 -0.172777 0.039647 -0.228878 -0.980508 -0.162720
-0.258016 0.409157 -0.078087 -0.839416 -0.625158 -0.035438
0.088000 -0.185917 0.092059 0.077817 -1.061891 -0.015656
-0.074070 -0.740494 -0.123175 -0.004210 1.158849 0.031087
-0.092964 0.317363 0.061463 -0.155929 -0.973178 -0.104823
-0.052073 -0.073184 0.127008 -0.091099 -1.021294 -0.051283
0.207329 -0.002074 -0.008364 -0.081387 -1.025351 -0.085425
-0.134024 0.032348 -0.031144 -0.170444 -1.007934 -0.117781
0.509453 0.170975 0.018208 0.574112 -0.668052 0.328797
0.064413 0.049622 -0.156934 -0.108867 -1.016019 -0.181366
0.249282 0.452229 -0.133631 0.724809 -0.722527 -0.200572
0.343064 0.293008 -0.115361 0.715309 -0.632440 0.065094
-0.087567 -0.655168 -0.105143 0.016280 1.161456 0.054770
0.204776 0.002624 0.043088 0.208931 -1.000058 -0.134993
0.065506 0.664790 0.062032 -0.045641 1.310807 -0.065117
-0.177394 0.378248 0.007048 -0.769627 -0.670293 -0.182978
0.183053 -0.403939 0.061532 0.364765 -0.932107 -0.158153
-0.127104 0.376190 -0.027438 -0.182601 -0.994102 -0.223937
0.170607 -0.209210 -0.076212 0.199848 -0.968443 -0.172814
0.059522 0.522866 0.052900 0.980696 -0.243509 -0.188432
0.377705 0.343566 -0.069895 0.735689 -0.546318 0.169875
-0.127224 -0.058927 -0.054585 -0.367213 -0.899159 -0.180136
0.169586 -0.818510 -0.030035 -0.019768 1.188126 0.002823
0.215102 0.405243 -0.090222 0.729643 -0.647736 -0.217063
0.077402 -0.292300 -0.088076 -0.058893 -1.030278 -0.162256
-0.114303 0.089482 0.065060 0.000004 -1.042849 0.042527
0.183847 -0.292259 0.070806 0.030891 -1.014757 -0.051938
-0.031409 0.459346 -0.131481 -0.488299 -0.798852 -0.141465
0.163636 0.269901 -0.068676 -0.055480 -1.018474 -0.074162
-0.058361 0.112947 -0.110795 -0.147350 -0.997253 -0.188905
-0.004228 0.609351 0.006858 1.069657 -0.075569 -0.139846
-0.319367 0.326852 -0.086292 -0.865742 -0.587924 0.110411
0.135849 -0.802418 0.049854 -0.103118 0.907941 0.417546
-0.070613 -0.122252 -0.100792 -0.240270 -0.993384 -0.220613
-0.107066 -0.702004 0.011351 0.007598 1.163279 0.043772
0.181750 0.148857 -0.036665 -0.038294 -1.016514 -0.043247
-0.121224 -0.233771 0.087777 -0.102388 -1.001634 -0.111299
0.150324 0.189672 -0.082481 -0.041911 -1.018721 -0.004314
-0.057910 -0.778824 0.034764 -0.061838 1.059149 0.165077
-0.085347 0.157078 -0.080135 -0.221967 -0.994008 -0.138712
-0.440704 0.186406 -0.049528 -0.502502 -0.515951 0.655667
0.085322 0.630832 -0.034673 1.126149 -0.101730 -0.126625
0.110745 0.541249 0.027051 1.060367 -0.007225 -0.163493
0.086269 -0.827947 -0.029545 -0.111942 0.885901 0.423643
-0.002585 -0.735434 0.001346 0.010384 1.133771 0.056814
0.109658 -0.823423 0.095176 -0.175184 0.708902 0.671611
0.020239 -0.670602 -0.060451 -0.033678 1.097852 0.048377
-0.116892 0.393260 0.054140 -0.024752 -1.043072 -0.062026
0.120315 -0.480048 0.049991 0.470037 -0.906576 -0.273059
-0.069536 0.300974 -0.114627 -0.269228 -1.021559 -0.071306
-0.073454 -0.601783 -0.104027 0.034613 1.141522 0.083284
0.055707 -0.192400 -0.076897 0.144032 -1.038243 -0.089042
0.122292 -0.868467 0.132346 -0.103786 0.797663 0.482516
0.153362 -0.615264 -0.092205 -0.030932 1.216233 -0.018745
0.171370 -0.772004 -0.072292 -0.024648 1.271703 -0.024634
-0.115492 -0.172943 -0.048529 -0.349366 -0.967771 -0.094702
-0.172631 0.497249 0.044718 -0.877401 -0.564847 -0.052062
-0.030071 -0.303956 -0.086210 0.018795 -1.058185 -0.158818
0.131884 0.152933 0.097042 -0.036982 -0.999852 -0.064059
-0.003531 0.615948 -0.063124 1.146832 0.025614 -0.196057
-0.025184 0.703951 -0.008951 -0.988003 -0.258291 0.165108
0.159042 0.088390 0.083292 0.035701 -1.030307 0.021665
-0.274206 0.305812 0.004264 -0.814733 -0.632457 -0.103871
0.089078 0.697018 0.031991 0.390327 1.279643 -0.079219
0.187065 -0.448173 0.048947 0.441529 -0.918038 -0.225398
0.052910 0.274958 -0.131912 -0.152660 -0.999931 -0.132233
0.176550 0.048747 -0.085157 -0.038886 -1.015737 -0.057699
-0.051851 -0.142172 0.122945 -0.062781 -1.074096 0.003481
0.005114 0.108324 0.133330 -0.156114 -1.046101 -0.061195
0.225291 0.445315 0.014853 0.591200 -0.806928 -0.280231
-0.022264 -0.484797 0.057109 0.023008 1.106140 0.103831
0.592919 0.117390 0.007383 0.574724 -0.679105 0.282800
-0.039324 -0.195968 -0.093060 -0.192264 -1.031002 -0.166127
0.582293 0.129720 0.050868 0.533624 -0.551583 0.513891
0.152369 -0.220624 0.089344 0.028095 -1.037201 0.046354
0.013477 0.371576 -0.127723 -0.017818 -1.019655 -0.061737
0.191479 -0.753194 -0.008611 -0.005304 1.273715 -0.000107
0.099497 0.799866 -0.058165 0.099397 -1.433648 0.069654
-0.095607 -0.155348 0.112764 0.055011 -1.035930 -0.083260
-0.100247 -0.032952 0.105091 -0.150040 -1.027763 -0.093829
0.028656 -0.005804 -0.146423 -0.175316 -1.032792 -0.197778
0.267562 0.509318 -0.068725 0.618507 -0.779523 -0.272242
0.095936 -0.412015 -0.095681 0.534876 -0.799224 -0.243907
0.132015 0.526991 -0.128107 1.055033 -0.147431 -0.106362
0.233737 0.531239 -0.088842 0.950031 -0.353945 -0.119314
-0.002149 0.296276 0.118313 -0.115505 -1.026557 -0.018284
-0.028653 -0.066663 -0.119106 -0.293639 -0.990754 -0.190532
0.498000 0.229602 -0.023745 0.669561 -0.448788 0.485270
0.063849 0.239824 0.123097 -0.006145 -1.040507 0.030735
-0.141844 -0.070220 0.036397 -0.094279 -1.053131 0.013699
0.064734 -0.234070 0.072988 0.130161 -1.048780 -0.077059
-0.287192 0.256806 -0.056093 -0.820636 -0.612800 -0.032536
0.048672 -0.381251 -0.049413 -0.027168 -1.012076 -0.128280
0.011562 -0.457066 0.031445 -0.075332 -1.051551 -0.008738
-0.185942 0.524208 -0.018550 -0.832114 -0.539680 0.022044
0.130708 -0.065216 0.114818 0.077522 -1.021371 -0.079516
0.156165 -0.571434 -0.097230 0.431992 -0.845663 -0.198071
-0.554873 0.071356 0.081939 -0.383405 -0.419520 0.683572
-0.051637 0.219603 -0.112288 -0.069965 -1.025451 0.022244
0.055679 -0.727535 -0.005373 -0.093474 0.985875 0.258808
0.001671 -0.151342 -0.067467 -0.155587 -1.055937 -0.131358
-0.063090 -0.268651 -0.091039 -0.207975 -0.980184 -0.189237
-0.111911 0.109530 -0.057662 -0.217450 -1.018276 -0.183658
-0.081403 -0.611928 0.050573 0.014832 1.128930 0.115964
0.156604 -0.863355 0.028418 -0.200809 0.645001 0.797253
-0.489428 0.163331 0.004755 -0.462536 -0.530853 0.679642
0.111311 0.321687 0.097877 0.019435 -1.022553 -0.028766
0.068429 -0.585953 0.008640 -0.031222 1.162530 -0.002477
0.208227 0.501481 0.016768 0.855028 -0.450462 -0.168364
0.424800 0.208960 -0.075333 0.664927 -0.546980 0.327495
0.197887 0.370382 -0.030500 0.681282 -0.748280 -0.198017
0.382248 0.286059 -0.038541 0.754249 -0.602225 0.103667
0.083644 0.538082 -0.126846 0.970502 -0.364677 -0.197690
0.044248 -0.459188 -0.021596 -0.024486 -1.037990 -0.068456
-0.112901 0.296058 0.007062 -0.061647 -1.037636 -0.040467
-0.342791 0.254728 0.007890 -0.750740 -0.612171 0.104560
0.150849 0.577070 -0.041747 1.103776 -0.045397 -0.176566
0.008323 -0.583301 -0.057522 -0.087945 1.028554 0.138722
0.041418 -0.323397 -0.040985 0.051984 -1.006178 -0.139526
-0.170608 0.397609 -0.090185 -0.754957 -0.568771 -0.036361
-0.124309 -0.697098 -0.071760 0.001431 1.118365 0.051157
0.093331 -0.848555 -0.102840 -0.110895 0.811997 0.477578
-0.035139 0.327979 0.103248 -0.068328 -1.025606 -0.018869
0.087281 0.450873 -0.144603 -0.239620 -0.957932 -0.151383
-0.336825 0.222320 -0.027086 -0.787380 -0.589826 0.081694
0.004637 -0.537580 0.021261 -0.024073 1.096186 0.094168
0.111566 -0.548351 -0.104612 0.516216 -0.912450 -0.202661
0.137608 -0.346047 -0.089098 0.584893 -0.862805 -0.161522
-0.048237 0.286912 0.099234 -0.022556 -1.006707 -0.072368
-0.501512 0.147981 0.052737 -0.479717 -0.544515 0.626028
-0.117665 0.466220 -0.111294 -0.521002 -0.746654 -0.154481
0.628242 0.063507 0.019601 0.552902 -0.625734 0.434808
-0.074619 -0.437901 -0.087284 0.032902 1.174332 0.070444
-0.048803 -0.826154 0.108485 -0.124685 0.877606 0.464464
0.206369 -0.120167 -0.037181 -0.020866 -0.973571 -0.075534
-0.000076 -0.641327 0.021179 -0.009812 1.135822 0.031950
0.082951 -0.763415 0.011294 0.010753 1.168128 0.045956
-0.421716 0.244611 -0.012905 -0.562276 -0.570609 0.510550
-0.127941 -0.613609 -0.065991 0.085099 1.237855 0.112071
-0.104340 -0.040935 -0.093464 -0.268065 -0.996054 -0.128063
0.177881 -0.117180 -0.079583 0.036105 -1.001604 -0.167641
-0.138947 -0.461989 -0.016166 0.119719 1.196972 0.175175
-0.112901 0.242352 -0.038815 -0.045123 -0.981393 -0.079417
-0.114793 -0.542630 0.027844 0.068736 1.203574 0.103747
0.096599 0.202171 0.113722 0.021752 -1.044876 0.010835
-0.070644 -0.557220 0.057480 0.080799 1.164811 0.130943
-0.046669 -0.651832 -0.103470 -0.003582 1.074504 0.201890
-0.075315 -0.732277 0.013159 0.014720 1.123129 0.092955
0.395272 0.330377 -0.110100 0.749344 -0.624096 -0.043728
0.192655 0.117355 0.031719 0.006196 -1.002435 -0.108042
0.033432 0.361847 0.111156 0.085498 -1.036057 -0.034529
-0.047871 -0.807730 0.061759 -0.049961 1.032385 0.174700
0.200877 0.057851 -0.023927 0.075920 -1.040325 0.010440
0.170222 -0.016024 -0.104447 0.024286 -1.029133 0.002836
-0.107811 -0.321800 -0.053385 -0.183959 -1.030793 -0.103475
-0.051643 0.473187 0.078470 -0.188774 -1.015717 -0.030623
0.075548 0.087325 -0.146840 -0.110499 -1.041261 -0.005453
-0.124027 -0.298885 0.070090 -0.045721 -1.053340 0.013006
0.172060 -0.656542 -0.071767 -0.007102 1.230456 0.006927
0.086241 -0.845931 0.048113 -0.066809 0.867197 0.421236
0.303649 0.415116 -0.023375 0.579452 -0.833339 -0.149489
0.061996 -0.059179 0.121856 0.142466 -1.018661 -0.006322
0.166863 -0.063543 0.096866 -0.055656 -1.057511 0.050810
0.192475 -0.050235 -0.062788 -0.028978 -1.022842 -0.121146
-0.409489 0.233211 -0.064364 -0.642714 -0.503889 0.327365
0.093361 0.054919 0.121669 -0.010149 -1.038669 -0.086363
0.089392 0.828186 0.011092 0.111320 -1.426939 0.081344
-0.127483 0.012881 0.073414 -0.058654 -1.031039 -0.073845
-0.002117 -0.263674 -0.069058 -0.093109 -1.013932 -0.061941
0.044530 0.189078 -0.113794 -0.039111 -0.995572 -0.148410
0.012965 0.727764 0.080475 -0.080674 1.366284 -0.128718
-0.131818 -0.267913 0.041877 -0.137534 -1.050020 -0.094877
0.204091 -0.501744 -0.023103 0.401836 -0.928995 -0.269634
-0.273804 0.355419 0.011400 -0.766211 -0.594329 0.087270
0.090556 0.700841 -0.013043 1.014264 -0.366955 -0.096259
0.051831 0.093740 0.132190 0.017330 -1.030517 0.035803
-0.005154 -0.817071 -0.006799 -0.029476 1.034756 0.177463
