-0.058848 -0.536968 -0.016510 0.008781 0.933031 0.140176
0.034231 0.251962 -0.003550 0.027355 -0.913828 0.063778
0.109541 -0.229329 -0.003395 -0.036769 0.967203 0.021286
0.117450 -0.223841 -0.001882 -0.024330 0.949740 0.022180
0.082902 -0.034635 -0.014318 0.095634 -0.827265 -0.004167
0.037944 0.327178 -0.010358 0.041056 -0.955606 0.059391
-0.021828 0.070796 0.027119 -0.002907 1.008782 -0.013973
0.119747 -0.152285 0.002024 -0.016994 0.955380 0.006858
-0.058443 -0.559239 -0.020230 0.019753 0.968470 0.120741
0.125395 -0.445854 -0.022829 -0.009997 0.968252 0.034707
-0.061367 -0.582506 -0.024560 0.009677 0.959959 0.141543
0.133704 -0.559155 -0.031452 -0.009328 0.985534 0.037554
0.128056 -0.383860 -0.014184 -0.011643 0.922860 0.054752
0.031004 0.257250 -0.003474 0.021543 -0.907911 0.063923
-0.058085 -0.510979 -0.015225 0.012512 0.955022 0.125686
0.127751 -0.590621 -0.033408 -0.017798 0.974834 0.038666
0.030746 0.290693 -0.006525 0.024656 -0.938168 0.062250
0.558555 0.124130 0.015386 0.532003 -0.692583 0.400880
-0.518954 0.103183 0.052630 -0.485303 -0.532590 0.629122
-0.001949 -0.000024 0.003108 -0.071945 -0.716838 0.074174
0.047730 0.116780 0.000674 0.039099 -0.882926 0.050437
0.050830 0.275177 -0.010068 0.044386 -0.907301 0.050347
0.189035 0.446891 -0.063444 0.683076 -0.510145 -0.084774
0.087259 0.091286 0.017498 -0.054257 0.999693 -0.044543
-0.041620 -0.087533 0.020893 -0.004031 0.964213 0.025632
-0.052713 -0.711230 -0.043705 -0.014245 0.922121 0.195787
-0.051607 -0.770451 -0.036171 -0.043127 0.877773 0.252933
0.110864 -0.184400 -0.000135 -0.036321 0.971341 0.013992
0.034622 0.518530 -0.044401 0.683544 -0.241676 -0.120900
0.045804 -0.792015 -0.025371 -0.068584 0.794247 0.341962
0.031819 0.287239 -0.007818 0.023510 -0.911713 0.058076
-0.353050 0.260167 -0.041070 -0.747913 -0.599711 0.124851
-0.118565 0.453101 -0.021403 -0.663782 -0.465364 0.059015
0.037559 0.301896 -0.006390 0.028326 -0.928942 0.064912
-0.058466 -0.430635 0.004866 0.035975 0.957361 0.097068
0.022127 0.304493 -0.007208 0.011109 -0.950104 0.057922
-0.202967 0.390527 -0.030482 -0.704470 -0.569788 0.038952
-0.032325 0.424762 -0.024391 0.000541 -0.854367 0.050292
0.048000 -0.745146 -0.031129 -0.044728 0.872937 0.251254
0.033981 -0.762871 -0.014947 -0.052522 0.853125 0.283976
-0.075466 0.625005 -0.017717 -0.343770 -0.573741 0.091083
0.032112 0.254133 -0.004226 0.021942 -0.930431 0.064406
0.114808 -0.111793 0.004608 -0.020168 0.965807 -0.002630
0.021812 0.278923 -0.008323 0.010382 -0.917768 0.061399
0.132709 -0.418057 -0.017545 -0.009894 0.927876 0.050985
0.416027 0.264813 -0.066967 0.627248 -0.648288 0.251358
-0.023175 0.364406 -0.019509 0.007724 -0.917525 0.041139
-0.056811 -0.368731 0.012802 0.017200 0.970916 0.091511
0.050435 0.408623 -0.028089 0.005732 -0.883271 0.035654
0.131190 -0.501308 -0.027935 -0.009485 0.968995 0.032178
0.035036 0.296954 -0.009404 0.035393 -0.933245 0.061037
0.031735 -0.779539 0.066297 -0.075318 0.789078 0.343650
-0.001922 0.038678 -0.001351 -0.066677 -0.774511 0.063002
0.031753 -0.792756 0.012977 -0.069571 0.814528 0.339322
-0.052698 -0.294271 0.017586 0.011264 1.007917 0.070864
0.286990 0.399612 -0.085921 0.609869 -0.722851 -0.104563
0.125535 -0.526084 -0.031369 -0.005424 0.942808 0.030773
0.078818 0.030377 -0.023714 0.117466 -0.910417 -0.030436
-0.060489 -0.615254 -0.026941 0.013689 0.975814 0.135639
-0.053438 -0.456907 -0.005249 0.021800 0.914372 0.112539
-0.053201 -0.748911 -0.050535 -0.028319 0.916836 0.220793
-0.013749 0.143617 0.028929 0.004530 1.030296 -0.034215
0.018360 0.257340 -0.006053 0.002973 -0.920605 0.056092
0.034783 0.254189 -0.006157 0.024528 -0.900348 0.058538
0.123130 -0.264085 -0.005037 -0.015923 0.918717 0.037125
0.126845 -0.481904 -0.025546 -0.014287 0.998774 0.034751
0.119149 -0.165540 -0.000707 -0.018334 0.971839 -0.003165
0.129843 -0.545605 -0.030741 -0.012942 0.988286 0.036263
0.120563 -0.196382 -0.000035 -0.016914 0.949332 0.019787
0.032299 0.255819 -0.003776 0.026362 -0.947900 0.060728
0.024176 0.165580 0.000318 0.001805 -0.896528 0.062028
0.122950 -0.394191 -0.017158 -0.023618 0.958701 0.040686
0.125598 -0.339891 -0.009276 -0.013826 0.918822 0.057371
0.038108 0.306649 -0.010612 0.043165 -0.927279 0.060392
0.035440 0.212181 -0.002310 0.024801 -0.911253 0.057380
0.027679 0.233050 -0.003934 0.016072 -0.903221 0.063731
0.112166 -0.200990 -0.002414 -0.024505 0.969583 0.003959
0.119073 0.456104 -0.050060 0.756654 -0.333401 -0.110455
0.040106 0.248643 -0.004738 0.035764 -0.919412 0.057227
0.026814 0.298305 -0.007174 0.021612 -0.960800 0.067451
0.132690 -0.473789 -0.022978 -0.009530 0.944844 0.054693
0.027997 0.300861 -0.006585 0.022370 -0.925149 0.066176
0.133786 -0.528217 -0.030477 -0.001985 0.966670 0.033435
-0.028261 0.015716 0.030569 -0.039278 1.039698 0.002552
0.021760 0.358019 -0.014569 0.035504 -0.935783 0.041231
-0.001143 0.341790 -0.015527 -0.000244 -0.938267 0.039109
0.114701 -0.787951 -0.018558 -0.066069 0.857610 0.316858
0.040940 0.215465 -0.001265 0.033161 -0.915288 0.056976
-0.045374 -0.203788 0.021870 -0.004524 1.007829 0.054092
0.025677 0.292852 -0.008649 0.019393 -0.940925 0.058968
0.023099 0.304278 -0.007519 0.014826 -0.929313 0.059674
0.116524 -0.740595 -0.028977 -0.047836 0.929953 0.200047
0.028322 0.323386 -0.014341 0.021394 -0.895716 0.039760
0.031599 0.342602 -0.010852 0.034603 -0.958445 0.064442
0.078455 0.154407 0.022068 -0.063131 1.010014 -0.051022
0.031752 0.308764 -0.006770 0.030238 -0.947423 0.065633
-0.048773 -0.776586 -0.059447 -0.037645 0.909972 0.244406
0.028944 0.242755 -0.004338 0.019786 -0.887299 0.062192
-0.059554 -0.399342 0.008388 0.031057 0.973079 0.090322
0.041568 0.193640 0.000754 0.033185 -0.913612 0.054914
