-0.056913 -0.466619 -0.008836 0.006217 0.882724 0.141451
0.036095 0.254145 -0.008214 0.042740 -0.917733 0.060871
0.126927 -0.464093 -0.011145 -0.023920 0.911257 0.092915
0.118296 -0.173290 0.008617 -0.006472 0.884499 0.021316
0.081002 0.040894 -0.020512 0.155616 -0.930575 -0.033652
0.043062 0.282813 -0.011664 0.059578 -0.929213 0.045217
-0.039062 -0.048574 0.019010 0.049224 0.820353 0.049036
0.123588 -0.298671 0.000252 -0.001246 0.911266 0.025885
-0.061216 -0.513844 -0.017819 0.003108 0.933944 0.127306
0.129359 -0.545516 -0.019993 -0.014547 0.994171 0.024673
-0.060300 -0.582628 -0.030434 -0.006382 0.943913 0.130689
0.123828 -0.562814 -0.023983 -0.010214 0.975464 0.001698
0.120177 -0.393845 -0.006068 -0.020531 0.919128 0.055231
0.035935 0.305717 -0.010540 0.049003 -0.961940 0.057081
-0.054930 -0.205917 0.015582 -0.001467 0.880162 0.080458
0.122343 -0.548000 -0.023814 -0.012711 0.991820 -0.006441
0.021636 0.335135 -0.018139 0.044864 -0.954761 0.026076
0.580874 0.101333 0.018083 0.566413 -0.639172 0.312515
-0.500698 0.123049 0.029198 -0.423493 -0.491905 0.674236
0.003927 -0.006766 -0.007342 -0.071527 -0.771899 0.064299
0.056216 0.108879 -0.002281 0.075637 -0.901777 0.043380
0.051330 0.299020 -0.013565 0.042795 -0.933994 0.042996
0.159253 0.488020 -0.055692 0.698957 -0.438816 -0.097777
0.108805 -0.138342 0.010656 -0.020311 0.874784 0.011746
-0.052731 -0.257957 0.013631 0.002208 0.891116 0.088532
-0.061231 -0.557019 -0.025707 -0.000335 0.948626 0.111820
-0.049114 -0.744867 -0.058442 -0.049058 0.901745 0.248551
0.129287 -0.514931 -0.016826 -0.015702 0.965375 0.041904
0.037098 0.552984 -0.037580 0.758915 -0.169248 -0.128797
0.051837 -0.803744 -0.038760 -0.113934 0.732880 0.498017
0.033365 0.315730 -0.013166 0.043919 -0.956009 0.042946
-0.325816 0.281612 -0.038111 -0.714957 -0.597700 0.144519
-0.114351 0.489097 -0.019533 -0.697024 -0.505352 0.054234
0.033749 0.239423 -0.006670 0.029838 -0.905492 0.055984
-0.058462 -0.419029 0.000079 0.020399 0.877238 0.123540
0.025988 0.252873 -0.008293 0.028974 -0.917625 0.047652
-0.196923 0.429009 -0.030517 -0.771273 -0.574494 0.023947
-0.009500 0.426428 -0.023654 0.143110 -0.837743 0.023456
0.038428 -0.772586 -0.024247 -0.086653 0.795259 0.388402
0.038425 -0.747325 -0.032279 -0.071501 0.850234 0.317443
-0.070009 0.634528 -0.016561 -0.337182 -0.648235 0.117303
0.042103 0.227167 -0.007454 0.048093 -0.940698 0.051056
0.119711 -0.329556 0.000024 -0.008925 0.923956 0.036418
0.037888 0.286386 -0.009445 0.050627 -0.944747 0.056835
0.118313 -0.585208 -0.024711 -0.014295 0.972494 0.006834
0.402863 0.266998 -0.083932 0.709163 -0.559083 0.193068
-0.007570 0.365838 -0.021464 0.098893 -0.895623 0.010741
-0.058085 -0.390309 0.005397 0.035069 0.883613 0.110878
0.061034 0.437753 -0.027856 0.000597 -0.923265 0.039548
0.127772 -0.540903 -0.020333 -0.014140 0.990272 0.024107
0.040277 0.242441 -0.007752 0.047821 -0.923697 0.048706
0.027787 -0.765947 0.042890 -0.101320 0.722703 0.435133
-0.002010 0.053677 -0.018704 -0.070127 -0.888445 0.022091
0.033610 -0.792001 -0.009053 -0.102895 0.753920 0.452513
-0.053861 -0.321813 0.017010 0.016437 0.901661 0.107231
0.248081 0.409748 -0.087473 0.636744 -0.642398 -0.119964
0.128871 -0.587273 -0.025425 -0.011920 0.970406 0.004605
0.083016 -0.007843 -0.012636 0.123512 -0.835440 0.015353
-0.059422 -0.613223 -0.034854 -0.010704 0.960219 0.127300
-0.058652 -0.479534 -0.011480 0.003438 0.911104 0.134036
-0.048698 -0.707143 -0.056211 -0.037361 0.914140 0.199478
-0.028058 0.069981 0.020701 0.082754 0.797732 0.021996
0.035545 0.246930 -0.008712 0.040890 -0.913388 0.054951
0.034603 0.278874 -0.011825 0.046856 -0.939831 0.043753
0.129461 -0.487987 -0.013001 -0.021355 0.950347 0.070757
0.118386 -0.387067 -0.009869 -0.017993 0.953199 0.007625
0.121612 -0.346804 -0.002503 -0.008510 0.929576 0.029895
0.129275 -0.548384 -0.022106 -0.013725 0.992998 0.008849
0.128563 -0.467532 -0.009873 -0.016867 0.913878 0.080760
0.035426 0.221853 -0.008329 0.040718 -0.911039 0.059102
0.039857 0.213380 -0.008325 0.044705 -0.965353 0.048450
0.126147 -0.525372 -0.019838 -0.009223 0.983688 0.002967
0.119067 -0.254059 0.001810 -0.006832 0.930462 0.012325
0.035018 0.291245 -0.010928 0.042852 -0.940978 0.051806
0.042989 0.236575 -0.009310 0.054105 -0.950920 0.049555
0.034313 0.241071 -0.007153 0.041147 -0.928198 0.054349
0.122042 -0.419667 -0.006355 -0.018856 0.904343 0.067010
0.105330 0.482585 -0.040762 0.719757 -0.336852 -0.091980
0.040358 0.242905 -0.008178 0.051796 -0.924905 0.048755
0.028373 0.140365 -0.002244 0.022505 -0.870582 0.050260
0.129461 -0.555011 -0.021933 -0.006920 0.992061 0.010931
0.033908 0.277905 -0.009506 0.042201 -0.931209 0.055314
0.116309 -0.410236 -0.009254 -0.024072 0.921569 0.039591
-0.046276 -0.101776 0.023473 0.009805 0.890019 0.063104
0.037426 0.378739 -0.019030 0.071947 -0.969984 0.029380
0.015599 0.369802 -0.018800 0.075458 -0.967144 0.021754
0.107697 -0.770906 -0.031780 -0.087583 0.842755 0.356290
0.038064 0.263682 -0.009120 0.047807 -0.943246 0.055838
-0.054451 -0.290799 0.018288 0.005602 0.902015 0.103520
0.045836 0.241466 -0.008593 0.056151 -0.923315 0.048847
0.036711 0.220941 -0.007530 0.036921 -0.908142 0.046548
0.111306 -0.703434 -0.027023 -0.042602 0.981226 0.129370
0.054523 0.366829 -0.019619 0.046544 -0.940858 0.038509
0.039454 0.241561 -0.008795 0.049171 -0.903029 0.052287
0.083100 0.048832 0.021880 -0.031033 0.882664 -0.013270
0.037053 0.235811 -0.008531 0.040255 -0.917035 0.050023
-0.044607 -0.770801 -0.064327 -0.058853 0.897354 0.290981
0.014062 0.296969 -0.012998 0.019770 -0.963054 0.040125
-0.058049 -0.355925 0.010372 0.032549 0.907624 0.104576
0.046568 0.156346 -0.001382 0.051496 -0.912923 0.041407
