-0.056432 -0.440077 -0.005234 0.006874 0.954851 0.142892
0.034548 0.232766 -0.004382 0.038468 -1.010742 0.046423
0.130040 -0.501076 -0.026692 -0.001984 1.008033 0.011260
0.117845 -0.260807 -0.005485 -0.014012 0.998932 0.036708
0.070097 -0.066749 0.005094 0.045806 -0.907250 -0.021137
0.042414 0.205576 -0.002600 0.027877 -0.987286 0.044726
-0.033449 0.019024 0.031876 0.011705 0.978909 0.014781
0.130404 -0.580857 -0.030753 0.018688 0.979031 -0.000307
-0.056652 -0.393843 0.003219 0.021968 0.956275 0.131350
0.116007 -0.342803 -0.014573 -0.035753 0.968069 0.055467
-0.060372 -0.558540 -0.024792 -0.005778 0.958246 0.096263
0.131639 -0.509655 -0.028049 0.001398 1.002032 0.013039
0.112094 -0.125645 0.002058 -0.012930 1.007364 0.003469
0.032506 0.297547 -0.011489 0.054066 -0.996732 0.043838
-0.043508 -0.161228 0.026566 -0.025074 0.975319 0.063408
0.133008 -0.509888 -0.028388 -0.006523 1.000018 0.035694
0.010888 0.303345 -0.011965 0.037605 -0.988192 0.039131
0.582189 0.115209 0.025207 0.529393 -0.668017 0.385460
-0.498477 0.117614 0.030673 -0.464488 -0.555571 0.606271
0.026218 -0.115401 0.009724 -0.064043 -0.906377 -0.016754
0.069501 0.055277 -0.002864 0.120044 -0.944101 -0.023047
0.052548 0.310903 -0.016940 -0.004949 -0.955463 0.038180
0.178572 0.472912 -0.061247 0.766485 -0.376693 -0.048190
0.113603 -0.167196 0.000997 -0.008500 1.001187 0.018047
-0.044001 -0.205305 0.025122 -0.013392 0.986809 0.070933
-0.059259 -0.522513 -0.019769 -0.002815 0.959037 0.122785
-0.051958 -0.785087 -0.055458 -0.067941 0.849230 0.275500
0.113025 -0.287511 -0.011233 -0.033771 0.975404 0.028886
0.041974 0.638344 -0.023392 0.146602 -0.798414 -0.145384
0.078716 -0.759705 -0.028423 -0.074311 0.822752 0.417182
0.038172 0.284333 -0.009442 0.049125 -0.990177 0.048254
-0.360059 0.249914 -0.033490 -0.661110 -0.608080 0.221743
-0.093661 0.492162 -0.021909 -0.678450 -0.420936 0.097241
0.038539 0.353314 -0.020233 0.069649 -0.984759 0.021661
-0.055026 -0.368231 0.008252 0.033136 0.967104 0.111958
0.041153 0.211891 -0.003037 0.033587 -0.991726 0.044040
-0.202796 0.407642 -0.030468 -0.601308 -0.645062 -0.021059
-0.039942 0.453894 -0.023364 0.165846 -0.762612 0.068255
0.044649 -0.754474 -0.029307 -0.032634 0.910674 0.276930
0.130078 -0.531054 -0.030769 -0.003118 1.005068 0.001060
-0.074134 0.662312 -0.016987 0.060493 -0.657195 0.107677
0.046423 0.045093 0.002264 0.008370 -0.941207 0.003611
0.116129 -0.287404 -0.009353 -0.028282 0.991397 0.036510
0.043497 0.157940 -0.000091 0.020360 -0.983753 0.035525
0.127705 -0.446873 -0.023095 -0.019759 0.972695 0.065450
0.431313 0.243822 -0.071252 0.591457 -0.610615 0.375243
-0.012119 0.425046 -0.024563 0.130411 -0.923418 0.019081
-0.044083 -0.133796 0.028492 -0.025317 0.975335 0.056842
0.072793 0.442664 -0.037156 -0.125726 -0.872495 0.038662
0.113210 -0.203943 -0.000688 -0.013428 1.001513 0.031649
0.032983 0.182453 -0.000657 0.021077 -0.979208 0.045394
0.027364 -0.752271 0.020270 -0.070352 0.757006 0.383799
0.013612 -0.053373 0.007035 -0.080950 -0.906968 0.006530
0.041761 -0.791779 -0.032983 -0.066059 0.796617 0.435723
-0.052299 -0.338786 0.011218 0.027690 0.981218 0.091243
0.280474 0.407748 -0.085775 0.664993 -0.668068 -0.155124
0.133512 -0.566625 -0.031978 0.008140 1.004712 -0.004312
0.070976 -0.015518 0.000592 0.084503 -0.921382 -0.026570
-0.062724 -0.602435 -0.029095 -0.014604 0.960677 0.100878
-0.057319 -0.479174 -0.012307 -0.001466 0.962433 0.139109
-0.055001 -0.722652 -0.051840 -0.047794 0.903232 0.216363
-0.019725 0.279362 0.035716 0.013008 1.000454 -0.037940
0.028508 0.284810 -0.008444 0.046118 -1.010162 0.050830
0.041033 0.219031 -0.002999 0.034083 -0.997741 0.046322
0.110030 -0.242813 -0.006260 -0.031124 0.980842 0.024772
0.110917 -0.218680 -0.002327 -0.019176 0.992564 0.033637
0.116312 -0.297540 -0.007243 -0.017743 0.998696 0.055019
0.130369 -0.475559 -0.025943 -0.013672 0.987933 0.047667
0.130807 -0.490692 -0.025959 -0.000645 0.992393 0.024333
0.023908 0.256533 -0.006383 0.032685 -1.002538 0.052784
0.044864 0.004554 0.003689 -0.004781 -0.925760 -0.004765
0.114847 -0.203003 -0.001577 -0.011358 0.996475 0.027507
0.116938 -0.238722 -0.003675 -0.013915 0.999896 0.038701
0.041293 0.184840 -0.001470 0.030096 -0.986283 0.039613
0.046856 0.084017 0.002026 0.017868 -0.963341 0.017982
0.040317 0.252571 -0.006006 0.046046 -1.010155 0.045929
0.134176 -0.537491 -0.029295 0.008680 0.992253 0.023039
0.122814 0.458559 -0.053641 0.760919 -0.335267 -0.028466
0.040167 0.243333 -0.004803 0.042856 -1.009521 0.047646
0.010114 0.007132 0.002050 -0.110557 -0.919508 0.014135
0.129877 -0.544514 -0.028714 0.007329 1.015910 -0.005844
0.040936 0.244731 -0.004419 0.044342 -1.015916 0.045429
0.103054 -0.038917 0.004493 -0.038422 0.987464 -0.024046
-0.042201 -0.075877 0.027597 0.004937 0.980852 0.028467
0.041311 0.270003 -0.007897 0.040765 -0.998439 0.047012
0.035880 0.411020 -0.027607 0.070510 -0.953602 0.008593
0.124939 -0.736255 -0.027529 -0.011057 0.978706 0.067000
0.023236 0.347441 -0.016951 0.058351 -1.008745 0.031266
-0.045654 -0.251379 0.021343 -0.001057 0.990119 0.075179
0.039134 0.234555 -0.003886 0.040059 -1.005863 0.046687
0.043462 0.179314 -0.001265 0.024546 -0.990637 0.039539
0.123216 -0.695224 -0.024242 -0.004819 0.987272 0.014637
0.066072 0.387006 -0.030196 -0.107326 -0.909162 0.035745
0.040804 0.236108 -0.003443 0.040501 -1.012534 0.044637
0.096926 0.047538 0.011636 -0.059770 0.993687 -0.032674
0.036940 0.272486 -0.007731 0.048634 -1.006922 0.049074
-0.055476 -0.756297 -0.057864 -0.059574 0.905184 0.237127
-0.004433 0.371613 -0.019845 0.085238 -0.967028 0.012743
-0.048361 -0.296520 0.015398 0.013614 0.990063 0.075773
0.044620 0.115559 0.002122 0.019385 -0.975573 0.028053
