0.03759551 0.12281052 0.027375482
0.033736467 0.12519848 0.020795554
0.028721511 0.1272696 0.01492608
0.022703022 0.12896094 0.0099454
0.015863867 0.13022113 0.006004849
0.008411851 0.13101187 0.003224166
0.00057339296 0.13130912 0.001687835
-0.007413324 0.13110387 0.0014425404
-0.015305642 0.13040234 0.0024957284
-0.022863753 0.12922587 0.0048153996
-0.029858008 0.12761018 0.008331083
-0.036075886 0.12560436 0.012935936
-0.041328467 0.12326937 0.018490069
-0.045456145 0.12067616 0.024824698
-0.048333507 0.117903516 0.03174736
-0.049873125 0.11503569 0.03904771
-0.05002822 0.11215981 0.04650394
-0.048794083 0.109363265 0.053889483
-0.04620821 0.10673103 0.060979933
-0.042349163 0.10434306 0.06755987
-0.037334207 0.102271944 0.073429346
-0.031315725 0.100580595 0.078410015
-0.024476565 0.099320404 0.08235057
-0.01702454 0.098529674 0.08513125
-0.009186089 0.09823242 0.08666758
-0.0011993647 0.098437674 0.08691288
0.0066929497 0.0991392 0.085859686
0.014251059 0.100315675 0.08354002
0.021245308 0.10193137 0.08002434
0.027463185 0.10393718 0.075419486
0.03271576 0.10627217 0.06986536
0.03684345 0.10886538 0.06353073
0.039720807 0.11163802 0.056608066
0.04126043 0.11450585 0.049307715
0.04141553 0.11738173 0.04185149
0.04018139 0.120178275 0.03446595
0.070033796 0.07458982 -0.0061643943
0.07998035 0.06404277 0.0028354693
0.088005096 0.05138644 0.010995889
0.0938642 0.037005372 0.018068917
0.097379655 0.02133654 0.023839641
0.09844462 0.0048560314 0.028132716
0.097026736 -0.011935409 0.030817706
0.09316911 -0.028527565 0.031813025
0.08698893 -0.0444163 0.031088427
0.078673996 -0.05911886 0.028665941
0.06847694 -0.0721885 0.024619158
0.05670759 -0.083228104 0.019071057
0.04372356 -0.09190224 0.0121901855
0.029919377 -0.09794736 0.0041856356
0.015714454 -0.10117976 -0.0046993643
0.0015404075 -0.101501256 -0.014194887
-0.01217209 -0.09890207 -0.024012387
-0.0250064 -0.09346116 -0.033853568
-0.036572546 -0.08534387 -0.04341942
-0.046519116 -0.07479681 -0.052419297
-0.054543857 -0.06214048 -0.060579717
-0.060402974 -0.047759425 -0.06765274
-0.06391841 -0.032090593 -0.07342347
-0.06498338 -0.015610063 -0.07771654
-0.0635655 0.0011813715 -0.080401525
-0.05970787 0.017773528 -0.08139684
-0.05352769 0.033662267 -0.08067226
-0.045212753 0.048364818 -0.07824976
-0.035015687 0.061434455 -0.07420298
-0.023246355 0.07247406 -0.06865488
-0.010262329 0.08114819 -0.06177401
0.0035418496 0.08719331 -0.05376947
0.017746776 0.09042572 -0.04488446
0.031920824 0.090747215 -0.035388947
0.045633323 0.08814803 -0.025571447
0.058467634 0.08270713 -0.015730262
-0.16342618 -0.069073066 0.02235384
-0.16584133 -0.05044918 0.043936692
-0.16475102 -0.029232867 0.06309864
-0.1601884 -0.006068729 0.07925745
-0.1522921 0.018339366 0.09192215
-0.14130205 0.043249812 0.10070792
-0.12755215 0.067905724 0.10534781
-0.11146022 0.09155792 0.10570084
-0.09351518 0.113487735 0.1017563
-0.074262284 0.13302888 0.093634024
-0.054286513 0.14958759 0.08158079
-0.03419486 0.16266072 0.06596288
-0.0145977475 0.17185107 0.047254786
0.00390934 0.17687939 0.026024956
0.020764075 0.17759289 0.002918478
0.035454355 0.1739699 -0.021362606
0.04753381 0.1661205 -0.04608052
0.056635402 0.15428318 -0.07048421
0.062482618 0.13881764 -0.093832195
0.06489776 0.12019375 -0.11541508
0.063807465 0.098977424 -0.13457702
0.059244856 0.07581331 -0.15073583
0.051348545 0.0514052 -0.16340052
0.04035848 0.026494725 -0.17218629
0.026608583 0.0018388303 -0.17682618
0.01051664 -0.021813361 -0.17717922
-0.0074284 -0.043743193 -0.17323467
-0.026681285 -0.06328432 -0.16511238
-0.04665705 -0.07984302 -0.15305915
-0.06674869 -0.092916146 -0.13744126
-0.08634579 -0.1021065 -0.11873317
-0.104852885 -0.10713482 -0.09750335
-0.12170763 -0.10784833 -0.074396856
-0.1363979 -0.10422534 -0.05011578
-0.14847736 -0.09637594 -0.025397873
-0.15757896 -0.08453864 -0.0009941794
-0.30780885 -0.09530238 0.06600445
-0.3010405 -0.09487699 0.092511535
-0.2934679 -0.089804366 0.118309624
-0.28532118 -0.080238625 0.14261487
-0.27684784 -0.06647044 0.16468874
-0.2683053 -0.0489181 0.18386057
-0.25995317 -0.028114963 0.19954777
-0.2520452 -0.0046931226 0.21127374
-0.2448217 0.020635765 0.2186822
-0.23850216 0.047102105 0.22154804
-0.23327854 0.07390174 0.21978414
-0.22930959 0.100220345 0.21344416
-0.22671592 0.12525827 0.2027207
-0.22557628 0.14825474 0.18793958
-0.22592537 0.168511 0.16954996
-0.22775257 0.1854116 0.14811057
-0.23100227 0.19844303 0.1242728
-0.23557585 0.2072093 0.09876101
-0.24133429 0.21144411 0.072350346
-0.24810264 0.21101871 0.045843206
-0.25567523 0.20594609 0.02004512
-0.263822 0.19638035 -0.004260104
-0.27229533 0.18261215 -0.02633398
-0.28083786 0.1650598 -0.045505825
-0.28919 0.14425668 -0.061193027
-0.29709792 0.12083483 -0.07291901
-0.30432144 0.09550594 -0.08032745
-0.31064102 0.06903959 -0.08319328
-0.31586462 0.04223997 -0.0814294
-0.31983355 0.015921388 -0.075089425
-0.32242724 -0.009116534 -0.06436595
-0.32356688 -0.032113 -0.049584858
-0.3232178 -0.052369278 -0.031195225
-0.3213906 -0.06926987 -0.009755816
-0.31814086 -0.082301304 0.014081925
-0.3135673 -0.09106758 0.039593726
-0.102121025 0.17862947 0.19830558
-0.08091553 0.1703111 0.21473031
-0.056847006 0.16340236 0.22744313
-0.030646745 0.15811324 0.23605777
-0.003110841 0.15460442 0.24031249
0.024924047 0.1529825 0.240078
0.0526061 0.15329678 0.2353614
0.07909418 0.15553772 0.22630604
0.103583485 0.15963721 0.21318704
0.12532994 0.16547069 0.19640303
0.14367276 0.17286092 0.17646396
0.1580546 0.18158336 0.15397571
0.16803852 0.19137295 0.1296215
0.17332114 0.20193227 0.10414143
0.1737419 0.21294047 0.07830962
0.16928811 0.2240631 0.05291097
0.16009502 0.23496214 0.028717205
0.146442 0.24530648 0.0064634457
0.12874386 0.25478178 -0.013174146
0.10753834 0.2631002 -0.029598877
0.08346982 0.27000892 -0.042311706
0.057269573 0.275298 -0.050926358
0.029733673 0.27880687 -0.055181064
0.0016987622 0.28042877 -0.054946557
-0.025983289 0.28011447 -0.050229967
-0.052471377 0.27787355 -0.041174605
-0.07696069 0.27377406 -0.028055608
-0.098707125 0.26794058 -0.011271592
-0.11704993 0.26055035 0.008667462
-0.1314318 0.25182793 0.031155713
-0.14141572 0.24203832 0.055509888
-0.1466983 0.23147902 0.08098997
-0.1471191 0.2204708 0.10682179
-0.1426653 0.20934819 0.13222043
-0.13347222 0.19844913 0.1564142
-0.119819194 0.18810481 0.17866796
0.047961008 -0.10814732 0.08598414
0.05420084 -0.11973444 0.06415065
0.05880659 -0.12767752 0.040368434
0.0616383 -0.13173519 0.015360121
0.06260994 -0.13178419 -0.010114424
0.061691985 -0.12782298 -0.035281166
0.058912322 -0.119971976 -0.059375443
0.054355413 -0.10846968 -0.08166514
0.04815972 -0.09366562 -0.101473
0.040513482 -0.076009594 -0.118197195
0.031649042 -0.05603805 -0.13132955
0.02183574 -0.034357868 -0.14047104
0.01137175 -0.011627724 -0.14534393
0.00057499856 0.011461686 -0.14580011
-0.010226436 0.03420881 -0.14182578
-0.020704381 0.055922516 -0.13354167
-0.030540459 0.07594302 -0.121199474
-0.039435796 0.09366202 -0.10517423
-0.04712013 0.10854113 -0.08595284
-0.053359967 0.120128274 -0.064119324
-0.057965722 0.12807134 -0.040337116
-0.06079743 0.13212903 -0.015328817
-0.061769057 0.13217801 0.010145731
-0.060851105 0.1282168 0.035312504
-0.05807144 0.12036578 0.059406772
-0.053514525 0.10886349 0.08169646
-0.04731883 0.09405943 0.10150433
-0.039672606 0.07640341 0.11822852
-0.030808173 0.056431875 0.13136086
-0.020994872 0.034751695 0.14050236
-0.010530876 0.0120215565 0.14537524
0.00026586466 -0.0110678375 0.14583144
0.011067308 -0.033814978 0.1418571
0.021545244 -0.055528678 0.133573
0.031381324 -0.075549185 0.12123081
0.04027666 -0.093268186 0.105205566
0.098279856 -0.0027332928 -0.14006598
0.08733193 0.011729753 -0.14669842
0.07378779 0.02422074 -0.1524913
0.058058966 0.034360137 -0.15726861
0.04062337 0.04183987 -0.1608852
0.022010775 0.046432663 -0.16323116
0.0027867097 0.047998954 -0.16423525
-0.016464703 0.04649118 -0.1638669
-0.035158526 0.041955143 -0.16213736
-0.052726746 0.034528647 -0.15909916
-0.06863558 0.024437368 -0.1548446
-0.08240163 0.011987923 -0.14950296
-0.09360665 -0.0024414356 -0.14323656
-0.10191013 -0.018412266 -0.13623579
-0.1070598 -0.035439275 -0.12871337
-0.10889921 -0.053005174 -0.12089785
-0.10737245 -0.070576176 -0.11302671
-0.1025259 -0.08761841 -0.105339125
-0.09450685 -0.103614055 -0.09806864
-0.0835589 -0.118077114 -0.0914362
-0.070014775 -0.13056812 -0.085643314
-0.05428596 -0.1407075 -0.080866
-0.036850356 -0.14818723 -0.07724943
-0.018237738 -0.15278001 -0.07490344
0.0009863123 -0.15434632 -0.07389938
0.020237725 -0.15283854 -0.074267715
0.03893154 -0.14830251 -0.075997256
0.056499768 -0.14087601 -0.07903547
0.072408594 -0.13078472 -0.08329002
0.086174645 -0.11833529 -0.08863165
0.09737965 -0.103905946 -0.09489806
0.10568313 -0.08793512 -0.10189883
0.110832825 -0.070908085 -0.109421246
0.112672225 -0.053342205 -0.11723677
0.11114547 -0.035771202 -0.1251079
0.10629893 -0.018728968 -0.1327955
0.07274813 -0.04084988 -0.13843496
0.08610278 -0.049601134 -0.12748049
0.09941861 -0.05550087 -0.11472068
0.11229104 -0.0583698 -0.10054318
0.124328926 -0.05812078 -0.08537878
0.13516651 -0.054761365 -0.06968826
0.14447448 -0.048393615 -0.05394835
0.15197004 -0.039211042 -0.03863731
0.15742546 -0.02749262 -0.024220359
0.16067494 -0.013594434 -0.011135537
0.16161977 0.0020612583 0.00021957606
0.16023122 0.018998701 0.009499956
0.15655151 0.03670335 0.016423628
0.15069242 0.054637186 0.020780213
0.142832 0.07225533 0.022437343
0.13320906 0.08902246 0.021344662
0.12211601 0.104429096 0.017535383
0.10988988 0.11800715 0.011125244
0.096902184 0.12934403 0.0023090057
0.08354751 0.1380953 -0.008645456
0.07023168 0.14399503 -0.021405293
0.057359263 0.14686397 -0.03558278
0.04532139 0.14661494 -0.05074717
0.034483798 0.14325552 -0.066437714
0.025175817 0.13688777 -0.08217761
0.017680243 0.12770519 -0.09748866
0.012224842 0.11598678 -0.111905605
0.008975372 0.10208859 -0.124990426
0.008030549 0.08643292 -0.13634554
0.009419082 0.069495454 -0.14562592
0.013098804 0.051790826 -0.15254958
0.018957887 0.03385699 -0.15690617
0.026818307 0.016238853 -0.1585633
0.03644124 -0.00052827597 -0.15747061
0.047534294 -0.015934926 -0.15366134
0.059760414 -0.029512974 -0.1472512
0.090689816 0.0023339093 0.001709423
0.08989049 0.0036014337 -0.011821209
0.08710798 0.0035820832 -0.025147151
0.08242684 0.0022764443 -0.037863508
0.07598929 -0.00027580862 -0.049583904
0.06799095 -0.003997133 -0.059952207
0.05867481 -0.008774455 -0.06865338
0.048323974 -0.014462617 -0.07542305
0.037252937 -0.020888785 -0.08005553
0.025798075 -0.02785771 -0.08241006
0.014307439 -0.03515765 -0.0824151
0.003130185 -0.042566773 -0.08007048
-0.0073940954 -0.049859982 -0.07544746
-0.01694561 -0.056815673 -0.06868651
-0.025234142 -0.06322249 -0.059993047
-0.032007862 -0.06888578 -0.049631223
-0.037060943 -0.073633455 -0.037915867
-0.040239844 -0.07732125 -0.025202958
-0.041447997 -0.07983715 -0.011878763
-0.04064867 -0.081104666 0.0016518842
-0.037866168 -0.08108532 0.014977828
-0.03318502 -0.079779685 0.027694177
-0.026747476 -0.07722743 0.03941457
-0.018749116 -0.0735061 0.04978288
-0.009432987 -0.068728775 0.05848405
0.00091784925 -0.063040614 0.06525373
0.011988891 -0.056614444 0.06988621
0.02344375 -0.049645524 0.07224073
0.03493438 -0.04234559 0.07224576
0.046111632 -0.03493647 0.06990116
0.05663591 -0.02764326 0.06527813
0.06618741 -0.020687569 0.058517188
0.07447597 -0.0142807495 0.049823724
0.08124968 -0.008617465 0.0394619
0.08630276 -0.003869791 0.027746549
0.08948167 -0.00018198253 0.015033639
-0.08994867 0.035381753 0.06549224
-0.081452705 0.028022815 0.078816526
-0.07044342 0.021425031 0.09061213
-0.05725531 0.015788874 0.10052067
-0.04228911 0.011285592 0.10824109
-0.025999539 0.008052014 0.11353879
-0.008881558 0.006186396 0.116252795
0.00854471 0.005745426 0.116300665
0.02574978 0.0067424923 0.11368093
0.042210877 0.009147303 0.1084732
0.05742786 0.0128868 0.10083569
0.07093835 0.017847342 0.09100048
0.08233185 0.023878219 0.07926641
0.09126215 0.030796185 0.06599
0.09745793 0.03839103 0.051574662
0.10073093 0.046432 0.036458388
0.10098171 0.05467477 0.021100475
0.09820262 0.06286889 0.0059675723
0.09247815 0.07076538 -0.0084805135
0.08398217 0.07812433 -0.021804802
0.07297289 0.08472211 -0.033600412
0.05978479 0.090358265 -0.043508958
0.04481858 0.09486155 -0.05122936
0.028529 0.09809513 -0.05652707
0.011411022 0.099960744 -0.05924108
-0.0060152505 0.100401714 -0.05928894
-0.023220314 0.09940465 -0.056669205
-0.03968142 0.09699984 -0.05146147
-0.05489839 0.09326034 -0.043823972
-0.06840888 0.08829981 -0.033988778
-0.079802364 0.08226892 -0.022254702
-0.08873268 0.07535097 -0.008978291
-0.094928466 0.06775612 0.005437045
-0.09820147 0.059715148 0.020553324
-0.09845225 0.05147238 0.03591123
-0.095673166 0.04327826 0.051044136

