0.04176522 -0.7 0.0
0.041738402 -0.7 -0.00030652748
0.041658763 -0.7 -0.0006037412
0.041528724 -0.7 -0.0008826107
0.04135224 -0.7 -0.0011346624
0.041134663 -0.7 -0.0013522381
0.04088261 -0.7 -0.0015287267
0.040603742 -0.7 -0.0016587655
0.040306527 -0.7 -0.0017384037
0.04 -0.7 -0.0017652214
0.03969347 -0.7 -0.0017384037
0.039396256 -0.7 -0.0016587655
0.03911739 -0.7 -0.0015287265
0.038865335 -0.7 -0.001352238
0.03864776 -0.7 -0.0011346624
0.038471274 -0.7 -0.0008826108
0.038341235 -0.7 -0.0006037414
0.038261596 -0.7 -0.00030652765
0.038234778 -0.7 -2.66541e-10
0.038261596 -0.7 0.00030652757
0.038341235 -0.7 0.00060374127
0.038471274 -0.7 0.0008826106
0.03864776 -0.7 0.0011346623
0.038865335 -0.7 0.0013522382
0.03911739 -0.7 0.0015287267
0.039396256 -0.7 0.0016587656
0.03969347 -0.7 0.0017384037
0.04 -0.7 0.0017652214
0.040306527 -0.7 0.0017384037
0.040603742 -0.7 0.0016587656
0.04088261 -0.7 0.0015287267
0.041134663 -0.7 0.0013522382
0.04135224 -0.7 0.0011346627
0.041528724 -0.7 0.00088261097
0.041658763 -0.7 0.0006037417
0.041738402 -0.7 0.00030652792
0.09210382 -0.625 0.0
0.091312245 -0.625 -0.009047733
0.08896157 -0.625 -0.017820554
0.085123226 -0.625 -0.026051909
0.07991384 -0.625 -0.03349169
0.07349169 -0.625 -0.039913844
0.06605191 -0.625 -0.04512323
0.057820555 -0.625 -0.048961572
0.049047735 -0.625 -0.05131224
0.040000003 -0.625 -0.052103817
0.030952265 -0.625 -0.05131224
0.022179447 -0.625 -0.048961572
0.013948087 -0.625 -0.045123227
0.0065083094 -0.625 -0.03991384
8.6158514e-05 -0.625 -0.03349169
-0.005123228 -0.625 -0.026051912
-0.008961573 -0.625 -0.01782056
-0.011312243 -0.625 -0.009047738
-0.012103818 -0.625 -7.867458e-09
-0.011312243 -0.625 0.009047736
-0.008961573 -0.625 0.017820556
-0.0051232316 -0.625 0.026051907
8.615479e-05 -0.625 0.033491686
0.006508317 -0.625 0.039913844
0.013948096 -0.625 0.04512323
0.022179449 -0.625 0.048961576
0.030952267 -0.625 0.051312245
0.04 -0.625 0.052103817
0.04904773 -0.625 0.05131224
0.05782055 -0.625 0.048961576
0.0660519 -0.625 0.04512323
0.07349168 -0.625 0.039913844
0.07991384 -0.625 0.033491697
0.085123226 -0.625 0.026051918
0.08896157 -0.625 0.017820567
0.091312245 -0.625 0.009047747
0.10432297 -0.55 0.0
0.10334576 -0.55 -0.011169567
0.100443825 -0.55 -0.02199975
0.09570533 -0.55 -0.032161485
0.08927426 -0.55 -0.04134601
0.081346005 -0.55 -0.04927426
0.07216148 -0.55 -0.05570533
0.061999753 -0.55 -0.060443822
0.051169567 -0.55 -0.06334576
0.040000003 -0.55 -0.06432297
0.028830431 -0.55 -0.06334576
0.01800025 -0.55 -0.060443822
0.00783851 -0.55 -0.055705328
-0.0013460107 -0.55 -0.049274255
-0.0092742555 -0.55 -0.04134601
-0.015705328 -0.55 -0.03216149
-0.020443823 -0.55 -0.021999756
-0.023345761 -0.55 -0.011169573
-0.024322972 -0.55 -9.712498e-09
-0.023345761 -0.55 0.0111695705
-0.020443823 -0.55 0.021999752
-0.015705332 -0.55 0.03216148
-0.009274259 -0.55 0.041346006
-0.0013460033 -0.55 0.049274262
0.007838521 -0.55 0.05570533
0.018000253 -0.55 0.060443826
0.028830435 -0.55 0.06334576
0.04 -0.55 0.06432297
0.051169567 -0.55 0.06334576
0.061999746 -0.55 0.060443826
0.07216148 -0.55 0.05570533
0.081346005 -0.55 0.049274262
0.08927425 -0.55 0.041346017
0.095705315 -0.55 0.032161497
0.10044382 -0.55 0.021999765
0.10334576 -0.55 0.011169583
0.0632571 -0.475 0.0
0.06290377 -0.475 -0.0040385528
0.061854523 -0.475 -0.007954396
0.060141236 -0.475 -0.01162855
0.057815973 -0.475 -0.014949376
0.054949373 -0.475 -0.017815974
0.05162855 -0.475 -0.02014124
0.047954395 -0.475 -0.021854524
0.044038553 -0.475 -0.02290377
0.04 -0.475 -0.0232571
0.035961445 -0.475 -0.02290377
0.032045603 -0.475 -0.021854524
0.02837145 -0.475 -0.020141238
0.025050623 -0.475 -0.017815972
0.022184027 -0.475 -0.014949376
0.01985876 -0.475 -0.0116285505
0.018145476 -0.475 -0.007954398
0.017096229 -0.475 -0.0040385555
0.0167429 -0.475 -3.5117242e-09
0.017096229 -0.475 0.004038554
0.018145476 -0.475 0.007954396
0.019858759 -0.475 0.011628549
0.022184025 -0.475 0.014949374
0.025050625 -0.475 0.017815974
0.028371451 -0.475 0.02014124
0.032045603 -0.475 0.021854525
0.03596145 -0.475 0.022903772
0.04 -0.475 0.0232571
0.044038553 -0.475 0.02290377
0.047954395 -0.475 0.021854525
0.051628545 -0.475 0.02014124
0.054949373 -0.475 0.017815974
0.05781597 -0.475 0.014949379
0.060141236 -0.475 0.011628553
0.061854523 -0.475 0.007954402
0.06290377 -0.475 0.004038559
-0.08712671 -0.4 0.0
-0.08519537 -0.4 0.022075322
-0.07946003 -0.4 0.043479893
-0.07009496 -0.4 0.063563354
-0.057384714 -0.4 0.08171548
-0.04171548 -0.4 0.09738471
-0.023563348 -0.4 0.110094965
-0.003479898 -0.4 0.11946003
0.017924672 -0.4 0.12519537
0.039999988 -0.4 0.12712671
0.062075324 -0.4 0.12519537
0.08347989 -0.4 0.11946003
0.10356336 -0.4 0.11009496
0.12171548 -0.4 0.097384706
0.13738471 -0.4 0.08171548
0.15009496 -0.4 0.06356336
0.15946004 -0.4 0.043479905
0.16519538 -0.4 0.022075335
0.16712672 -0.4 1.91956e-08
0.16519538 -0.4 -0.022075329
0.15946004 -0.4 -0.043479897
0.15009496 -0.4 -0.06356335
0.13738471 -0.4 -0.08171547
0.12171546 -0.4 -0.09738472
0.10356334 -0.4 -0.110094965
0.08347988 -0.4 -0.11946004
0.062075317 -0.4 -0.12519537
0.04 -0.4 -0.12712671
0.01792468 -0.4 -0.12519537
-0.0034798868 -0.4 -0.11946004
-0.02356334 -0.4 -0.110094965
-0.041715465 -0.4 -0.09738472
-0.0573847 -0.4 -0.081715494
-0.07009495 -0.4 -0.06356338
-0.079460025 -0.4 -0.043479923
-0.08519537 -0.4 -0.022075353
0.15432347 -0.325 0.0
0.15258664 -0.325 -0.019852063
0.14742893 -0.325 -0.03910093
0.13900703 -0.325 -0.057161737
0.12757686 -0.325 -0.07348572
0.11348572 -0.325 -0.087576866
0.09716173 -0.325 -0.09900704
0.07910094 -0.325 -0.10742892
0.059852067 -0.325 -0.11258664
0.040000007 -0.325 -0.114323474
0.020147935 -0.325 -0.11258664
0.00089907274 -0.325 -0.10742892
-0.017161746 -0.325 -0.09900703
-0.033485718 -0.325 -0.08757686
-0.04757686 -0.325 -0.07348572
-0.059007034 -0.325 -0.057161745
-0.067428924 -0.325 -0.039100938
-0.07258664 -0.325 -0.019852076
-0.074323475 -0.325 -1.7262364e-08
-0.07258664 -0.325 0.01985207
-0.067428924 -0.325 0.039100934
-0.05900704 -0.325 0.057161734
-0.047576867 -0.325 0.07348571
-0.033485703 -0.325 0.08757687
-0.017161727 -0.325 0.09900704
0.00089907646 -0.325 0.10742893
0.020147942 -0.325 0.11258665
0.04 -0.325 0.114323474
0.05985206 -0.325 0.11258664
0.07910092 -0.325 0.10742893
0.097161725 -0.325 0.09900704
0.1134857 -0.325 0.08757687
0.12757686 -0.325 0.07348573
0.13900703 -0.325 0.057161756
0.14742891 -0.325 0.039100956
0.15258664 -0.325 0.019852092
0.048259985 -0.25 0.0
0.0481345 -0.25 -0.0014343314
0.047761846 -0.25 -0.0028250813
0.047153357 -0.25 -0.004129993
0.046327516 -0.25 -0.0053094164
0.045309417 -0.25 -0.0063275164
0.04412999 -0.25 -0.007153358
0.04282508 -0.25 -0.0077618477
0.041434333 -0.25 -0.008134497
0.04 -0.25 -0.008259986
0.03856567 -0.25 -0.008134497
0.037174918 -0.25 -0.0077618477
0.035870004 -0.25 -0.0071533574
0.03469058 -0.25 -0.006327516
0.03367248 -0.25 -0.0053094164
0.03284664 -0.25 -0.0041299933
0.032238152 -0.25 -0.002825082
0.0318655 -0.25 -0.0014343323
0.031740014 -0.25 -1.2472231e-09
0.0318655 -0.25 0.001434332
0.032238152 -0.25 0.0028250816
0.03284664 -0.25 0.0041299923
0.03367248 -0.25 0.005309416
0.034690585 -0.25 0.006327517
0.03587001 -0.25 0.007153358
0.037174918 -0.25 0.007761848
0.03856567 -0.25 0.008134498
0.04 -0.25 0.008259986
0.04143433 -0.25 0.008134497
0.04282508 -0.25 0.007761848
0.04412999 -0.25 0.007153358
0.045309413 -0.25 0.006327517
0.046327516 -0.25 0.0053094174
0.047153357 -0.25 0.004129994
0.047761846 -0.25 0.0028250832
0.0481345 -0.25 0.0014343335
0.00096808374 -0.175 0.0
0.001561068 -0.175 0.006777821
0.0033219978 -0.175 0.013349701
0.0061973706 -0.175 0.019515958
0.010099815 -0.175 0.025089232
0.014910767 -0.175 0.029900184
0.020484043 -0.175 0.033802632
0.026650298 -0.175 0.036678
0.033222176 -0.175 0.03843893
0.039999995 -0.175 0.039031915
0.046777822 -0.175 0.03843893
0.0533497 -0.175 0.036678
0.05951596 -0.175 0.03380263
0.06508923 -0.175 0.029900182
0.069900185 -0.175 0.025089232
0.07380263 -0.175 0.01951596
0.076678 -0.175 0.013349704
0.07843893 -0.175 0.0067778253
0.079031914 -0.175 5.8936553e-09
0.07843893 -0.175 -0.0067778234
0.076678 -0.175 -0.013349702
0.073802635 -0.175 -0.019515956
0.069900185 -0.175 -0.02508923
0.065089226 -0.175 -0.029900186
0.059515953 -0.175 -0.033802632
0.053349696 -0.175 -0.036678005
0.04677782 -0.175 -0.038438935
0.04 -0.175 -0.039031915
0.03322218 -0.175 -0.03843893
0.026650302 -0.175 -0.036678005
0.020484045 -0.175 -0.033802632
0.014910771 -0.175 -0.029900186
0.010099819 -0.175 -0.025089238
0.0061973706 -0.175 -0.019515965
0.0033219978 -0.175 -0.01334971
0.001561068 -0.175 -0.006777831
0.23875985 -0.1 0.0
0.23574024 -0.1 -0.034514286
0.22677317 -0.1 -0.06797987
0.21213108 -0.1 -0.09937993
0.1922589 -0.1 -0.12776038
0.16776037 -0.1 -0.15225889
0.13937992 -0.1 -0.17213109
0.10797987 -0.1 -0.18677317
0.0745143 -0.1 -0.19574024
0.040000014 -0.1 -0.19875985
0.0054857098 -0.1 -0.19574024
-0.027979866 -0.1 -0.18677317
-0.059379943 -0.1 -0.17213108
-0.08776038 -0.1 -0.15225889
-0.11225889 -0.1 -0.12776038
-0.13213107 -0.1 -0.09937994
-0.14677316 -0.1 -0.06797989
-0.15574023 -0.1 -0.034514308
-0.15875986 -0.1 -3.0011904e-08
-0.15574023 -0.1 0.034514297
-0.14677316 -0.1 0.06797987
-0.1321311 -0.1 0.09937992
-0.11225889 -0.1 0.12776037
-0.08776035 -0.1 0.1522589
-0.059379913 -0.1 0.17213109
-0.027979858 -0.1 0.18677318
0.005485721 -0.1 0.19574025
0.040000003 -0.1 0.19875985
0.074514285 -0.1 0.19574024
0.10797986 -0.1 0.18677318
0.13937992 -0.1 0.17213109
0.16776034 -0.1 0.1522589
0.19225886 -0.1 0.1277604
0.21213105 -0.1 0.099379964
0.22677314 -0.1 0.06797992
0.23574024 -0.1 0.034514338
-0.121295325 -0.025 0.0
-0.11884489 -0.025 0.02800864
-0.111568026 -0.025 0.05516625
-0.09968584 -0.025 0.08064766
-0.083559394 -0.025 0.10367864
-0.063678645 -0.025 0.12355939
-0.040647656 -0.025 0.13968585
-0.015166253 -0.025 0.15156803
0.011991352 -0.025 0.15884489
0.039999988 -0.025 0.16129532
0.06800864 -0.025 0.15884489
0.095166236 -0.025 0.15156803
0.12064767 -0.025 0.13968584
0.14367864 -0.025 0.123559386
0.16355938 -0.025 0.10367864
0.17968583 -0.025 0.08064767
0.19156802 -0.025 0.055166263
0.19884488 -0.025 0.028008657
0.20129532 -0.025 2.4354916e-08
0.19884488 -0.025 -0.02800865
0.19156802 -0.025 -0.055166252
0.17968586 -0.025 -0.080647655
0.16355939 -0.025 -0.10367863
0.14367862 -0.025 -0.12355941
0.12064765 -0.025 -0.13968585
0.095166236 -0.025 -0.15156804
0.06800863 -0.025 -0.15884489
0.039999995 -0.025 -0.16129532
0.011991363 -0.025 -0.15884489
-0.015166238 -0.025 -0.15156804
-0.04064765 -0.025 -0.13968585
-0.06367862 -0.025 -0.12355941
-0.08355938 -0.025 -0.10367866
-0.09968584 -0.025 -0.08064769
-0.11156801 -0.025 -0.055166285
-0.11884489 -0.025 -0.02800868
0.18448767 0.05 0.0
0.18229258 0.05 -0.025090022
0.17577401 0.05 -0.049417693
0.16512999 0.05 -0.07224384
0.150684 0.05 -0.09287489
0.13287489 0.05 -0.11068399
0.11224383 0.05 -0.12513001
0.089417696 0.05 -0.135774
0.06509003 0.05 -0.14229259
0.04000001 0.05 -0.14448768
0.014909975 0.05 -0.14229259
-0.00941769 0.05 -0.135774
-0.032243848 0.05 -0.12513
-0.052874893 0.05 -0.110683985
-0.070683986 0.05 -0.09287489
-0.08513 0.05 -0.07224385
-0.095774 0.05 -0.049417708
-0.10229259 0.05 -0.025090037
-0.10448768 0.05 -2.1817034e-08
-0.10229259 0.05 0.025090031
-0.095774 0.05 0.049417697
-0.08513001 0.05 0.07224383
-0.07068399 0.05 0.092874885
-0.052874878 0.05 0.110684
-0.032243825 0.05 0.12513001
-0.009417687 0.05 0.13577402
0.014909983 0.05 0.14229259
0.04 0.05 0.14448768
0.065090016 0.05 0.14229259
0.08941768 0.05 0.13577402
0.11224382 0.05 0.12513001
0.13287488 0.05 0.110684
0.15068397 0.05 0.092874914
0.16512999 0.05 0.07224386
0.17577401 0.05 0.049417727
0.18229258 0.05 0.02509006
0.059816357 0.125 0.0
0.0595153 0.125 -0.0034410744
0.058621284 0.125 -0.006777593
0.057161465 0.125 -0.009908179
0.05518021 0.125 -0.01273771
0.05273771 0.125 -0.0151802115
0.049908176 0.125 -0.01716147
0.04677759 0.125 -0.018621285
0.043441076 0.125 -0.019515302
0.04 0.125 -0.019816358
0.036558926 0.125 -0.019515302
0.033222407 0.125 -0.018621285
0.030091818 0.125 -0.017161468
0.02726229 0.125 -0.015180211
0.024819788 0.125 -0.01273771
0.022838531 0.125 -0.00990818
0.021378715 0.125 -0.006777595
0.020484697 0.125 -0.0034410765
0.020183641 0.125 -2.9921867e-09
0.020484697 0.125 0.0034410756
0.021378715 0.125 0.006777594
0.02283853 0.125 0.009908178
0.024819788 0.125 0.012737708
0.027262293 0.125 0.015180213
0.030091822 0.125 0.01716147
0.033222407 0.125 0.018621286
0.036558926 0.125 0.019515304
0.04 0.125 0.019816358
0.043441072 0.125 0.019515302
0.04677759 0.125 0.018621286
0.049908176 0.125 0.01716147
0.052737705 0.125 0.015180213
0.055180207 0.125 0.012737712
0.057161465 0.125 0.009908183
0.058621284 0.125 0.006777598
0.0595153 0.125 0.0034410795
-0.095043205 0.2 0.0
-0.0929916 0.2 0.023450006
-0.08689911 0.2 0.046187494
-0.07695084 0.2 0.0675216
-0.06344911 0.2 0.0868041
-0.0468041 0.2 0.103449106
-0.027521595 0.2 0.116950855
-0.0061874986 0.2 0.12689911
0.016549986 0.2 0.1329916
0.039999988 0.2 0.1350432
0.06345001 0.2 0.1329916
0.08618749 0.2 0.12689911
0.10752161 0.2 0.11695084
0.1268041 0.2 0.1034491
0.1434491 0.2 0.0868041
0.15695083 0.2 0.06752161
0.16689911 0.2 0.046187505
0.1729916 0.2 0.02345002
0.1750432 0.2 2.0390956e-08
0.1729916 0.2 -0.023450015
0.16689911 0.2 -0.046187498
0.15695086 0.2 -0.067521594
0.1434491 0.2 -0.08680409
0.12680408 0.2 -0.10344911
0.107521586 0.2 -0.116950855
0.08618748 0.2 -0.12689911
0.06345 0.2 -0.1329916
0.04 0.2 -0.1350432
0.016549995 0.2 -0.1329916
-0.0061874874 0.2 -0.12689911
-0.027521588 0.2 -0.116950855
-0.046804085 0.2 -0.10344911
-0.063449085 0.2 -0.086804114
-0.07695083 0.2 -0.067521624
-0.086899094 0.2 -0.046187524
-0.0929916 0.2 -0.023450041
0.0123953745 0.275 0.0
0.012814751 0.275 0.0047934926
0.014060138 0.275 0.009441338
0.016093694 0.275 0.013802312
0.018853629 0.275 0.017743912
0.022256088 0.275 0.02114637
0.026197687 0.275 0.023906307
0.03055866 0.275 0.025939861
0.035206504 0.275 0.027185248
0.039999995 0.275 0.027604625
0.044793494 0.275 0.027185248
0.049441338 0.275 0.025939861
0.05380231 0.275 0.023906305
0.05774391 0.275 0.021146368
0.061146367 0.275 0.017743912
0.063906305 0.275 0.013802314
0.06593986 0.275 0.009441339
0.067185245 0.275 0.004793496
0.067604624 0.275 4.1681822e-09
0.067185245 0.275 -0.0047934945
0.06593986 0.275 -0.009441338
0.063906305 0.275 -0.013802311
0.06114637 0.275 -0.01774391
0.057743907 0.275 -0.021146372
0.053802308 0.275 -0.023906307
0.049441334 0.275 -0.025939863
0.04479349 0.275 -0.02718525
0.04 0.275 -0.027604625
0.035206508 0.275 -0.027185248
0.030558664 0.275 -0.025939863
0.02619769 0.275 -0.023906307
0.022256091 0.275 -0.021146372
0.01885363 0.275 -0.017743915
0.016093696 0.275 -0.013802317
0.01406014 0.275 -0.009441344
0.012814751 0.275 -0.0047934996
0.08961466 0.35 0.0
0.0888609 0.35 -0.008615496
0.08662253 0.35 -0.016969211
0.08296755 0.35 -0.02480733
0.078007035 0.35 -0.03189169
0.07189169 0.35 -0.038007036
0.064807326 0.35 -0.042967558
0.05696921 0.35 -0.04662253
0.048615497 0.35 -0.0488609
0.040000003 0.35 -0.04961466
0.0313845 0.35 -0.0488609
0.023030788 0.35 -0.04662253
0.015192665 0.35 -0.042967554
0.00810831 0.35 -0.038007036
0.0019929633 0.35 -0.03189169
-0.002967555 0.35 -0.024807334
-0.0066225305 0.35 -0.016969217
-0.008860901 0.35 -0.0086155
-0.009614661 0.35 -7.491606e-09
-0.008860901 0.35 0.008615498
-0.0066225305 0.35 0.016969213
-0.0029675588 0.35 0.024807328
0.0019929633 0.35 0.03189169
0.008108314 0.35 0.03800704
0.015192673 0.35 0.042967558
0.02303079 0.35 0.046622533
0.031384505 0.35 0.048860904
0.04 0.35 0.04961466
0.048615493 0.35 0.0488609
0.05696921 0.35 0.046622533
0.064807326 0.35 0.042967558
0.07189168 0.35 0.03800704
0.07800703 0.35 0.031891696
0.08296755 0.35 0.02480734
0.08662252 0.35 0.016969224
0.0888609 0.35 0.008615508
0.056099027 0.425 0.0
0.055854447 0.425 -0.002795567
0.05512814 0.425 -0.005506192
0.053942166 0.425 -0.008049514
0.052332573 0.425 -0.010348257
0.050348256 0.425 -0.012332572
0.048049513 0.425 -0.013942168
0.04550619 0.425 -0.0151281385
0.04279557 0.425 -0.015854448
0.04 0.425 -0.016099028
0.037204433 0.425 -0.015854448
0.034493808 0.425 -0.0151281385
0.031950485 0.425 -0.013942167
0.029651742 0.425 -0.012332571
0.02766743 0.425 -0.010348257
0.026057832 0.425 -0.008049515
0.02487186 0.425 -0.0055061933
0.024145551 0.425 -0.0027955687
0.02390097 0.425 -2.4308857e-09
0.024145551 0.425 0.002795568
0.02487186 0.425 0.0055061923
0.026057832 0.425 0.008049513
0.027667427 0.425 0.010348256
0.029651744 0.425 0.012332573
0.03195049 0.425 0.013942168
0.034493808 0.425 0.015128139
0.037204433 0.425 0.015854448
0.04 0.425 0.016099028
0.042795565 0.425 0.015854448
0.04550619 0.425 0.015128139
0.04804951 0.425 0.013942168
0.050348252 0.425 0.012332573
0.05233257 0.425 0.010348259
0.053942166 0.425 0.008049517
0.055128135 0.425 0.0055061956
0.055854447 0.425 0.002795571
2.3722649e-05 0.5 0.0
0.000631053 0.5 0.0069418075
0.002434589 0.5 0.013672691
0.005379528 0.5 0.019988138
0.009376392 0.5 0.025696257
0.014303742 0.5 0.030623607
0.020011863 0.5 0.03462047
0.026327308 0.5 0.03756541
0.03305819 0.5 0.039368946
0.039999995 0.5 0.039976276
0.04694181 0.5 0.039368946
0.05367269 0.5 0.03756541
0.05998814 0.5 0.03462047
0.065696254 0.5 0.030623604
0.07062361 0.5 0.025696257
0.07462047 0.5 0.01998814
0.07756541 0.5 0.013672695
0.07936895 0.5 0.0069418116
0.079976276 0.5 6.03625e-09
0.07936895 0.5 -0.00694181
0.07756541 0.5 -0.013672692
0.07462047 0.5 -0.019988136
0.07062361 0.5 -0.025696253
0.065696254 0.5 -0.03062361
0.059988134 0.5 -0.03462047
0.053672686 0.5 -0.037565414
0.046941806 0.5 -0.03936895
0.04 0.5 -0.039976276
0.033058193 0.5 -0.039368946
0.02632731 0.5 -0.037565414
0.020011865 0.5 -0.03462047
0.014303748 0.5 -0.03062361
0.009376397 0.5 -0.02569626
0.0053795315 0.5 -0.019988146
0.002434589 0.5 -0.0136727
0.000631053 0.5 -0.0069418177
-0.11676846 0.575 0.0
-0.11438679 0.575 0.027222557
-0.10731416 0.575 0.053617965
-0.095765464 0.575 0.07838423
-0.08009161 0.575 0.10076883
-0.060768828 0.575 0.12009161
-0.03838422 0.575 0.13576548
-0.013617974 0.575 0.14731416
0.012777435 0.575 0.15438679
0.039999988 0.575 0.15676846
0.06722256 0.575 0.15438679
0.09361796 0.575 0.14731416
0.118384235 0.575 0.13576546
0.14076883 0.575 0.1200916
0.16009161 0.575 0.10076883
0.17576545 0.575 0.078384236
0.18731415 0.575 0.05361798
0.19438678 0.575 0.027222574
0.19676846 0.575 2.367138e-08
0.19438678 0.575 -0.027222566
0.18731415 0.575 -0.053617973
0.17576548 0.575 -0.07838422
0.16009161 0.575 -0.10076882
0.1407688 0.575 -0.120091625
0.11838421 0.575 -0.13576548
0.09361796 0.575 -0.14731418
0.06722255 0.575 -0.1543868
0.039999995 0.575 -0.15676846
0.012777444 0.575 -0.15438679
-0.013617959 0.575 -0.14731418
-0.038384214 0.575 -0.13576548
-0.060768805 0.575 -0.120091625
-0.080091596 0.575 -0.10076884
-0.09576545 0.575 -0.07838426
-0.10731415 0.575 -0.053618003
-0.11438679 0.575 -0.027222596
0.26580578 0.65 0.0
0.2623753 0.65 -0.039210763
0.25218803 0.65 -0.077230126
0.23555353 0.65 -0.112902895
0.21297729 0.65 -0.14514516
0.18514517 0.65 -0.17297728
0.15290289 0.65 -0.19555356
0.11723013 0.65 -0.21218804
0.07921077 0.65 -0.22237529
0.040000018 0.65 -0.22580579
0.00078923255 0.65 -0.22237529
-0.03723012 0.65 -0.21218804
-0.07290291 0.65 -0.19555354
-0.105145164 0.65 -0.17297727
-0.13297728 0.65 -0.14514516
-0.15555355 0.65 -0.11290291
-0.17218804 0.65 -0.07723014
-0.18237528 0.65 -0.03921079
-0.1858058 0.65 -3.4095727e-08
-0.18237528 0.65 0.039210778
-0.17218804 0.65 0.07723013
-0.15555355 0.65 0.11290289
-0.13297728 0.65 0.14514516
-0.10514515 0.65 0.1729773
-0.07290287 0.65 0.19555356
-0.03723011 0.65 0.21218805
0.0007892437 0.65 0.2223753
0.040000003 0.65 0.22580579
0.07921076 0.65 0.22237529
0.11723011 0.65 0.21218805
0.15290287 0.65 0.19555356
0.18514514 0.65 0.1729773
0.21297726 0.65 0.1451452
0.23555353 0.65 0.11290293
0.25218803 0.65 0.07723018
0.2623753 0.65 0.039210822
0.11961335 0.725 0.0
0.118403845 0.725 -0.013824713
0.114812076 0.725 -0.027229369
0.10894718 0.725 -0.039806675
0.10098737 0.725 -0.051174477
0.091174476 0.725 -0.06098737
0.07980667 0.725 -0.06894719
0.06722937 0.725 -0.07481208
0.053824715 0.725 -0.078403845
0.040000007 0.725 -0.07961335
0.026175285 0.725 -0.078403845
0.012770634 0.725 -0.07481208
0.00019332021 0.725 -0.06894718
-0.011174478 0.725 -0.060987365
-0.020987365 0.725 -0.051174477
-0.028947182 0.725 -0.03980668
-0.034812078 0.725 -0.027229374
-0.038403846 0.725 -0.013824722
-0.03961335 0.725 -1.2021282e-08
-0.038403846 0.725 0.013824718
-0.034812078 0.725 0.02722937
-0.02894719 0.725 0.03980667
-0.02098737 0.725 0.051174473
-0.01117447 0.725 0.060987372
0.00019333139 0.725 0.06894719
0.012770636 0.725 0.074812084
0.02617529 0.725 0.078403845
0.04 0.725 0.07961335
0.05382471 0.725 0.078403845
0.06722936 0.725 0.074812084
0.07980667 0.725 0.06894719
0.09117447 0.725 0.060987372
0.10098736 0.725 0.051174488
0.10894718 0.725 0.03980669
0.11481207 0.725 0.027229387
0.118403845 0.725 0.013824734

