-0.033065 -0.361880 -0.081036 0.194557 -0.998477 -0.070750
0.044054 0.869667 -0.023893 0.201511 -1.246867 0.085490
0.546604 0.194526 -0.028360 0.528545 -0.549774 0.575462
-0.402425 0.271279 -0.033155 -0.732873 -0.619724 0.239541
0.157253 -0.858329 0.168881 -0.181977 -1.055910 0.033187
0.063616 0.359337 0.106544 -0.761042 -0.624092 0.063246
0.188223 -0.044895 0.075397 -0.398028 -0.881299 0.042373
-0.091253 -0.776849 -0.114362 -0.043582 1.041188 -0.036815
-0.069644 0.098747 -0.109543 -0.138474 -0.749636 -0.682613
0.325411 0.438176 -0.102214 0.686842 -0.667122 -0.242104
-0.164064 0.514665 -0.072509 -0.937387 -0.414907 0.246476
0.201116 -0.569629 -0.006948 0.786071 -0.526980 -0.231544
-0.570829 0.028771 -0.003031 -0.423250 -0.503616 0.682228
-0.123344 -0.116453 0.083886 0.149635 -1.000863 -0.068799
0.097089 0.599705 -0.028634 -0.159667 -0.964802 -0.328803
-0.096702 -0.849263 0.132243 -0.080799 1.077733 0.452818
0.159549 -0.835571 -0.085176 -0.050150 1.137010 0.344278
0.141424 0.242753 -0.102837 -0.730956 -0.732600 0.017209
0.136515 -0.293224 0.082250 0.001691 -1.016520 0.032132
-0.052059 -0.558921 0.049927 -0.019865 1.078044 -0.012746
0.090734 -0.151107 -0.110152 -0.108521 -0.957077 -0.126813
0.003565 0.076998 0.135884 0.248093 -0.968825 -0.036113
-0.118122 0.312208 -0.008292 -0.019608 -0.978778 0.052609
0.641193 0.033147 0.078140 0.567976 -0.665165 0.406146
0.055194 0.419611 -0.135608 -0.802507 -0.569800 0.064343
0.032970 0.723196 0.100036 -0.073583 1.303619 -0.179663
0.082970 -0.709461 0.036600 -0.053093 1.093326 -0.070805
0.368061 0.256714 -0.092534 0.726900 -0.565184 0.269673
0.154555 0.024046 -0.118597 -0.805556 -0.584941 0.068595
0.159614 -0.383001 -0.078540 0.752070 -0.584850 -0.337153
-0.094007 -0.385011 0.096067 0.092165 1.176397 0.128496
0.140762 0.194842 0.087868 -0.785609 -0.638937 0.038948
-0.069542 0.471722 0.075323 -0.690412 -0.699474 -0.003810
0.205328 0.471178 0.023810 -0.684556 -0.699932 -0.010723
-0.271079 0.366295 -0.094709 -0.751692 -0.575736 -0.081581
-0.102972 -0.079662 -0.082670 -0.170641 -0.814561 -0.595106
-0.474794 0.140614 0.063241 -0.477040 -0.540284 0.611065
-0.087518 -0.602468 -0.101115 -0.054169 1.054695 -0.058455
-0.130216 0.061642 0.033247 0.173189 -0.975108 -0.117035
0.042206 -0.096467 0.099661 -0.019036 -0.985690 -0.167644
-0.125731 -0.231535 -0.019904 0.263413 -0.952430 -0.010613
0.206674 -0.197809 -0.027075 -0.202041 -0.961282 0.015008
0.027822 0.756666 -0.119866 1.106674 -0.168937 -0.019936
0.052843 -0.452247 -0.002990 -0.072204 -0.967437 0.029324
-0.028277 0.238324 -0.127766 -0.589597 -0.770246 -0.216169
-0.009440 0.547742 -0.113181 -0.864937 -0.424388 0.260997
-0.222035 0.430814 0.030850 -0.753896 -0.637487 -0.038270
-0.049742 0.247402 0.101193 -0.308430 -0.953443 0.083236
0.076495 -0.600844 -0.071120 -0.029747 1.061037 -0.022173
0.193209 0.533006 -0.108614 1.083714 -0.166432 0.020264
0.184566 0.313668 0.010451 -0.765892 -0.640252 0.061181
-0.016951 -0.827407 0.020066 -0.056881 0.981514 0.386600
-0.034541 -0.263381 0.105890 0.188972 -0.991654 0.028484
0.023803 -0.036111 -0.133003 0.187301 -0.874911 -0.473978
0.180075 -0.693502 -0.050483 0.021800 1.260622 0.017372
-0.118136 -0.664480 0.008180 0.006084 1.095621 0.021863
-0.136676 -0.432675 -0.016310 0.113202 1.169627 0.164198
0.151623 -0.428703 0.071768 0.516283 -0.853378 -0.078264
-0.127860 0.187136 -0.003071 -0.180145 -1.010447 0.032310
0.038315 -0.269058 -0.036564 -0.101060 -0.999450 -0.053815
-0.025184 0.703951 -0.008951 0.202055 -0.980022 -0.096968
0.101203 0.726982 -0.023730 1.102268 -0.095689 0.021228
0.582772 0.057820 -0.028059 0.522862 -0.660882 0.407617
0.188027 0.076991 0.056862 -0.754877 -0.648601 0.064943
0.205430 0.407278 -0.081618 0.649600 -0.688506 -0.244379
0.147619 -0.154241 0.103647 -0.060634 -0.990593 0.039120
0.029381 0.535270 0.046360 -0.629473 -0.775813 0.013980
-0.280606 0.262867 -0.041908 -0.565735 -0.847440 -0.128542
0.015033 -0.354181 0.054720 0.157350 -0.995812 -0.014562
0.150197 0.130817 -0.089929 -0.787609 -0.609705 0.056855
0.108568 -0.475489 -0.104284 0.756982 -0.655328 -0.144961
0.582293 0.129720 0.050868 0.585800 -0.687841 0.311407
0.203503 -0.019750 -0.034455 -0.325666 -0.923874 0.006028
0.461498 0.265816 -0.042178 0.630640 -0.575835 0.448189
-0.035136 -0.861192 -0.081800 -0.071646 0.979051 0.559900
0.007601 -0.752408 -0.088014 -0.051717 1.023257 -0.043147
0.086664 -0.843815 0.026485 -0.063172 0.988773 0.474634
0.331693 0.352783 -0.041299 0.622546 -0.722458 -0.215945
-0.004856 -0.535520 -0.074785 -0.028038 1.033904 -0.009605
-0.546921 0.071069 0.088936 -0.441988 -0.488032 0.673978
-0.143437 -0.048333 0.006702 0.223079 -0.907116 -0.346756
0.020198 0.826216 0.065914 -0.076435 1.340191 -0.197471
-0.040854 0.385606 -0.128435 -0.812271 -0.573462 0.118013
-0.000076 -0.641327 0.021179 -0.069977 1.023960 -0.052726
0.076359 0.006277 0.137849 0.108891 -0.984948 0.010525
-0.043757 0.577958 -0.005740 -0.861159 -0.475974 0.116543
0.113822 -0.594479 0.033299 -0.068793 1.007165 0.041672
-0.482691 0.157420 -0.034075 -0.524246 -0.562968 0.525021
0.120868 0.460794 0.074137 -0.782352 -0.608904 0.042496
-0.105127 0.380209 0.062011 -0.363180 -0.948640 -0.105359
-0.167753 0.376434 -0.062577 -0.184667 -0.976013 -0.219493
-0.110131 -0.851903 0.004870 -0.074265 0.923127 0.565853
-0.080145 0.481898 -0.124051 -0.835439 -0.509880 0.113379
0.012755 -0.118458 -0.063374 -0.034006 -0.991659 0.000727
-0.132495 -0.528182 -0.004240 0.022883 1.266930 0.024730
-0.128371 -0.322526 0.009870 0.184467 -0.995893 -0.111259
0.065376 -0.369622 -0.071467 -0.060769 -1.007778 -0.053682
0.021420 0.114821 -0.132364 -0.534949 -0.801806 -0.249759
-0.118107 -0.758037 -0.007154 -0.013625 1.047675 0.008160
0.198726 0.147608 -0.005262 -0.739227 -0.659931 0.077768
0.102203 -0.750654 -0.090005 -0.021424 1.117212 -0.024270
0.057656 0.204173 -0.119970 -0.733294 -0.688421 -0.034075
-0.012928 -0.030476 0.133426 -0.041364 -0.999253 -0.012967
-0.109238 -0.470446 0.063750 0.127845 1.193312 0.178720
-0.044771 -0.454442 -0.092754 -0.040366 1.068985 -0.041843
0.137042 0.469394 -0.144319 0.992230 -0.394368 -0.075136
0.021596 0.455237 0.090718 -0.796778 -0.586309 0.092084
0.298987 0.356864 -0.134193 0.671722 -0.703486 -0.202380
-0.113502 -0.218385 0.098661 0.207464 -0.994442 -0.165103
0.182051 -0.784144 -0.013349 0.016887 1.271901 0.004889
-0.103076 0.241691 -0.070637 -0.352920 -0.911965 -0.261463
0.124492 -0.234112 -0.098963 -0.056768 -1.021918 0.045212
0.200207 0.553799 -0.021455 1.118640 -0.084710 -0.017580
0.083688 0.114127 0.123506 0.001851 -1.032071 -0.030482
-0.060723 0.127572 0.102054 0.153787 -0.992570 -0.043050
0.117438 0.356864 -0.139861 -0.765367 -0.631106 0.058924
0.181953 -0.516878 -0.078653 0.752526 -0.463786 -0.490124
0.033365 0.240814 0.127826 -0.531926 -0.829975 0.013750
-0.098913 -0.688813 -0.098517 -0.053458 1.045582 -0.054018
0.193329 0.068252 -0.047598 -0.760800 -0.684193 0.053233
-0.237841 0.327192 -0.002368 -0.427012 -0.823456 -0.254364
-0.031001 0.376564 0.106095 -0.626030 -0.775489 -0.029634
0.205697 -0.105626 -0.036562 -0.236028 -0.985212 -0.024640
-0.029370 -0.272427 -0.089259 0.043779 -1.007697 -0.073232
-0.115213 0.034838 -0.074871 -0.189657 -0.883857 -0.443517
0.110914 0.551535 -0.118557 1.111159 -0.113559 -0.001413
-0.019217 0.035742 -0.145926 -0.110069 -0.701800 -0.765193
-0.037412 0.778912 -0.046432 0.723337 -0.742885 0.164710
0.152081 0.365537 0.068909 -0.749446 -0.668340 0.016082
-0.344854 0.322657 -0.067749 -0.716424 -0.616839 0.267355
-0.000653 -0.632924 -0.069901 -0.042552 1.037875 -0.033479
-0.122164 -0.150957 -0.044048 0.040650 -0.989540 -0.056286
-0.128330 0.560553 -0.013451 -0.910407 -0.336881 0.256798
0.091268 0.795039 -0.083108 0.171371 -1.235663 0.082516
-0.160983 0.480838 0.055034 -0.409373 -0.888140 -0.184424
0.126423 -0.503352 0.050809 0.530865 -0.794764 -0.201205
0.065047 -0.696747 -0.042027 -0.053098 1.040954 -0.051765
0.083577 0.687247 0.049254 -0.078269 1.363706 -0.208921
-0.080284 0.309172 -0.107209 -0.721031 -0.705990 -0.062558
0.090223 -0.848593 0.128788 -0.206037 -1.025764 0.040354
-0.368049 0.200968 -0.039478 -0.712526 -0.653647 0.224196
0.428713 0.207384 -0.096273 0.719475 -0.564367 0.378558
0.182572 -0.354178 0.066311 0.005553 -0.983377 -0.021835
0.158718 -0.113723 -0.101911 -0.018531 -1.008681 -0.158639
0.123327 -0.081087 0.115258 0.035122 -1.018847 -0.051992
-0.016464 -0.423379 0.070963 0.074858 -1.006822 0.036622
-0.221951 0.427127 -0.085614 -0.795129 -0.609680 -0.098873
0.154561 -0.630932 -0.088752 0.013300 1.261355 0.004282
0.010531 -0.527283 0.017880 -0.052007 1.026978 -0.044959
-0.101650 -0.045424 0.104314 0.398802 -0.907653 -0.026431
0.083133 0.072630 -0.150890 -0.204687 -0.866123 -0.415030
0.067225 -0.809672 -0.039434 -0.050601 1.035562 -0.045859
-0.024504 -0.124770 0.124881 0.115623 -1.011374 -0.023053
0.150158 0.268865 0.070323 -0.765809 -0.635403 -0.032480
0.027383 0.291023 -0.127455 -0.739941 -0.668978 0.020518
0.197231 -0.446758 0.013024 0.738569 -0.495889 -0.460995
0.203905 -0.355626 -0.023121 -0.225903 -0.971931 -0.109087
0.054177 0.651504 -0.062794 0.007375 -0.973695 -0.208123
-0.141909 -0.165705 0.030205 0.124120 -0.978767 -0.123897
-0.080189 0.568112 -0.070755 -0.862441 -0.465682 0.173470
-0.104074 0.269813 0.051923 -0.076087 -0.976613 0.020604
0.372116 0.348826 -0.119833 0.708573 -0.700702 0.034364
-0.030881 -0.836419 0.099010 -0.030100 1.056892 0.390490
0.049356 0.618037 0.025985 -0.223453 -0.938355 -0.284119
0.285814 0.405031 -0.014140 0.657452 -0.668881 -0.326094
0.177085 0.315156 -0.063461 -0.779018 -0.638957 0.073964
0.102103 0.549354 0.025479 -0.580885 -0.820346 0.034660
0.095144 0.780379 0.027117 -0.065528 1.281356 -0.158839
-0.116435 0.104353 -0.049771 -0.226119 -0.854539 -0.505410
-0.052626 0.175666 -0.097265 -0.111498 -0.930692 -0.438990
0.025855 -0.183542 -0.031212 -0.085586 -0.966791 0.019409
-0.328892 0.296135 0.002635 -0.815962 -0.590724 -0.069025
0.260025 0.453928 -0.132053 0.616668 -0.755056 -0.126254
0.086297 -0.303227 -0.094237 0.267688 -0.987443 -0.045094
0.258639 0.510697 -0.025443 0.986910 -0.326778 -0.045240
-0.076054 -0.217427 -0.086531 0.024624 -0.942709 -0.360364
-0.040653 -0.760051 0.013249 -0.020947 1.078519 -0.014627
-0.101068 -0.377099 -0.065747 0.095449 -1.009889 -0.189098
0.062104 0.501076 -0.129575 -0.676030 -0.752101 -0.044800
0.082060 -0.176935 0.089979 0.068231 -1.000638 -0.006199
-0.009760 -0.803055 -0.134167 -0.051877 1.043195 -0.050652
0.437537 0.292454 -0.102974 0.610380 -0.623996 0.417722
-0.516892 0.108515 0.016900 -0.434497 -0.562573 0.653802
-0.427581 0.160943 0.008213 -0.524212 -0.618244 0.527692
0.175462 -0.214651 0.083820 -0.055155 -1.022946 0.034346
-0.015218 0.602032 -0.071172 -0.863933 -0.502450 0.097372
0.099779 0.300883 0.104593 -0.540925 -0.866865 0.039114
-0.017999 0.738166 0.056490 -0.031193 1.181469 -0.074833
-0.288826 0.372435 -0.010144 -0.748855 -0.662110 -0.188903
-0.028143 0.843772 -0.026097 0.205524 -1.264524 0.079668
0.061597 -0.780231 0.025109 -0.054452 1.058324 -0.060222
-0.076882 -0.142581 -0.094549 0.215127 -0.977972 -0.165647
0.196601 0.405521 0.006971 -0.328400 -0.935532 -0.259167
0.103320 -0.867370 -0.038531 -0.127636 0.855016 0.682117
-0.091690 -0.290847 -0.070565 0.167242 -0.924622 -0.308944
0.623369 0.075375 0.028943 0.505118 -0.672628 0.394034
-0.040064 -0.189343 0.120925 0.250297 -0.992505 0.020216
0.085706 0.261380 -0.138753 -0.787492 -0.595807 0.063183
0.155353 0.039563 0.100435 -0.188424 -0.976243 0.009039
0.008883 -0.705882 -0.008497 -0.053623 1.047693 -0.055046
0.206070 -0.160275 0.027139 -0.073038 -0.994983 -0.039562
0.073172 0.722188 -0.086836 1.114498 -0.120810 0.005630
-0.080909 -0.029012 -0.117445 -0.071803 -0.921486 -0.434956
0.163376 -0.837487 0.019114 -0.010681 1.223728 0.115335
0.007747 0.816843 -0.106376 0.216420 -1.256966 0.084176
-0.124027 -0.298885 0.070090 0.266248 -0.923024 -0.040417
0.133791 -0.763487 0.024594 0.006659 1.237511 -0.000506
0.009219 0.325570 0.115764 -0.374435 -0.926204 -0.002697
0.128163 -0.819450 0.085782 -0.246131 -1.056906 0.018897
0.080883 -0.261016 0.080001 0.016423 -0.995342 0.028272
0.458883 0.192912 -0.041465 0.561912 -0.543111 0.572750
0.503241 0.164873 0.008468 0.520582 -0.584853 0.563055
0.028348 -0.151406 0.066450 0.167333 -0.976665 0.008946
-0.063424 -0.543386 -0.102396 0.033036 1.136397 0.122979
0.098069 -0.546926 -0.097516 0.630267 -0.664989 -0.259463
-0.008556 0.643296 0.001683 -0.346614 -0.899781 -0.329220
0.193307 -0.277024 0.058457 0.029905 -1.017108 -0.008214
0.174487 -0.857577 0.106998 -0.228007 -1.013548 0.026814
0.069369 0.594625 -0.086901 -0.263823 -0.985093 -0.173037
-0.109048 0.180114 0.056789 -0.221877 -0.960168 -0.104300
0.382248 0.286059 -0.038541 0.676687 -0.567666 0.408551
-0.128259 -0.608250 -0.018489 0.019030 1.271251 0.012656
-0.083001 -0.820608 0.067298 -0.040083 1.067573 0.430570
0.076365 -0.342160 0.061586 -0.043406 -1.037636 0.039480
0.097399 -0.401682 0.055422 0.038295 -1.022431 0.013956
0.036352 -0.232682 0.014480 -0.087242 -1.010780 0.039945
0.035016 -0.327625 -0.015890 -0.035100 -1.028237 -0.036384
0.263773 0.357163 -0.046995 0.673448 -0.684873 -0.183621
0.084038 0.660327 -0.009254 1.130650 -0.121511 -0.030784
0.243290 0.384535 -0.124552 0.663526 -0.724268 -0.163630
-0.216585 0.484433 0.001486 -0.832399 -0.567273 0.099434
0.182285 -0.160503 -0.069073 -0.351396 -0.922085 0.024149
0.287135 0.482788 -0.085308 0.622562 -0.701144 -0.248177
0.182935 0.256799 -0.011765 -0.769980 -0.630301 0.059468
0.070115 -0.538408 0.010993 0.087875 -1.014609 -0.024028
0.030140 0.663198 0.090484 -0.053359 1.211589 -0.114238
0.104617 -0.406283 -0.099693 0.871769 -0.561231 -0.099328
0.167427 -0.560880 0.042365 0.731645 -0.610810 -0.345017
-0.119145 0.333887 -0.064447 -0.320898 -0.930619 -0.055450
-0.080853 0.317994 0.079008 -0.175976 -0.977975 -0.008201
0.030347 0.350901 -0.127622 -0.721122 -0.722820 0.061206
-0.367397 0.248458 0.009789 -0.769149 -0.627352 0.192577
-0.125549 -0.640255 -0.074452 0.104698 1.169883 0.150669
-0.010224 -0.216925 -0.078912 0.044649 -1.036609 0.039761
-0.070053 -0.615372 0.043384 0.039431 1.140120 0.058368
-0.130207 -0.036734 -0.050190 -0.079913 -0.892602 -0.518509
0.199053 -0.622940 -0.031058 0.848431 -0.345082 -0.471995
0.214192 -0.086640 0.018122 -0.018219 -1.021179 0.018383
-0.038639 -0.686188 0.019359 -0.027700 1.072996 -0.023288
0.067936 -0.611563 0.001332 -0.049360 0.993034 -0.028431
0.150849 0.577070 -0.041747 1.108507 -0.095424 -0.024868
0.057090 -0.443500 -0.060101 -0.157957 -0.988521 0.020478
-0.078067 0.028335 -0.124815 -0.078842 -0.880425 -0.517976
-0.230194 0.331837 -0.072726 -0.721559 -0.644052 -0.093413
-0.029326 0.441883 -0.131117 -0.779576 -0.615814 0.028953
0.025345 -0.595956 -0.035065 -0.024723 1.070745 -0.017767
-0.021535 0.817115 0.023775 0.653092 -0.757753 0.188048
0.135553 0.185425 -0.096467 -0.686214 -0.678326 0.015312
0.061111 0.021037 -0.159548 -0.734522 -0.641640 -0.114231
0.095521 -0.652946 -0.083125 -0.050487 1.041782 -0.047942
0.121362 -0.863524 -0.116382 -0.079522 0.916989 0.566411
0.201580 -0.253791 -0.034058 -0.135488 -0.989976 -0.023775
-0.131831 0.056512 -0.023729 -0.010476 -0.956004 -0.354149
0.044778 0.776458 0.085944 -0.036284 1.297363 -0.118455
-0.104396 -0.823013 -0.043029 -0.043158 0.997754 0.117570
-0.054053 -0.478083 0.070265 0.104640 1.172355 0.149677
0.301522 0.453875 -0.039724 0.645179 -0.678803 -0.229503
0.105283 -0.870053 0.079577 -0.044624 -1.116872 0.045865
0.164054 0.372024 -0.113325 -0.709645 -0.698224 0.103006
0.204700 -0.235566 0.023160 -0.071246 -0.995236 0.036196
0.003075 -0.223312 0.097696 -0.067286 -0.985860 -0.135806
0.064321 0.847143 0.039490 -0.038270 1.327414 -0.132521
-0.120027 -0.772712 -0.060656 -0.041895 1.016231 -0.025072
0.042814 -0.400801 -0.021115 -0.018917 -0.999173 -0.153467
0.097733 -0.098572 -0.125151 -0.129258 -1.029879 0.049020
0.027193 -0.656801 -0.029220 -0.052388 1.039884 -0.042524
-0.030766 0.034679 0.130373 0.172448 -0.835458 -0.455684
-0.145699 0.393302 -0.015370 -0.380485 -0.905477 0.076066
-0.023787 -0.315675 0.093693 0.182510 -0.995370 -0.003674
0.071588 0.843776 -0.067918 0.238016 -1.282739 0.080825
-0.025671 -0.056758 -0.122729 -0.113105 -0.981229 -0.341774
0.568056 0.080695 0.018987 0.525521 -0.648535 0.407259
-0.125675 -0.693793 -0.036850 -0.008256 1.090373 0.001113
0.093361 0.054919 0.121669 0.249137 -0.917204 -0.183914
0.011562 -0.457066 0.031445 -0.043632 -0.981139 -0.111012
0.147114 0.313058 -0.108229 -0.768603 -0.618783 0.075818
0.166125 0.213488 -0.062164 -0.808809 -0.597701 0.012885
0.076311 0.434483 0.088979 -0.741109 -0.676206 0.096709
0.207538 0.001923 0.014603 -0.707361 -0.698168 -0.032926
0.085263 0.241870 0.114320 -0.081800 -1.021919 0.051588
-0.419403 0.226620 -0.057393 -0.531696 -0.612212 0.486308
0.158906 0.116982 0.076660 -0.568581 -0.838435 0.008556
-0.501942 0.094580 0.066107 -0.425356 -0.526336 0.704405
0.016017 0.165595 -0.117205 -0.513893 -0.797861 -0.246842
0.329324 0.313956 -0.125554 0.612844 -0.771003 -0.165077
0.192773 -0.401962 0.041308 0.763438 -0.570547 -0.337129
0.198119 0.361722 -0.048870 -0.786403 -0.652222 0.030614
-0.132632 -0.391533 0.016899 0.112009 1.176887 0.159673
0.049723 0.292000 0.121313 -0.076814 -1.015940 0.036193
-0.174347 0.534718 -0.015808 -0.910672 -0.349189 0.194584
-0.094308 0.145068 -0.075093 0.114281 -0.868323 -0.488930
0.105074 0.160936 0.111743 -0.046681 -1.035082 0.042151
-0.107993 -0.539906 0.040799 0.096889 1.176343 0.135981
-0.014807 -0.417318 -0.070674 -0.035985 -1.010676 -0.049816
-0.125115 0.459917 -0.108136 -0.821704 -0.509754 0.177727
0.182717 -0.700121 0.001550 0.015880 1.267612 0.011490
-0.355184 0.235932 -0.076332 -0.714510 -0.638530 0.264947
-0.017633 0.686698 0.039941 -0.306503 -0.936139 -0.260314
0.198638 -0.498694 0.006348 0.657780 -0.751727 -0.135406
0.184770 0.019799 -0.076067 -0.766777 -0.656253 0.030981
0.035895 0.133497 0.132084 -0.196417 -0.988336 0.050961
0.081062 -0.199872 -0.094236 -0.015386 -1.022036 0.042489
-0.070748 -0.861351 -0.119945 -0.109762 0.892870 0.572395
-0.087367 -0.168613 0.114584 0.103361 -1.002339 -0.044056
0.157407 0.425523 0.063269 -0.675380 -0.741476 0.010381
-0.113170 0.099491 0.064418 0.098936 -0.931390 -0.320402
0.053466 -0.039497 0.130373 -0.064494 -1.003420 0.026689
-0.030624 0.132336 -0.114963 -0.382288 -0.891701 -0.221161
0.019715 -0.398975 0.025086 -0.184116 -0.966667 0.013331
0.302484 0.320615 -0.069246 0.704361 -0.668346 -0.250072
-0.108350 0.543394 0.030847 -0.970729 -0.200168 0.413520
-0.427711 0.236290 -0.005024 -0.686857 -0.652833 0.300167
-0.270776 0.408597 -0.065535 -0.766629 -0.633170 -0.222993
-0.113019 0.245511 0.007692 0.032035 -1.015793 -0.032010
-0.007964 -0.319934 -0.065711 0.047668 -1.025277 -0.009781
-0.126159 0.141153 0.019164 0.255677 -0.978537 -0.109892
0.378023 0.290353 -0.129658 0.599728 -0.753713 -0.221311
-0.131448 -0.481807 0.016903 0.136087 1.215224 0.191320
-0.094433 -0.457064 -0.081680 0.081209 1.171758 0.112872
0.098642 0.810166 -0.014006 0.243321 -1.116376 0.103319
0.110136 0.382506 0.092217 -0.613991 -0.820731 0.040165
0.170715 -0.088131 0.095742 -0.189713 -0.976758 -0.023686
0.248821 0.460945 -0.000502 0.907293 -0.503846 -0.139107
0.047837 0.493825 0.070578 -0.574743 -0.792399 0.043094
0.111206 -0.356003 -0.100864 0.733304 -0.564077 -0.356546
0.131555 -0.000334 0.120349 -0.094142 -1.020278 0.044496
0.122945 -0.813321 -0.119832 0.016650 1.263300 0.007774
0.140226 -0.637223 0.030553 -0.011918 1.173326 -0.012248
-0.023871 0.156008 0.121039 -0.031813 -1.026826 0.045196
0.040692 0.545759 -0.116262 -0.857762 -0.525888 0.103453
0.045680 -0.506477 -0.019095 0.063896 -1.062244 0.048467
0.121310 0.106453 -0.122389 -0.750657 -0.648182 -0.007593
-0.037889 -0.603844 -0.097515 -0.042369 1.050453 -0.038268
-0.135239 -0.220512 0.054072 0.433115 -0.895317 -0.200804
0.249176 0.513623 -0.093645 0.908150 -0.488696 -0.104368
0.612721 0.091072 0.074706 0.490079 -0.738484 0.333430
0.165061 0.539296 0.010230 1.020853 -0.248187 -0.076092
-0.029315 -0.849390 -0.034105 -0.086066 0.903941 0.637285
0.184428 0.170685 0.036092 -0.657789 -0.731278 0.023876
-0.058205 -0.351093 0.099085 0.252805 -0.952814 -0.034021
-0.131795 -0.502721 -0.046569 0.113035 1.176881 0.161295
0.182200 -0.319100 -0.048114 0.111375 -0.992412 0.039847
0.202766 -0.404813 -0.026021 0.670624 -0.633708 -0.384550
-0.016711 0.281073 0.114756 -0.587932 -0.809996 0.062976
-0.119914 0.521524 -0.092590 -0.883973 -0.423285 0.172896
-0.059656 0.515800 0.056407 -0.839721 -0.477322 0.189774
0.006215 -0.082825 -0.096215 -0.088298 -0.918135 -0.390594
-0.200899 0.485560 -0.059459 -0.779258 -0.626392 -0.005919
-0.054834 -0.671299 -0.109201 0.008619 1.075999 0.033005
-0.126212 0.447481 0.061382 -0.825089 -0.581963 0.069672
-0.052607 -0.315052 -0.089983 0.130235 -0.949025 -0.248445
-0.026414 -0.725786 -0.110179 -0.054025 1.052842 -0.057553
-0.115899 -0.420439 0.071305 0.085404 1.141868 0.130371
-0.050851 -0.084159 0.126300 0.227011 -0.992917 -0.058766
-0.037273 0.315636 -0.128505 -0.670199 -0.766318 -0.007579
-0.307699 0.357800 -0.052177 -0.788146 -0.625819 -0.142130
-0.136764 -0.012352 0.037956 0.179554 -0.977184 -0.135653
0.087667 -0.852673 -0.081469 -0.083401 0.944085 0.575408
0.054695 -0.730627 0.004196 -0.051675 1.059001 -0.056081
-0.021454 -0.127023 -0.095770 -0.036952 -0.845607 -0.549353
-0.125594 -0.355760 -0.030679 0.201267 -0.970530 -0.148128
0.135254 0.515337 0.038754 -0.491836 -0.860794 -0.098434
-0.064418 -0.403188 -0.081565 0.040839 -0.997906 -0.003946
0.028891 0.704718 -0.089464 1.090210 -0.113119 -0.026768
-0.049596 -0.767416 -0.135454 -0.052568 1.034167 -0.048460
0.031467 0.243830 -0.125534 -0.799914 -0.638299 0.041867
-0.093655 -0.863300 0.084943 -0.047748 1.131423 0.367885
-0.046735 0.515197 -0.120420 -0.914230 -0.382931 0.210431
0.073397 0.806881 0.062535 -0.079955 1.385327 -0.219448
0.175328 -0.071285 -0.089700 -0.719957 -0.688811 -0.008154
0.190291 0.021694 0.074300 -0.178261 -1.027697 0.017336
0.022632 0.475802 -0.124761 -0.781284 -0.618659 0.028702
0.503122 0.194458 -0.057605 0.577698 -0.553305 0.541898
0.141584 -0.676169 -0.089928 0.008159 1.253242 -0.005918
0.555443 0.150652 -0.013969 0.595966 -0.631355 0.407865
0.342994 0.402653 -0.126896 0.702647 -0.699427 -0.181154
0.174571 -0.791707 -0.080528 0.015507 1.275545 0.006921
0.178272 0.170485 -0.040288 -0.768717 -0.616115 0.060916
-0.188597 0.398943 0.025320 -0.839142 -0.511735 0.181171
-0.367172 0.280115 -0.084372 -0.731469 -0.623002 0.264359
-0.032292 -0.863383 0.061203 -0.086073 0.932117 0.613580
0.226475 0.513032 0.007996 1.090571 -0.080535 -0.026426
-0.034395 -0.791714 0.046603 -0.027812 1.051025 -0.015474
-0.040010 0.550775 0.033332 -0.870101 -0.514439 0.115332
0.427318 0.226277 -0.038263 0.702488 -0.512345 0.464125
0.350128 0.406666 -0.079510 0.664024 -0.681868 -0.205787
-0.031368 0.745997 0.013282 0.715822 -0.694031 0.237884
0.592919 0.117390 0.007383 0.534558 -0.647370 0.434823
-0.070030 -0.125852 0.120366 0.208563 -1.004636 -0.039227
-0.297178 0.269707 -0.083957 -0.718925 -0.654174 -0.139529
0.152662 -0.199005 -0.091484 -0.198208 -0.999776 -0.050355
-0.255793 0.386459 0.017800 -0.651417 -0.747887 -0.193198
-0.067552 -0.095681 -0.106267 -0.073386 -0.936541 -0.417180
0.069211 0.730348 0.073720 -0.078440 1.365896 -0.209987
0.184253 -0.471782 -0.074739 0.742331 -0.613304 -0.193157
0.134258 -0.592811 -0.102442 0.795920 -0.473354 -0.393862
0.137610 -0.012819 -0.138574 -0.687639 -0.744722 0.039843
0.130064 0.580671 -0.081706 1.080734 -0.132748 -0.009593
0.006124 -0.269711 0.087449 -0.093111 -1.003130 0.006373
-0.045702 0.202803 0.106162 -0.104260 -0.973753 -0.049643
0.006695 -0.571781 0.011966 -0.045229 1.011128 -0.028484
0.261024 0.354544 -0.096019 0.661125 -0.670308 -0.187028
0.196329 -0.139283 0.065734 -0.111428 -0.996515 0.033014
-0.005024 0.655774 -0.041372 -0.236458 -0.923873 -0.363837
0.000515 0.417031 0.101460 -0.279928 -0.970201 -0.024394
-0.117038 -0.272929 -0.034973 0.192132 -0.939528 -0.277198
-0.112064 0.264767 -0.033194 -0.093614 -1.017817 0.045752
-0.110688 0.224559 0.051298 -0.059791 -1.019653 0.007942
0.079379 -0.738479 -0.053467 -0.031775 1.050142 -0.021415
0.074470 -0.021157 -0.153010 -0.235702 -0.971832 -0.210837
-0.457059 0.193972 -0.032167 -0.508374 -0.601330 0.540009
0.067145 0.376940 -0.141039 -0.750554 -0.668476 0.179484
0.100162 -0.031170 0.127605 0.023352 -0.981435 -0.111908
-0.073795 0.395174 0.089981 -0.598645 -0.831309 0.104506
0.187837 -0.217173 -0.062530 -0.394054 -0.888613 0.006072
-0.129248 0.102499 -0.002635 0.125419 -1.011291 -0.038429
0.004675 0.504388 0.068717 -0.799359 -0.597690 0.061328
-0.035597 0.091023 0.120783 0.208719 -0.986916 0.026662
0.155327 0.507360 -0.131539 1.089145 -0.114486 0.033002
0.133555 -0.866686 0.005142 -0.049279 1.054765 0.447989
-0.119769 -0.341945 0.078116 0.270678 -1.010329 0.018899
0.129721 0.399048 -0.140575 -0.783374 -0.636162 0.016463
-0.302141 0.254303 -0.004621 -0.499493 -0.792772 -0.225853
-0.004363 0.856724 0.016116 0.252302 -1.312168 0.079973
0.021504 0.847645 -0.078584 0.217642 -1.275721 0.084904
-0.135785 -0.081214 0.061225 0.246470 -1.018425 0.040481
0.208334 -0.040110 0.036903 -0.748143 -0.662895 0.003814
-0.477266 0.176383 0.004849 -0.481574 -0.573759 0.595004
-0.103203 -0.804702 -0.003451 -0.027953 1.073555 -0.008633
-0.005724 -0.797396 -0.009104 -0.054686 1.061326 -0.061684
0.037395 0.394384 0.102987 -0.772654 -0.622548 0.032969
0.086480 0.172145 -0.117035 -0.674441 -0.738518 -0.064410
0.051962 -0.310481 0.045421 0.096666 -1.029936 0.009621
0.158188 -0.719076 -0.077248 0.017171 1.269530 0.014207
-0.563460 0.060016 0.025379 -0.422093 -0.519885 0.695574
0.005786 -0.089622 0.121186 0.066069 -1.019225 -0.043471
0.019356 -0.455909 -0.029418 -0.177260 -0.980249 0.029008
0.460870 0.234229 -0.087931 0.639393 -0.548939 0.461108
-0.134449 -0.560913 -0.031560 0.161466 1.257788 0.208393
-0.143636 -0.123111 0.029742 0.082626 -0.958297 -0.184765
-0.084484 -0.672532 0.033075 -0.023418 1.043136 -0.005663
0.146332 0.311263 0.071235 -0.576709 -0.817445 -0.002970
-0.040431 -0.515364 0.054862 0.070772 1.166888 0.098152
0.113139 -0.679929 0.032256 -0.054773 1.062432 -0.062223
-0.113251 -0.317299 -0.045335 0.114303 -0.938431 -0.283173
0.034745 0.048389 0.135610 0.199749 -0.961507 -0.102763
0.121090 -0.825784 0.146592 -0.155911 -1.059554 0.050036
-0.408540 0.176131 -0.026328 -0.517522 -0.620849 0.496795
-0.082817 -0.820976 -0.122987 -0.053452 1.045497 -0.053977
-0.043961 0.315867 0.099386 -0.172169 -0.979619 -0.020865
-0.087846 -0.505007 0.074959 0.098083 1.183979 0.135090
-0.315306 0.240024 -0.060148 -0.749154 -0.661543 0.079466
0.099129 0.451126 -0.146245 -0.780919 -0.646270 -0.015482
0.083224 -0.505416 -0.088924 0.490305 -0.763275 -0.328324
0.057289 -0.682799 0.016548 -0.027024 1.060521 -0.017683
0.164449 0.212844 0.058262 -0.773100 -0.663963 0.038283
0.115630 0.315221 -0.135743 -0.788255 -0.630228 0.021659
0.139108 -0.551421 -0.106166 0.800185 -0.568678 -0.229923
0.152731 -0.249654 0.083527 -0.001301 -0.981285 -0.109773
0.224490 0.475745 -0.131117 0.851963 -0.565229 -0.071288
-0.114345 -0.267119 0.095283 0.202273 -0.981268 -0.041919
-0.129550 -0.282679 0.022000 0.197465 -1.024421 -0.013463
-0.046075 -0.398792 0.086925 0.268639 -0.949771 -0.173947
-0.116134 0.217705 -0.028810 -0.059240 -0.989528 0.006517
0.072306 -0.416143 0.025507 -0.056868 -1.000821 0.016591
0.062073 0.817145 -0.102796 0.183795 -1.209306 0.081087
-0.116962 -0.581344 -0.080827 0.022624 1.199961 0.026529
-0.201399 0.392861 -0.096903 -0.805990 -0.545972 -0.022808
0.173612 0.451073 -0.137763 1.010627 -0.271167 -0.003368
0.220410 0.545267 -0.079899 1.091389 -0.132307 -0.007584
-0.259316 0.291339 -0.020879 -0.767597 -0.648825 -0.152120
0.360498 0.320603 -0.044583 0.684872 -0.716631 -0.099206
-0.043695 0.576698 -0.087572 -0.845266 -0.488525 0.096371
0.120030 0.060654 -0.137369 -0.696269 -0.724315 -0.109954
0.009719 -0.792942 -0.094235 -0.055719 1.074569 -0.068133
0.512317 0.203532 -0.001904 0.577719 -0.567940 0.522839
0.543851 0.135844 0.037962 0.531178 -0.634627 0.492497
-0.237842 0.449773 -0.003604 -0.788591 -0.625831 -0.021289
0.319629 0.406701 -0.037131 0.687395 -0.739089 -0.091304
0.089018 -0.748245 0.025060 -0.052766 1.036698 -0.049692
-0.213519 0.358339 0.008216 -0.597601 -0.813343 -0.066155
-0.085196 -0.340833 -0.075972 0.104947 -0.966300 -0.202744
0.058436 -0.166602 -0.087053 -0.019479 -0.951407 -0.305842
-0.103985 -0.729046 -0.094467 -0.053267 1.043124 -0.052821
0.350911 0.279795 -0.063752 0.802654 -0.592464 0.037594
0.174573 0.095222 -0.071595 -0.794171 -0.637757 -0.015180
0.006014 0.067537 -0.143390 -0.104844 -0.880846 -0.525354
-0.072311 0.210828 -0.091906 -0.373976 -0.951083 -0.056799
0.363309 0.363967 -0.083194 0.597339 -0.741552 -0.197511
-0.177216 0.435421 0.038951 -0.768847 -0.641953 -0.038716
0.135961 0.235612 0.088662 -0.747879 -0.653455 0.026029
0.060176 -0.259966 -0.069461 -0.005846 -1.001023 -0.064199
0.138645 -0.192974 0.095989 -0.063870 -0.952404 -0.154306
-0.024293 0.199209 -0.118179 -0.360795 -0.821755 -0.451632
0.129890 0.103092 0.101116 -0.564996 -0.824144 -0.023123
-0.057507 0.062966 -0.127452 0.116240 -0.960372 -0.190627
-0.017634 0.464267 0.087939 -0.490815 -0.852964 -0.019408
-0.035347 -0.515002 -0.096589 -0.004309 1.144482 0.001861
0.014003 -0.503542 -0.043785 0.178707 -1.073145 0.060055
0.021039 0.576617 -0.099499 -0.624735 -0.792619 -0.062592
-0.012470 -0.353907 0.083967 0.186154 -0.977194 -0.055903
-0.118509 0.366640 0.026682 -0.718359 -0.714728 -0.027132
