0.08538359 -0.02236898 0.33665088
0.04427475 0.021533586 0.3445295
0.001936354 0.06489365 0.34192047
-0.040345207 0.10639377 0.328903
-0.08128519 0.14477296 0.30587265
-0.1196397 0.1788651 0.2735291
-0.15424332 0.20763433 0.23285519
-0.18404461 0.23020647 0.18508676
-0.20813817 0.24589568 0.13167523
-0.2257918 0.2542253 0.07424346
-0.23646924 0.25494224 0.014536452
-0.23984595 0.24802466 -0.045631524
-0.23581938 0.23368277 -0.10443242
-0.22451188 0.21235238 -0.16007948
-0.20626698 0.18468155 -0.21088195
-0.18163909 0.15151104 -0.25529626
-0.15137652 0.113848776 -0.29197282
-0.11639876 0.07283908 -0.3197973
-0.07776859 0.029727994 -0.33792427
-0.0366597 -0.014174618 -0.34580296
0.005678693 -0.057534683 -0.3431939
0.04796023 -0.09903478 -0.3301764
0.08890023 -0.13741396 -0.30714604
0.12725475 -0.17150614 -0.2748025
0.16185838 -0.20027535 -0.2341286
0.19165969 -0.22284748 -0.18636018
0.21575321 -0.23853672 -0.13294864
0.23340686 -0.24686636 -0.07551687
0.24408424 -0.24758327 -0.015809905
0.24746099 -0.2406657 0.04435807
0.24343441 -0.2263238 0.10315893
0.23212692 -0.20499341 0.15880603
0.21388204 -0.1773226 0.2096085
0.18925416 -0.1441521 0.2540228
0.15899159 -0.10648984 0.29069936
0.124013826 -0.06548014 0.31852385
-0.071876764 -0.026277637 0.23080306
-0.064991646 -0.024928093 0.23298393
-0.057889674 -0.024804026 0.23486246
-0.050786633 -0.025909208 0.2363816
-0.04389836 -0.028210059 0.2374952
-0.037434127 -0.031636663 0.23816937
-0.031590376 -0.03608492 0.23838365
-0.026544651 -0.041419655 0.23813155
-0.02245026 -0.047478776 0.23742071
-0.019431617 -0.0540782 0.23627272
-0.017580437 -0.061017387 0.23472251
-0.016952965 -0.068085484 0.23281713
-0.017568273 -0.075067766 0.23061448
-0.019407675 -0.08175205 0.2281815
-0.022415247 -0.08793524 0.2255921
-0.026499644 -0.09342947 0.22292502
-0.031536732 -0.098067805 0.2202612
-0.037373487 -0.101709284 0.21768165
-0.04383256 -0.104243316 0.21526471
-0.050717678 -0.10559286 0.21308385
-0.05781965 -0.10571694 0.21120529
-0.06492269 -0.104611754 0.20968616
-0.07181097 -0.102310896 0.20857258
-0.07827519 -0.098884284 0.20789838
-0.08411894 -0.094436035 0.20768411
-0.089164674 -0.089101285 0.2079362
-0.09325907 -0.08304217 0.20864706
-0.09627771 -0.076442756 0.20979503
-0.09812889 -0.06950357 0.21134527
-0.09875636 -0.062435467 0.21325065
-0.098141044 -0.055453196 0.21545328
-0.09630166 -0.048768915 0.21788627
-0.09329408 -0.042585723 0.22047563
-0.08920968 -0.037091494 0.22314274
-0.0841726 -0.032453157 0.22580656
-0.07833584 -0.02881166 0.22838612
0.16797045 -0.110920444 0.061803326
0.1574858 -0.13010773 0.051061444
0.14646292 -0.14668159 0.03701614
0.13523671 -0.16013846 0.020094167
0.124148294 -0.17006944 0.00080972165
0.11353458 -0.1761728 -0.020251289
0.10371806 -0.17826307 -0.042448916
0.09499702 -0.17627674 -0.065108694
0.08763643 -0.1702742 -0.08754211
0.081859924 -0.16043779 -0.10906756
0.07784303 -0.1470664 -0.129031
0.07570784 -0.13056633 -0.14682582
0.075519145 -0.111438885 -0.16191138
0.07728276 -0.09026532 -0.17382929
0.080945045 -0.06768888 -0.18221739
0.08639475 -0.04439562 -0.1868209
0.093466274 -0.021093264 -0.18749985
0.10194477 0.0015101582 -0.18423368
0.11157261 0.022727855 -0.1771216
0.122057274 0.041915156 -0.1663797
0.13308015 0.058489025 -0.15233442
0.14430636 0.071945876 -0.13541245
0.15539478 0.08187686 -0.11612798
0.1660085 0.087980226 -0.09506696
0.17582501 0.09007049 -0.07286933
0.18454605 0.088084176 -0.050209552
0.19190665 0.082081616 -0.027776137
0.19768313 0.07224522 -0.0062506944
0.20170003 0.058873832 0.013712719
0.20383523 0.042373773 0.03150755
0.20402391 0.023246348 0.046593092
0.20226033 0.0020727515 0.058510996
0.19859803 -0.02050367 0.06689912
0.19314831 -0.043796934 0.07150261
0.18607679 -0.06709929 0.07218158
0.1775983 -0.08970271 0.06891541
0.25856423 -0.0060361917 0.18655139
0.2701091 -0.00454533 0.16945133
0.28046194 -0.0063817333 0.15163666
0.2893084 -0.011489606 0.13364865
0.29637954 -0.019713754 0.11603388
0.30146053 -0.030804269 0.09932755
0.30439705 -0.04442419 0.08403728
0.3050998 -0.060159724 0.07062767
0.30354744 -0.07753266 0.05950614
0.29978713 -0.0960152 0.051010627
0.2939332 -0.11504574 0.04539926
0.28616345 -0.13404606 0.042842507
0.27671397 -0.15243883 0.043418106
0.26587188 -0.1696652 0.047108553
0.25396663 -0.18520175 0.053801686
0.24135993 -0.19857639 0.06329418
0.22843485 -0.20938282 0.07529757
0.21558408 -0.21729259 0.08944718
0.20319813 -0.2220654 0.10531304
0.19165327 -0.2235563 0.12241311
0.18130036 -0.2217199 0.1402278
0.17245394 -0.216612 0.15821579
0.1653828 -0.20838787 0.17583056
0.16030179 -0.19729733 0.1925369
0.1573653 -0.18367739 0.20782717
0.15666254 -0.16794188 0.22123678
0.1582149 -0.15056893 0.2323583
0.16197518 -0.1320864 0.24085383
0.16782914 -0.11305587 0.2464652
0.17559889 -0.09405556 0.24902192
0.18504839 -0.07566281 0.24844635
0.19589044 -0.05843643 0.2447559
0.20779571 -0.042899877 0.23806274
0.2204024 -0.029525215 0.22857027
0.23332748 -0.018718818 0.21656688
0.24617825 -0.010809031 0.20241728
-0.120283335 0.009594334 0.09849972
-0.13084377 0.020002874 0.082110405
-0.13795274 0.031916115 0.06490554
-0.14139424 0.044972092 0.047407888
-0.14106369 0.05877409 0.030149104
-0.13697116 0.07290276 0.013653586
-0.12924096 0.0869288 -0.0015774562
-0.118108 0.10042604 -0.0150812175
-0.10391053 0.11298435 -0.026447423
-0.08707995 0.1242222 -0.035330705
-0.06812763 0.1337981 -0.04146114
-0.04762946 0.14142108 -0.04465247
-0.026208218 0.14685954 -0.044807732
-0.004514817 0.14994825 -0.04192219
0.01679162 0.15059333 -0.03608353
0.037063684 0.1487752 -0.027469164
0.055685453 0.14454909 -0.016340816
0.072091095 0.1380434 -0.0030366369
0.085782126 0.12945586 0.012039143
0.096342586 0.11904731 0.028428478
0.10345154 0.10713406 0.045633346
0.10689303 0.09407809 0.06313098
0.1065625 0.08027608 0.08038977
0.10246995 0.0661474 0.0968853
0.09473976 0.052121364 0.11211634
0.083606794 0.038624134 0.12562011
0.06940933 0.026065808 0.13698632
0.05257875 0.014827978 0.14586958
0.03362644 0.0052520833 0.15200002
0.013128271 -0.0023709089 0.15519136
-0.008292966 -0.0078093736 0.1553466
-0.029986355 -0.0108980825 0.15246108
-0.051292796 -0.011543161 0.14662243
-0.07156487 -0.00972503 0.13800804
-0.09018663 -0.0054989215 0.1268797
-0.10659228 0.0010067504 0.11357553
-0.14503378 0.32118806 0.050803814
-0.14989218 0.32168522 0.028784608
-0.15086092 0.32245827 0.006264395
-0.14791061 0.32348374 -0.016072588
-0.14113085 0.32473043 -0.037547626
-0.13072766 0.32616052 -0.0575082
-0.11701712 0.32773054 -0.07534784
-0.10041583 0.32939276 -0.09052448
-0.081428215 0.3310967 -0.10257701
-0.060631193 0.33279055 -0.11113919
-0.03865666 0.3344229 -0.11595087
-0.016172338 0.33594412 -0.11686587
0.0061386395 0.337308 -0.11385637
0.027598325 0.33847305 -0.107013814
0.047554705 0.3394039 -0.09654613
0.065401405 0.34007233 -0.08277133
0.080596164 0.34045798 -0.06610799
0.09267731 0.34054908 -0.04706241
0.10127772 0.34034294 -0.026213273
0.106136136 0.33984578 -0.0041940436
0.1071049 0.33907273 0.018326169
0.10415457 0.33804727 0.040663138
0.09737481 0.33680055 0.062138174
0.08697161 0.33537048 0.08209877
0.073261075 0.33380046 0.0999384
0.05665978 0.33213824 0.115115054
0.037672166 0.33043432 0.12716757
0.016875148 0.32874045 0.13572975
-0.0050993767 0.32710811 0.14054143
-0.027583694 0.32558692 0.14145644
-0.049894657 0.32422304 0.13844693
-0.07135435 0.32305795 0.13160439
-0.09131073 0.32212707 0.12113669
-0.109157436 0.32145867 0.107361905
-0.1243522 0.32107306 0.09069856
-0.13643333 0.32098192 0.071652986
-0.079764776 0.062133815 0.34448937
-0.12429425 0.063201524 0.33083603
-0.16682945 0.057873294 0.31259328
-0.20607795 0.046310984 0.29031557
-0.24084722 0.028865956 0.26467967
-0.27008078 0.006068226 0.23646459
-0.29289043 -0.021389503 0.2065276
-0.30858302 -0.052672904 0.17577833
-0.31668186 -0.08683149 0.14515108
-0.31694084 -0.12282735 0.11557643
-0.309352 -0.15956677 0.08795297
-0.29414603 -0.19593345 0.06312009
-0.27178484 -0.23082238 0.04183225
-0.24294806 -0.26317352 0.024736345
-0.20851171 -0.2920038 0.012351785
-0.16952214 -0.31643742 0.0050548688
-0.1271641 -0.3357318 0.0030673072
-0.082724564 -0.34930068 0.0064494982
-0.03755381 -0.35673195 0.015098684
0.006975731 -0.35779965 0.028752062
0.04951091 -0.35247144 0.04699476
0.08875941 -0.34090912 0.06927249
0.123528674 -0.32346407 0.09490837
0.15276226 -0.30066633 0.12312348
0.17557187 -0.27320862 0.15306048
0.19126451 -0.24192522 0.18380977
0.19936335 -0.20776664 0.21443701
0.19962227 -0.17177078 0.24401164
0.19203348 -0.13503136 0.2716351
0.17682749 -0.098664716 0.29646796
0.15446638 -0.063775785 0.31775576
0.12562956 -0.03142465 0.3348517
0.091193184 -0.002594296 0.34723625
0.052203644 0.021839254 0.35453317
0.00984559 0.041133627 0.35652077
-0.034593947 0.05470258 0.35313857
-0.14237554 0.23633985 -0.9760218
-0.018434608 0.13989444 -1.0044081
0.11308726 0.04953155 -1.0067292
0.24819393 -0.03200321 -0.98291487
0.3827802 -0.10223244 -0.93368834
0.51275665 -0.15902226 -0.8605455
0.6341742 -0.20064709 -0.7657087
0.74334353 -0.22584222 -0.6520597
0.83694756 -0.23384209 -0.5230514
0.91214216 -0.22440372 -0.38260382
0.9666428 -0.19781373 -0.23498425
0.9987931 -0.15488023 -0.084678255
1.0076166 -0.09690754 0.063747466
0.99284506 -0.025657274 0.2057828
0.9549272 0.056705676 0.3371122
0.89501524 0.14767885 0.4537453
0.81492954 0.24449798 0.5521383
0.7171035 0.34422132 0.62930155
0.6045095 0.4438188 0.6828904
0.48056835 0.54026437 0.7112767
0.34904647 0.6306272 0.7135979
0.2139399 0.7121619 0.68978345
0.079353645 0.7823912 0.640557
-0.05062303 0.83918095 0.567414
-0.17204048 0.88080585 0.47257727
-0.28120983 0.9060009 0.35892823
-0.3748138 0.91400087 0.22991997
-0.4500084 0.9045624 0.08947238
-0.504509 0.8779724 -0.05814711
-0.5366594 0.8350389 -0.2084531
-0.5454829 0.7770663 -0.3568787
-0.53071123 0.70581603 -0.49891406
-0.49279344 0.62345314 -0.6302435
-0.43288153 0.53248 -0.74687666
-0.35279584 0.43566084 -0.8452697
-0.25496978 0.3359375 -0.9224329
0.26540756 -0.6348269 0.21818207
0.21279912 -0.63390326 0.27190608
0.16504271 -0.6211654 0.32857913
0.12358935 -0.5970002 0.3864793
0.08969857 -0.562142 0.4438473
0.06440012 -0.5176498 0.49894
0.04846275 -0.46487564 0.55008346
0.042370707 -0.40542302 0.59572375
0.046308964 -0.3410983 0.634474
0.06015791 -0.27385598 0.66515696
0.0834969 -0.20573916 0.68684024
0.11561659 -0.13881762 0.698865
0.15554115 -0.07512464 0.7008659
0.2020575 -0.016595617 0.6927823
0.25375214 0.034991235 0.6748595
0.30905455 0.078068286 0.64764225
0.36628425 0.11132684 0.6119576
0.42370236 0.13375628 0.5688897
0.47956428 0.14467505 0.5197472
0.5321728 0.1437515 0.4660231
0.57992923 0.13101357 0.4093501
0.62138253 0.10684839 0.3514499
0.6552733 0.07199016 0.29408193
0.6805718 0.027497977 0.23898913
0.6965091 -0.02527617 0.1878457
0.70260125 -0.08472887 0.1422054
0.69866294 -0.14905354 0.10345513
0.684814 -0.21629587 0.07277222
0.661475 -0.28441265 0.05108899
0.6293553 -0.35133415 0.03906414
0.5894307 -0.4150271 0.03706318
0.5429145 -0.4735562 0.045146912
0.4912198 -0.52514297 0.06306967
0.43591744 -0.56822014 0.090286866
0.37868774 -0.6014787 0.12597156
0.32126957 -0.6239081 0.16903946
-0.21737647 0.16997707 -0.55691344
-0.12332173 0.16120455 -0.58745396
-0.025220525 0.1549898 -0.6013646
0.07394639 0.15152168 -0.5982227
0.17116587 0.15090553 -0.5781238
0.26348397 0.15316011 -0.5416785
0.34809563 0.15821691 -0.48999405
0.42242992 0.16592225 -0.42464107
0.48422828 0.17604205 -0.3476053
0.53161305 0.1882688 -0.26122725
0.5631445 0.20223102 -0.1681315
0.5778644 0.21750441 -0.07114689
0.57532555 0.233625 0.026779968
0.5556052 0.25010288 0.12267341
0.5193024 0.26643738 0.2136199
0.46752027 0.28213227 0.29685605
0.40183216 0.2967106 0.36985272
0.32423398 0.30972946 0.43039203
0.23708355 0.3207932 0.4766345
0.14302868 0.32956576 0.507175
0.04492749 0.3357805 0.5210856
-0.054239392 0.3392486 0.5179438
-0.15145884 0.33986473 0.49784485
-0.24377704 0.33761016 0.4613994
-0.32838866 0.33255336 0.4097151
-0.40272298 0.324848 0.34436214
-0.46452138 0.3147282 0.2673263
-0.51190615 0.30250147 0.18094827
-0.5434375 0.28853926 0.08785259
-0.5581574 0.27326587 -0.009132003
-0.5556186 0.25714532 -0.10705879
-0.53589827 0.24066742 -0.20295227
-0.4995954 0.22433288 -0.29389876
-0.44781333 0.20863801 -0.3771349
-0.38212526 0.19405968 -0.45013157
-0.3045271 0.18104085 -0.51067096

