-0.055373 -0.438919 -0.009564 0.004854 0.953296 0.150725
0.031108 0.321638 -0.009085 0.065849 -1.029523 0.061084
0.127287 -0.491576 -0.032883 -0.003435 1.010740 0.022311
0.115242 -0.219597 -0.007414 -0.010652 0.995957 0.040655
0.065603 0.036852 0.000903 0.085819 -0.929629 -0.002342
0.038613 0.291973 -0.007040 0.052491 -1.003816 0.058693
-0.030830 0.031740 0.026177 0.013229 0.980911 0.012980
0.128052 -0.585241 -0.041967 0.015447 0.991963 0.007090
-0.054732 -0.399150 -0.002454 0.020554 0.956309 0.139973
0.112312 -0.305738 -0.016002 -0.037131 0.963140 0.055368
-0.060517 -0.556997 -0.026125 -0.004572 0.966106 0.074743
0.129053 -0.503701 -0.033436 0.000018 1.003046 0.026633
0.110409 -0.082130 0.000158 -0.009232 1.002729 0.007460
0.030609 0.370453 -0.015002 0.076606 -1.017017 0.059380
-0.043171 -0.167555 0.022556 -0.025056 0.983502 0.071412
0.130369 -0.499964 -0.032868 -0.007273 1.001739 0.046985
0.011434 0.356202 -0.014999 0.052800 -1.009033 0.052322
0.579047 0.116587 0.021440 0.532428 -0.647226 0.422639
-0.483494 0.129544 0.016313 -0.468324 -0.561684 0.601744
0.017859 -0.024908 0.008994 -0.031137 -0.914351 0.007873
0.064293 0.138152 -0.007772 0.154094 -0.955465 -0.007781
0.052701 0.357288 -0.018254 0.001855 -0.967038 0.050816
0.188731 0.456780 -0.064856 0.758806 -0.401723 -0.039087
0.111676 -0.122948 -0.000312 -0.004345 0.998300 0.022760
-0.043728 -0.206141 0.021500 -0.013426 0.995615 0.077407
-0.058916 -0.511136 -0.020553 -0.001201 0.962074 0.108628
-0.058610 -0.775087 -0.052387 -0.059845 0.887064 0.223016
0.109915 -0.254675 -0.012034 -0.036478 0.972248 0.033918
0.028009 0.651096 -0.024832 0.085893 -0.834102 -0.118054
0.054786 -0.763829 -0.035703 -0.076385 0.823653 0.449529
0.036062 0.358315 -0.013464 0.069947 -1.009039 0.061208
-0.347150 0.265642 -0.041126 -0.693747 -0.622035 0.180266
-0.088715 0.481609 -0.029527 -0.715496 -0.421384 0.126659
0.039042 0.410645 -0.022212 0.084926 -1.006266 0.039296
-0.053400 -0.366755 0.003867 0.032243 0.969683 0.115103
0.037050 0.303622 -0.007768 0.060640 -1.011113 0.058303
-0.202933 0.418688 -0.033263 -0.623786 -0.644699 -0.030385
-0.025415 0.449213 -0.028052 0.142154 -0.818128 0.073838
0.033280 -0.752056 -0.027198 -0.034064 0.895546 0.297228
0.127449 -0.525932 -0.035796 -0.005550 1.010836 0.015843
-0.068423 0.666469 -0.026461 0.030390 -0.791963 0.124256
0.043860 0.169631 -0.003050 0.049502 -0.969337 0.022976
0.112930 -0.251081 -0.011367 -0.028006 0.990104 0.040775
0.039078 0.250366 -0.004114 0.048498 -1.000940 0.050941
0.124456 -0.418101 -0.025200 -0.019742 0.969773 0.068319
0.416912 0.258107 -0.075675 0.651227 -0.592265 0.321759
-0.006564 0.425747 -0.025691 0.128514 -0.954797 0.031341
-0.043744 -0.139235 0.023724 -0.025014 0.987010 0.062832
0.078223 0.446091 -0.035125 -0.131689 -0.879264 0.044276
0.111112 -0.163619 -0.001749 -0.009366 0.997382 0.038454
0.028764 0.270561 -0.005026 0.047535 -0.996850 0.060623
0.010493 -0.753487 0.014151 -0.068619 0.797039 0.421912
0.004366 0.039320 0.006005 -0.054478 -0.914331 0.033904
0.021831 -0.798433 -0.040579 -0.067095 0.809938 0.458406
-0.050910 -0.327449 0.008452 0.027676 0.986539 0.090786
0.286769 0.401460 -0.075611 0.695330 -0.632026 -0.164646
0.131361 -0.571016 -0.039663 0.006115 1.011352 0.010141
0.066363 0.081755 -0.004415 0.124254 -0.938270 -0.009042
-0.063528 -0.604860 -0.030578 -0.013434 0.971100 0.075236
-0.056720 -0.470667 -0.014387 -0.002017 0.962085 0.138206
-0.056638 -0.715827 -0.048934 -0.043866 0.904694 0.181712
-0.012903 0.268733 0.032866 0.003945 1.044982 -0.043588
0.026785 0.358060 -0.012429 0.068374 -1.028785 0.064482
0.037006 0.308659 -0.007691 0.060677 -1.016276 0.060524
0.107127 -0.209732 -0.008168 -0.031743 0.980124 0.029614
0.108296 -0.177591 -0.003575 -0.016243 0.989880 0.038714
0.112944 -0.253723 -0.008890 -0.014249 0.993460 0.058187
0.127558 -0.458522 -0.030024 -0.014096 0.986282 0.053635
0.127748 -0.475490 -0.032065 -0.001372 0.995744 0.032665
0.022261 0.330228 -0.010356 0.055532 -1.019927 0.066402
0.042577 0.134003 -0.001141 0.040305 -0.958195 0.015640
0.112785 -0.160475 -0.002749 -0.007432 0.993247 0.032664
0.114459 -0.192895 -0.005186 -0.009914 0.996856 0.041850
0.036990 0.282444 -0.006407 0.059905 -1.006138 0.054944
0.042869 0.204164 -0.003374 0.058473 -0.989650 0.035319
0.037245 0.335141 -0.010372 0.070726 -1.029248 0.059535
0.131539 -0.530633 -0.036250 0.008144 0.999220 0.031028
0.136751 0.459402 -0.055693 0.768554 -0.364809 -0.022965
0.036767 0.328422 -0.009413 0.068159 -1.027856 0.061037
0.002690 0.092645 0.001974 -0.094202 -0.923003 0.040838
0.127256 -0.544228 -0.035261 0.004481 1.019147 0.008684
0.036384 0.341146 -0.010044 0.072648 -1.035726 0.059312
0.101730 0.013027 0.003024 -0.037157 0.979984 -0.021620
-0.040132 -0.066432 0.022370 0.005728 0.990789 0.026626
0.039028 0.340091 -0.011530 0.059062 -1.014010 0.059255
0.037746 0.450565 -0.028433 0.076183 -0.977224 0.027843
0.119897 -0.730099 -0.037149 -0.009641 0.998612 0.064320
0.022879 0.409422 -0.019444 0.076780 -1.030970 0.048579
-0.045376 -0.245817 0.017989 -0.000883 0.998805 0.079441
0.035411 0.323888 -0.008856 0.066161 -1.024591 0.060284
0.039096 0.274240 -0.005805 0.053052 -1.008343 0.054207
0.121575 -0.695529 -0.034574 -0.007420 1.015356 0.015760
0.068341 0.406828 -0.028597 -0.109126 -0.917693 0.044804
0.036210 0.332277 -0.009048 0.068363 -1.032071 0.058468
0.095645 0.096927 0.010152 -0.061524 0.980940 -0.031929
0.034475 0.348431 -0.011720 0.071593 -1.025420 0.062468
-0.057661 -0.749278 -0.052022 -0.054554 0.912841 0.189851
-0.000077 0.386518 -0.020988 0.091741 -0.991660 0.024292
-0.047297 -0.283721 0.012844 0.013684 0.996645 0.077134
0.040058 0.228086 -0.002908 0.055862 -1.000094 0.045056
