-0.147507 0.389985 -0.032305 -0.096999 -0.963474 -0.147520
0.157253 -0.858329 0.168881 -0.142437 0.714046 0.628955
0.641193 0.033147 0.078140 0.506014 -0.733304 0.264641
-0.091690 -0.290847 -0.070565 -0.218581 -1.002569 -0.215575
-0.570329 0.027679 0.045047 -0.404287 -0.494248 0.680613
0.067462 0.861281 -0.029529 0.120282 -1.523502 0.084461
0.350128 0.406666 -0.079510 0.610127 -0.807560 -0.102577
0.132903 0.056115 0.110579 0.024248 -1.052120 0.012480
-0.079207 -0.732185 -0.119785 -0.006258 1.170668 0.024746
0.204611 -0.510947 -0.027475 0.445245 -0.905405 -0.294731
-0.047394 0.014682 -0.136631 -0.301225 -0.958189 -0.236331
0.102103 0.549354 0.025479 1.167743 0.040511 -0.230355
0.206688 -0.213620 0.001122 0.102273 -1.037406 -0.083445
-0.411568 0.243215 -0.063436 -0.779384 -0.667767 0.021613
0.100347 0.282043 -0.139034 -0.045230 -1.033996 0.000456
-0.097641 -0.057425 0.107127 -0.008180 -1.039760 0.030696
0.159549 -0.835571 -0.085176 -0.083592 0.957874 0.327173
-0.091841 -0.862054 0.124725 -0.141030 0.765990 0.612667
-0.107993 -0.539906 0.040799 0.066922 1.233331 0.091787
0.049723 0.292000 0.121313 0.066124 -1.092480 0.017347
0.490853 0.178417 -0.049756 0.593464 -0.615700 0.391903
-0.109048 0.180114 0.056789 -0.068699 -1.006347 -0.031168
0.154555 0.024046 -0.118597 -0.130559 -1.012674 -0.184909
0.113139 -0.679929 0.032256 -0.043505 1.202521 0.040302
0.111206 -0.356003 -0.100864 0.447890 -0.900115 -0.239599
-0.007416 0.495099 -0.126285 -0.047088 -0.959936 -0.133549
-0.070980 -0.245130 0.112397 -0.000545 -1.052128 0.046801
0.173612 0.451073 -0.137763 0.606438 -0.852706 -0.129184
0.058436 -0.166602 -0.087053 0.032020 -1.014883 -0.159431
0.084973 -0.123326 0.093926 0.024432 -1.056905 0.049832
0.047081 0.705001 0.089821 -0.065156 1.337589 -0.100694
0.184566 0.313668 0.010451 -0.044414 -1.035725 -0.139545
-0.001889 -0.403626 0.063943 -0.097505 -1.070117 0.022596
-0.041048 0.462950 0.084420 -0.106953 -1.034331 0.017386
-0.046998 0.197528 -0.106501 -0.111285 -0.978183 -0.151117
-0.003718 0.722019 -0.089439 -0.546052 -0.780789 0.168421
-0.037288 -0.474202 -0.093326 0.007336 1.178354 0.038501
-0.128330 0.560553 -0.013451 -1.000983 -0.246811 0.340094
-0.284842 0.335129 -0.095386 -0.747611 -0.667720 -0.029130
0.182572 -0.354178 0.066311 0.051304 -1.027877 -0.097317
-0.051660 -0.861080 -0.026172 -0.081313 0.913482 0.364517
0.195994 0.158960 -0.001763 0.017634 -1.054598 -0.030916
-0.038639 -0.686188 0.019359 0.000365 1.139125 0.043053
0.368061 0.256714 -0.092534 0.688694 -0.501285 0.444000
-0.492593 0.157104 0.045392 -0.439297 -0.454911 0.703884
0.258639 0.510697 -0.025443 0.652543 -0.765641 -0.169850
-0.131831 0.056512 -0.023729 -0.174636 -0.989526 -0.068386
-0.136704 -0.170055 -0.010949 -0.074444 -1.043139 -0.114629
-0.080853 0.317994 0.079008 -0.021728 -0.979495 -0.072472
0.142256 -0.635604 -0.093804 -0.026896 1.198656 0.028071
0.021602 -0.558595 -0.005170 0.046722 1.145236 0.096567
0.197718 -0.054907 0.063413 0.108841 -1.036143 -0.040545
0.102158 -0.868245 0.031144 -0.132950 0.811037 0.530698
0.003565 0.076998 0.135884 0.009487 -1.096688 0.043118
-0.087518 -0.602468 -0.101115 -0.017387 1.113867 0.117141
0.164567 0.434058 0.053838 0.088128 -0.991956 -0.158260
0.122576 0.158062 -0.106404 -0.159107 -0.990708 -0.117168
0.029245 -0.301729 -0.005129 -0.151429 -1.000068 -0.114294
0.108326 -0.462426 0.041887 0.489845 -0.896825 -0.179375
0.069369 0.594625 -0.086901 1.039999 -0.037827 -0.244600
-0.136676 -0.432675 -0.016310 0.066246 1.208216 0.099238
0.106634 0.744678 -0.027175 0.529993 -0.943723 -0.047970
0.198494 -0.103878 -0.051277 0.139225 -1.037685 -0.089912
-0.008556 0.643296 0.001683 -0.588210 -0.722640 0.093116
0.081744 -0.491092 -0.087906 -0.157904 -1.020502 -0.213777
-0.022125 0.787485 0.038623 -0.881544 -0.382584 0.117431
-0.112064 0.264767 -0.033194 -0.006135 -1.026825 -0.052672
0.585952 0.048656 -0.025665 0.574540 -0.623676 0.373420
-0.257447 0.427133 -0.017932 -0.823566 -0.616891 -0.042933
-0.072498 0.360675 -0.116284 -0.287233 -0.952180 -0.134358
-0.067552 -0.095681 -0.106267 -0.422188 -0.917601 -0.230043
-0.042006 -0.845302 -0.138519 -0.185184 0.766471 0.610131
-0.119769 -0.341945 0.078116 -0.066270 -1.068528 -0.056689
-0.118505 0.493529 -0.105158 -0.342352 -0.938202 -0.183563
0.083091 -0.060434 -0.138253 -0.101739 -1.003325 -0.091567
0.140762 0.194842 0.087868 0.014239 -1.021078 0.023747
0.543851 0.135844 0.037962 0.584718 -0.661328 0.226160
-0.118107 -0.758037 -0.007154 0.017608 1.103624 0.097708
-0.342900 0.305917 -0.004149 -0.841814 -0.613026 0.030774
0.164751 -0.775205 0.027086 -0.019095 1.247400 -0.004023
-0.012892 0.181557 0.126453 -0.002124 -1.035036 0.042041
0.202766 -0.404813 -0.026021 -0.042536 -0.979857 -0.156112
0.118635 -0.271656 0.083909 -0.037301 -1.032181 -0.021928
0.263773 0.357163 -0.046995 0.463013 -0.909831 -0.228678
0.196688 -0.626695 -0.001024 0.546857 -0.838554 -0.218240
0.134460 -0.237755 -0.095072 -0.041095 -1.041648 -0.065199
0.019419 0.093780 -0.138840 -0.074058 -1.006073 -0.063540
-0.237841 0.327192 -0.002368 -0.799950 -0.588561 -0.068503
0.102203 -0.750654 -0.090005 -0.024178 1.254950 -0.016740
-0.034395 -0.791714 0.046603 0.003506 1.132315 0.089293
-0.024504 -0.124770 0.124881 0.008928 -1.083411 0.066607
0.018477 -0.660989 -0.059580 -0.001969 1.178693 0.027245
0.067145 0.376940 -0.141039 -0.079691 -0.957568 -0.177096
-0.040010 0.550775 0.033332 0.691971 -0.586900 -0.173528
-0.089595 -0.448230 0.082257 0.077711 1.196026 0.116979
-0.164071 0.496265 0.051003 -0.890511 -0.457981 0.054741
0.259478 0.393832 -0.137316 0.677450 -0.766158 -0.191316
-0.043695 0.576698 -0.087572 0.819845 -0.325815 -0.212518
0.061597 -0.780231 0.025109 -0.045387 1.023302 0.207387
0.007747 0.816843 -0.106376 0.068965 -1.473514 0.088699
-0.125800 -0.034029 -0.060683 -0.085535 -1.063872 -0.134624
0.049894 0.433883 0.091636 0.022903 -1.021655 -0.133889
-0.129519 -0.530498 -0.054053 0.070257 1.116603 0.195471
0.158361 0.574469 -0.047364 1.141817 0.093867 -0.194578
0.100162 -0.031170 0.127605 -0.088262 -1.001976 -0.067627
0.007601 -0.752408 -0.088014 -0.006475 1.153122 0.030257
-0.143551 -0.069613 0.025405 -0.121820 -1.023696 -0.187653
-0.128030 -0.667559 -0.047616 -0.002054 1.116157 0.047710
0.029269 -0.218456 0.037081 0.002858 -1.104461 0.004578
0.001195 0.305062 -0.129318 -0.160761 -0.975077 -0.213011
0.046440 -0.395459 -0.047090 -0.006086 -1.056553 -0.018202
-0.012928 -0.030476 0.133426 0.080445 -1.109069 0.021341
-0.033065 -0.361880 -0.081036 -0.108229 -1.027774 -0.212921
0.080904 0.471609 -0.141115 0.683607 -0.577788 -0.230023
-0.065363 -0.187029 -0.092567 -0.472250 -0.931302 -0.113289
-0.133283 -0.265242 0.029938 -0.190676 -0.986630 -0.212043
0.182200 -0.319100 -0.048114 -0.018945 -1.025605 -0.080720
-0.315306 0.240024 -0.060148 -0.813397 -0.608470 -0.071438
0.199296 0.041932 0.052323 -0.056666 -1.044504 -0.106055
-0.033630 -0.328263 0.095660 0.143130 -0.999646 -0.055873
0.471466 0.258396 -0.077674 0.686613 -0.532420 0.380910
0.041996 0.012134 -0.153602 -0.105839 -1.009979 -0.108236
0.196329 -0.139283 0.065734 0.056144 -1.078438 0.045678
-0.103821 -0.146599 0.109367 0.016258 -1.052047 0.010035
-0.405450 0.214956 0.014982 -0.617408 -0.618099 0.363740
0.164054 0.372024 -0.113325 0.023586 -1.036345 -0.030922
0.166125 0.213488 -0.062164 0.131946 -1.023935 -0.073972
-0.011612 -0.578124 -0.079690 -0.026126 1.110987 0.083439
0.138645 -0.192974 0.095989 0.019704 -1.041697 0.001178
0.193209 0.533006 -0.108614 0.842203 -0.484145 -0.115773
0.060176 -0.259966 -0.069461 -0.100197 -1.043561 -0.040680
0.095620 0.355667 0.099029 -0.075472 -0.999293 -0.110136
-0.014686 0.854328 -0.007336 0.083324 -1.566656 0.094439
0.018494 -0.467878 0.018797 0.016041 -1.067953 -0.011940
-0.070053 -0.615372 0.043384 0.073387 1.173833 0.119099
-0.113170 0.099491 0.064418 -0.141834 -1.001918 -0.057186
0.057656 0.204173 -0.119970 0.059996 -1.034438 -0.148291
0.387123 0.336719 -0.071889 0.719904 -0.655721 -0.019640
0.090223 -0.848593 0.128788 -0.180230 0.657018 0.628567
0.210760 -0.022783 -0.007130 0.226252 -1.012422 -0.019760
0.178515 -0.436523 0.063772 0.239194 -0.991212 -0.141480
-0.186915 0.410496 -0.096345 -0.840107 -0.481046 -0.012581
0.076495 -0.600844 -0.071120 -0.075319 1.131415 0.033969
-0.094308 0.145068 -0.075093 -0.079161 -1.004633 -0.068824
0.082746 0.764849 0.056356 -0.118611 1.364741 -0.173649
0.192773 -0.693752 -0.038110 -0.028473 1.268447 -0.030717
0.150158 0.268865 0.070323 -0.122482 -0.986041 -0.119560
0.329324 0.313956 -0.125554 0.693186 -0.543683 0.142535
-0.184148 0.497644 -0.066257 -0.837077 -0.603575 -0.092858
-0.102693 0.422140 0.065351 -0.270298 -0.964301 -0.141326
-0.005581 0.396261 -0.129158 -0.010750 -0.984206 -0.086542
-0.068437 0.278184 -0.114158 -0.133012 -1.011022 -0.103506
0.205265 -0.294826 0.020148 0.001521 -1.011986 -0.086953
-0.205864 0.419964 0.036648 -0.857748 -0.566914 -0.074071
0.156314 -0.831252 0.097896 -0.127950 0.716422 0.532340
0.165704 -0.565020 -0.091596 0.663184 -0.778422 -0.180836
-0.123215 -0.362795 -0.037767 -0.141561 -0.991855 -0.209995
-0.040196 0.745850 -0.029750 -0.906115 -0.279431 0.215403
-0.030391 -0.541850 0.044021 0.092668 1.195472 0.135075
-0.096994 -0.833249 -0.091322 -0.126614 0.844263 0.475394
0.194755 0.030591 -0.054819 -0.011981 -1.051394 0.052372
-0.032292 -0.863383 0.061203 -0.125166 0.783982 0.521482
-0.457059 0.193972 -0.032167 -0.565210 -0.601844 0.412604
0.301522 0.453875 -0.039724 0.632752 -0.708969 -0.208144
0.176457 0.109645 0.063034 0.051204 -1.028694 -0.119861
-0.009526 -0.748303 -0.005388 -0.002369 1.148785 0.073285
-0.120538 0.194464 -0.021167 -0.091314 -0.990476 -0.153887
0.142861 -0.456452 -0.101676 0.491911 -0.878568 -0.240063
-0.096808 -0.822827 0.032215 0.019013 1.126032 0.087268
0.089526 -0.827099 -0.092158 -0.102551 0.848248 0.476506
-0.006473 -0.217495 0.105314 -0.076553 -1.043698 0.032604
0.064321 0.847143 0.039490 0.111823 -1.408140 0.070480
0.012755 -0.118458 -0.063374 -0.126274 -1.049820 -0.115105
-0.060723 0.127572 0.102054 0.112407 -1.055140 -0.076694
-0.126875 -0.610168 -0.008290 0.133657 1.210160 0.140313
0.188964 -0.038341 -0.072351 -0.022466 -1.023172 -0.071472
-0.118509 0.366640 0.026682 -0.058493 -1.000926 -0.096883
0.185216 -0.514789 0.039032 0.379539 -0.972320 -0.192874
0.587669 0.063402 0.046042 0.570714 -0.648836 0.365279
-0.010837 0.403816 0.104858 0.020012 -1.032953 -0.031363
0.003472 0.622515 -0.062704 1.063740 -0.080292 -0.113225
0.038961 0.534556 0.046823 0.830037 -0.568385 -0.125367
-0.098783 0.515899 0.051271 -0.685883 -0.703593 -0.085274
0.083834 0.101108 0.124548 0.027875 -1.040541 -0.008948
0.424800 0.208960 -0.075333 0.670595 -0.552357 0.356162
0.072132 -0.602053 0.007848 0.002344 1.115460 0.053206
0.163379 -0.007414 0.097425 -0.034124 -1.041645 0.015585
0.110914 0.551535 -0.118557 0.971893 -0.146743 -0.125330
0.049356 0.618037 0.025985 0.998799 -0.162315 -0.183220
0.014003 -0.503542 -0.043785 0.005440 -1.042832 -0.014271
-0.030624 0.132336 -0.114963 -0.151469 -1.010547 0.000017
0.157114 -0.590251 0.039668 0.638501 -0.818109 -0.166139
-0.493414 0.137855 -0.023795 -0.416225 -0.448751 0.693617
0.168490 -0.858195 0.026333 -0.185238 0.675272 0.726507
-0.093144 0.433511 -0.120155 -0.291190 -0.905353 -0.272865
0.025855 -0.183542 -0.031212 -0.057719 -0.986212 -0.094539
0.234343 0.476940 -0.128698 0.690095 -0.696952 -0.177253
-0.212280 0.339373 -0.062208 -0.860276 -0.585420 -0.057121
-0.546921 0.071069 0.088936 -0.356041 -0.428196 0.727265
-0.527718 0.103904 0.028431 -0.519718 -0.620341 0.578453
0.198119 0.361722 -0.048870 0.082978 -1.050665 -0.067997
0.187837 -0.217173 -0.062530 0.124557 -0.981231 -0.136091
-0.344854 0.322657 -0.067749 -0.775758 -0.567292 0.137874
0.156991 0.345194 0.061124 0.016163 -1.026613 -0.069790
0.165061 0.539296 0.010230 1.176354 -0.047518 -0.153753
0.088913 0.685624 -0.005474 1.095791 0.126254 -0.208347
-0.368049 0.200968 -0.039478 -0.481375 -0.561952 0.486149
0.158718 -0.113723 -0.101911 -0.019421 -1.051064 -0.042792
0.165215 0.122142 -0.073506 -0.045964 -1.016755 -0.052867
-0.050358 0.045127 0.120837 -0.043777 -1.053383 0.002058
0.007919 0.342935 0.112865 -0.025637 -1.088118 0.021291
-0.010224 -0.216925 -0.078912 -0.189648 -0.971891 -0.169596
0.023834 -0.140591 0.085094 0.117397 -0.989830 -0.119269
-0.031174 -0.282920 -0.089237 -0.216183 -0.989252 -0.180063
0.040692 0.545759 -0.116262 1.101168 -0.143383 -0.082868
-0.107197 0.052750 -0.082315 -0.247986 -0.972951 -0.176224
0.049240 0.168210 0.129609 0.459569 -0.887832 -0.149373
0.196601 0.405521 0.006971 0.160253 -0.960611 -0.203517
0.087771 -0.843941 -0.030974 -0.162996 0.740591 0.650902
0.097907 -0.524266 0.032432 0.291812 -0.982368 -0.267188
-0.136742 -0.181897 0.051163 -0.208652 -1.015219 -0.155249
0.097399 -0.401682 0.055422 0.264326 -0.951062 -0.182897
0.038988 0.679549 -0.072017 1.070059 0.127033 -0.214769
0.182800 0.229552 -0.004318 0.027251 -1.048844 -0.016962
-0.141371 0.021615 0.026853 0.005534 -1.025376 -0.017696
-0.011715 -0.601574 0.024452 -0.025715 1.049349 0.162774
0.098642 0.810166 -0.014006 0.099167 -1.489370 0.083499
0.085263 0.241870 0.114320 0.019179 -1.062033 -0.020516
-0.201096 0.506662 -0.007466 -0.715768 -0.776284 -0.025079
0.478243 0.242795 -0.018466 0.633500 -0.468998 0.494441
0.147114 0.313058 -0.108229 -0.172707 -0.996638 -0.092213
-0.078540 0.225676 0.083967 -0.116461 -1.007361 -0.092360
0.082982 -0.216357 0.087341 0.108542 -1.055832 -0.063845
-0.128371 -0.322526 0.009870 -0.054930 -1.009761 -0.164777
-0.094433 -0.457064 -0.081680 0.045197 1.153857 0.091904
-0.125731 -0.231535 -0.019904 0.010845 -0.977344 -0.279357
-0.118316 0.353102 -0.077414 -0.243772 -0.943371 -0.263627
0.097538 -0.813574 0.060573 -0.024943 1.008574 0.252176
0.590628 0.104780 0.002582 0.534139 -0.631043 0.446459
-0.107066 -0.702004 0.011351 0.030663 1.160978 0.072155
-0.014345 0.240870 0.117739 -0.081570 -1.076325 -0.035732
-0.131448 -0.481807 0.016903 0.094689 1.192029 0.167481
-0.025671 -0.056758 -0.122729 -0.287309 -0.995617 -0.170985
-0.014807 -0.417318 -0.070674 -0.011717 -1.026374 -0.232024
0.192979 -0.198255 0.064868 -0.053520 -1.040213 -0.074201
0.072979 -0.740537 -0.039846 -0.033790 1.149632 0.037403
0.206220 -0.159318 -0.033228 0.232828 -0.993933 -0.129716
0.352154 0.297704 -0.045344 0.672877 -0.651338 0.008937
0.176081 -0.803972 -0.038772 0.002037 1.183734 0.030531
0.039370 -0.055278 0.124987 -0.014272 -1.056485 0.033569
0.431003 0.271328 -0.037544 0.732460 -0.480576 0.396804
0.075460 -0.673398 -0.061031 -0.003863 1.119395 0.044478
0.111566 -0.548351 -0.104612 0.416598 -0.900383 -0.182658
-0.035136 -0.861192 -0.081800 -0.140204 0.744666 0.613441
0.503241 0.164873 0.008468 0.665157 -0.595667 0.345646
-0.038095 -0.632631 -0.098315 0.002501 1.116132 0.060954
0.205068 -0.356551 0.005600 -0.004275 -1.013831 -0.022145
-0.129367 0.542747 -0.068341 -0.828291 -0.539685 0.024815
0.214192 -0.086640 0.018122 0.023736 -1.027113 -0.042233
0.201116 -0.569629 -0.006948 0.512056 -0.832113 -0.249008
0.116280 -0.328960 0.079546 0.047971 -1.056195 -0.071996
-0.105871 0.280091 0.044266 -0.009845 -1.069824 -0.012807
0.173017 -0.687032 0.014982 -0.024839 1.326553 -0.035293
-0.289532 0.288082 0.001226 -0.801298 -0.599520 -0.116616
0.248821 0.460945 -0.000502 0.640699 -0.801780 -0.134675
-0.290161 0.347453 0.003608 -0.784214 -0.646997 0.073247
0.015281 0.860007 -0.054789 0.119081 -1.475862 0.080476
0.075068 0.057622 -0.154552 -0.044908 -1.033506 -0.145868
0.051962 -0.310481 0.045421 -0.058864 -1.010782 -0.015524
0.275566 0.412334 -0.012807 0.406016 -0.921004 -0.249152
0.027822 0.756666 -0.119866 0.787829 -0.559721 -0.176580
0.141424 0.242753 -0.102837 -0.003374 -1.014055 -0.077740
0.287135 0.482788 -0.085308 0.707121 -0.694383 -0.180454
-0.515116 0.123292 0.083722 -0.439624 -0.505804 0.726905
-0.055386 -0.496834 0.065536 0.078249 1.186973 0.120601
0.020198 0.826216 0.065914 -0.001622 -0.357064 -0.072573
-0.120027 -0.772712 -0.060656 -0.025545 1.121580 0.019576
0.117577 0.147599 0.105024 -0.055528 -1.015645 -0.098590
-0.061955 -0.553506 -0.102953 0.073998 1.206154 0.109201
-0.152695 0.432436 0.044567 -0.888526 -0.543974 -0.045930
0.149809 -0.723625 -0.085160 -0.033294 1.291991 -0.044844
0.148364 -0.403376 -0.089932 0.475658 -0.889044 -0.250006
0.023803 -0.036111 -0.133003 -0.333150 -0.975515 -0.133880
0.291121 0.329401 -0.089853 0.618216 -0.770617 -0.221909
0.062073 0.817145 -0.102796 0.127390 -1.359814 0.063509
0.437537 0.292454 -0.102974 0.743245 -0.481540 0.322711
0.185822 -0.736016 -0.004812 -0.039428 1.242588 -0.036669
-0.104596 -0.660472 -0.095871 0.011249 1.149333 0.052732
0.121362 -0.863524 -0.116382 -0.145350 0.695258 0.668556
-0.118122 0.312208 -0.008292 -0.377296 -0.960872 -0.024943
0.041109 -0.096478 -0.103619 -0.012593 -1.052471 -0.113970
0.129244 -0.869519 -0.056620 -0.177266 0.754351 0.575597
-0.143636 -0.123111 0.029742 0.003679 -1.079094 -0.074002
0.170715 -0.088131 0.095742 0.031502 -1.028201 -0.098448
-0.031347 0.791479 -0.079991 -0.947890 -0.370401 0.154699
0.099779 0.300883 0.104593 0.057848 -1.040111 -0.061628
-0.307699 0.357800 -0.052177 -0.758489 -0.630644 0.141263
0.628610 0.048276 0.015195 0.478836 -0.639311 0.358334
0.221172 0.395036 -0.100302 0.434154 -0.893261 -0.255922
0.102423 0.438170 0.084701 -0.016408 -0.991884 -0.090917
0.015033 -0.354181 0.054720 0.087132 -1.052807 0.021551
0.183159 0.479106 0.032866 0.779617 -0.421080 -0.189067
-0.012566 0.293826 0.115102 0.039945 -1.062659 -0.073099
-0.225166 0.461513 0.010287 -0.868631 -0.583567 -0.053633
-0.131711 -0.423658 0.035506 0.093201 1.213504 0.129783
0.310050 0.408651 -0.140944 0.590365 -0.758617 -0.217560
0.117844 -0.627648 0.038119 -0.016465 1.160407 0.018024
0.000853 0.687100 0.071620 -0.096964 1.377831 -0.152027
-0.116435 0.104353 -0.049771 -0.102929 -1.024072 0.007580
-0.270776 0.408597 -0.065535 -0.815570 -0.631040 0.047499
0.058709 0.483179 0.074989 0.111896 -1.006892 -0.017419
0.146416 0.087416 -0.108492 -0.110280 -0.983820 -0.143462
0.298987 0.356864 -0.134193 0.554072 -0.866411 -0.162748
-0.328491 0.253047 0.006310 -0.820193 -0.621521 -0.014181
-0.044699 -0.379431 0.090223 0.144290 -1.051821 -0.007190
-0.017999 0.738166 0.056490 -0.343004 0.993455 0.065221
-0.104096 -0.207567 -0.061246 -0.247610 -1.028723 -0.084646
0.181953 -0.516878 -0.078653 0.564190 -0.881390 -0.173915
-0.113502 -0.218385 0.098661 -0.070898 -1.098304 0.045960
-0.109536 -0.844414 0.077678 0.007474 1.039108 0.236623
-0.064418 -0.403188 -0.081565 -0.357133 -0.987891 -0.071658
0.372116 0.348826 -0.119833 0.699913 -0.244823 -0.087918
-0.096036 -0.039435 -0.102563 -0.286130 -1.033301 -0.053511
-0.047008 -0.843481 0.142288 -0.152449 0.752630 0.544206
0.033790 0.035200 0.137161 0.060770 -1.055386 0.024101
0.593625 0.110140 0.066743 0.522411 -0.654311 0.366889
0.009369 0.186692 -0.116971 -0.078022 -0.978635 -0.176754
-0.029961 -0.747751 -0.122657 -0.003656 1.127146 0.042176
0.020607 -0.247651 -0.039250 0.031056 -1.035882 -0.031534
0.536205 0.159181 -0.030384 0.629164 -0.545755 0.368207
0.087916 -0.216485 -0.093760 0.169875 -0.998383 -0.211719
0.378023 0.290353 -0.129658 0.710707 -0.618242 -0.125289
0.073845 0.672841 0.060702 -0.024979 1.330289 -0.096762
0.008447 -0.802893 -0.094905 -0.018217 1.117459 0.116868
0.057090 -0.443500 -0.060101 0.214915 -0.994339 -0.141218
0.099146 -0.275161 -0.098150 -0.084578 -1.014055 -0.092659
-0.085196 -0.340833 -0.075972 -0.099461 -0.993404 -0.138276
0.004675 0.504388 0.068717 -0.041248 -0.995706 -0.147946
-0.245280 0.303553 -0.048345 -0.845045 -0.603999 -0.119483
-0.082273 -0.802204 -0.128508 -0.035888 1.151739 -0.004517
0.319629 0.406701 -0.037131 0.656570 -0.776235 -0.199814
0.025467 -0.614768 -0.007091 0.008174 1.082820 0.070923
0.221720 0.545117 -0.025249 0.700178 -0.739919 -0.116099
-0.038717 0.591410 -0.039584 -0.671504 -0.632432 0.082354
-0.009440 0.547742 -0.113181 1.045328 0.016185 -0.129780
0.092278 0.422819 -0.145115 -0.358908 -0.973541 -0.106901
0.054621 0.262898 -0.131233 -0.000681 -1.019775 -0.189620
0.124412 0.350872 -0.135561 -0.021445 -1.015111 -0.017907
0.154106 -0.485241 0.064961 0.374961 -0.915042 -0.185118
-0.132495 -0.528182 -0.004240 0.109252 1.219528 0.147027
-0.022670 -0.679889 -0.094292 -0.035334 1.022197 0.260342
0.019356 -0.455909 -0.029418 0.122306 -1.050395 -0.130972
0.125011 -0.869690 0.094582 -0.122541 0.731133 0.590868
-0.007964 -0.319934 -0.065711 -0.065070 -1.015486 -0.199648
0.193046 -0.468952 0.022094 0.623827 -0.788953 -0.240919
-0.005724 -0.797396 -0.009104 -0.013042 1.114006 0.057946
-0.081148 0.568367 -0.001386 -0.960848 -0.345976 0.212734
0.001651 -0.657766 0.018178 0.023555 1.097065 0.095648
-0.408540 0.176131 -0.026328 -0.542354 -0.546612 0.550136
-0.047483 0.448019 -0.131502 -0.175696 -1.035821 -0.057640
-0.129248 0.102499 -0.002635 -0.110591 -1.034002 -0.108267
-0.114345 -0.267119 0.095283 -0.077450 -1.040159 -0.001003
0.033365 0.240814 0.127826 -0.017905 -1.020786 -0.010054
0.054695 -0.730627 0.004196 -0.013450 1.113301 0.034999
0.198205 -0.006712 0.057048 -0.003944 -1.032551 -0.010466
0.032927 0.468093 -0.126942 -0.043795 -1.002895 -0.081106
0.042206 -0.096467 0.099661 0.071780 -1.025768 -0.037780
-0.041900 -0.733944 0.027373 0.069911 1.147558 0.128547
-0.129273 0.012411 -0.048286 -0.110454 -1.003985 -0.184537
0.149961 -0.794199 -0.107917 -0.021276 1.279654 -0.018805
0.029558 0.749189 0.097217 -0.087838 1.424043 -0.156294
-0.570829 0.028771 -0.003031 -0.441598 -0.503493 0.675473
-0.021454 -0.127023 -0.095770 -0.259584 -0.983015 -0.176645
0.135254 0.515337 0.038754 1.107252 -0.036312 -0.098327
-0.067633 -0.863774 0.029184 -0.081693 0.872890 0.421839
-0.104500 0.007969 -0.096983 -0.422071 -0.941910 -0.123940
-0.156249 0.540004 0.018418 -0.916969 -0.317220 0.200649
0.129017 -0.505003 -0.108151 0.652628 -0.793395 -0.236068
0.127961 -0.119695 0.112126 0.065710 -1.086740 -0.019612
-0.015869 -0.832201 -0.038718 -0.109195 0.821599 0.493173
0.151580 -0.818514 0.053126 -0.028964 1.141806 0.007043
-0.096590 0.371755 0.067618 -0.087320 -0.984002 -0.127967
0.095174 0.744596 -0.072387 0.718570 -0.640665 -0.091699
-0.030881 -0.836419 0.099010 0.016257 0.935519 0.334454
0.008883 -0.705882 -0.008497 -0.210943 1.099235 0.089713
-0.097555 0.305710 -0.090896 -0.218118 -1.001445 -0.036401
-0.118654 -0.388107 0.077997 0.030163 1.138711 0.102836
0.325411 0.438176 -0.102214 0.703120 -0.775527 -0.140297
0.179290 -0.647083 -0.068992 -0.020074 1.313299 -0.027201
0.263638 0.442319 -0.136494 0.735878 -0.751406 -0.140764
0.122288 0.588744 -0.072078 1.142987 0.204382 -0.211671
-0.076882 -0.142581 -0.094549 -0.397158 -0.967326 -0.140928
-0.187927 0.352990 -0.025702 -0.807896 -0.648914 -0.107013
-0.106649 -0.400774 -0.057471 0.085724 1.182986 0.124054
0.037199 -0.158669 0.045402 -0.091624 -0.999951 -0.074061
0.030678 0.865344 0.014655 0.091138 -1.510091 0.086804
0.076359 0.006277 0.137849 -0.035288 -1.025529 -0.034786
-0.127591 -0.712424 -0.055121 0.031747 1.167381 0.071347
-0.280606 0.262867 -0.041908 -0.763584 -0.624888 0.227411
0.184253 -0.471782 -0.074739 0.601026 -0.805099 -0.214308
0.168295 0.172645 0.059591 -0.003123 -1.067357 -0.079323
0.137610 -0.012819 -0.138574 -0.108576 -0.998276 -0.041165
-0.113019 0.245511 0.007692 -0.192114 -1.029276 -0.050219
0.013079 -0.555178 -0.049726 -0.274276 1.003182 0.140008
0.016916 -0.364015 -0.034114 -0.052548 -0.994849 -0.066150
-0.100571 -0.525693 -0.088191 0.065050 1.171488 0.109884
0.206070 -0.160275 0.027139 0.038158 -1.023660 -0.022716
0.117636 0.202535 -0.111141 -0.026421 -1.016341 -0.072219
0.104617 -0.406283 -0.099693 0.374466 -0.961574 -0.147762
-0.103076 0.241691 -0.070637 -0.093072 -1.041317 -0.077613
0.187917 -0.274650 -0.049820 -0.043273 -0.968749 -0.170368
-0.103659 -0.838257 -0.047264 -0.085109 0.810992 0.484809
-0.110688 0.224559 0.051298 -0.056142 -1.073814 -0.094394
0.019715 -0.398975 0.025086 -0.032713 -1.074032 -0.059110
0.550177 0.171144 0.011291 0.602797 -0.596250 0.385745
0.350612 0.353547 -0.052394 0.574269 -0.703732 -0.016881
0.204992 -0.059674 -0.031537 0.015364 -1.042784 -0.057914
0.009151 0.261183 -0.128240 -0.117128 -1.046615 -0.083105
0.189392 0.107562 -0.039016 -0.042781 -1.046792 0.010251
-0.046735 0.515197 -0.120420 -0.170697 -0.981908 -0.188230
-0.080145 0.481898 -0.124051 -0.598525 -0.759866 -0.147376
-0.035597 0.091023 0.120783 -0.055883 -1.027586 0.002868
-0.033283 -0.081550 0.128415 -0.011141 -1.015728 0.042915
0.092547 0.820523 -0.056499 0.129026 -1.554601 0.088461
0.097558 0.127473 -0.125884 0.032812 -1.011172 -0.095751
-0.123344 -0.116453 0.083886 -0.108539 -1.014125 -0.219996
0.045095 0.306488 -0.130045 0.005638 -1.007782 -0.101694
-0.234415 0.357936 -0.094963 -0.742980 -0.633653 -0.057003
-0.120147 0.134127 0.038762 -0.078043 -0.988215 -0.029004
-0.101698 -0.101845 -0.079761 -0.223910 -1.001068 -0.137011
-0.449995 0.151886 0.037577 -0.475925 -0.556179 0.609299
0.083356 -0.859584 0.086993 -0.213932 0.564383 0.871951
0.090327 0.723218 0.046638 -0.083124 1.187999 0.025525
-0.030666 0.726896 0.008092 -1.012471 -0.291773 0.239851
-0.016951 -0.827407 0.020066 -0.064155 0.955200 0.360205
-0.355184 0.235932 -0.076332 -0.770510 -0.612046 0.172744
0.168734 -0.064643 -0.100046 -0.000257 -1.090900 -0.068215
-0.284853 0.393938 -0.014970 -0.792886 -0.625210 -0.084630
0.182285 -0.160503 -0.069073 -0.095758 -0.992147 -0.116921
-0.084484 -0.672532 0.033075 0.076255 1.192629 0.116352
-0.087874 -0.015895 0.112305 -0.105476 -1.078260 -0.059589
0.152662 -0.199005 -0.091484 -0.037066 -1.054300 -0.022094
0.050884 -0.637527 -0.033113 -0.022006 1.074335 0.078720
0.097733 -0.098572 -0.125151 -0.082399 -0.995298 -0.064728
0.074470 -0.021157 -0.153010 -0.123796 -1.002860 -0.104319
0.052843 -0.452247 -0.002990 0.137253 -1.007924 -0.108366
0.207303 0.012308 0.017124 0.027512 -1.051296 -0.122976
-0.044695 -0.287901 0.103862 -0.001934 -1.011230 -0.053337
0.090734 -0.151107 -0.110152 -0.119936 -1.018170 -0.135067
-0.136300 -0.223053 0.034796 -0.218603 -1.010586 -0.199299
0.082970 -0.709461 0.036600 -0.012232 1.142006 0.027018
-0.376671 0.297539 -0.055571 -0.828887 -0.650269 0.097395
0.121090 -0.825784 0.146592 -0.184888 0.687174 0.634993
0.085051 -0.825522 0.007001 -0.038072 1.000627 0.255757
-0.402425 0.271279 -0.033155 -0.775149 -0.646677 0.213243
-0.040763 0.001167 0.136126 0.074133 -1.050806 0.037685
-0.297178 0.269707 -0.083957 -0.805734 -0.625225 -0.060454
-0.073278 0.232343 -0.098853 -0.543553 -0.813409 -0.184112
-0.110131 -0.851903 0.004870 -0.138981 0.769590 0.591992
-0.130216 0.061642 0.033247 -0.134586 -1.059316 -0.043581
0.059830 -0.243848 0.065839 0.086037 -1.063440 -0.036906
0.093421 0.577591 -0.003956 1.123784 -0.039417 -0.102440
-0.124027 -0.298885 0.070090 -0.229759 -1.027972 -0.077755
0.072306 -0.416143 0.025507 0.099919 -1.116834 -0.006795
0.193461 0.360317 -0.007549 0.116556 -1.018112 -0.057524
-0.221219 0.383469 0.023874 -0.787149 -0.606531 -0.114589
-0.116962 -0.581344 -0.080827 0.086030 1.187466 0.129758
-0.034218 -0.806023 -0.149384 -0.012034 1.050387 0.167341
0.140978 0.379285 0.078451 -0.050364 -1.006766 -0.092563
-0.043961 0.315867 0.099386 -0.017240 -0.978097 -0.113352
0.060619 0.377284 0.104112 -0.065472 -0.982217 -0.134830
0.137042 0.469394 -0.144319 0.925132 -0.263281 -0.166206
0.220410 0.545267 -0.079899 0.636910 -0.729658 -0.159509
0.184976 -0.387880 -0.059294 0.025277 -1.034760 -0.139287
0.085916 0.320307 -0.143799 -0.061954 -1.045535 -0.098217
-0.070030 -0.125852 0.120366 -0.205386 -1.028360 -0.080887
-0.080189 0.568112 -0.070755 -0.862025 -0.494256 0.046683
0.512317 0.203532 -0.001904 0.576997 -0.737747 0.129871
0.174826 0.055275 0.082426 0.053621 -1.038936 -0.071856
-0.488095 0.103885 0.038953 -0.419849 -0.516077 0.725166
-0.035347 -0.515002 -0.096589 0.053170 1.211214 0.082590
0.089018 -0.748245 0.025060 -0.023583 1.112344 0.046234
-0.038798 0.094333 -0.127616 -0.142029 -1.023948 -0.183575
0.027652 -0.259201 0.039665 -0.067629 -1.027773 -0.053664
0.196289 -0.386376 0.032068 0.177830 -0.997907 -0.169893
0.133555 -0.866686 0.005142 -0.114290 0.796388 0.471080
0.139804 -0.330607 -0.086746 0.042830 -0.955838 -0.277449
0.141584 -0.676169 -0.089928 -0.013313 1.182801 0.012307
0.373300 0.261619 -0.052447 0.743715 -0.566714 0.232714
0.079601 -0.792459 -0.073220 -0.018334 1.149097 0.017377
-0.051433 -0.648277 0.028351 0.025697 1.117980 0.090140
0.152731 -0.249654 0.083527 -0.070383 -1.046094 -0.105800
0.075761 -0.494751 0.015565 0.118765 -1.024743 -0.174079
0.005786 -0.089622 0.121186 0.017539 -1.036535 0.047855
0.135961 0.235612 0.088662 0.019619 -1.060536 -0.020641
-0.123417 0.485172 0.060891 -0.777654 -0.600527 -0.031114
0.166971 0.161603 -0.064390 0.020017 -0.986189 -0.090736
-0.103203 -0.804702 -0.003451 0.040423 1.151451 0.086978
-0.150372 0.405736 -0.079510 -0.656715 -0.679964 -0.023881
-0.123962 -0.306196 -0.026945 -0.345178 -0.956838 -0.157021
0.147619 -0.154241 0.103647 -0.032970 -0.998568 0.003288
0.010531 -0.527283 0.017880 0.010213 1.134073 0.056510
-0.005024 0.655774 -0.041372 1.027977 -0.118264 -0.208174
0.164449 0.212844 0.058262 -0.097428 -1.045222 -0.001902
0.045018 0.105492 0.134867 0.060710 -1.019514 -0.115598
0.021039 0.576617 -0.099499 1.014167 -0.087766 -0.216533
-0.221951 0.427127 -0.085614 -0.838246 -0.621986 -0.130986
0.078452 -0.336626 -0.087852 0.236236 -0.953878 -0.253943
-0.223497 0.476273 -0.027036 -0.828072 -0.632516 -0.102105
-0.079832 -0.579242 0.057532 0.035383 1.160305 0.078029
0.131555 -0.000334 0.120349 0.022673 -1.045872 -0.032603
-0.008859 0.007626 -0.143172 -0.455784 -0.907502 0.000768
