-0.012072 0.665444 -0.007248 -0.989796 -0.192725 0.221995
0.140028 -0.869321 0.116654 -0.134677 0.786834 0.560330
0.640311 0.023019 0.076990 0.549082 -0.626145 0.535398
-0.570355 0.028389 0.057912 -0.475684 -0.528912 0.486310
0.048866 -0.208688 -0.062580 -0.092715 -0.986271 -0.091763
0.308080 0.315941 -0.106588 0.480661 -0.876750 -0.310761
-0.082637 0.201773 0.084630 -0.057521 -1.028426 -0.034540
-0.131505 -0.586528 -0.046256 0.062551 1.218579 0.095117
0.206066 -0.530273 -0.022835 0.539364 -0.875690 -0.159796
-0.387240 0.287615 -0.038250 -0.705598 -0.647378 0.185312
0.197009 0.034794 0.059554 0.070385 -1.043527 0.008174
-0.063347 -0.860650 -0.126109 -0.106136 0.756378 0.567477
0.004126 0.415474 -0.128330 0.389689 -0.895386 -0.176359
0.011497 0.056591 -0.146321 -0.010157 -1.028384 -0.111169
-0.138610 -0.062006 0.046459 -0.019521 -1.030159 -0.122057
0.220067 0.549748 -0.034766 0.812314 -0.568735 -0.220661
-0.212118 0.494441 -0.011088 -0.903754 -0.451356 0.091999
-0.072562 -0.368775 0.098125 -0.162800 -1.020613 0.022011
0.126156 0.364404 0.088130 0.002614 -1.021532 0.008485
0.477071 0.190429 0.006537 0.578266 -0.583184 0.527062
-0.096702 -0.849263 0.132243 -0.093505 0.825767 0.491813
0.183471 -0.314514 0.069246 0.157090 -0.977241 -0.042173
0.111220 -0.742981 -0.096253 -0.031478 1.220293 0.009494
0.046070 0.869882 -0.005156 0.135356 -1.384121 0.110519
0.013458 0.029400 0.139927 -0.012774 -0.999511 0.072801
0.092602 0.239080 -0.135876 0.129632 -0.998056 -0.201382
0.053476 -0.401606 -0.055959 0.009472 -1.017091 -0.150419
0.210528 -0.142442 0.015002 0.167310 -0.984280 -0.181443
-0.011806 -0.171743 0.114564 -0.197615 -1.002429 -0.068475
-0.039318 0.431803 0.094450 -0.237800 -0.936524 -0.026479
0.182720 0.208746 0.022685 0.228527 -0.964547 -0.213858
0.140786 -0.069050 -0.124887 0.001713 -0.978355 -0.166129
-0.128129 -0.220253 -0.015818 -0.111016 -1.013295 -0.172304
-0.085098 0.224839 -0.081177 -0.011998 -1.001598 -0.227523
-0.226042 0.346522 -0.085324 -0.857439 -0.612981 -0.051175
-0.487560 0.165737 0.016656 -0.503680 -0.516886 0.586810
-0.003215 -0.698533 0.013717 0.024855 1.105524 0.092820
0.165138 0.087144 -0.088189 0.061395 -1.003966 -0.127335
0.051325 -0.556063 -0.046995 0.006722 1.098621 0.077205
-0.075423 -0.062386 -0.111047 -0.223965 -0.999691 -0.077155
-0.097140 -0.412323 -0.065384 0.070658 1.157975 0.124301
0.042998 0.772938 -0.119968 0.112303 -1.281654 0.064142
0.152196 0.417958 -0.136213 0.624837 -0.796683 -0.224139
0.043932 0.556667 -0.111961 1.129973 -0.029233 -0.195903
-0.119144 0.084664 -0.052280 0.002118 -1.046597 -0.111321
0.178997 -0.677743 0.015336 -0.029404 1.227075 0.013582
-0.113136 -0.726973 -0.080135 0.001559 1.087362 0.075001
-0.101886 0.525921 -0.098067 -0.880321 -0.524709 -0.018819
0.307242 0.443273 -0.039792 0.471831 -0.889053 -0.242605
-0.020190 -0.834579 0.003773 -0.126727 0.827330 0.450457
0.130283 -0.868830 -0.045301 -0.129240 0.702009 0.650364
0.429222 0.254591 -0.120797 0.587097 -0.593588 0.446423
-0.121560 0.361221 -0.001417 -0.262323 -0.953904 -0.169762
0.072768 0.245943 0.120359 -0.067021 -1.034667 -0.087117
0.122127 0.493833 0.056238 0.214764 -0.972824 -0.133162
-0.043018 -0.554486 0.046735 0.051193 1.178407 0.096488
0.018569 0.761411 0.077193 -0.172537 1.562216 -0.273522
-0.105822 0.056567 0.091735 -0.176891 -1.017549 0.016927
0.567178 0.098098 -0.016575 0.566123 -0.577229 0.578035
0.171697 -0.304598 -0.060214 -0.013886 -1.014586 -0.148935
0.020039 -0.285587 0.061983 0.038538 -1.015646 0.011295
0.191358 0.333447 -0.018638 0.172712 -0.961539 -0.149012
0.106388 0.752021 -0.008401 0.415747 -0.897940 -0.046209
0.103772 -0.050510 0.123241 -0.087583 -1.035905 0.033106
0.147494 -0.606645 -0.096656 0.444870 -0.920037 -0.244581
-0.018072 -0.305372 -0.077695 -0.095511 -0.988434 -0.184363
0.093968 -0.789089 0.043991 0.000885 1.133494 0.057621
0.143181 -0.480779 0.062793 0.035546 -1.044204 -0.111405
0.190757 -0.419274 -0.054900 0.422694 -0.912050 -0.241279
-0.026827 0.558006 0.026394 -0.669009 -0.637976 0.053890
-0.128669 -0.458073 0.032737 0.021045 1.114866 0.125174
-0.109462 0.401751 -0.105270 0.018178 -0.993578 -0.110983
-0.006893 -0.750761 -0.105386 0.010394 1.095344 0.086400
-0.124519 0.501187 0.057599 -0.990164 -0.336050 0.080238
0.242831 0.480185 -0.124840 0.542997 -0.844541 -0.214919
-0.259922 0.362562 0.018299 -0.819362 -0.601557 0.027444
-0.114345 -0.267119 0.095283 -0.173385 -1.020039 -0.044183
0.117577 0.147599 0.105024 -0.016977 -1.032342 0.049855
0.203503 -0.019750 -0.034455 0.014705 -1.000455 -0.054491
-0.059911 -0.049925 0.126582 -0.097504 -1.014443 0.027164
0.086839 -0.206533 0.090141 -0.089294 -1.004508 -0.043224
-0.051106 0.326071 0.097701 -0.046110 -0.991616 -0.016672
-0.037214 0.805572 -0.017158 -0.932807 -0.273500 0.126380
0.119122 0.570549 -0.010165 1.247178 0.015040 -0.208397
-0.016269 -0.457869 0.061637 -0.139865 -1.022617 -0.002518
0.144334 -0.205307 -0.095404 -0.058066 -0.988281 -0.152553
0.156489 0.194522 -0.074830 0.073609 -1.012928 -0.170296
-0.125394 -0.118546 -0.047740 -0.210600 -1.021226 -0.087955
-0.518739 0.111537 0.091455 -0.479925 -0.589905 0.733339
-0.302141 0.254303 -0.004621 -0.760379 -0.617016 0.029005
-0.061331 -0.618443 -0.104875 0.018428 1.111736 0.083817
0.079891 -0.309257 -0.089751 0.117939 -1.015277 -0.235605
-0.378818 0.193048 -0.021166 -0.698606 -0.597394 0.346583
0.235397 0.378540 -0.096587 0.611840 -0.800475 -0.224090
0.155613 -0.579215 0.041640 0.074422 -1.032463 -0.097062
-0.051362 -0.153834 -0.098940 -0.117079 -1.018274 -0.201569
-0.105545 -0.157152 0.107286 -0.055433 -1.072926 0.079539
-0.079648 -0.753300 0.023949 0.046624 1.127623 0.108738
0.023803 -0.036111 -0.133003 -0.204494 -0.985717 -0.123810
0.065931 -0.125819 -0.104019 -0.109977 -1.033588 -0.041525
0.151197 -0.139960 0.105322 -0.063213 -1.030626 -0.031820
-0.109053 -0.304407 -0.050438 -0.196040 -1.019200 -0.117814
-0.013497 0.177140 -0.114284 0.067709 -1.013290 -0.057328
0.350395 0.395899 -0.116758 0.559206 -0.835739 -0.144191
0.082334 0.666885 -0.029262 1.398586 0.061766 -0.238391
-0.119129 -0.674038 -0.006697 0.073831 1.141022 0.094912
0.395778 0.256785 -0.036724 0.709026 -0.686235 0.215945
0.053920 -0.369217 0.028362 -0.010472 -1.009774 -0.091007
-0.219500 0.436338 -0.081505 -0.620774 -0.837751 0.027942
0.108579 0.049395 -0.146723 0.131498 -0.978944 -0.164295
-0.321111 0.307150 -0.094567 -0.838713 -0.614510 -0.040390
0.131648 -0.462283 -0.105270 0.384042 -0.935157 -0.206316
0.065479 0.125385 -0.131214 -0.008646 -1.019114 -0.134958
-0.105964 -0.839647 -0.017861 -0.072159 0.874145 0.398958
0.042494 0.335652 -0.129289 0.126583 -0.998359 -0.224470
-0.080284 0.309172 -0.107209 -0.133348 -1.014871 0.028667
0.232385 0.436013 0.006558 0.316899 -0.922711 -0.217108
0.053849 0.681484 0.087321 -0.159217 1.401958 -0.205067
0.017602 -0.636831 -0.054771 0.012266 1.062592 0.102242
0.150497 0.283432 0.068209 0.056942 -1.033031 -0.069715
0.538858 0.193955 -0.054132 0.583005 -0.615245 0.448140
-0.103790 0.566716 -0.010736 -0.993528 -0.364231 0.123584
0.128813 0.031155 0.116266 0.063512 -0.986261 -0.082443
0.179758 -0.770954 -0.053721 -0.045354 1.211369 -0.001564
-0.119501 0.124560 0.042603 0.028910 -0.990564 -0.051087
0.162549 0.334341 -0.097871 0.226258 -0.962982 -0.224800
0.604974 0.099082 0.071316 0.491750 -0.685975 0.327977
0.091072 0.492369 -0.138051 0.729592 -0.646256 -0.202149
0.295049 0.361163 -0.029368 0.515222 -0.793186 -0.174883
-0.030050 0.494679 -0.127421 1.133282 -0.124249 -0.177344
0.007828 0.194969 0.129713 -0.135215 -0.996142 0.000125
-0.025365 -0.449331 -0.084655 -0.084772 -1.003474 -0.112127
-0.028648 0.585835 -0.084552 0.775776 -0.612760 -0.177384
-0.112805 0.006392 -0.084068 -0.175876 -1.015363 -0.019376
0.039479 -0.213691 0.019329 0.051481 -1.046718 -0.189404
0.165903 -0.681660 -0.071062 -0.037351 1.208725 0.018884
0.163467 0.559881 -0.091360 0.955319 -0.378620 -0.144424
0.094210 -0.708880 0.035894 0.000399 1.143048 0.065335
0.080206 -0.506531 0.019952 -0.126205 -0.994249 -0.160908
-0.285460 0.401408 -0.047218 -0.853704 -0.536980 0.103707
-0.137164 0.038200 0.010001 -0.122742 -0.994103 0.038079
0.196484 0.108712 -0.018092 -0.032431 -1.039056 -0.147976
0.027132 0.842515 -0.086598 0.150434 -1.364720 0.107308
0.019732 0.509139 0.065125 -0.450615 -0.915632 0.031158
0.205943 -0.344097 0.001183 0.066996 -1.018978 -0.197092
-0.127755 -0.481867 -0.050661 0.051055 1.133405 0.111544
-0.059609 -0.864236 0.062399 -0.019601 0.942272 0.264927
0.201196 -0.186592 -0.047951 0.157395 -1.002471 -0.227154
-0.570127 0.031047 -0.018050 -0.692940 -0.599362 0.427044
0.166318 0.013443 -0.105806 0.107646 -0.977014 -0.192682
-0.119810 0.223560 -0.013886 0.046735 -1.011336 -0.110248
0.146230 -0.379811 0.075888 -0.049647 -1.011937 0.086898
0.161141 -0.817516 0.025890 -0.068713 0.973949 0.307143
-0.113966 -0.561954 0.024343 0.047417 1.116586 0.113319
0.470558 0.260685 -0.058793 0.698916 -0.472194 0.492827
0.044099 -0.473301 -0.036429 0.175751 -1.005995 -0.149083
-0.055060 -0.694305 -0.114148 0.038464 1.087049 0.115751
0.205622 -0.077632 0.051634 -0.059150 -0.985953 -0.044667
-0.023627 0.761162 -0.088823 0.132122 -0.923202 -0.139219
-0.086116 -0.633768 0.046358 0.074966 1.170721 0.124622
0.046394 0.131624 0.131117 -0.142667 -1.006089 0.000938
0.198825 -0.621113 -0.043649 0.273415 -0.948262 -0.228463
0.017678 0.349007 0.113313 -0.085006 -0.998734 0.068245
-0.002683 0.840328 0.041513 0.205226 -1.207911 0.043764
0.002681 -0.769233 -0.020620 0.036096 1.102761 0.105829
-0.071379 -0.773940 -0.131133 0.007151 1.116516 0.101217
-0.056040 0.108085 0.106486 -0.066276 -0.985587 -0.022044
-0.105490 0.260854 0.047228 -0.044303 -0.987420 -0.125640
0.152981 -0.531767 -0.100925 0.399775 -0.926513 -0.081750
0.074587 -0.822788 -0.044996 -0.091143 0.942218 0.323216
0.170248 0.114725 0.068593 0.058441 -1.027563 -0.120755
0.055185 -0.643413 0.006032 0.043653 1.112837 0.091125
-0.333482 0.236862 -0.066748 -0.773311 -0.622718 0.031148
0.008265 0.690236 -0.071320 -0.772783 -0.648480 0.077821
-0.018631 -0.216125 -0.084108 -0.188986 -1.006589 -0.127477
-0.453562 0.207278 -0.029617 -0.764791 -0.603446 0.286110
0.092413 0.825351 -0.034820 0.110404 -1.385793 0.109949
0.032493 -0.140125 0.069304 0.096477 -0.995603 -0.090172
0.173791 0.501914 -0.130566 0.779413 -0.614828 -0.236796
-0.052559 0.078240 -0.125983 -0.163907 -1.022589 -0.125022
-0.216711 0.415805 0.034834 -0.818726 -0.605267 0.038693
0.387677 0.342053 -0.090754 0.687385 -0.736783 0.008809
0.200289 -0.114682 -0.048722 0.201328 -0.977234 -0.226205
0.205613 -0.212011 0.020864 0.539136 -0.776472 0.246456
-0.011612 -0.578124 -0.079690 0.021978 1.118653 0.085294
0.114609 -0.869787 0.052894 -0.061064 0.831715 0.483125
0.129748 -0.857667 0.183372 -0.152580 0.715995 0.642768
0.008500 -0.515933 0.023298 0.099386 1.201191 0.140561
0.434285 0.204556 -0.073501 0.670789 -0.584781 0.396799
-0.164064 0.514665 -0.072509 -0.856251 -0.605528 -0.157460
0.172394 0.397370 0.050518 -0.036416 -0.988794 -0.149585
-0.094804 0.398587 0.073240 -0.180248 -0.964394 -0.219585
0.090383 0.805076 0.030080 0.041213 -1.273660 0.089789
0.032258 0.612984 -0.076001 1.089342 -0.118572 -0.193917
0.174037 0.275396 -0.047538 0.024625 -1.003491 -0.134254
0.130633 -0.256663 0.084953 -0.050054 -0.981809 0.032894
-0.152028 0.453279 -0.095756 -0.829855 -0.597674 -0.076623
0.287254 0.432173 -0.135926 0.578577 -0.795551 -0.195527
0.093331 -0.848555 -0.102840 -0.059088 0.825500 0.538429
0.199255 -0.458254 -0.002434 0.581315 -0.807886 -0.271585
0.001495 -0.375028 0.067840 -0.086307 -0.974452 0.040380
-0.068974 -0.258139 -0.089831 -0.195596 -0.979887 -0.177340
0.106303 0.324242 -0.140386 -0.048029 -0.999005 -0.205821
-0.020312 -0.835608 -0.061702 -0.083143 0.852307 0.456864
0.026895 0.629306 0.030966 -0.924277 -0.343553 0.160027
0.182357 0.464296 0.037428 0.713558 -0.736945 -0.158811
-0.105778 -0.541943 -0.086259 0.040789 1.119974 0.112232
-0.107177 0.171493 -0.052024 -0.106635 -1.004884 -0.186386
0.039370 -0.055278 0.124987 -0.074659 -1.011031 0.085668
0.145616 -0.747177 0.028766 -0.015202 1.179538 0.042194
0.143455 -0.356881 -0.085245 0.367187 -0.966332 -0.222570
0.024848 0.437680 0.094584 0.087817 -1.004203 0.001631
-0.131726 -0.271663 0.022680 -0.208915 -1.011436 0.003329
-0.055200 -0.368514 -0.086614 -0.059177 -1.024549 -0.165196
-0.038446 0.017885 -0.140571 0.090159 -0.975704 -0.218893
-0.020496 0.333509 -0.129191 0.368070 -0.861458 -0.236287
-0.113008 -0.023898 0.089599 -0.116076 -1.023948 -0.083221
-0.112771 0.280819 -0.039094 -0.059064 -0.990059 -0.043604
0.081362 0.714190 -0.070717 1.104936 -0.146600 -0.173481
-0.121734 -0.342906 0.068761 -0.135613 -0.991064 -0.061455
-0.036508 0.733564 -0.033976 -0.960970 0.106947 0.230848
0.087333 -0.599439 -0.081349 0.031726 1.146376 0.027150
0.080213 -0.328220 0.067429 -0.007400 -1.000543 0.019135
0.093201 0.774041 -0.082507 0.146785 -1.308165 0.085186
0.076359 0.006277 0.137849 -0.154329 -0.999787 -0.005425
-0.409489 0.233211 -0.064364 -0.679931 -0.605411 0.262338
-0.298803 0.316067 0.006377 -0.781250 -0.595855 0.040413
0.568799 0.151166 0.014968 0.478021 -0.786581 0.281640
0.635555 0.053351 0.023843 0.489680 -0.757516 0.397846
-0.059656 0.515800 0.056407 -0.488684 -0.852889 -0.107704
0.162372 -0.198657 0.091590 0.037471 -0.981893 -0.041941
-0.048361 0.586866 -0.026618 -1.006762 -0.253863 0.267020
0.034225 -0.286412 0.002700 -0.035511 -1.002137 -0.072307
-0.128001 -0.347125 -0.011346 -0.303896 -0.991810 -0.006958
-0.119808 -0.781983 -0.031436 -0.012151 1.146258 0.055277
-0.061734 -0.309360 0.104634 -0.139357 -1.011783 0.015956
0.187072 -0.525366 0.034534 0.258747 -0.989879 -0.127823
-0.002303 -0.590024 0.019509 0.044051 1.125822 0.123750
-0.135188 -0.185674 0.063140 -0.104501 -1.016298 0.063000
0.019949 0.280649 -0.127573 -0.069055 -1.006531 -0.177407
0.068227 -0.004192 -0.156260 -0.051770 -0.999222 -0.164823
-0.160959 0.376504 -0.043006 -0.318127 -0.953619 -0.201134
-0.069486 -0.203186 0.116392 -0.089068 -1.021447 -0.023974
-0.084916 -0.470630 -0.089791 0.052391 1.119709 0.117607
0.001379 0.093695 0.134767 0.022924 -1.033519 0.046374
-0.169669 0.449701 0.045259 -0.857543 -0.577868 -0.012249
0.074785 -0.496002 -0.080985 0.184247 -0.972016 -0.298988
-0.041015 0.054246 0.124224 -0.073277 -1.037769 0.004321
-0.066227 0.448615 -0.129287 0.011606 -1.019853 -0.168715
-0.016354 0.718317 0.058560 -0.117931 1.311725 -0.130232
0.085700 -0.416443 0.040204 -0.001756 -1.010100 -0.069740
-0.104737 -0.670865 -0.095390 0.014324 1.101125 0.086963
0.104533 0.291327 0.103950 0.030490 -0.990868 0.012404
0.521165 0.148922 -0.022663 0.586091 -0.538398 0.574413
0.359397 0.307485 -0.131606 0.713763 -0.684682 0.028052
0.208823 0.516600 0.011113 0.913156 -0.503100 -0.197267
-0.028065 -0.798814 0.048205 -0.013798 1.019772 0.192117
-0.130207 -0.036734 -0.050190 -0.386647 -0.993759 -0.040965
-0.422561 0.200095 0.018150 -0.691567 -0.628874 0.204343
-0.042268 0.235863 0.106872 -0.115037 -0.976917 0.053816
0.350911 0.279795 -0.063752 0.694632 -0.642675 0.129997
0.114426 -0.618530 0.036171 -0.013085 1.185263 0.062597
0.166250 -0.115222 -0.094455 0.043856 -1.012238 -0.158546
-0.061896 -0.490887 0.069542 0.043635 1.132853 0.103760
0.054452 0.843274 0.051935 -0.037385 -0.846536 0.110615
0.342878 0.333704 -0.042617 0.622139 -0.790759 -0.236160
0.576833 0.068288 0.030566 0.595204 -0.543978 0.571242
0.171308 -0.249107 -0.071806 0.167116 -0.953708 -0.221731
0.038456 0.549751 0.030704 0.781344 -0.570625 -0.267873
0.204371 0.406911 -0.059181 0.539824 -0.835931 -0.238616
-0.080787 0.466552 0.072932 -0.834495 0.055259 0.102224
0.079305 0.392625 0.097660 0.168292 -0.983356 0.001580
-0.007283 -0.122570 -0.086500 -0.218724 -0.998727 -0.125822
0.140762 0.194842 0.087868 -0.072426 -0.999211 -0.040335
-0.042753 -0.860460 0.127657 -0.092846 0.858775 0.421205
-0.033438 0.760632 0.014769 -0.352998 1.044646 0.057483
0.203881 -0.398765 0.008580 0.175777 -1.010531 -0.184295
0.183549 -0.248255 0.071665 -0.016202 -1.014792 -0.025608
0.050146 -0.346780 -0.053563 -0.046506 -1.019315 -0.128778
0.529835 0.202662 -0.000987 0.620485 -0.489412 0.606718
0.186765 0.161590 -0.027070 0.019474 -1.039127 -0.028108
0.213316 -0.068016 -0.001158 0.109310 -1.038590 -0.096451
-0.087817 -0.818887 0.053415 -0.061179 0.944620 0.336328
0.111043 -0.827026 0.142839 -0.137556 0.656683 0.757324
-0.031131 -0.038577 -0.131079 -0.098931 -1.042423 -0.077467
0.054594 -0.270457 -0.061902 0.045047 -1.012067 -0.125511
0.008012 -0.117757 0.111972 0.050534 -1.012586 0.011279
0.088627 0.616763 -0.048328 1.122155 -0.325068 -0.166633
-0.259316 0.291339 -0.020879 -0.708951 -0.632749 0.053836
0.189271 -0.031105 0.073524 0.015963 -1.008822 -0.027150
0.103673 0.543029 -0.124426 1.115507 -0.167897 -0.142590
0.172087 0.556142 -0.011277 1.020677 -0.112914 -0.212076
0.057003 0.410036 -0.136415 0.205029 -0.983067 -0.113894
0.585952 0.048656 -0.025665 0.606125 -0.666214 0.415538
0.137764 0.249513 -0.109075 0.041074 -0.986197 -0.155868
0.079379 -0.738479 -0.053467 -0.022192 1.203516 0.025027
0.000034 -0.399435 -0.055364 0.100644 -1.006881 -0.089455
0.203742 0.060322 0.003023 0.220128 -0.986458 -0.090230
0.201556 -0.276556 -0.026131 0.173517 -0.986840 -0.226821
0.004400 -0.245675 0.093301 -0.064926 -1.022609 0.081994
-0.033911 0.810250 -0.071565 -0.367794 -1.005369 0.130946
0.094202 -0.694834 -0.082392 -0.047397 1.198954 0.051281
0.158084 -0.847990 -0.085146 -0.125019 0.777329 0.559662
-0.105419 -0.441472 0.077159 0.132041 1.254860 0.157507
0.080729 -0.559258 0.021829 -0.087498 -1.006297 -0.086284
0.021110 -0.741697 -0.061440 -0.000718 1.144800 0.060208
0.278617 0.486006 -0.029151 0.770343 -0.662605 -0.160418
0.059583 -0.769496 0.009583 -0.024657 1.158346 0.084472
-0.106130 -0.507756 0.047463 0.052158 1.127006 0.114891
0.195404 0.447222 -0.133962 0.772375 -0.616744 -0.250389
-0.350269 0.298465 -0.002983 -0.801791 -0.561023 0.001038
-0.128213 0.145204 -0.004403 -0.072154 -0.984076 0.004781
-0.000364 0.861612 -0.026542 0.078959 -1.360068 0.108986
-0.091980 -0.105527 -0.088020 -0.357416 -0.937718 -0.148165
-0.281162 0.278483 -0.079516 -0.801909 -0.565128 0.070006
0.036594 0.282326 0.123716 -0.103664 -1.004450 0.029667
0.004664 -0.074564 -0.104805 -0.195307 -0.976011 -0.041926
-0.090341 0.151521 0.077396 -0.088329 -0.977449 0.019859
0.411906 0.308885 -0.060213 0.614795 -0.599070 0.284412
-0.023871 0.156008 0.121039 -0.087428 -1.011364 -0.095743
0.022185 -0.189762 0.064444 0.056059 -1.046415 -0.115312
0.131194 -0.786720 -0.112265 -0.026310 1.175233 0.066352
-0.037056 -0.007746 0.142621 -0.059395 -0.994421 0.065346
0.177250 -0.094218 0.090061 -0.106836 -1.023521 0.088208
-0.027039 0.121583 -0.120840 -0.096209 -1.034602 -0.124355
-0.090621 0.090713 -0.093211 -0.125335 -1.053365 -0.037354
-0.011222 0.628222 -0.040956 -0.451575 -0.790813 0.051670
0.193329 0.068252 -0.047598 0.084923 -0.995444 -0.123416
0.201388 -0.580911 -0.013775 0.633319 -0.763688 0.020311
-0.134822 -0.536830 -0.042689 0.092406 1.176318 0.141466
0.489134 0.194083 -0.058471 0.613281 -0.575544 0.461893
0.195458 -0.718416 -0.008378 -0.011838 1.192084 0.040611
0.112282 -0.169473 -0.108572 0.018241 -1.014645 -0.142284
0.234845 0.535825 -0.080107 0.712346 -0.737170 -0.152172
0.175757 -0.465939 -0.082743 0.500473 -0.849005 -0.294019
-0.543454 0.094306 0.052015 -0.485037 -0.482580 0.698391
0.141610 0.581883 -0.052926 1.189901 -0.162171 -0.227266
0.174253 -0.853738 0.056510 -0.102856 0.782356 0.523225
-0.086884 -0.694169 0.024519 0.028641 1.124891 0.090344
0.077242 0.194977 -0.120437 -0.023127 -1.035627 -0.116481
-0.272346 0.334670 -0.096384 -0.815306 -0.549982 0.030905
0.092994 -0.866482 0.103104 -0.149503 0.751024 0.689282
0.063058 -0.088385 0.097701 -0.074088 -0.994525 -0.022571
-0.140401 -0.145109 -0.009459 -0.202897 -1.011488 -0.077973
-0.116912 0.553536 -0.060556 -1.004574 -0.312309 -0.012424
-0.042145 0.373585 0.105171 -0.047788 -1.016794 -0.039104
0.294322 0.466155 -0.101655 0.550449 -0.826426 -0.254160
0.083834 0.101108 0.124548 -0.134423 -1.030590 -0.012114
-0.107579 0.470267 -0.115464 -0.684020 -0.665943 -0.041877
0.196358 0.358917 -0.060005 0.359896 -0.967474 -0.199746
0.083577 0.687247 0.049254 -0.130441 1.394614 -0.171675
0.120488 0.370692 -0.140409 0.391190 -0.885261 -0.190560
0.251575 0.369323 -0.049385 0.619854 -0.779629 -0.219808
0.073822 0.784539 0.070749 -0.141345 1.516714 -0.224641
-0.065390 -0.862912 -0.005859 -0.130298 0.834140 0.440214
-0.431770 0.169373 -0.049957 -0.670987 -0.591466 0.231488
-0.478049 0.165788 -0.031376 -0.566594 -0.557794 0.600164
-0.324006 0.341230 -0.060903 -0.772128 -0.598685 0.012834
-0.082082 0.295499 0.077533 -0.134784 -0.985133 0.033064
-0.117890 -0.181991 -0.042810 -0.227454 -0.998452 -0.164977
0.144953 0.071274 0.095911 0.011434 -1.027691 -0.005727
-0.019114 -0.289864 0.095354 0.077316 -1.049610 -0.025415
-0.181891 0.527504 -0.027639 -0.971713 -0.472773 -0.013065
0.116513 0.533545 0.030411 1.140656 -0.127651 -0.185977
-0.213519 0.358339 0.008216 -0.812008 -0.631266 -0.058257
0.002752 0.533639 -0.118624 1.041639 -0.102255 -0.098206
-0.051863 0.274104 -0.122309 0.042999 -0.993379 -0.161740
0.115135 -0.005496 -0.149571 0.250412 -0.943234 -0.228779
-0.054336 -0.152413 0.122028 -0.006252 -0.994945 0.140010
-0.110567 0.361573 0.044435 -0.087084 -1.016819 -0.188533
0.040068 -0.378683 -0.017006 -0.059438 -1.029546 -0.123276
0.011593 -0.801633 -0.068747 0.023230 1.043924 0.132667
0.177223 0.169718 0.048466 -0.053795 -0.988191 -0.123949
0.194702 -0.068820 -0.057333 0.252998 -0.958582 -0.183682
-0.030787 -0.416760 0.078989 -0.215115 -1.031269 -0.032006
-0.137806 -0.428192 -0.002269 0.072634 1.179559 0.119132
-0.100717 -0.149246 -0.073009 -0.171088 -1.022781 -0.045690
-0.143856 -0.104485 0.027647 -0.098878 -0.981041 -0.118655
0.059935 0.465774 0.082263 -0.011091 -0.984245 -0.103915
-0.138296 -0.008056 0.005708 -0.138672 -1.022027 0.009557
-0.126212 0.447481 0.061382 -0.797267 -0.563893 0.081944
0.209694 -0.031629 0.031896 0.172382 -0.991224 -0.047905
0.062282 -0.061981 -0.132582 -0.161041 -0.985494 -0.158400
0.388885 0.240381 -0.102880 0.631796 -0.670428 0.314306
-0.020206 0.796996 0.040270 -0.082493 1.266329 -0.076825
0.025855 -0.183542 -0.031212 0.110457 -1.036115 -0.124743
0.025597 -0.454265 0.001500 -0.066731 -1.001464 -0.118605
0.095000 -0.534535 -0.096539 0.358496 -0.939012 -0.229109
0.020594 -0.682127 -0.063032 0.010236 1.107100 0.081993
0.062073 0.817145 -0.102796 0.132364 -1.316247 0.112865
0.188646 0.369609 0.017526 0.169964 -1.004176 -0.090143
0.063853 -0.175059 -0.090123 0.251002 -0.964619 -0.219428
0.073706 -0.640044 -0.064652 -0.018387 1.201103 0.032849
0.182893 0.242717 -0.008162 0.018402 -1.028409 -0.146254
-0.103457 -0.861329 0.075195 -0.096924 0.874206 0.414669
0.201290 -0.379533 -0.034815 0.021585 -1.028449 -0.132032
0.269170 0.362359 -0.122867 0.604660 -0.735065 -0.317629
-0.040540 -0.673605 0.021606 0.035371 1.115908 0.100609
0.242759 0.422563 -0.136699 0.551460 -0.811541 -0.211431
0.052917 0.041931 -0.158186 -0.080475 -1.053894 -0.107131
0.174869 -0.810518 -0.031785 -0.013894 1.191051 0.041724
-0.014400 -0.358014 -0.067347 -0.039223 -1.037980 -0.086223
0.165574 0.352600 0.053829 0.068518 -1.048850 -0.074483
-0.070526 0.571637 -0.074364 -0.937856 -0.420499 0.075269
0.322985 0.396462 -0.035009 0.668907 -0.814177 -0.127598
0.175627 0.119995 -0.056656 0.051486 -1.015914 -0.186279
0.044266 -0.254516 0.039724 -0.035837 -1.032024 -0.124572
-0.129548 0.039878 0.057023 -0.071929 -1.043365 -0.011205
0.138838 0.409774 0.078169 0.034462 -1.029067 -0.006076
0.192824 0.079013 0.042622 -0.054011 -0.992823 -0.035407
0.122044 -0.294529 -0.096195 0.244150 -0.954009 -0.249822
-0.001733 0.308462 0.116373 -0.063489 -0.996055 0.081551
0.341155 0.383769 -0.074479 0.660187 -0.774394 -0.059318
0.168916 0.246434 0.050628 -0.081074 -1.000963 -0.141678
0.120968 -0.418839 -0.102863 0.489322 -0.889157 -0.146152
-0.128082 -0.228033 0.075480 -0.154746 -0.991017 0.041795
-0.136859 -0.076519 -0.031048 -0.268954 -0.998714 -0.096568
0.146951 -0.524592 0.055667 0.230219 -0.972583 -0.132164
-0.114708 -0.716969 -0.017643 -0.000493 1.103770 0.070710
-0.024442 -0.076738 0.128913 -0.114119 -1.013680 0.033649
0.068225 -0.285348 0.067597 0.151576 -0.977899 -0.087325
0.608113 0.096235 0.015804 0.580006 -0.655573 0.420991
-0.128936 -0.389839 -0.023675 0.031154 1.133677 0.097782
0.073688 -0.140217 0.085941 -0.033802 -1.013478 0.057035
-0.504713 0.130862 -0.004867 -0.361901 -0.466629 0.668807
-0.118122 0.312208 -0.008292 -0.069733 -0.997055 -0.024510
-0.101523 -0.792061 0.007564 0.048040 1.099057 0.138998
0.090688 -0.780573 -0.085520 -0.032576 1.228876 0.001742
0.186121 -0.385672 0.057898 0.153771 -1.009195 -0.106490
-0.065262 -0.574631 -0.103491 0.072883 1.154119 0.127995
-0.178522 0.418158 -0.095410 -0.775970 -0.594220 0.115001
-0.222084 0.388787 -0.096190 -0.756837 -0.614974 -0.052120
-0.129894 -0.141886 0.074213 -0.144031 -0.998072 0.004422
-0.110448 0.319461 -0.077324 -0.141920 -1.013381 -0.144215
-0.071009 -0.824686 0.093252 -0.031982 0.947972 0.288114
0.202669 0.527753 -0.110531 0.739735 -0.661878 -0.169718
-0.090585 -0.077246 0.112202 -0.066839 -1.008283 0.044034
0.025060 0.712687 0.096508 -0.082422 1.389080 -0.118222
0.190749 -0.636129 0.011224 0.504463 -0.890159 -0.227529
0.137114 -0.705642 0.019380 -0.035831 1.254619 0.000363
-0.127716 -0.636368 -0.026514 -0.041809 1.145255 0.048681
-0.347699 0.217629 -0.003569 -0.705787 -0.820070 -0.024198
-0.112860 -0.354416 -0.051190 -0.320324 -0.994485 -0.069112
0.000794 -0.538600 -0.067383 0.013156 1.116108 0.077707
0.003184 0.237676 0.125318 -0.131594 -1.013096 -0.046256
0.168646 -0.730106 -0.062168 -0.021634 1.220734 0.017290
0.076171 0.452221 -0.141621 0.233307 -1.016200 -0.130419
0.550706 0.115845 0.031410 0.589832 -0.696032 0.340690
0.305243 0.394284 -0.144737 0.518702 -0.787380 -0.309960
-0.107197 0.052750 -0.082315 -0.224162 -1.018469 -0.215221
0.175101 0.301432 0.038196 -0.008611 -1.008706 -0.020959
-0.025416 0.703626 0.006533 -1.004418 -0.322007 0.215027
-0.127692 0.074247 0.030789 -0.070519 -1.016476 -0.072458
-0.236030 0.314588 -0.047954 -0.820390 -0.658987 -0.090546
0.109437 -0.229247 -0.099970 0.007672 -1.049999 -0.153363
0.052110 0.250443 -0.129476 0.269832 -0.958470 -0.215225
0.201910 -0.119618 0.055877 0.029143 -1.012364 -0.047189
0.054947 0.862901 -0.045792 0.123534 -1.274095 0.079571
-0.070980 -0.245130 0.112397 -0.073126 -1.039611 0.030176
0.183588 -0.506835 -0.076751 0.524399 -0.809424 -0.300725
-0.059897 -0.425461 -0.086865 0.050098 1.130504 0.107917
0.500783 0.228105 -0.036849 0.627762 -0.596602 0.549335
0.277034 0.338939 -0.089082 0.668471 -0.765091 -0.251134
0.083870 0.564013 0.011422 1.037431 -0.308337 -0.137723
-0.108541 0.093948 0.073191 -0.094401 -0.959975 0.003112
0.013670 0.207358 -0.123986 0.097346 -0.981735 -0.218883
0.133802 0.251732 0.089668 -0.051752 -1.021831 -0.043827
0.105261 0.782726 -0.036624 0.147128 -1.393099 0.108936
0.018068 -0.551235 0.003236 0.032996 1.110017 0.104653
-0.037084 -0.610817 0.029360 0.051066 1.119874 0.116128
-0.109211 -0.115975 0.102006 -0.046769 -1.013721 0.039983
0.194137 0.411194 0.017782 0.139869 -0.980271 -0.096942
-0.072234 -0.418805 0.088023 0.010457 1.115031 0.074141
-0.240874 0.435318 0.007248 -0.747729 -0.611576 -0.006749
0.140792 0.058858 -0.122305 0.006977 -0.994838 -0.088371
-0.010131 -0.659795 -0.079757 0.029010 1.089604 0.104229
0.198538 0.027316 -0.044075 0.074762 -0.979870 -0.130089
-0.126469 -0.416810 0.051556 0.027105 1.150323 0.080101
0.153011 -0.861183 -0.011727 -0.102750 0.814488 0.386490
0.613906 0.066547 0.095059 0.582571 -0.632827 0.449907
-0.137851 -0.194062 0.014519 -0.216329 -0.988537 -0.057210
0.015984 0.494885 -0.123121 0.884699 -0.433419 -0.144393
-0.455124 0.142556 0.026765 -0.477747 -0.568646 0.567283
0.164535 0.239522 -0.065116 0.024210 -1.008556 -0.092660
-0.421475 0.237938 0.002418 -0.779341 -0.630126 0.082903
-0.040653 -0.760051 0.013249 0.017767 1.139259 0.073808
0.096194 0.213101 0.113185 -0.039129 -1.031939 0.009527
-0.487891 0.131836 0.073712 -0.405490 -0.520775 0.780288
-0.007937 -0.711936 -0.092577 -0.002604 1.128860 0.091844
-0.206883 0.486650 -0.050891 -1.062916 -0.354437 0.083174
0.399411 0.306303 -0.123681 0.572163 -0.866420 -0.067914
0.090792 -0.862661 -0.053283 -0.119669 0.772533 0.550738
-0.042104 0.531245 -0.114088 -0.409651 -0.916478 0.032356
-0.094702 -0.554563 0.059473 0.033529 1.115229 0.098859
0.034613 -0.016282 0.135648 -0.021681 -1.037793 0.084458
0.097754 -0.107805 -0.121872 0.106983 -1.009002 -0.070173
0.175612 -0.024807 -0.096148 0.296708 -0.983454 -0.119765
0.206894 0.007023 -0.004235 0.111945 -1.027285 -0.105554
-0.258166 0.430263 -0.039714 -0.701064 -0.738179 0.013615
0.038221 0.077177 0.133039 -0.010010 -1.055214 -0.038190
-0.024240 -0.848125 0.073444 -0.055358 0.904144 0.364765
0.052181 -0.407976 0.008017 0.000745 -1.002022 -0.052888
0.144880 -0.005467 0.110899 -0.031219 -1.017602 0.087686
-0.000319 0.781940 -0.114247 0.096626 -1.252295 0.075730
0.176550 0.048747 -0.085157 0.151468 -1.003434 -0.042501
0.146866 -0.829829 0.118907 -0.144212 0.729288 0.658149
0.150401 0.156800 0.079774 -0.062813 -1.010132 -0.001854
-0.036647 -0.104569 -0.106949 -0.067493 -1.037407 -0.175997
0.147762 0.122500 -0.095339 -0.004515 -0.986061 -0.115698
0.171596 0.515759 0.025731 0.771424 -0.583236 -0.201041
0.158434 -0.861940 0.151393 -0.154949 0.743390 0.554883
-0.035704 -0.785466 -0.144988 0.006355 1.128982 0.071415
